ply
format ascii 1.0
element vertex 2114
property float32 x
property float32 y
property float32 z
end_header
-10.4876 -48.5651 2.1663
-9.2277 -52.1636 2.3018
-7.2820 -52.6287 2.3018
-5.5497 -55.3693 2.4049
-3.4715 -55.6490 2.4049
-1.3194 -53.3949 2.3002
0.7204 -55.8916 2.4049
2.6898 -53.2351 2.2922
4.7081 -53.3149 2.3016
2.4423 -19.3311 0.8383
3.1762 -19.2803 0.8416
9.8190 -48.2246 2.1227
9.9240 -40.8252 1.8158
11.5372 -40.7263 1.8339
13.2176 -40.7502 1.8616
14.9415 -40.7748 1.8935
16.7158 -40.8001 1.9300
18.5479 -40.8262 1.9714
7.6589 -15.3030 0.7559
7.7514 -14.1340 0.7158
7.6937 -12.8576 0.6691
7.7081 -11.8470 0.6350
7.7210 -10.9437 0.6055
7.7326 -10.1292 0.5801
7.6942 -9.3298 0.5544
7.7633 -8.7236 0.5393
7.7126 -8.0369 0.5185
7.7699 -7.5099 0.5070
7.7775 -6.9713 0.4942
7.9197 -6.5789 0.4913
8.5665 -6.5881 0.5203
9.2821 -6.5983 0.5532
10.1896 -6.6814 0.5974
10.9787 -6.6225 0.6345
12.0010 -6.6370 0.6852
13.1782 -6.6538 0.7448
14.6812 -6.7324 0.8229
16.1827 -6.6966 0.9013
20.9494 -7.7601 1.1612
6.4452 -2.1155 0.3562
6.4489 -1.8512 0.3559
6.4526 -1.5922 0.3561
6.4562 -1.3378 0.3569
6.4598 -1.0870 0.3582
6.4634 -0.8390 0.3601
6.4669 -0.5932 0.3625
6.4703 -0.3488 0.3653
6.4738 -0.1052 0.3687
6.4773 0.1385 0.3727
6.4808 0.3827 0.3772
8.2755 0.8020 0.4878
6.5128 0.8795 0.3894
8.2846 1.4379 0.5030
8.2892 1.7623 0.5118
8.1862 2.0650 0.5146
8.2987 2.4289 0.5319
8.3036 2.7735 0.5434
8.3086 3.1273 0.5560
8.3138 3.4917 0.5697
8.3192 3.8683 0.5846
8.3247 4.2589 0.6008
8.3305 4.6654 0.6184
8.3366 5.0900 0.6377
8.3429 5.5353 0.6587
8.3496 6.0042 0.6817
8.3567 6.5000 0.7069
6.5948 5.5402 0.5791
6.6111 5.9925 0.6040
6.6035 6.4546 0.6292
6.5993 6.9552 0.6574
6.6533 7.5629 0.6949
9.2328 11.3277 1.0140
9.1279 12.1021 1.0577
9.1426 13.1213 1.1217
9.1589 14.2606 1.1948
11.6423 19.7228 1.6221
11.6689 21.5848 1.7457
14.2440 28.8986 2.3018
13.0947 29.2997 2.3018
12.4737 30.9927 2.4049
11.2604 31.3354 2.4049
10.0419 31.6402 2.4049
7.6037 27.5103 2.0735
7.5926 32.1367 2.4049
6.3632 32.3287 2.4049
4.0182 25.4350 1.8830
3.8987 32.6010 2.4049
2.6649 32.6815 2.4049
1.4311 32.7251 2.4049
0.1977 32.7317 2.4049
-1.0344 32.7016 2.4049
-2.2646 32.6347 2.4049
-3.4923 32.5312 2.4049
-4.7169 32.3911 2.4049
-5.9375 32.2143 2.4049
-7.1537 32.0010 2.4049
-8.3645 31.7510 2.4049
-9.5696 31.4645 2.4049
-10.7680 31.1412 2.4049
-9.5226 24.5102 1.9149
-9.5459 22.0700 1.7468
-9.7157 20.3260 1.6320
-9.5974 18.2763 1.4908
-11.8252 20.5957 1.7094
-9.7659 15.6164 1.3209
-13.7164 20.1999 1.7443
-9.7248 13.2216 1.1676
-9.7879 12.3083 1.1137
-9.8319 11.4509 1.0638
-14.3454 15.4878 1.4806
-14.9767 14.9954 1.4786
-23.7367 22.0411 2.2474
-9.7945 8.4310 0.8914
-24.0163 19.1477 2.1059
-16.9502 12.5003 1.4349
-25.7547 17.5363 2.1090
-9.7615 6.1220 0.7746
-13.5953 7.8294 1.0473
-31.5024 16.5958 2.3598
-22.5836 10.8320 1.6476
-20.1842 8.7628 1.4364
-9.7980 3.8223 0.6811
-31.7417 11.0257 2.1585
-20.1826 6.1700 1.3445
-33.8569 8.9724 2.2124
-17.7850 4.0037 1.1415
-32.3981 6.0226 2.0452
-9.7922 1.4415 0.6088
-33.2469 3.6228 2.0382
-39.1148 2.7785 2.3676
-15.2733 0.5087 0.9140
-40.2609 -0.1744 2.3849
-40.6191 -1.7051 2.3849
-9.8212 -0.7832 0.5723
-9.8424 -1.1588 0.5700
-41.3822 -6.4580 2.3849
-41.5262 -8.0908 2.3849
-38.2289 -8.9526 2.1910
-41.6371 -11.4183 2.3849
-9.8545 -3.1054 0.5649
-9.8586 -3.5194 0.5666
-41.3322 -16.5320 2.3849
-37.6097 -16.7097 2.1825
-32.7890 -16.0766 2.3231
-10.0897 -5.4268 0.7227
-9.9270 -5.8307 0.7203
-31.5768 -20.1808 2.3256
-31.4206 -21.7868 2.3537
-30.6160 -22.9800 2.3379
-9.9599 -8.0785 0.7771
-10.0881 -8.8315 0.8062
-27.4696 -25.9352 2.2547
-10.0440 -10.2238 0.8491
-26.6964 -29.3005 2.3317
-25.8496 -30.6069 2.3403
-6.4876 -8.2951 0.6110
-5.8389 -8.0735 0.5744
-10.0552 -15.0649 1.0376
-21.9233 -35.6814 2.3849
-16.8895 -29.9576 1.9473
-10.2035 -19.8031 1.2546
-5.0997 -10.8839 0.6734
-4.6197 -10.9087 0.6606
-4.1526 -10.9329 0.6492
-3.6967 -10.9565 0.6392
-3.2503 -10.9795 0.6306
-3.2915 -12.8785 0.7295
-8.8790 -41.1258 2.3018
-7.3473 -41.5437 2.3018
-6.0540 -43.7648 2.4049
-4.4137 -44.0480 2.4049
-2.7596 -44.2526 2.4049
-1.0959 -44.3776 2.4049
0.5730 -44.4226 2.4049
2.1466 -42.4814 2.3016
3.7415 -42.3705 2.3016
2.4421 -19.3311 1.0548
3.1756 -19.2789 1.0585
8.5140 -41.8201 2.3149
9.9240 -40.8303 2.2828
11.5357 -40.7263 2.3041
13.0132 -40.1258 2.3016
14.4723 -39.5002 2.3016
15.8971 -38.8077 2.3016
17.2842 -38.0507 2.3016
7.6588 -15.3055 0.9462
7.7513 -14.1363 0.8950
7.6937 -12.8598 0.8357
7.7081 -11.8491 0.7921
7.7209 -10.9457 0.7544
7.7325 -10.1311 0.7217
7.6942 -9.3316 0.6888
7.7659 -8.7284 0.6694
7.7126 -8.0386 0.6423
7.7699 -7.5116 0.6272
7.7775 -6.9729 0.6103
7.9177 -6.5789 0.6056
8.5643 -6.5881 0.6402
9.2794 -6.5983 0.6797
10.1865 -6.6814 0.7327
10.9752 -6.6224 0.7769
11.9969 -6.6370 0.8375
13.1733 -6.6537 0.9087
14.6811 -6.7351 1.0026
16.1755 -6.6965 1.0955
20.9493 -7.7637 1.4097
6.8057 -2.2350 0.4558
7.8044 -2.2416 0.5210
8.2351 -2.0335 0.5488
6.5025 -1.3485 0.4333
8.2635 -1.3918 0.5515
8.2679 -1.0747 0.5534
8.2723 -0.7602 0.5560
6.4953 -0.3513 0.4391
8.2621 -0.1356 0.5625
8.2666 0.1753 0.5676
8.2710 0.4871 0.5735
8.2755 0.8006 0.5803
6.5128 0.8784 0.4625
8.2845 1.4365 0.5965
8.2892 1.7608 0.6060
8.1862 2.0636 0.6086
8.2986 2.4274 0.6281
8.3036 2.7719 0.6409
8.3086 3.1257 0.6548
8.3138 3.4901 0.6700
8.3191 3.8667 0.6867
8.3247 4.2573 0.7048
8.3305 4.6637 0.7247
8.3365 5.0883 0.7464
8.3429 5.5335 0.7701
8.3496 6.0023 0.7962
8.3566 6.4981 0.8247
6.5966 5.5402 0.6752
6.6129 5.9924 0.7035
6.6051 6.4546 0.7322
6.5993 6.9534 0.7642
6.6549 7.5628 0.8072
9.2339 11.3265 1.1768
9.1279 12.0993 1.2264
9.1426 13.1184 1.2998
9.1589 14.2575 1.3834
11.6423 19.7184 1.8771
11.3231 20.9406 1.9590
6.5760 13.3387 1.2282
11.3345 25.3557 2.3016
10.3392 25.6838 2.3016
9.3377 25.9795 2.3016
8.3307 26.2431 2.3017
7.3191 26.4746 2.3017
6.3033 26.6736 2.3017
5.2842 26.8403 2.3016
4.2628 26.9764 2.3017
3.3845 28.2937 2.4049
2.3140 28.3685 2.4049
1.2429 28.4101 2.4049
0.1720 28.4186 2.4049
-0.8980 28.3941 2.4049
-1.9664 28.3366 2.4049
-3.0325 28.2461 2.4049
-4.0957 28.1227 2.4049
-5.1551 27.9665 2.4049
-6.2103 27.7775 2.4049
-6.9485 26.3726 2.3016
-7.9479 26.1290 2.3016
-8.9411 25.8540 2.3016
-9.5226 24.5065 2.2078
-9.5462 22.0673 2.0147
-9.5739 20.0260 1.8554
-9.5977 18.2739 1.7208
-9.7797 17.0302 1.6325
-9.7678 15.6167 1.5263
-15.9504 23.4857 2.3446
-9.7265 13.2215 1.3506
-9.7883 12.3064 1.2889
-9.8339 11.4508 1.2321
-19.3075 20.8406 2.3091
-15.1084 15.1239 1.7296
-19.2539 17.8743 2.1155
-9.7967 8.4309 1.0356
-20.5857 16.4083 2.0982
-16.9721 12.5131 1.6716
-23.1172 15.7359 2.2044
-9.7617 6.1203 0.9029
-13.6015 7.8305 1.2225
-20.4076 10.7472 1.7855
-22.0628 10.5782 1.8820
-20.2448 8.7855 1.6863
-9.7979 3.8205 0.7982
-26.7372 9.2827 2.1332
-18.1644 5.5499 1.4214
-18.4420 4.8841 1.4174
-17.8130 4.0069 1.3465
-27.7065 5.1457 2.0627
-9.8283 1.4452 0.7216
-31.6443 3.4429 2.2942
-32.1502 2.2784 2.3047
-15.2770 0.5062 1.0843
-28.3222 -0.1274 1.9928
-32.5330 -1.3712 2.2724
-9.8569 -0.7877 0.6844
-32.2587 -3.8033 2.2295
-33.8691 -5.2914 2.3333
-34.3373 -6.6961 2.3612
-34.3056 -8.0399 2.3581
-33.6144 -9.2242 2.3131
-9.8899 -3.1183 0.6823
-31.6302 -11.2971 2.1913
-31.4794 -12.5969 2.1935
-31.6219 -14.0554 2.2199
-27.8579 -13.6643 2.3193
-10.0863 -5.4270 0.8501
-9.9271 -5.8327 0.8486
-10.0553 -6.4284 0.8735
-23.6844 -16.4277 2.0952
-22.7685 -17.0948 2.0557
-9.9597 -8.0807 0.9199
-10.0880 -8.8338 0.9555
-24.1350 -22.7928 2.3507
-10.0413 -10.2237 1.0084
-22.4752 -24.6736 2.3346
-21.8402 -25.8658 2.3542
-6.4850 -8.2936 0.7280
-5.8384 -8.0746 0.6853
-10.0537 -15.0661 1.2392
-17.7397 -28.8786 2.3071
-15.9153 -28.2357 2.1958
-10.2014 -19.8034 1.5023
-5.0966 -10.8796 0.8068
-4.6169 -10.9045 0.7920
-4.1501 -10.9287 0.7789
-3.6945 -10.9523 0.7675
-3.2484 -10.9753 0.7576
-3.2913 -12.8806 0.8774
-7.3774 -34.1782 2.3018
-6.2689 -35.4544 2.3648
-5.0256 -36.3401 2.4049
-3.6626 -36.5629 2.4049
-2.2892 -36.7229 2.4049
-0.9087 -36.8192 2.4049
0.4757 -36.8516 2.4049
1.8606 -36.8198 2.4049
3.2427 -36.7238 2.4049
2.4419 -19.3311 1.2714
3.1751 -19.2776 1.2757
7.3392 -36.0539 2.4049
8.6773 -35.7055 2.4049
9.9963 -35.2964 2.4049
11.2933 -34.8274 2.4049
12.5654 -34.3005 2.4049
6.6301 -16.1877 1.1546
15.0233 -33.0785 2.4049
7.6588 -15.3079 1.1367
7.7513 -14.1387 1.0745
7.6936 -12.8620 1.0025
7.7080 -11.8512 0.9494
7.7209 -10.9477 0.9035
7.7325 -10.1331 0.8636
7.6941 -9.3335 0.8235
7.7685 -8.7332 0.7997
7.7126 -8.0403 0.7663
7.7698 -7.5133 0.7475
7.7775 -6.9745 0.7266
7.9157 -6.5788 0.7201
8.5620 -6.5881 0.7604
9.2768 -6.5982 0.8062
10.1835 -6.6813 0.8680
10.9717 -6.6224 0.9193
11.9928 -6.6369 0.9898
13.1684 -6.6537 1.0726
14.6811 -6.7377 1.1824
16.1683 -6.6964 1.2899
20.9493 -7.7674 1.6585
6.8057 -2.2362 0.5355
6.5032 -1.8690 0.5095
8.2351 -2.0349 0.6433
6.4968 -1.3484 0.5069
8.2607 -1.3928 0.6446
8.2651 -1.0757 0.6460
8.2695 -0.7614 0.6484
6.4952 -0.3524 0.5116
8.2621 -0.1370 0.6546
8.2665 0.1739 0.6597
8.2710 0.4857 0.6659
8.2755 0.7992 0.6729
6.5128 0.8773 0.5357
8.2845 1.4350 0.6902
8.2891 1.7594 0.7005
8.1862 2.0621 0.7026
8.2986 2.4259 0.7245
8.3035 2.7704 0.7384
8.3086 3.1242 0.7537
8.3138 3.4885 0.7705
8.3191 3.8651 0.7889
8.3247 4.2556 0.8091
8.3305 4.6620 0.8311
8.3365 5.0866 0.8553
8.3429 5.5318 0.8817
8.3495 6.0005 0.9108
8.3566 6.4962 0.9427
6.5984 5.5402 0.7714
6.6146 5.9924 0.8033
6.6068 6.4545 0.8354
6.5993 6.9516 0.8711
9.7883 11.1210 1.3525
6.5939 8.0862 0.9567
9.1279 12.0965 1.3954
9.1427 13.1154 1.4781
9.1589 14.2543 1.5724
10.9988 18.6245 2.0146
6.9513 12.8528 1.3656
6.5613 13.3061 1.3910
10.1779 22.7635 2.3449
9.2876 23.0664 2.3449
8.3908 23.3399 2.3449
7.2299 22.7701 2.2639
6.4594 23.3597 2.3016
5.5644 23.5418 2.3017
4.6661 23.6951 2.3017
3.7648 23.8195 2.3017
2.8830 24.0944 2.3190
2.0444 25.0556 2.4049
1.0983 25.0949 2.4049
0.1523 25.1043 2.4049
-0.7931 25.0838 2.4049
-1.7371 25.0333 2.4049
-2.6791 24.9530 2.4049
-3.6183 24.8429 2.4049
-4.5540 24.7030 2.4049
-5.4857 24.5335 2.4049
-6.1370 23.2895 2.3016
-7.0186 23.0705 2.3016
-7.8941 22.8234 2.3016
-8.7629 22.5480 2.3016
-9.5465 22.0646 2.2830
-9.5742 20.0236 2.1032
-9.5981 18.2715 1.9512
-9.6174 16.7447 1.8208
-9.6372 15.4052 1.7087
-9.7891 14.4110 1.6333
-9.7283 13.2214 1.5340
-9.7887 12.3045 1.4643
-9.6966 11.2886 1.3810
-16.8679 18.2034 2.2942
-15.3481 15.3604 1.9993
-17.9147 16.6272 2.2410
-9.7989 8.4307 1.1800
-19.0835 15.2071 2.2173
-19.7205 14.5355 2.2155
-20.2120 13.7544 2.2000
-9.7620 6.1185 1.0314
-13.6101 7.8329 1.3983
-12.4878 6.5741 1.2499
-21.1091 10.1171 2.0617
-22.7845 9.8835 2.1748
-9.7977 3.8187 0.9154
-17.7982 6.1761 1.6301
-18.5140 5.6535 1.6646
-25.7152 6.8060 2.2730
-17.8429 4.0106 1.5527
-26.3217 4.8841 2.2580
-9.8283 1.4435 0.8323
-27.5494 2.9927 2.3062
-27.2180 1.9242 2.2552
-15.2807 0.5038 1.2549
-25.7012 -0.1200 2.0948
-25.7541 -1.0898 2.0862
-9.8569 -0.7894 0.7946
-29.0520 -3.4303 2.3339
-29.1088 -4.5527 2.3336
-28.9949 -5.6593 2.3230
-28.8664 -6.7703 2.3146
-28.8957 -7.9345 2.3222
-9.8900 -3.1201 0.7979
-28.7208 -10.2633 2.3295
-28.5285 -11.4214 2.3302
-10.0237 -4.4573 0.8259
-24.3264 -11.9368 2.3276
-10.0829 -5.4272 0.9775
-9.9271 -5.8348 0.9770
-10.0467 -6.4250 1.0058
-22.5742 -15.6625 2.3035
-21.8827 -16.4346 2.2810
-9.9595 -8.0828 1.0630
-10.0724 -8.8226 1.1034
-20.8376 -19.6840 2.3492
-10.0397 -10.2246 1.1681
-19.8011 -21.7433 2.3849
-19.0661 -22.5858 2.3849
-6.4823 -8.2921 0.8451
-10.1453 -14.0342 1.3839
-10.0532 -15.0686 1.4411
-15.7755 -25.6868 2.3878
-10.1537 -18.0178 1.6315
-10.1133 -19.6365 1.7357
-5.0935 -10.8752 0.9402
-4.6141 -10.9002 0.9235
-4.1476 -10.9245 0.9088
-3.6923 -10.9481 0.8959
-3.2464 -10.9712 0.8848
-3.2911 -12.8827 1.0257
-6.3084 -29.2326 2.3018
-5.4495 -30.8277 2.4049
-4.2947 -31.0627 2.4049
-3.1291 -31.2457 2.4049
-1.9552 -31.3764 2.4049
-0.7758 -31.4543 2.4049
0.4066 -31.4789 2.4049
1.5894 -31.4502 2.4049
2.7697 -31.3682 2.4049
2.4417 -19.3312 1.4885
3.1745 -19.2763 1.4932
6.2700 -30.8050 2.4049
7.4145 -30.5133 2.4049
8.5436 -30.1708 2.4049
9.6548 -29.7785 2.4049
10.2851 -28.0799 2.3018
6.6301 -16.1901 1.3496
12.3064 -27.1006 2.3017
7.6588 -15.3103 1.3275
7.7513 -14.1410 1.2542
7.6936 -12.8642 1.1696
7.7080 -11.8533 1.1071
7.7209 -10.9497 1.0529
7.7325 -10.1350 1.0057
7.6941 -9.3353 0.9583
7.7712 -8.7380 0.9304
7.7125 -8.0420 0.8906
7.7698 -7.5149 0.8680
7.7775 -6.9762 0.8431
7.9137 -6.5788 0.8346
8.5597 -6.5880 0.8806
9.2742 -6.5982 0.9329
10.1804 -6.6813 1.0036
10.9682 -6.6223 1.0619
11.9886 -6.6369 1.1423
13.1635 -6.6536 1.2367
14.5275 -6.6698 1.3484
16.1611 -6.6963 1.4845
20.9492 -7.7711 1.9077
6.5506 -2.1534 0.5924
6.4991 -1.8689 0.5846
8.2351 -2.0363 0.7380
6.4910 -1.3483 0.5804
8.2579 -1.3937 0.7378
8.2624 -1.0767 0.7388
8.2668 -0.7625 0.7408
6.4952 -0.3535 0.5842
8.2621 -0.1384 0.7468
8.2665 0.1725 0.7520
8.2710 0.4843 0.7583
8.2754 0.7977 0.7657
6.5127 0.8761 0.6090
8.2845 1.4336 0.7841
8.2891 1.7579 0.7951
8.1861 2.0607 0.7969
8.2986 2.4244 0.8210
8.3035 2.7689 0.8361
8.3085 3.1226 0.8528
8.3137 3.4869 0.8712
8.3191 3.8635 0.8913
8.3247 4.2540 0.9135
8.3305 4.6603 0.9377
8.3365 5.0848 0.9643
8.3428 5.5300 0.9935
8.3495 5.9986 1.0256
8.3566 6.4942 1.0609
6.6003 5.5402 0.8679
12.2404 11.0861 1.6709
6.6085 6.4545 0.9388
6.5993 6.9498 0.9781
8.2716 9.3955 1.2828
6.6235 8.1206 1.0781
9.1279 12.0938 1.5647
9.1427 13.1125 1.6567
9.1590 14.2512 1.7617
9.5499 16.1674 1.9590
6.9528 12.8527 1.5292
6.5424 13.2649 1.5522
8.5243 19.0610 2.1972
7.7809 19.3204 2.1972
7.0315 19.5548 2.1972
6.5750 20.7032 2.3016
5.7795 20.8965 2.3017
4.9798 21.0637 2.3017
4.1766 21.2045 2.3017
3.3705 21.3190 2.3018
2.5816 21.5695 2.3192
1.8308 22.4305 2.4049
0.9838 22.4676 2.4049
0.1366 22.4774 2.4049
-0.7100 22.4597 2.4049
-1.5554 22.4148 2.4049
-2.3990 22.3426 2.4049
-3.2400 22.2432 2.4049
-4.0777 22.1167 2.4049
-4.9115 21.9630 2.4049
-5.5001 20.8698 2.3041
-6.2826 20.6485 2.3016
-7.0652 20.4241 2.3016
-7.8415 20.1740 2.3016
-8.6106 19.8984 2.3016
-9.3719 19.5974 2.3016
-9.5984 18.2691 2.1820
-9.6174 16.7418 2.0367
-9.6375 15.4029 1.9119
-9.6546 14.2104 1.8029
-9.6695 13.1390 1.7071
-9.7331 12.2322 1.6308
-9.6964 11.2861 1.5472
-15.4746 16.6963 2.3591
-14.8749 14.8835 2.1728
-9.8391 9.1298 1.3808
-9.8012 8.4306 1.3247
-17.8702 14.2365 2.3316
-18.4378 13.5863 2.3273
-13.1597 8.9527 1.6102
-9.7622 6.1168 1.1602
-12.2039 7.0213 1.4113
-12.5110 6.5840 1.4102
-14.6385 7.0132 1.6110
-9.8989 4.2922 1.0654
-9.7976 3.8170 1.0328
-17.7973 6.1727 1.8404
-18.5193 5.6519 1.8813
-21.5487 5.6995 2.1537
-18.1653 4.0800 1.7886
-24.0832 4.4646 2.3395
-9.8283 1.4419 0.9432
-24.4506 2.6519 2.3214
-24.6338 1.7374 2.3168
-15.2833 0.5013 1.4259
-22.5630 -0.1092 2.0909
-22.4783 -0.9550 2.0720
-9.8569 -0.7911 0.9050
-24.8884 -2.9429 2.2791
-25.1003 -3.9301 2.2958
-25.3661 -4.9555 2.3207
-25.4477 -5.9729 2.3322
-25.2970 -6.9508 2.3258
-9.8901 -3.1219 0.9136
-25.0582 -8.9591 2.3294
-24.6996 -9.8932 2.3144
-10.0252 -4.4599 0.9484
-21.9698 -10.7848 2.3758
-10.0795 -5.4273 1.1052
-9.9271 -5.8368 1.1058
-10.0387 -6.4220 1.1382
-20.6218 -14.3123 2.3849
-20.1733 -15.1553 2.3849
-9.9594 -8.0850 1.2063
-10.0708 -8.8235 1.2529
-18.5963 -17.5714 2.3825
-10.0382 -10.2258 1.3281
-10.1085 -11.1027 1.3853
-16.7465 -19.8427 2.3849
-6.4796 -8.2906 0.9623
-10.1437 -14.0352 1.5772
-10.0532 -15.0720 1.6435
-10.0729 -16.4049 1.7397
-10.0913 -17.9111 1.8512
-10.1135 -19.6411 1.9825
-5.0904 -10.8709 1.0737
-4.6113 -10.8959 1.0551
-4.1451 -10.9202 1.0387
-3.6901 -10.9439 1.0244
-3.2445 -10.9670 1.0120
-3.2909 -12.8848 1.1742
-5.7553 -26.6754 2.4049
-4.7573 -26.9185 2.4049
-3.7483 -27.1178 2.4049
-2.7304 -27.2728 2.4049
-1.7058 -27.3830 2.4049
-0.6765 -27.4480 2.4049
0.3551 -27.4676 2.4049
1.3869 -27.4415 2.4049
2.4166 -27.3700 2.4049
2.4415 -19.3312 1.7058
3.1634 -19.2108 1.7053
2.9165 -14.3307 1.2819
6.1934 -25.4910 2.3017
7.1376 -25.2091 2.3017
8.0676 -24.8865 2.3016
8.9813 -24.5239 2.3016
6.6300 -16.1925 1.5450
10.8380 -23.8707 2.3199
7.6587 -15.3127 1.5187
7.6773 -14.0084 1.4207
7.6936 -12.8664 1.3370
7.7133 -11.8635 1.2659
7.7209 -10.9517 1.2026
7.7325 -10.1369 1.1481
7.6941 -9.3372 1.0935
7.7738 -8.7428 1.0614
7.7125 -8.0437 1.0150
7.7698 -7.5166 0.9888
7.7775 -6.9778 0.9598
7.9116 -6.5788 0.9494
8.5574 -6.5880 1.0010
9.2716 -6.5981 1.0598
10.1773 -6.6813 1.1393
10.9646 -6.6223 1.2047
11.9845 -6.6368 1.2950
13.1586 -6.6535 1.4010
14.5288 -6.6730 1.5272
16.1539 -6.6962 1.6793
20.9492 -7.7747 2.1575
6.5469 -2.1534 0.6691
6.4950 -1.8689 0.6598
8.2350 -2.0377 0.8328
6.4853 -1.3482 0.6539
8.2551 -1.3946 0.8312
8.2596 -1.0778 0.8317
8.2640 -0.7637 0.8333
6.4952 -0.3546 0.6569
8.2621 -0.1398 0.8392
8.2665 0.1711 0.8445
8.2709 0.4828 0.8510
8.2754 0.7963 0.8587
6.5127 0.8750 0.6825
8.2845 1.4322 0.8781
8.2891 1.7564 0.8898
8.1861 2.0592 0.8913
8.2986 2.4229 0.9177
8.3035 2.7674 0.9341
8.3085 3.1211 0.9521
8.3137 3.4854 0.9720
8.3191 3.8619 0.9940
8.3246 4.2523 1.0181
8.3304 4.6586 1.0445
8.3365 5.0831 1.0736
8.3428 5.5282 1.1055
8.3495 5.9968 1.1407
8.3565 6.4923 1.1794
6.6021 5.5401 0.9646
7.8609 7.1177 1.1918
6.6102 6.4545 1.0424
6.5739 6.9214 1.0812
8.2715 9.3931 1.4229
6.6250 8.1206 1.1957
9.1279 12.0910 1.7343
9.1427 13.1096 1.8357
9.1590 14.2481 1.9514
9.2327 15.6271 2.0972
6.9543 12.8527 1.6932
6.5424 13.2620 1.7178
7.8492 17.5478 2.2385
7.0435 17.4856 2.2001
6.5039 18.0834 2.2476
5.9467 18.7208 2.3016
5.2282 18.8990 2.3017
4.5055 19.0532 2.3017
3.7794 19.1833 2.3017
3.0503 19.2894 2.3018
2.4229 20.2387 2.4049
1.6573 20.2988 2.4049
0.8907 20.3337 2.4049
0.1239 20.3436 2.4049
-0.6425 20.3281 2.4049
-1.4078 20.2877 2.4049
-2.1714 20.2222 2.4049
-2.9327 20.1316 2.4049
-3.6908 20.0160 2.4049
-4.4452 19.8756 2.4049
-5.1952 19.7104 2.4049
-5.6851 18.6824 2.3016
-6.3926 18.4770 2.3016
-7.0940 18.2482 2.3016
-7.7885 17.9960 2.3016
-8.4757 17.7204 2.3016
-9.1547 17.4218 2.3016
-9.6174 16.7389 2.2530
-9.6377 15.4005 2.1155
-9.6548 14.2080 1.9954
-9.6693 13.1363 1.8898
-9.6834 12.1673 1.7966
-9.6962 11.2836 1.7139
-9.7410 10.5077 1.6455
-14.4154 14.4206 2.3341
-14.9939 13.9099 2.3333
-9.8034 8.4304 1.4699
-15.8959 12.6604 2.3016
-9.8606 7.2640 1.3818
-13.0554 8.8792 1.7743
-9.7624 6.1151 1.2892
-18.2727 10.5094 2.3491
-13.9830 7.3561 1.7530
-19.2517 9.2199 2.3577
-9.8977 4.2899 1.1860
-9.7974 3.8152 1.1505
-17.7960 6.1691 2.0511
-18.5258 5.6507 2.0988
-18.0426 4.7691 2.0121
-21.3372 4.7887 2.3457
-21.5591 3.9930 2.3397
-9.8283 1.4402 1.0544
-21.7615 2.3566 2.3110
-21.3840 1.5046 2.2510
-9.9499 0.3246 1.0397
-20.4836 -0.1026 2.1274
-20.4643 -0.8729 2.1155
-9.8569 -0.7928 1.0156
-21.2443 -2.5157 2.1847
-22.1387 -3.4702 2.2756
-22.8680 -4.4715 2.3528
-22.8928 -5.3773 2.3610
-22.8648 -6.2866 2.3674
-9.8902 -3.1238 1.0296
-22.6170 -8.0904 2.3711
-10.0190 -4.0149 1.0595
-10.0105 -4.4553 1.0695
-19.7716 -9.7096 2.3849
-10.0761 -5.4275 1.2330
-9.9272 -5.8389 1.2348
-10.0374 -6.4233 1.2715
-18.4465 -12.8066 2.3849
-18.0356 -13.5534 2.3849
-9.9592 -8.0871 1.3500
-10.0691 -8.8245 1.4026
-16.6161 -15.7044 2.3849
-10.0368 -10.2269 1.4884
-15.5186 -17.0491 2.3849
-10.2027 -12.0920 1.6301
-6.4769 -8.2891 1.0797
-10.0371 -13.8909 1.7526
-10.0532 -15.0754 1.8465
-10.0728 -16.4083 1.9553
-10.0915 -17.9154 2.0815
-10.1137 -19.6458 2.2300
-5.0872 -10.8666 1.2074
-4.6085 -10.8917 1.1869
-4.1426 -10.9160 1.1688
-3.6879 -10.9397 1.1530
-3.2426 -10.9628 1.1394
-3.2907 -12.8869 1.3231
-5.1063 -23.6728 2.4049
-4.2200 -23.8839 2.4049
-3.3244 -24.0568 2.4049
-2.4212 -24.1910 2.4049
-1.5123 -24.2860 2.4049
-0.5996 -24.3416 2.4049
0.3151 -24.3576 2.4049
1.2299 -24.3339 2.4049
2.1428 -24.2704 2.4049
2.4413 -19.3312 1.9236
3.1616 -19.2016 1.9220
2.9162 -14.3306 1.4454
5.4927 -22.6102 2.3016
6.3812 -22.5406 2.3199
7.2138 -22.2560 2.3199
8.0324 -21.9361 2.3199
6.6300 -16.1949 1.7408
9.6211 -21.1939 2.3199
7.6587 -15.3152 1.7103
7.6773 -14.0107 1.5995
7.6935 -12.8686 1.5048
7.7079 -11.8575 1.4233
7.7221 -10.9555 1.3528
7.7324 -10.1388 1.2909
7.6941 -9.3390 1.2290
7.7765 -8.7476 1.1928
7.7125 -8.0455 1.1398
7.7698 -7.5183 1.1098
7.7774 -6.9794 1.0768
7.9096 -6.5788 1.0643
8.5551 -6.5880 1.1217
9.2689 -6.5981 1.1869
10.0506 -6.6000 1.2598
10.9611 -6.6222 1.3477
11.9803 -6.6367 1.4479
13.1537 -6.6534 1.5656
14.5229 -6.6730 1.7056
16.1467 -6.6961 1.8743
12.1112 -4.4969 1.3920
6.5433 -2.1533 0.7459
6.4909 -1.8688 0.7350
8.2350 -2.0391 0.9278
6.4811 -1.3484 0.7277
8.2523 -1.3956 0.9247
8.2568 -1.0788 0.9247
8.2612 -0.7648 0.9260
6.4952 -0.3557 0.7298
8.2621 -0.1412 0.9318
8.2665 0.1697 0.9372
8.2709 0.4814 0.9438
8.2754 0.7949 0.9519
6.5127 0.8739 0.7562
8.2844 1.4307 0.9724
6.5199 1.3804 0.7746
8.1861 2.0577 0.9859
8.2986 2.4214 1.0147
8.3035 2.7658 1.0322
8.3085 3.1195 1.0517
6.5393 2.7402 0.8441
8.3191 3.8603 1.0968
8.3246 4.2506 1.1229
8.3304 4.6569 1.1516
8.3364 5.0813 1.1831
8.1788 5.4178 1.1939
7.9233 5.6889 1.1919
7.6711 5.9580 1.1916
6.5685 5.5104 1.0559
6.5599 5.9381 1.0938
6.5666 6.4103 1.1386
6.5856 6.9320 1.1905
6.5503 7.4366 1.2380
6.6266 8.1206 1.3136
9.1280 12.0882 1.9043
9.1432 13.1072 2.0151
9.1604 14.2470 2.1418
9.1816 15.5370 2.2882
8.7804 16.2242 2.3449
6.5423 13.2590 1.8838
7.0913 15.8498 2.2172
6.5081 16.1528 2.2283
6.0772 16.8935 2.3016
5.4269 17.0809 2.3017
4.7720 17.2461 2.3017
4.1130 17.3891 2.3017
3.4505 17.5100 2.3017
2.7852 17.6085 2.3018
2.2126 18.4767 2.4049
1.5136 18.5329 2.4049
0.8137 18.5658 2.4049
0.1134 18.5755 2.4049
-0.5865 18.5619 2.4049
-1.2855 18.5251 2.4049
-1.9829 18.4650 2.4049
-2.6780 18.3819 2.4049
-3.3702 18.2757 2.4049
-4.0590 18.1465 2.4049
-4.7435 17.9943 2.4049
-5.4232 17.8193 2.4049
-5.8358 16.8650 2.3016
-6.4752 16.6541 2.3016
-7.1083 16.4216 2.3016
-7.7343 16.1678 2.3016
-8.3526 15.8927 2.3016
-8.9625 15.5964 2.3016
-9.5635 15.2792 2.3016
-9.6550 14.2057 2.1883
-9.6691 13.1335 2.0729
-9.6832 12.1647 1.9712
-9.6960 11.2810 1.8809
-9.7062 10.4680 1.7999
-9.7175 9.7187 1.7277
-9.7435 9.0369 1.6654
-9.8057 8.4303 1.6154
-14.5436 11.5804 2.3145
-15.0190 11.0611 2.3141
-15.4766 10.5228 2.3134
-9.7626 6.1134 1.4185
-12.7458 7.3283 1.8036
-9.8863 5.1991 1.3648
-17.2793 8.2721 2.3312
-9.8984 4.2884 1.3071
-9.7973 3.8133 1.2685
-18.4050 6.3770 2.3398
-18.5323 5.6494 2.3169
-18.0152 4.7587 2.2181
-19.3215 4.3330 2.3462
-19.4988 3.6081 2.3385
-9.8283 1.4385 1.1658
-19.8708 2.1485 2.3344
-19.8741 1.3950 2.3155
-9.9504 0.3229 1.1513
-19.7063 -0.1020 2.2676
-19.6857 -0.8431 2.2559
-9.8569 -0.7944 1.1265
-19.9679 -2.3680 2.2789
-20.3073 -3.1867 2.3178
-20.7153 -4.0542 2.3679
-20.8017 -4.8898 2.3849
-20.7088 -5.6976 2.3849
-9.8903 -3.1256 1.1459
-20.4292 -7.3116 2.3849
-10.0177 -4.0163 1.1803
-10.0114 -4.4576 1.1924
-17.9131 -8.8004 2.3849
-10.0403 -5.4103 1.3568
-9.9272 -5.8409 1.3642
-10.0361 -6.4245 1.4052
-16.6823 -11.5854 2.3849
-16.3035 -12.2554 2.3849
-9.9590 -8.0893 1.4941
-10.0687 -8.8266 1.5529
-15.0012 -14.1819 2.3849
-10.0267 -10.2192 1.6476
-9.9973 -10.9860 1.7031
-10.0082 -11.8644 1.7733
-6.4742 -8.2875 1.1973
-10.0371 -13.8941 1.9450
-10.0532 -15.0788 2.0499
-10.0726 -16.4117 2.1714
-10.0917 -17.9196 2.3124
-9.3942 -18.2523 2.3018
-5.0841 -10.8623 1.3413
-4.6057 -10.8874 1.3189
-4.1401 -10.9118 1.2991
-3.6856 -10.9355 1.2819
-3.2406 -10.9587 1.2670
-3.2905 -12.8890 1.4723
-4.5876 -21.2730 2.4049
-3.7907 -21.4595 2.4049
-2.9857 -21.6119 2.4049
-2.1743 -21.7301 2.4049
-1.3579 -21.8135 2.4049
-0.5382 -21.8620 2.4049
0.2832 -21.8754 2.4049
1.1046 -21.8536 2.4049
1.9244 -21.7967 2.4049
2.4412 -19.3313 2.1419
3.1598 -19.1923 2.1390
2.9159 -14.3306 1.6092
4.9334 -20.3104 2.3017
5.6869 -20.0908 2.3016
6.4807 -19.9970 2.3199
7.2171 -19.7126 2.3199
6.6300 -16.1972 1.9371
8.6477 -19.0527 2.3199
7.6587 -15.3176 1.9024
7.6772 -14.0130 1.7787
7.6935 -12.8708 1.6730
7.7079 -11.8596 1.5820
7.7208 -10.9557 1.5029
7.7324 -10.1408 1.4339
7.6940 -9.3409 1.3647
7.7792 -8.7525 1.3246
7.7125 -8.0472 1.2649
7.7697 -7.5200 1.2312
7.7774 -6.9811 1.1941
7.9076 -6.5787 1.1795
8.5528 -6.5879 1.2425
9.2663 -6.5981 1.3142
10.0619 -6.6094 1.3963
10.9575 -6.6222 1.4910
11.9762 -6.6367 1.6011
13.1487 -6.6534 1.7305
14.5170 -6.6729 1.8842
10.7678 -4.4674 1.3808
12.1050 -4.4967 1.5363
6.5396 -2.1533 0.8228
6.4868 -1.8688 0.8104
8.2350 -2.0405 1.0231
6.4810 -1.3495 0.8020
8.2495 -1.3965 1.0184
8.2540 -1.0799 1.0179
8.2585 -0.7659 1.0189
6.4952 -0.3568 0.8029
8.2620 -0.1426 1.0247
8.2665 0.1683 1.0301
8.2709 0.4800 1.0369
8.2754 0.7935 1.0453
6.5127 0.8727 0.8301
8.2844 1.4292 1.0668
6.5199 1.3792 0.8496
8.1861 2.0563 1.0808
8.2985 2.4199 1.1118
8.3034 2.7643 1.1306
8.3085 3.1179 1.1514
6.5393 2.7390 0.9238
8.3023 3.8509 1.1975
8.1026 4.1357 1.1953
7.8938 4.4113 1.1929
7.6835 4.6817 1.1917
6.6218 4.3849 1.0559
6.5422 4.6959 1.0747
6.5477 5.0840 1.1104
6.5536 5.4964 1.1498
6.5437 5.9218 1.1904
6.5352 6.3779 1.2359
6.5424 6.8848 1.2895
6.5502 7.4348 1.3495
6.6282 8.1205 1.4319
6.6032 8.7426 1.5009
9.1445 13.1062 2.1953
9.2094 14.3201 2.3449
8.6421 14.6209 2.3449
8.0663 14.9014 2.3449
6.5423 13.2560 2.0502
6.4873 14.4968 2.2072
6.1788 15.3323 2.3016
5.5869 15.5271 2.3017
4.9898 15.7015 2.3017
4.3881 15.8554 2.3017
3.7826 15.9887 2.3017
3.1737 16.1014 2.3018
2.5620 16.1934 2.3018
2.0355 16.9930 2.4049
1.3926 17.0457 2.4049
0.7487 17.0768 2.4049
0.1045 17.0863 2.4049
-0.5394 17.0741 2.4049
-1.1825 17.0403 2.4049
-1.8241 16.9850 2.4049
-2.4635 16.9082 2.4049
-3.1003 16.8099 2.4049
-3.7337 16.6902 2.4049
-4.3631 16.5493 2.4049
-4.9880 16.3871 2.4049
-5.5554 16.0525 2.3824
-5.9546 15.3126 2.3016
-6.5360 15.0972 2.3016
-7.1107 14.8618 2.3016
-7.6781 14.6069 2.3016
-8.2375 14.3323 2.3016
-8.7884 14.0384 2.3016
-9.3303 13.7254 2.3016
-9.6689 13.1307 2.2565
-9.6830 12.1620 2.1462
-9.6959 11.2785 2.0483
-9.7061 10.4655 1.9606
-9.7173 9.7164 1.8824
-9.7278 9.0202 1.8121
-9.7341 8.3667 1.7481
-9.7420 7.7550 1.6905
-9.7838 7.2035 1.6442
-9.9940 6.7931 1.6299
-9.7629 6.1116 1.5482
-14.9959 8.6191 2.3166
-13.0574 6.8643 1.9685
-15.8958 7.6069 2.3428
-9.8990 4.2869 1.4286
-9.7971 3.8115 1.3867
-9.9054 3.4303 1.3772
-9.9243 3.0236 1.3574
-17.5065 4.6213 2.3591
-17.6290 3.9504 2.3439
-17.8326 3.2967 2.3426
-9.8283 1.4368 1.2775
-18.3211 1.9778 2.3595
-18.4804 1.2940 2.3614
-9.9509 0.3213 1.2633
-18.6637 -0.0998 2.3575
-18.7333 -0.8055 2.3575
-9.8569 -0.7961 1.2376
-18.8711 -2.2412 2.3673
-18.9811 -2.9819 2.3824
-18.9639 -3.7147 2.3849
-18.8988 -4.4459 2.3849
-18.8057 -5.1774 2.3849
-9.8904 -3.1274 1.2624
-18.5345 -6.6369 2.3849
-10.0163 -4.0176 1.3013
-10.0123 -4.4599 1.3157
-16.3700 -8.0455 2.3849
-10.0692 -5.4279 1.4895
-9.9273 -5.8430 1.4939
-10.0347 -6.4258 1.5392
-15.2223 -10.5748 2.3849
-10.1563 -7.6367 1.6287
-9.9588 -8.0915 1.6385
-9.9687 -8.7412 1.6868
-9.9792 -9.4366 1.7411
-9.9905 -10.1849 1.8023
-9.9972 -10.9887 1.8703
-10.0082 -11.8672 1.9481
-6.4715 -8.2860 1.3152
-10.0371 -13.8973 2.1379
-10.0532 -15.0822 2.2539
-9.7081 -15.8215 2.3018
-9.1313 -16.2178 2.3018
-8.5372 -16.5908 2.3018
-5.0810 -10.8580 1.4754
-4.6029 -10.8831 1.4511
-4.1376 -10.9075 1.4296
-3.6834 -10.9313 1.4109
-3.2387 -10.9545 1.3948
-3.2903 -12.8911 1.6219
-4.1634 -19.3107 2.4049
-3.4398 -19.4775 2.4049
-2.7090 -19.6138 2.4049
-1.9725 -19.7192 2.4049
-1.2317 -19.7935 2.4049
-0.4880 -19.8364 2.4049
0.2572 -19.8478 2.4049
1.0023 -19.8277 2.4049
1.7459 -19.7761 2.4049
2.3800 -18.8488 2.3018
3.0848 -18.7391 2.3017
2.9155 -14.3306 1.7734
4.4764 -18.4312 2.3017
5.1605 -18.2336 2.3017
5.8351 -18.0075 2.3016
6.5505 -17.8944 2.3199
6.6411 -16.2269 2.1375
7.8512 -17.3006 2.3199
7.6586 -15.3201 2.0951
7.6772 -14.0154 1.9584
7.6935 -12.8730 1.8417
7.7079 -11.8617 1.7411
7.7208 -10.9577 1.6537
7.7324 -10.1427 1.5774
7.6940 -9.3427 1.5009
7.7784 -8.7534 1.4562
7.7124 -8.0490 1.3903
7.7697 -7.5217 1.3528
7.7774 -6.9827 1.3117
7.9056 -6.5787 1.2949
8.5505 -6.5879 1.3637
9.2636 -6.5980 1.4419
10.0589 -6.6094 1.5314
10.9540 -6.6221 1.6346
11.9720 -6.6366 1.7546
13.1438 -6.6533 1.8957
9.6623 -4.4431 1.3739
10.7629 -4.4673 1.5114
12.0989 -4.4966 1.6809
6.5360 -2.1532 0.8998
6.4826 -1.8687 0.8858
8.2350 -2.0419 1.1187
6.4810 -1.3507 0.8766
8.2467 -1.3975 1.1122
8.2513 -1.0809 1.1113
8.2557 -0.7671 1.1120
6.4952 -0.3579 0.8762
8.2620 -0.1440 1.1178
8.2664 0.1669 1.1232
6.5056 0.3765 0.8891
8.2753 0.7920 1.1390
6.5127 0.8716 0.9041
8.2844 1.4278 1.1616
6.5199 1.3781 0.9247
8.1861 2.0548 1.1760
8.2295 2.3982 1.1992
8.0888 2.6913 1.1975
7.9378 2.9774 1.1957
6.5393 2.7377 1.0038
7.6068 3.5268 1.1918
6.5923 3.3635 1.0559
6.5272 3.6463 1.0707
6.5320 3.9787 1.0993
6.5369 4.3274 1.1308
6.5422 4.6944 1.1656
6.5164 5.0582 1.1981
6.5222 5.4685 1.2403
6.5285 5.9065 1.2870
6.5352 6.3762 1.3389
6.5424 6.8830 1.3967
6.5502 7.4329 1.4613
6.6297 8.1205 1.5505
6.6107 8.7505 1.6264
8.4579 12.1193 2.1972
7.9760 12.3995 2.1972
7.4860 12.6623 2.1972
6.9885 12.9075 2.1972
6.4839 13.1350 2.1972
6.2568 13.9788 2.3016
5.7155 14.1797 2.3017
5.1687 14.3618 2.3017
4.6169 14.5248 2.3017
4.0606 14.6688 2.3017
3.5006 14.7935 2.3017
2.9374 14.8991 2.3018
2.4777 15.6564 2.4049
1.8842 15.7262 2.4049
1.2892 15.7758 2.4049
0.6933 15.8052 2.4049
0.0970 15.8144 2.4049
-0.4992 15.8034 2.4049
-1.0945 15.7723 2.4049
-1.6884 15.7209 2.4049
-2.2804 15.6495 2.4049
-2.8697 15.5581 2.4049
-3.4560 15.4467 2.4049
-4.0384 15.3155 2.4049
-4.6165 15.1644 2.4049
-5.1897 14.9937 2.4049
-5.5854 14.3611 2.3330
-6.0477 13.9670 2.3016
-6.5788 13.7479 2.3016
-7.1029 13.5103 2.3016
-7.6195 13.2546 2.3016
-8.1285 12.9819 2.3018
-8.6283 12.6904 2.3018
-9.1189 12.3814 2.3018
-9.5997 12.0550 2.3018
-9.6957 11.2759 2.2162
-9.7059 10.4631 2.1217
-9.7172 9.7141 2.0375
-9.7277 9.0180 1.9618
-9.7339 8.3645 1.8929
-9.7418 7.7529 1.8310
-9.7492 7.1761 1.7750
-9.7563 6.6296 1.7242
-9.7631 6.1099 1.6782
-9.8071 5.6349 1.6427
-9.9734 5.2412 1.6307
-14.7233 7.0431 2.3541
-9.8997 4.2854 1.5504
-9.7970 3.8097 1.5053
-15.6155 5.4050 2.3575
-15.9122 4.8451 2.3641
-16.1266 4.2542 2.3613
-16.3251 3.6554 2.3592
-16.4911 3.0459 2.3555
-9.8283 1.4352 1.3895
-9.9478 1.0722 1.3940
-9.9470 0.6948 1.3835
-9.9478 0.3195 1.3752
-9.9564 -0.0550 1.3699
-9.9647 -0.4302 1.3665
-9.8569 -0.7978 1.3491
-9.9730 -1.1862 1.3643
-9.9787 -1.5694 1.3663
-9.9832 -1.9574 1.3701
-9.9865 -2.3511 1.3758
-9.9989 -2.7546 1.3849
-9.8905 -3.1293 1.3793
-16.9575 -6.0754 2.3849
-10.0149 -4.0190 1.4227
-10.0132 -4.4623 1.4393
-15.0680 -7.4086 2.3849
-10.0658 -5.4280 1.6182
-9.9273 -5.8451 1.6240
-9.9544 -6.3765 1.6604
-9.9429 -6.9093 1.6945
-9.9513 -7.4848 1.7365
-9.9587 -8.0937 1.7834
-9.9685 -8.7435 1.8365
-9.9790 -9.4390 1.8961
-9.9903 -10.1873 1.9633
-9.9972 -10.9914 2.0381
-10.0081 -11.8700 2.1233
-6.4688 -8.2845 1.4333
-9.9093 -13.7237 2.3018
-9.4122 -14.1239 2.3018
-8.8980 -14.5045 2.3018
-8.3675 -14.8645 2.3018
-7.8215 -15.2032 2.3018
-5.0779 -10.8536 1.6097
-4.6001 -10.8788 1.5835
-4.1351 -10.9033 1.5604
-3.6812 -10.9271 1.5402
-3.2367 -10.9503 1.5228
-3.2901 -12.8932 1.7720
-3.8101 -17.6758 2.4049
-3.1475 -17.8266 2.4049
-2.4785 -17.9497 2.4049
-1.8045 -18.0448 2.4049
-1.1266 -18.1117 2.4049
-0.4462 -18.1502 2.4049
0.2355 -18.1601 2.4049
0.9171 -18.1414 2.4049
1.5974 -18.0942 2.4049
2.1775 -17.2461 2.3018
2.8224 -17.1463 2.3018
2.9152 -14.3306 1.9381
4.0959 -16.8664 2.3017
4.7221 -16.6869 2.3017
5.3399 -16.4815 2.3017
5.9479 -16.2508 2.3016
6.5972 -16.1221 2.3199
7.2648 -16.0109 2.3449
7.6586 -15.3225 2.2883
7.6772 -14.0177 2.1387
7.6935 -12.8752 2.0109
7.7079 -11.8638 1.9007
7.7207 -10.9598 1.8050
7.7323 -10.1447 1.7213
7.6940 -9.3446 1.6375
7.7744 -8.7508 1.5875
7.7124 -8.0507 1.5161
7.7697 -7.5234 1.4749
7.7774 -6.9844 1.4297
7.9036 -6.5787 1.4107
8.5482 -6.5879 1.4851
9.2610 -6.5980 1.5698
9.0886 -5.9736 1.5064
9.0889 -5.4963 1.4762
11.9679 -6.6366 1.9085
13.1388 -6.6532 2.0612
9.1295 -4.1997 1.4116
10.7580 -4.4672 1.6423
12.0927 -4.4965 1.8257
6.5324 -2.1532 0.9770
6.4785 -1.8686 0.9614
8.1769 -2.0289 1.2059
6.4810 -1.3518 0.9514
8.2383 -1.3974 1.2055
8.2496 -1.0821 1.2051
8.2481 -0.7678 1.2045
6.4952 -0.3590 0.9497
8.2076 -0.1445 1.2032
8.1689 0.1635 1.2023
6.5056 0.3753 0.9627
8.0560 0.7696 1.2003
6.5127 0.8705 0.9784
7.8973 1.3597 1.1979
6.5199 1.3769 1.0000
7.6953 1.9302 1.1952
7.5787 2.2072 1.1937
6.6012 2.1952 1.0559
6.5101 2.4406 1.0592
6.5141 2.7260 1.0798
6.5183 3.0209 1.1025
6.5227 3.3267 1.1276
6.5272 3.6449 1.1553
6.5574 3.9928 1.1905
6.5057 4.3052 1.2137
6.5109 4.6705 1.2507
6.5164 5.0567 1.2915
6.5222 5.4670 1.3366
6.5284 5.9048 1.3866
6.5351 6.3745 1.4422
6.5424 6.8812 1.5041
6.5502 7.4311 1.5735
6.6313 8.1205 1.6696
6.6303 8.7744 1.7557
7.8594 11.2592 2.1972
7.4129 11.5215 2.1972
6.9586 11.7676 2.1972
6.4971 11.9973 2.1972
6.3154 12.7907 2.3016
5.8185 12.9967 2.3016
5.3158 13.1852 2.3017
4.8078 13.3560 2.3017
4.2949 13.5090 2.3017
3.7779 13.6442 2.3017
3.2571 13.7614 2.3018
2.7333 13.8606 2.3018
2.3057 14.5660 2.4049
1.7536 14.6318 2.4049
1.2000 14.6786 2.4049
0.6454 14.7065 2.4049
0.0904 14.7154 2.4049
-0.4644 14.7054 2.4049
-1.0184 14.6764 2.4049
-1.5712 14.6286 2.4049
-2.1221 14.5619 2.4049
-2.6705 14.4765 2.4049
-3.2160 14.3723 2.4049
-3.7578 14.2495 2.4049
-4.2956 14.1082 2.4049
-4.8286 13.9484 2.4049
-5.3564 13.7703 2.4049
-5.6265 12.9922 2.3018
-6.1200 12.7870 2.3018
-6.6069 12.5648 2.3018
-7.0866 12.3256 2.3018
-7.5586 12.0696 2.3018
-8.0224 11.7970 2.3018
-8.4773 11.5081 2.3018
-8.9230 11.2029 2.3018
-9.3587 10.8819 2.3018
-9.7058 10.4607 2.2833
-9.7170 9.7117 2.1931
-9.7275 9.0157 2.1120
-9.7338 8.3623 2.0382
-9.7417 7.7508 1.9720
-9.7491 7.1740 1.9121
-9.7561 6.6276 1.8578
-9.7634 6.1081 1.8086
-9.7700 5.6118 1.7640
-9.7764 5.1358 1.7235
-9.7825 4.6778 1.6869
-9.8099 4.2448 1.6573
-9.7968 3.8079 1.6242
-10.0117 3.4636 1.6314
-14.8153 4.5085 2.3764
-15.0445 3.9661 2.3789
-15.2299 3.4076 2.3775
-15.3715 2.8365 2.3724
-9.8283 1.4335 1.5018
-15.5880 1.6774 2.3616
-15.7236 1.0956 2.3651
-9.9519 0.3179 1.4883
-15.9215 -0.0906 2.3706
-16.0130 -0.6940 2.3771
-9.8569 -0.7995 1.4609
-16.0944 -1.9170 2.3849
-16.0746 -2.5309 2.3849
-16.0316 -3.1460 2.3849
-15.9652 -3.7615 2.3849
-15.8752 -4.3763 2.3849
-9.8906 -3.1311 1.4965
-15.6240 -5.6005 2.3849
-10.0135 -4.0203 1.5444
-10.0141 -4.4646 1.5633
-9.9136 -4.8763 1.6943
-9.9202 -5.3516 1.7225
-9.9273 -5.8472 1.7546
-9.9349 -6.3661 1.7908
-9.9429 -6.9115 1.8317
-9.9514 -7.4871 1.8776
-9.9585 -8.0958 1.9287
-9.9683 -8.7457 1.9866
-9.9788 -9.4413 2.0517
-9.9901 -10.1897 2.1249
-9.9971 -10.9940 2.2064
-10.0081 -11.8728 2.2992
-6.4660 -8.2830 1.5517
-9.1474 -12.6715 2.3018
-8.6868 -13.0383 2.3018
-8.2106 -13.3870 2.3018
-7.7196 -13.7166 2.3018
-7.2146 -14.0267 2.3018
-5.0747 -10.8493 1.7443
-4.5973 -10.8745 1.7162
-4.1326 -10.8990 1.6914
-3.6790 -10.9228 1.6698
-3.2348 -10.9461 1.6512
-3.2899 -12.8953 1.9226
-3.5111 -16.2924 2.4049
-2.9002 -16.4300 2.4049
-2.2836 -16.5422 2.4049
-1.6624 -16.6288 2.4049
-1.0378 -16.6895 2.4049
-0.4109 -16.7244 2.4049
0.2171 -16.7331 2.4049
0.8451 -16.7156 2.4049
1.4718 -16.6721 2.4049
2.0407 -16.1638 2.3413
2.6004 -15.7995 2.3018
2.9148 -14.3306 2.1032
3.7740 -15.5430 2.3017
4.3513 -15.3786 2.3017
4.9209 -15.1905 2.3017
5.4817 -14.9792 2.3016
6.0328 -14.7451 2.3016
6.6966 -14.7611 2.3449
7.2352 -14.4779 2.3449
7.6771 -14.0200 2.3195
7.6934 -12.8774 2.1806
7.7078 -11.8659 2.0608
5.0604 -7.1847 1.2825
5.3447 -7.0135 1.2896
7.6939 -9.3465 1.7745
7.7705 -8.7482 1.7192
7.7124 -8.0525 1.6423
7.7697 -7.5251 1.5973
7.7773 -6.9861 1.5480
7.9015 -6.5786 1.5267
8.5458 -6.5878 1.6069
9.0474 -6.4476 1.6594
9.0858 -5.9735 1.6291
9.0889 -5.4980 1.5965
11.9637 -6.6365 2.0628
9.1164 -4.6180 1.5459
9.1295 -4.2014 1.5254
9.1428 -3.7981 1.5078
12.0866 -4.4963 1.9709
6.5287 -2.1531 1.0543
6.4744 -1.8686 1.0372
7.5392 -1.8721 1.1999
6.4810 -1.3529 1.0264
7.6006 -1.2906 1.1995
7.6135 -1.0000 1.1992
7.6146 -0.7101 1.1987
6.4951 -0.3601 1.0234
7.5824 -0.1348 1.1975
7.5493 0.1498 1.1967
6.5056 0.3742 1.0366
6.5836 0.6278 1.0559
6.5126 0.8693 1.0529
6.4912 1.1165 1.0593
6.4948 1.3705 1.0715
6.4985 1.6289 1.0853
6.5023 1.8925 1.1010
6.5061 2.1623 1.1185
6.5101 2.4394 1.1381
6.5141 2.7247 1.1599
6.5538 3.0360 1.1905
6.4915 3.3095 1.2049
6.4960 3.6262 1.2342
6.5007 3.9570 1.2666
6.5056 4.3038 1.3023
6.5108 4.6690 1.3416
6.5163 5.0552 1.3851
6.5222 5.4654 1.4332
6.5284 5.9032 1.4866
6.5351 6.3728 1.5459
6.5423 6.8795 1.6120
6.5502 7.4292 1.6859
6.5619 8.0335 1.7699
6.6303 8.7723 1.8806
7.3385 10.5105 2.1972
6.9226 10.7570 2.1972
6.4993 10.9883 2.1972
6.3097 11.6487 2.2844
5.9000 11.9467 2.3016
5.4364 12.1405 2.3016
4.9672 12.3178 2.3016
4.4928 12.4784 2.3016
4.0139 12.6224 2.3016
3.5310 12.7497 2.3016
3.0445 12.8600 2.3016
2.5552 12.9544 2.3018
2.1556 13.6144 2.4049
1.6395 13.6765 2.4049
1.1220 13.7208 2.4049
0.6035 13.7473 2.4049
0.0847 13.7559 2.4049
-0.4340 13.7467 2.4049
-0.9521 13.7197 2.4049
-1.4689 13.6750 2.4049
-1.9839 13.6125 2.4049
-2.4966 13.5323 2.4049
-3.0065 13.4345 2.4049
-3.5129 13.3192 2.4049
-4.0155 13.1864 2.4049
-4.5136 13.0363 2.4049
-5.0066 12.8690 2.4049
-5.4942 12.6846 2.4049
-5.7194 11.9482 2.3018
-6.1739 11.7394 2.3018
-6.6216 11.5148 2.3018
-7.0619 11.2744 2.3018
-7.4943 11.0185 2.3018
-7.9184 10.7472 2.3018
-8.3336 10.4608 2.3018
-8.7394 10.1596 2.3018
-9.1352 9.8437 2.3018
-9.5208 9.5134 2.3018
-9.7274 9.0134 2.2627
-9.7336 8.3601 2.1840
-9.7415 7.7486 2.1134
-9.7489 7.1719 2.0495
-9.7560 6.6256 1.9917
-9.7636 6.1064 1.9395
-9.7702 5.6100 1.8920
-9.7766 5.1341 1.8490
-9.7827 4.6761 1.8101
-9.7887 4.2338 1.7749
-9.7967 3.8061 1.7435
-9.8028 3.3895 1.7151
-9.8089 2.9832 1.6897
-9.8245 2.5883 1.6688
-9.8469 2.2014 1.6517
-9.8669 1.8190 1.6367
-9.8283 1.4318 1.6146
-10.0142 1.0759 1.6315
-10.0815 0.7007 1.6311
-9.9524 0.3162 1.6014
-14.8707 -0.0872 2.3829
-14.9238 -0.6494 2.3849
-9.8569 -0.8013 1.5731
-14.9425 -1.7824 2.3849
-14.9200 -2.3518 2.3849
-14.8759 -2.9219 2.3849
-14.8102 -3.4920 2.3849
-10.0887 -2.7830 1.6342
-9.8907 -3.1330 1.6142
-9.9391 -3.5647 1.6368
-9.9288 -3.9882 1.6526
-9.9160 -4.4228 1.6710
-9.9138 -4.8784 1.8200
-9.9204 -5.3537 1.8507
-9.9274 -5.8492 1.8856
-9.9350 -6.3683 1.9250
-9.9430 -6.9138 1.9694
-9.9514 -7.4894 2.0192
-9.9583 -8.0980 2.0746
-9.9681 -8.7480 2.1374
-9.9786 -9.4436 2.2078
-9.9899 -10.1922 2.2871
-9.6879 -10.6566 2.3018
-9.3051 -11.0416 2.3018
-6.4633 -8.2815 1.6704
-8.4922 -11.7665 2.3018
-8.0631 -12.1050 2.3018
-7.6198 -12.4265 2.3018
-7.1630 -12.7305 2.3018
-6.6934 -13.0162 2.3018
-5.0716 -10.8449 1.8793
-4.5945 -10.8702 1.8492
-4.1301 -10.8948 1.8228
-3.6768 -10.9186 1.7997
-3.2328 -10.9419 1.7798
-3.6354 -14.2526 2.2916
-3.2547 -15.1064 2.4049
-2.6882 -15.2327 2.4049
-2.1165 -15.3358 2.4049
-1.5406 -15.4152 2.4049
-0.9616 -15.4709 2.4049
-0.3806 -15.5026 2.4049
0.2014 -15.5103 2.4049
0.7834 -15.4940 2.4049
1.3642 -15.4537 2.4049
1.9428 -15.3894 2.4049
2.4102 -14.6454 2.3018
2.9567 -14.5383 2.3018
3.4982 -14.4088 2.3017
4.0335 -14.2572 2.3017
4.5617 -14.0838 2.3017
5.0820 -13.8889 2.3017
5.5933 -13.6731 2.3016
6.2094 -13.6892 2.3449
6.7095 -13.4281 2.3449
7.1978 -13.1470 2.3449
7.6737 -12.8466 2.3449
7.7078 -11.8681 2.2214
5.0387 -7.1553 1.3763
5.3429 -7.0125 1.3893
7.6939 -9.3484 1.9119
7.7665 -8.7456 1.8511
7.7124 -8.0542 1.7689
7.7696 -7.5268 1.7202
7.7773 -6.9877 1.6668
7.8995 -6.5786 1.6431
8.5435 -6.5878 1.7290
9.2557 -6.5979 1.8267
9.0829 -5.9734 1.7521
9.0888 -5.4998 1.7172
9.0913 -5.0448 1.6857
9.1049 -4.6139 1.6600
9.1179 -4.1977 1.6375
9.1421 -3.7994 1.6202
12.0804 -4.4962 2.1164
6.4450 -2.1267 1.1180
6.4488 -1.8623 1.1094
6.4525 -1.6033 1.1026
6.4561 -1.3488 1.0975
6.4597 -1.0980 1.0940
6.4632 -0.8500 1.0921
6.4667 -0.6042 1.0919
6.4702 -0.3598 1.0932
6.4737 -0.1162 1.0961
6.4771 0.1274 1.1005
6.4806 0.3716 1.1065
6.4841 0.6172 1.1141
6.4876 0.8649 1.1234
6.4912 1.1153 1.1343
6.4948 1.3693 1.1470
6.4985 1.6277 1.1616
6.5711 1.9113 1.1905
6.4750 2.1508 1.1909
6.4789 2.4265 1.2115
6.4829 2.7104 1.2344
6.4871 3.0039 1.2598
6.4915 3.3081 1.2879
6.4960 3.6248 1.3190
6.5007 3.9556 1.3533
6.5056 4.3024 1.3911
6.5108 4.6676 1.4329
6.5163 5.0537 1.4791
6.5222 5.4638 1.5302
6.5284 5.9016 1.5869
6.5351 6.3711 1.6499
6.5423 6.8777 1.7202
6.5501 7.4273 1.7988
6.5618 8.0315 1.8882
6.6303 8.7702 2.0060
6.8809 9.8528 2.1972
6.4917 10.0852 2.1972
6.2819 10.6184 2.2644
5.9631 11.0063 2.3016
5.5347 11.2045 2.3016
5.1003 11.3874 2.3016
4.6605 11.5548 2.3016
4.2159 11.7066 2.3016
3.7668 11.8426 2.3016
3.3138 11.9629 2.3016
2.8574 12.0672 2.3016
2.4470 12.4029 2.3484
2.0234 12.7765 2.4049
1.5391 12.8353 2.4049
1.0534 12.8773 2.4049
0.5667 12.9025 2.4049
0.0797 12.9108 2.4049
-0.4073 12.9024 2.4049
-0.8936 12.8771 2.4049
-1.3787 12.8350 2.4049
-1.8622 12.7762 2.4049
-2.3434 12.7006 2.4049
-2.8220 12.6085 2.4049
-3.2973 12.4999 2.4049
-3.7688 12.3747 2.4049
-4.2361 12.2333 2.4049
-4.6986 12.0756 2.4049
-5.1559 11.9017 2.4049
-5.6073 11.7120 2.4049
-5.8111 11.0477 2.3090
-6.2125 10.8014 2.3018
-6.6250 10.5749 2.3018
-7.0300 10.3338 2.3018
-7.4269 10.0782 2.3018
-7.8155 9.8085 2.3018
-8.1951 9.5248 2.3018
-8.5652 9.2274 2.3018
-8.9255 8.9166 2.3018
-9.2753 8.5925 2.3018
-9.6143 8.2556 2.3018
-9.7414 7.7465 2.2553
-9.7488 7.1698 2.1875
-9.7558 6.6235 2.1262
-9.7638 6.1046 2.0708
-9.7705 5.6083 2.0205
-9.7768 5.1324 1.9749
-9.7830 4.6744 1.9337
-9.7889 4.2321 1.8965
-9.7965 3.8043 1.8633
-9.8027 3.3877 1.8333
-9.8087 2.9815 1.8065
-9.8146 2.5840 1.7828
-9.8204 2.1938 1.7619
-9.8261 1.8098 1.7438
-9.8283 1.4301 1.7277
-9.8331 1.0547 1.7146
-9.8379 0.6821 1.7040
-9.8426 0.3110 1.6958
-9.8474 -0.0595 1.6901
-9.8521 -0.4304 1.6867
-9.8569 -0.8030 1.6856
-9.8633 -1.1783 1.6873
-9.8686 -1.5573 1.6911
-9.8740 -1.9412 1.6975
-9.8795 -2.3312 1.7064
-9.8851 -2.7287 1.7179
-9.8908 -3.1348 1.7322
-9.8953 -3.5508 1.7492
-9.9013 -3.9790 1.7694
-9.9074 -4.4209 1.7930
-9.9140 -4.8804 1.9461
-9.9206 -5.3558 1.9795
-9.9274 -5.8513 2.0171
-9.9350 -6.3704 2.0597
-9.9430 -6.9160 2.1076
-9.9514 -7.4917 2.1613
-9.9581 -8.1002 2.2210
-9.9679 -8.7503 2.2886
-9.7136 -9.1953 2.3018
-9.3859 -9.5784 2.3018
-9.0424 -9.9492 2.3018
-8.6837 -10.3067 2.3018
-6.4606 -8.2799 1.7895
-7.9225 -10.9797 2.3018
-7.5210 -11.2938 2.3018
-7.1065 -11.5921 2.3018
-6.6796 -11.8739 2.3018
-6.2408 -12.1388 2.3018
-5.9399 -12.7045 2.3609
-4.9406 -11.6918 2.1333
-5.0789 -13.4004 2.4049
-3.6745 -10.9144 1.9299
-3.2308 -10.9377 1.9088
-3.5548 -13.9398 2.4049
-3.0324 -14.0780 2.4049
-2.5044 -14.1948 2.4049
-1.9716 -14.2900 2.4049
-1.4351 -14.3633 2.4049
-0.8957 -14.4147 2.4049
-0.3544 -14.4438 2.4049
0.1878 -14.4508 2.4049
0.7299 -14.4354 2.4049
1.2709 -14.3979 2.4049
1.8099 -14.3381 2.4049
2.2454 -13.6452 2.3018
2.7546 -13.5459 2.3018
3.2591 -13.4258 2.3017
3.7580 -13.2851 2.3017
4.2504 -13.1243 2.3017
4.7354 -12.9437 2.3017
5.2122 -12.7435 2.3017
5.6800 -12.5242 2.3016
6.2533 -12.5173 2.3449
6.7092 -12.2566 2.3449
7.1534 -11.9779 2.3449
7.5854 -11.6818 2.3449
5.0412 -7.1603 1.4768
5.3457 -7.0175 1.4905
7.6939 -9.3502 2.0499
7.7626 -8.7430 1.9834
7.7123 -8.0560 1.8961
7.7696 -7.5286 1.8435
7.7773 -6.9894 1.7860
7.8974 -6.5786 1.7598
8.5412 -6.5878 1.8515
9.2530 -6.5979 1.9558
9.0800 -5.9733 1.8755
9.0887 -5.5015 1.8383
11.8151 -6.5586 2.3449
12.0184 -6.0926 2.3449
9.1294 -4.2047 1.7543
9.1420 -3.8011 1.7332
12.0742 -4.4961 2.2623
6.4180 -2.1189 1.1904
6.4732 -1.8705 1.1905
6.5185 -1.6209 1.1905
6.5542 -1.3705 1.1906
6.4596 -1.0991 1.1688
6.4632 -0.8511 1.1666
6.4667 -0.6053 1.1660
6.4702 -0.3609 1.1672
6.5875 -0.1194 1.1906
6.5658 0.1280 1.1905
6.5348 0.3736 1.1905
6.4948 0.6171 1.1905
6.4566 0.8596 1.1924
6.4601 1.1088 1.2038
6.4637 1.3616 1.2170
6.4674 1.6187 1.2322
6.4711 1.8811 1.2494
6.4750 2.1496 1.2688
6.4789 2.4252 1.2905
6.4829 2.7092 1.3147
6.4871 3.0026 1.3415
6.4914 3.3068 1.3712
6.4960 3.6235 1.4040
6.5007 3.9542 1.4403
6.5056 4.3010 1.4803
6.5108 4.6661 1.5245
6.5163 5.0522 1.5734
6.5221 5.4622 1.6275
6.5284 5.8999 1.6876
6.5351 6.3694 1.7543
6.5423 6.8759 1.8288
6.5501 7.4254 1.9121
6.5618 8.0295 2.0068
6.6316 8.7699 2.1322
6.4755 9.2702 2.1972
6.2576 9.7192 2.2503
6.0103 10.1570 2.3016
5.6136 10.3590 2.3016
5.2108 10.5466 2.3016
4.8023 10.7198 2.3016
4.3886 10.8783 2.3016
3.9702 11.0220 2.3016
3.5475 11.1509 2.3016
3.1212 11.2648 2.3016
2.6915 11.3638 2.3016
2.3604 11.9611 2.4049
1.9061 12.0328 2.4049
1.4500 12.0887 2.4049
0.9924 12.1286 2.4049
0.5340 12.1526 2.4049
0.0752 12.1607 2.4049
-0.3836 12.1528 2.4049
-0.8417 12.1290 2.4049
-1.2987 12.0893 2.4049
-1.7541 12.0338 2.4049
-2.2075 11.9625 2.4049
-2.6582 11.8754 2.4049
-3.1059 11.7727 2.4049
-3.5499 11.6544 2.4049
-3.9899 11.5206 2.4049
-4.4254 11.3715 2.4049
-4.8557 11.2071 2.4049
-5.2806 11.0277 2.4049
-5.6249 10.6919 2.3735
-5.8497 10.1688 2.3018
-6.2375 9.9547 2.3018
-6.6183 9.7268 2.3018
-6.9914 9.4853 2.3018
-7.3564 9.2304 2.3018
-7.7128 8.9625 2.3018
-8.0603 8.6816 2.3018
-8.3983 8.3880 2.3018
-8.7265 8.0821 2.3018
-9.0443 7.7641 2.3018
-9.3513 7.4343 2.3018
-9.6471 7.0931 2.3018
-9.7557 6.6215 2.2611
-9.7641 6.1029 2.2027
-9.7707 5.6065 2.1495
-9.7771 5.1307 2.1013
-9.7832 4.6727 2.0578
-9.7891 4.2304 2.0185
-9.7963 3.8024 1.9835
-9.8025 3.3859 1.9519
-9.8086 2.9797 1.9237
-9.8145 2.5822 1.8988
-9.8202 2.1920 1.8769
-9.8259 1.8080 1.8580
-9.8283 1.4284 1.8412
-9.8331 1.0530 1.8277
-9.8378 0.6804 1.8167
-9.8426 0.3093 1.8084
-9.8473 -0.0612 1.8026
-9.8521 -0.4321 1.7994
-9.8569 -0.8047 1.7986
-9.8634 -1.1801 1.8008
-9.8687 -1.5591 1.8053
-9.8741 -1.9430 1.8125
-9.8796 -2.3330 1.8224
-9.8852 -2.7305 1.8351
-9.8909 -3.1367 1.8507
-9.8955 -3.5527 1.8693
-9.9014 -3.9810 1.8913
-9.9076 -4.4229 1.9169
-9.9141 -4.8825 2.0728
-9.9208 -5.3580 2.1087
-9.9274 -5.8534 2.1492
-9.9351 -6.3726 2.1950
-9.9430 -6.9182 2.2464
-9.9515 -7.4940 2.3040
-9.6793 -7.8757 2.3018
-9.4010 -8.2549 2.3018
-9.1074 -8.6238 2.3018
-8.7987 -8.9816 2.3018
-8.4755 -9.3277 2.3018
-8.1380 -9.6614 2.3018
-7.7869 -9.9821 2.3018
-7.4225 -10.2892 2.3018
-7.0455 -10.5821 2.3018
-6.6563 -10.8601 2.3018
-6.2556 -11.1228 2.3018
-5.9231 -11.5232 2.3329
-5.6651 -12.1194 2.4049
-4.9710 -11.7661 2.2926
-4.7545 -12.5473 2.4049
-4.2861 -12.7336 2.4049
-3.4667 -11.7387 2.1882
-3.3269 -13.0491 2.4049
-2.8378 -13.1776 2.4049
-2.3435 -13.2862 2.4049
-1.8448 -13.3746 2.4049
-1.3427 -13.4427 2.4049
-0.8379 -13.4903 2.4049
-0.3314 -13.5172 2.4049
0.1759 -13.5235 2.4049
0.6831 -13.5090 2.4049
1.1893 -13.4739 2.4049
1.6936 -13.4181 2.4049
2.1011 -12.7699 2.3018
2.5777 -12.6773 2.3018
3.0498 -12.5653 2.3017
3.5168 -12.4343 2.3017
3.9778 -12.2844 2.3017
4.4319 -12.1160 2.3017
4.8785 -11.9294 2.3017
5.3166 -11.7249 2.3016
5.7458 -11.5033 2.3016
6.2810 -11.4764 2.3449
6.6976 -11.2166 2.3449
7.1028 -10.9405 2.3449
5.0438 -7.1652 1.5778
5.3484 -7.0226 1.5923
7.6965 -9.3553 2.1892
7.7586 -8.7404 2.1161
7.7123 -8.0577 2.0237
7.7696 -7.5303 1.9673
7.7773 -6.9911 1.9056
7.8954 -6.5786 1.8770
8.5388 -6.5877 1.9744
9.2503 -6.5978 2.0853
9.0772 -5.9732 1.9994
9.0887 -5.5032 1.9600
11.0836 -6.1547 2.3449
11.2764 -5.7185 2.3449
9.1293 -4.2064 1.8694
9.1420 -3.8027 1.8466
11.7484 -4.3769 2.3449
6.4142 -2.1188 1.2671
6.4179 -1.8557 1.2569
6.4216 -1.5979 1.2486
6.4252 -1.3446 1.2423
6.4287 -1.0949 1.2379
6.4323 -0.8482 1.2354
6.4357 -0.6035 1.2346
6.4392 -0.3603 1.2355
6.4427 -0.1179 1.2383
6.4461 0.1245 1.2428
6.4496 0.3676 1.2491
6.4531 0.6120 1.2572
6.4566 0.8584 1.2671
6.4601 1.1077 1.2790
6.4637 1.3604 1.2928
6.4674 1.6175 1.3087
6.4711 1.8799 1.3268
6.4749 2.1484 1.3471
6.4789 2.4240 1.3699
6.4829 2.7079 1.3954
6.4871 3.0013 1.4236
6.4914 3.3055 1.4549
6.4959 3.6221 1.4894
6.5006 3.9528 1.5277
6.5056 4.2995 1.5699
6.5108 4.6646 1.6165
6.5163 5.0506 1.6681
6.5221 5.4607 1.7252
6.5284 5.8983 1.7886
6.5350 6.3677 1.8591
6.5423 6.8741 1.9378
6.5501 7.4235 2.0259
6.5617 8.0275 2.1260
6.6332 8.7699 2.2591
6.2642 8.9655 2.2512
6.0435 9.3845 2.3016
5.6758 9.5895 2.3016
5.3017 9.7812 2.3016
4.9217 9.9592 2.3016
4.5362 10.1235 2.3016
4.1458 10.2740 2.3016
3.7508 10.4105 2.3016
3.3517 10.5329 2.3016
2.9490 10.6412 2.3016
2.5432 10.7352 2.3016
2.2305 11.3000 2.4049
1.8013 11.3682 2.4049
1.3703 11.4214 2.4049
0.9380 11.4594 2.4049
0.5048 11.4824 2.4049
0.0712 11.4902 2.4049
-0.3623 11.4828 2.4049
-0.7953 11.4604 2.4049
-1.2272 11.4228 2.4049
-1.6576 11.3702 2.4049
-2.0859 11.3026 2.4049
-2.5119 11.2201 2.4049
-2.9348 11.1228 2.4049
-3.3543 11.0106 2.4049
-3.7699 10.8838 2.4049
-4.1812 10.7424 2.4049
-4.5876 10.5866 2.4049
-4.9887 10.4165 2.4049
-5.3840 10.2322 2.4049
-5.6383 9.7997 2.3487
-5.8916 9.4009 2.3018
-6.2507 9.1849 2.3018
-6.6026 8.9561 2.3018
-6.9467 8.7146 2.3018
-7.2826 8.4607 2.3018
-7.6099 8.1946 2.3018
