ply
format ascii 1.0
element vertex 2171
property float32 x
property float32 y
property float32 z
end_header
7.5496 -7.8872 2.1190
7.5715 -7.3378 2.0501
7.5820 -6.8150 1.9860
7.5994 -6.3314 1.9308
7.6158 -5.8750 1.8814
7.6585 -5.4620 1.8439
8.3383 -5.4864 1.9608
9.1077 -5.5140 2.0962
8.9304 -4.9583 2.0157
8.9526 -4.5394 1.9854
10.7419 -4.9486 2.3449
10.8937 -4.5306 2.3449
9.0217 -3.3603 1.9182
9.0352 -2.9838 1.9006
9.0546 -2.6173 1.8874
9.0737 -2.2571 1.8772
11.4030 -2.3853 2.3449
6.3548 -1.0818 1.3009
6.3635 -0.8385 1.2987
6.3722 -0.5970 1.2984
6.3808 -0.3565 1.3000
6.3895 -0.1163 1.3034
6.3981 0.1242 1.3087
6.4068 0.3658 1.3158
6.4155 0.6091 1.3249
6.4244 0.8548 1.3359
6.4333 1.1037 1.3490
6.4424 1.3566 1.3642
6.4517 1.6143 1.3816
6.4611 1.8777 1.4014
6.4709 2.1478 1.4236
6.4808 2.4255 1.4485
6.4911 2.7122 1.4762
6.5018 3.0089 1.5070
6.5129 3.3173 1.5411
6.5244 3.6389 1.5789
6.5365 3.9756 1.6207
6.5493 4.3294 1.6668
6.5627 4.7029 1.7179
6.5769 5.0988 1.7745
6.5921 5.5204 1.8372
6.6083 5.9718 1.9070
6.6257 6.4574 1.9848
6.6446 6.9831 2.0717
6.6652 7.5556 2.1694
6.6878 8.1833 2.2796
6.4256 8.4972 2.3017
6.0910 8.7194 2.3017
5.7492 8.9292 2.3017
5.4006 9.1265 2.3017
5.0458 9.3109 2.3017
4.6851 9.4824 2.3017
4.3190 9.6408 2.3017
3.9479 9.7859 2.3017
3.5724 9.9176 2.3017
3.1927 10.0359 2.3017
2.8096 10.1405 2.3017
2.5319 10.6905 2.4049
2.1254 10.7712 2.4049
1.7166 10.8374 2.4049
1.3059 10.8892 2.4049
0.8939 10.9264 2.4049
0.4809 10.9490 2.4049
0.0675 10.9571 2.4049
-0.3459 10.9506 2.4049
-0.7588 10.9295 2.4049
-1.1706 10.8939 2.4049
-1.5810 10.8438 2.4049
-1.9895 10.7793 2.4049
-2.3956 10.7004 2.4049
-2.7988 10.6071 2.4049
-3.1987 10.4997 2.4049
-3.5947 10.3781 2.4049
-3.9865 10.2425 2.4049
-4.3736 10.0930 2.4049
-4.7554 9.9299 2.4049
-5.1316 9.7531 2.4049
-5.4915 9.5451 2.4005
-5.6138 8.9583 2.3019
-5.9551 8.7511 2.3019
-6.2892 8.5317 2.3019
-6.6157 8.3002 2.3019
-6.9343 8.0569 2.3019
-7.2444 7.8020 2.3019
-7.5458 7.5357 2.3019
-6.2969 5.8313 1.8493
-6.5145 5.5917 1.8466
-8.3929 6.6716 2.3019
-8.6550 6.3628 2.3019
-8.9064 6.0442 2.3019
-9.1465 5.7161 2.3019
-9.3751 5.3788 2.3019
-9.5919 5.0327 2.3019
-9.7427 4.6525 2.2892
-9.7586 4.2165 2.2489
-9.7741 3.7931 2.2128
-9.7892 3.3806 2.1807
-9.8012 2.9767 2.1516
-9.8148 2.5815 2.1266
-9.8282 2.1931 2.1048
-9.8414 1.8102 2.0863
-9.8545 1.4315 2.0709
-9.8674 1.0560 2.0585
-9.8803 0.6826 2.0491
-9.8951 0.3103 2.0429
-9.9084 -0.0622 2.0393
-9.9218 -0.4359 2.0386
-9.9352 -0.8118 2.0408
-9.9488 -1.1909 2.0459
-9.9625 -1.5746 2.0540
-9.9752 -1.9636 2.0649
-9.9893 -2.3597 2.0792
-10.0037 -2.7640 2.0968
-10.0185 -3.1779 2.1179
-10.0336 -3.6030 2.1427
-10.0493 -4.0411 2.1713
-10.0652 -4.4939 2.2041
-9.7866 -4.8202 2.3019
-9.6213 -5.1967 2.3019
-9.4412 -5.5673 2.3019
-9.2465 -5.9316 2.3019
-9.0374 -6.2887 2.3019
-8.8142 -6.6382 2.3019
-8.5771 -6.9794 2.3019
-8.3264 -7.3118 2.3019
-8.0624 -7.6348 2.3019
-7.7855 -7.9478 2.3019
-7.4960 -8.2502 2.3019
-7.1943 -8.5415 2.3019
-6.8809 -8.8211 2.3019
-6.5562 -9.0887 2.3019
-6.2206 -9.3435 2.3019
-4.9603 -8.0933 1.9436
-4.5796 -8.1429 1.9100
-4.2101 -8.1909 1.8803
-3.8505 -8.2376 1.8540
-3.4994 -8.2830 1.8312
-3.1555 -8.3274 1.8115
-3.2154 -9.5526 2.0481
-3.3553 -11.3613 2.4049
-2.9293 -11.4890 2.4049
-2.4981 -11.5997 2.4049
-2.0627 -11.6930 2.4049
-1.6236 -11.7689 2.4049
-1.1815 -11.8270 2.4049
-0.7374 -11.8675 2.4049
-0.2918 -11.8900 2.4049
0.1543 -11.8946 2.4049
0.6004 -11.8813 2.4049
1.0456 -11.8501 2.4049
1.4891 -11.8010 2.4049
1.8475 -11.2312 2.3019
2.2667 -11.1502 2.3018
2.6821 -11.0525 2.3018
3.0931 -10.9383 2.3018
3.4990 -10.8077 2.3018
3.8991 -10.6611 2.3018
4.2926 -10.4983 2.3017
4.6791 -10.3205 2.3017
5.0579 -10.1276 2.3017
5.4283 -9.9198 2.3017
5.7898 -9.6976 2.3017
6.2571 -9.6394 2.3449
6.6054 -9.3851 2.3449
6.9429 -9.1175 2.3449
4.8876 -5.9419 1.5767
5.1965 -5.8549 1.6069
7.5459 -7.8850 2.2439
7.5679 -7.3358 2.1708
7.5820 -6.8165 2.1038
7.5993 -6.3329 2.0450
7.6157 -5.8765 1.9925
7.6564 -5.4619 1.9520
8.3358 -5.4863 2.0755
9.1048 -5.5139 2.2185
8.9303 -4.9598 2.1337
8.9525 -4.5409 2.1014
10.1504 -4.6778 2.3449
10.2951 -4.2834 2.3449
9.0216 -3.3618 2.0294
9.0351 -2.9853 2.0106
9.0545 -2.6187 1.9964
9.0736 -2.2585 1.9853
10.7835 -2.2575 2.3449
6.3547 -1.0828 1.3755
6.3635 -0.8395 1.3730
6.3722 -0.5980 1.3725
6.3808 -0.3575 1.3739
6.3894 -0.1173 1.3773
6.3981 0.1232 1.3827
6.4068 0.3648 1.3900
6.4155 0.6081 1.3994
6.4243 0.8538 1.4109
6.4333 1.1027 1.4245
6.4424 1.3556 1.4404
6.4516 1.6132 1.4586
6.4611 1.8766 1.4793
6.4708 2.1466 1.5025
6.4808 2.4244 1.5286
6.4911 2.7110 1.5577
6.5018 3.0078 1.5900
6.5128 3.3161 1.6258
6.5244 3.6377 1.6654
6.5365 3.9743 1.7093
6.5492 4.3281 1.7578
6.5626 4.7015 1.8114
6.5769 5.0973 1.8709
6.5920 5.5189 1.9369
6.6082 5.9702 2.0102
6.6257 6.4558 2.0920
6.6446 6.9814 2.1835
6.6652 7.5538 2.2862
6.4082 7.8395 2.3017
6.0984 8.0626 2.3017
5.7812 8.2742 2.3017
5.4572 8.4740 2.3017
5.1267 8.6618 2.3017
4.7902 8.8375 2.3017
4.4480 9.0008 2.3017
4.1007 9.1517 2.3017
3.7486 9.2900 2.3017
3.3922 9.4156 2.3017
3.0319 9.5283 2.3017
2.6681 9.6280 2.3017
2.4045 10.1506 2.4049
2.0186 10.2275 2.4049
1.6304 10.2907 2.4049
1.2404 10.3401 2.4049
0.8490 10.3756 2.4049
0.4568 10.3973 2.4049
0.0642 10.4051 2.4049
-0.3284 10.3990 2.4049
-0.7205 10.3790 2.4049
-1.1117 10.3451 2.4049
-1.5015 10.2975 2.4049
-1.8895 10.2360 2.4049
-2.2751 10.1609 2.4049
-2.6580 10.0721 2.4049
-3.0377 9.9698 2.4049
-3.4137 9.8540 2.4049
-3.7856 9.7250 2.4049
-4.1530 9.5826 2.4049
-4.5154 9.4273 2.4049
-4.8724 9.2590 2.4049
-5.2236 9.0779 2.4049
-5.5181 8.8041 2.3832
-5.6534 8.3063 2.3019
-5.9702 8.0974 2.3019
-6.2797 7.8771 2.3019
-6.5816 7.6456 2.3019
-6.8755 7.4031 2.3019
-7.1609 7.1498 2.3019
-6.2929 5.8263 1.9476
-6.5110 5.5874 1.9452
-7.9628 6.3281 2.3019
-8.2107 6.0346 2.3019
-8.4483 5.7318 2.3019
-8.6752 5.4199 2.3019
-8.8911 5.0995 2.3019
-9.0957 4.7707 2.3019
-9.2886 4.4341 2.3019
-9.4695 4.0900 2.3019
-9.6381 3.7387 2.3019
-9.7891 3.3789 2.3007
-9.8012 2.9751 2.2703
-9.8148 2.5800 2.2441
-9.8282 2.1915 2.2215
-9.8414 1.8086 2.2022
-9.8545 1.4299 2.1862
-9.8675 1.0544 2.1734
-9.8804 0.6810 2.1637
-9.8952 0.3087 2.1576
-9.9086 -0.0638 2.1541
-9.9219 -0.4375 2.1536
-9.9353 -0.8134 2.1562
-9.9489 -1.1926 2.1619
-9.9626 -1.5762 2.1707
-9.9754 -1.9653 2.1826
-9.9895 -2.3614 2.1980
-10.0039 -2.7657 2.2169
-10.0187 -3.1797 2.2395
-10.0339 -3.6049 2.2660
-10.0495 -4.0430 2.2966
-9.9370 -4.4385 2.3019
-9.2759 -4.5703 2.3019
-9.1181 -4.9266 2.3019
-8.9464 -5.2773 2.3019
-8.7609 -5.6218 2.3019
-8.5619 -5.9595 2.3019
-8.3495 -6.2899 2.3019
-8.1240 -6.6125 2.3019
-7.8857 -6.9266 2.3019
-7.6349 -7.2317 2.3019
-7.3719 -7.5273 2.3019
-7.0970 -7.8129 2.3019
-6.8108 -8.0880 2.3019
-6.5135 -8.3520 2.3019
-6.2055 -8.6044 2.3019
-6.1511 -9.2411 2.4049
-5.8086 -9.4793 2.4049
-5.0573 -8.9941 2.2290
-4.7553 -9.2534 2.2444
-4.7257 -10.1119 2.4049
-3.4973 -8.2798 1.9344
-3.1536 -8.3242 1.9137
-3.5716 -10.6130 2.4049
-3.1739 -10.7492 2.4049
-2.7707 -10.8695 2.4049
-2.3628 -10.9738 2.4049
-1.9509 -11.0617 2.4049
-1.5355 -11.1330 2.4049
-1.1174 -11.1878 2.4049
-0.6973 -11.2258 2.4049
-0.2759 -11.2470 2.4049
0.1461 -11.2513 2.4049
0.5679 -11.2386 2.4049
0.9890 -11.2091 2.4049
1.4084 -11.1628 2.4049
1.8180 -11.0533 2.3949
2.1439 -10.5475 2.3019
2.5367 -10.4547 2.3017
2.9256 -10.3471 2.3017
3.3096 -10.2240 2.3017
3.6881 -10.0857 2.3017
4.0607 -9.9326 2.3017
4.4265 -9.7648 2.3017
4.7851 -9.5828 2.3017
5.1358 -9.3867 2.3017
5.4781 -9.1771 2.3017
5.8115 -8.9544 2.3017
6.2507 -8.8826 2.3449
6.5705 -8.6300 2.3449
4.8899 -5.9458 1.6667
5.1996 -5.8596 1.6987
7.4644 -7.8015 2.3449
7.5642 -7.3339 2.2920
7.5819 -6.8181 2.2220
7.5993 -6.3343 2.1597
7.6157 -5.8779 2.1041
7.6543 -5.4618 2.0605
8.3333 -5.4862 2.1906
9.1162 -5.5225 2.3449
8.9302 -4.9614 2.2522
8.9524 -4.5425 2.2179
9.6181 -4.4342 2.3449
9.7564 -4.0609 2.3449
9.0215 -3.3633 2.1412
9.0350 -2.9867 2.1211
9.0545 -2.6202 2.1058
9.0736 -2.2600 2.0939
10.2254 -2.1423 2.3449
6.3547 -1.0838 1.4503
6.3634 -0.8406 1.4475
6.3721 -0.5990 1.4468
6.3808 -0.3585 1.4482
6.3894 -0.1183 1.4516
6.3980 0.1222 1.4571
6.4067 0.3637 1.4646
6.4155 0.6070 1.4744
6.4243 0.8527 1.4863
6.4333 1.1016 1.5004
6.4423 1.3545 1.5170
6.4516 1.6122 1.5359
6.4611 1.8755 1.5575
6.4708 2.1455 1.5819
6.4808 2.4232 1.6091
6.4911 2.7098 1.6395
6.5017 3.0065 1.6734
6.5128 3.3149 1.7109
6.5244 3.6364 1.7524
6.5365 3.9730 1.7983
6.5492 4.3268 1.8492
6.5626 4.7001 1.9054
6.5768 5.0959 1.9678
6.5920 5.5174 2.0370
6.6082 5.9686 2.1139
6.6256 6.4542 2.1997
6.6445 6.9797 2.2957
6.3827 7.2320 2.3017
6.0958 7.4556 2.3017
5.8015 7.6684 2.3017
5.5002 7.8702 2.3017
5.1922 8.0608 2.3017
4.8781 8.2401 2.3017
4.5581 8.4077 2.3017
4.2328 8.5637 2.3017
3.9025 8.7077 2.3017
3.5676 8.8397 2.3017
3.2286 8.9596 2.3017
2.8858 9.0673 2.3017
2.5569 9.2249 2.3174
2.2888 9.6602 2.4049
1.9215 9.7337 2.4049
1.5520 9.7941 2.4049
1.1808 9.8413 2.4049
0.8083 9.8753 2.4049
0.4350 9.8961 2.4049
0.0612 9.9036 2.4049
-0.3126 9.8978 2.4049
-0.6858 9.8788 2.4049
-1.0582 9.8465 2.4049
-1.4293 9.8011 2.4049
-1.7985 9.7425 2.4049
-2.1656 9.6708 2.4049
-2.5300 9.5861 2.4049
-2.8914 9.4885 2.4049
-3.2493 9.3781 2.4049
-3.6032 9.2549 2.4049
-3.9527 9.1191 2.4049
-4.2975 8.9709 2.4049
-4.6371 8.8103 2.4049
-4.9710 8.6376 2.4049
-5.2989 8.4529 2.4049
-5.5420 8.1411 2.3714
-5.6806 7.7033 2.3019
-5.9748 7.4932 2.3019
-6.2616 7.2724 2.3019
-6.5407 7.0412 2.3019
-6.8118 6.7998 2.3019
-6.2889 5.8213 2.0463
-6.5074 5.5831 2.0441
-7.5728 6.0167 2.3019
-7.8079 5.7371 2.3019
-8.0331 5.4486 2.3019
-8.2481 5.1516 2.3019
-8.4526 4.8465 2.3019
-8.6463 4.5335 2.3019
-8.8288 4.2131 2.3019
-8.9998 3.8855 2.3019
-9.1591 3.5513 2.3019
-9.3064 3.2108 2.3019
-9.4413 2.8643 2.3019
-9.5637 2.5124 2.3019
-9.6734 2.1554 2.3019
-9.7700 1.7939 2.3019
-9.8545 1.4283 2.3021
-9.8675 1.0529 2.2889
-9.8804 0.6795 2.2790
-9.8954 0.3071 2.2728
-9.9087 -0.0654 2.2693
-9.9220 -0.4391 2.2691
-9.9355 -0.8150 2.2721
-9.9490 -1.1942 2.2784
-9.9627 -1.5779 2.2880
-9.9756 -1.9670 2.3008
-9.9229 -2.3472 2.3019
-9.8511 -2.7251 2.3019
-9.7648 -3.1007 2.3019
-9.6641 -3.4736 2.3019
-9.5490 -3.8433 2.3019
-9.4195 -4.2090 2.3019
-8.8136 -4.3442 2.3019
-8.6627 -4.6822 2.3019
-8.4987 -5.0149 2.3019
-8.3216 -5.3416 2.3019
-8.1317 -5.6618 2.3019
-7.9292 -5.9750 2.3019
-7.7143 -6.2807 2.3019
-7.4873 -6.5783 2.3019
-7.2485 -6.8674 2.3019
-6.9982 -7.1475 2.3019
-6.7367 -7.4179 2.3019
-6.4644 -7.6783 2.3019
-6.1817 -7.9283 2.3019
-6.1407 -8.5164 2.4002
-5.8369 -8.7708 2.4049
-5.5115 -8.9963 2.4049
-5.1770 -9.2090 2.4049
-4.8341 -9.4086 2.4049
-4.4831 -9.5947 2.4049
-4.1246 -9.7669 2.4049
-3.4757 -9.1763 2.2235
-3.3876 -10.0684 2.4049
-3.0103 -10.1972 2.4049
-2.6278 -10.3109 2.4049
-2.2409 -10.4094 2.4049
-1.8501 -10.4924 2.4049
-1.4561 -10.5598 2.4049
-1.0596 -10.6115 2.4049
-0.6612 -10.6474 2.4049
-0.2615 -10.6673 2.4049
0.1386 -10.6713 2.4049
0.5387 -10.6593 2.4049
0.9379 -10.6313 2.4049
1.3357 -10.5874 2.4049
1.7314 -10.5277 2.4049
2.0331 -10.0035 2.3017
2.4058 -9.9164 2.3017
2.7746 -9.8145 2.3017
3.1389 -9.6981 2.3017
3.4980 -9.5673 2.3017
3.8515 -9.4224 2.3017
4.1987 -9.2637 2.3017
4.5390 -9.0914 2.3017
4.8719 -8.9059 2.3017
5.1969 -8.7076 2.3017
5.5135 -8.4967 2.3017
5.8212 -8.2738 2.3017
6.2344 -8.1901 2.3449
4.8922 -5.9497 1.7573
5.2028 -5.8645 1.7911
7.0842 -7.4056 2.3449
7.3454 -7.1233 2.3449
7.5950 -6.8314 2.3449
7.5992 -6.3358 2.2751
7.6156 -5.8794 2.2162
7.6521 -5.4617 2.1696
8.3308 -5.4861 2.3063
8.6572 -5.2460 2.3449
8.8306 -4.9076 2.3449
8.9410 -4.5382 2.3320
9.1366 -4.2138 2.3449
9.2690 -3.8596 2.3449
9.0215 -3.3648 2.2535
9.0349 -2.9882 2.2321
9.0544 -2.6217 2.2159
9.0735 -2.2615 2.2030
9.7198 -2.0380 2.3449
6.3547 -1.0848 1.5256
6.3634 -0.8416 1.5225
6.3721 -0.6001 1.5216
6.3807 -0.3595 1.5228
6.3894 -0.1194 1.5262
6.3980 0.1211 1.5318
6.4067 0.3627 1.5396
6.4154 0.6059 1.5497
6.4243 0.8517 1.5620
6.4332 1.1005 1.5767
6.4423 1.3534 1.5939
6.4516 1.6110 1.6137
6.4610 1.8744 1.6362
6.4707 2.1444 1.6616
6.4807 2.4221 1.6900
6.4910 2.7086 1.7218
6.5017 3.0053 1.7571
6.5128 3.3136 1.7963
6.5243 3.6351 1.8398
6.5364 3.9717 1.8878
6.5491 4.3254 1.9410
6.5625 4.6987 1.9999
6.5768 5.0945 2.0652
6.5919 5.5159 2.1376
6.6081 5.9671 2.2182
6.6256 6.4525 2.3080
6.3497 6.6684 2.3017
6.0841 6.8921 2.3017
5.8110 7.1058 2.3017
5.5308 7.3091 2.3017
5.2439 7.5020 2.3017
4.9506 7.6842 2.3017
4.6514 7.8555 2.3017
4.3466 8.0158 2.3017
4.0366 8.1649 2.3017
3.7217 8.3027 2.3017
3.4025 8.4290 2.3017
3.0793 8.5437 2.3017
2.7525 8.6467 2.3017
2.5311 9.1298 2.4049
2.1833 9.2127 2.4049
1.8330 9.2831 2.4049
1.4806 9.3409 2.4049
1.1265 9.3861 2.4049
0.7712 9.4187 2.4049
0.4150 9.4386 2.4049
0.0585 9.4459 2.4049
-0.2981 9.4404 2.4049
-0.6542 9.4223 2.4049
-1.0094 9.3915 2.4049
-1.3634 9.3480 2.4049
-1.7156 9.2921 2.4049
-2.0657 9.2235 2.4049
-2.4133 9.1426 2.4049
-2.7579 9.0493 2.4049
-3.0992 8.9437 2.4049
-3.4367 8.8260 2.4049
-3.7700 8.6962 2.4049
-4.0987 8.5545 2.4049
-4.4224 8.4010 2.4049
-4.7407 8.2359 2.4049
-5.0532 8.0594 2.4049
-5.3594 7.8716 2.4049
-5.5635 7.5430 2.3643
-5.6967 7.1431 2.3019
-5.9699 6.9322 2.3019
-6.2356 6.7113 2.3019
-6.4936 6.4807 2.3019
-6.2849 5.8162 2.1453
-6.5039 5.5787 2.1434
-7.2175 5.7330 2.3019
-7.4409 5.4660 2.3019
-7.6550 5.1907 2.3019
-7.8592 4.9073 2.3019
-8.0534 4.6161 2.3019
-8.2372 4.3175 2.3019
-8.4103 4.0119 2.3019
-8.5724 3.6995 2.3019
-8.7233 3.3809 2.3019
-8.8627 3.0562 2.3019
-8.9904 2.7260 2.3019
-9.1060 2.3907 2.3019
-9.2095 2.0505 2.3019
-9.3005 1.7062 2.3019
-9.3788 1.3579 2.3019
-9.4444 1.0062 2.3019
-9.4969 0.6516 2.3019
-9.5364 0.2945 2.3019
-9.5625 -0.0647 2.3019
-9.5752 -0.4253 2.3019
-9.5744 -0.7869 2.3019
-9.5600 -1.1490 2.3019
-9.5319 -1.5112 2.3019
-9.4901 -1.8728 2.3019
-9.4346 -2.2333 2.3019
-9.3653 -2.5923 2.3019
-9.2822 -2.9491 2.3019
-9.1854 -3.3032 2.3019
-9.0750 -3.6541 2.3019
-8.9510 -4.0013 2.3019
-8.3930 -4.1385 2.3019
-8.2486 -4.4599 2.3019
-8.0916 -4.7762 2.3019
-7.9223 -5.0868 2.3019
-7.7408 -5.3912 2.3019
-7.5473 -5.6888 2.3019
-7.3421 -5.9793 2.3019
-7.1254 -6.2620 2.3019
-6.8976 -6.5366 2.3019
-6.6588 -6.8025 2.3019
-6.4095 -7.0593 2.3019
-6.1499 -7.3065 2.3019
-6.1166 -7.8465 2.3943
-5.8526 -8.1185 2.4049
-5.5517 -8.3441 2.4049
-5.2419 -8.5581 2.4049
-4.9235 -8.7598 2.4049
-4.5970 -8.9491 2.4049
-4.2630 -9.1256 2.4049
-3.9220 -9.2888 2.4049
-3.5334 -9.3305 2.3774
-3.2209 -9.5747 2.4049
-2.8619 -9.6967 2.4049
-2.4982 -9.8045 2.4049
-2.1303 -9.8978 2.4049
-1.7587 -9.9764 2.4049
-1.3841 -10.0403 2.4049
-1.0072 -10.0893 2.4049
-0.6284 -10.1232 2.4049
-0.2485 -10.1420 2.4049
0.1319 -10.1457 2.4049
0.5122 -10.1343 2.4049
0.8917 -10.1077 2.4049
1.2698 -10.0660 2.4049
1.6460 -10.0093 2.4049
1.9328 -9.5111 2.3017
2.2871 -9.4285 2.3017
2.6378 -9.3318 2.3017
2.9842 -9.2214 2.3017
3.3257 -9.0973 2.3017
3.6619 -8.9599 2.3017
3.9921 -8.8093 2.3017
4.3159 -8.6459 2.3017
4.6326 -8.4699 2.3017
4.9419 -8.2817 2.3017
5.2433 -8.0817 2.3017
5.5361 -7.8701 2.3017
5.8202 -7.6473 2.3017
4.8945 -5.9537 1.8484
5.2061 -5.8693 1.8841
6.7390 -7.0463 2.3449
6.9881 -6.7783 2.3449
7.2261 -6.5010 2.3449
7.4527 -6.2151 2.3449
7.6677 -5.9210 2.3449
7.6500 -5.4617 2.2792
8.0616 -5.3103 2.3449
8.2401 -4.9948 2.3449
8.4059 -4.6731 2.3449
8.5589 -4.3457 2.3449
8.6988 -4.0134 2.3449
8.8257 -3.6765 2.3449
8.9393 -3.3356 2.3449
9.0233 -2.9859 2.3408
9.0428 -2.6198 2.3235
9.0618 -2.2600 2.3098
9.2595 -1.9430 2.3449
6.3546 -1.0859 1.6013
6.3634 -0.8426 1.5978
6.3721 -0.6011 1.5967
6.3807 -0.3606 1.5979
6.3893 -0.1204 1.6013
6.3980 0.1201 1.6070
6.4067 0.3616 1.6150
6.4154 0.6049 1.6254
6.4242 0.8506 1.6381
6.4332 1.0995 1.6534
6.4423 1.3523 1.6713
6.4515 1.6099 1.6918
6.4610 1.8733 1.7153
6.4707 2.1432 1.7417
6.4807 2.4209 1.7714
6.4910 2.7074 1.8045
6.5016 3.0041 1.8414
6.5127 3.3124 1.8823
6.5243 3.6339 1.9276
6.5364 3.9704 1.9778
6.5491 4.3241 2.0334
6.5625 4.6973 2.0949
6.5767 5.0930 2.1631
6.5919 5.5144 2.2388
6.6081 5.9655 2.3230
6.3098 6.1435 2.3017
6.0641 6.3669 2.3017
5.8108 6.5810 2.3017
5.5504 6.7855 2.3017
5.2831 6.9802 2.3017
5.0093 7.1648 2.3017
4.7294 7.3393 2.3017
4.4438 7.5034 2.3017
4.1528 7.6569 2.3017
3.8568 7.7997 2.3017
3.5561 7.9317 2.3017
3.2513 8.0527 2.3017
2.9425 8.1626 2.3017
2.6303 8.2613 2.3017
2.4188 8.7232 2.4049
2.0865 8.8026 2.4049
1.7518 8.8701 2.4049
1.4151 8.9256 2.4049
1.0767 8.9689 2.4049
0.7371 9.0002 2.4049
0.3967 9.0193 2.4049
0.0560 9.0263 2.4049
-0.2848 9.0211 2.4049
-0.6251 9.0038 2.4049
-0.9646 8.9743 2.4049
-1.3029 8.9328 2.4049
-1.6396 8.8792 2.4049
-1.9742 8.8136 2.4049
-2.3063 8.7361 2.4049
-2.6356 8.6468 2.4049
-2.9617 8.5456 2.4049
-3.2841 8.4329 2.4049
-3.6025 8.3086 2.4049
-3.9165 8.1729 2.4049
-4.2257 8.0260 2.4049
-4.5296 7.8680 2.4049
-4.8280 7.6990 2.4049
-5.1204 7.5192 2.4049
-5.4065 7.3289 2.4049
-5.5830 6.9992 2.3614
-5.7028 6.6207 2.3019
-5.9563 6.4093 2.3019
-6.2023 6.1887 2.3019
-6.2808 5.8112 2.2448
-6.5004 5.5744 2.2431
-6.8924 5.4734 2.3019
-7.1053 5.2181 2.3019
-7.3091 4.9548 2.3019
-7.5036 4.6838 2.3019
-7.6883 4.4055 2.3019
-7.8631 4.1201 2.3019
-8.0277 3.8280 2.3019
-8.1818 3.5295 2.3019
-8.3251 3.2251 2.3019
-8.4574 2.9150 2.3019
-8.5784 2.5997 2.3019
-8.6880 2.2795 2.3019
-8.7858 1.9548 2.3019
-8.8718 1.6261 2.3019
-8.9457 1.2937 2.3019
-9.0074 0.9582 2.3019
-9.0566 0.6199 2.3019
-9.0933 0.2793 2.3019
-9.1173 -0.0631 2.3019
-9.1285 -0.4069 2.3019
-9.1268 -0.7516 2.3019
-9.1121 -1.0967 2.3019
-9.0844 -1.4418 2.3019
-9.0437 -1.7862 2.3019
-8.9898 -2.1296 2.3019
-8.9229 -2.4713 2.3019
-8.8428 -2.8110 2.3019
-8.7498 -3.1481 2.3019
-8.6437 -3.4820 2.3019
-8.5248 -3.8123 2.3019
-8.0088 -3.9505 2.3019
-7.8702 -4.2569 2.3019
-7.7198 -4.5583 2.3019
-7.5576 -4.8541 2.3019
-7.3838 -5.1441 2.3019
-7.1987 -5.4276 2.3019
-7.0024 -5.7041 2.3019
-6.7952 -5.9733 2.3019
-6.5773 -6.2347 2.3019
-6.3492 -6.4877 2.3019
-6.1110 -6.7321 2.3019
-6.0949 -7.2428 2.3929
-5.8570 -7.5152 2.4049
-5.5789 -7.7405 2.4049
-5.2918 -7.9551 2.4049
-4.9961 -8.1585 2.4049
-4.6924 -8.3504 2.4049
-4.3810 -8.5303 2.4049
-4.0625 -8.6981 2.4049
-3.7373 -8.8532 2.4049
-3.4059 -8.9956 2.4049
-3.0689 -9.1249 2.4049
-2.7268 -9.2408 2.4049
-2.3802 -9.3432 2.4049
-2.0295 -9.4318 2.4049
-1.6755 -9.5065 2.4049
-1.3186 -9.5671 2.4049
-0.9594 -9.6136 2.4049
-0.5986 -9.6458 2.4049
-0.2367 -9.6636 2.4049
0.1257 -9.6671 2.4049
0.4880 -9.6561 2.4049
0.8496 -9.6308 2.4049
1.2098 -9.5912 2.4049
1.5682 -9.5373 2.4049
1.8834 -9.2691 2.3541
2.1791 -8.9841 2.3017
2.5132 -8.8922 2.3017
2.8433 -8.7872 2.3017
3.1688 -8.6692 2.3017
3.4892 -8.5385 2.3017
3.8039 -8.3954 2.3017
4.1126 -8.2400 2.3017
4.4146 -8.0726 2.3017
4.7096 -7.8937 2.3017
4.9970 -7.7034 2.3017
5.2763 -7.5021 2.3017
5.5473 -7.2903 2.3017
4.8980 -5.9591 1.9405
5.2094 -5.8743 1.9778
6.4243 -6.7187 2.3449
6.6622 -6.4636 2.3449
6.8895 -6.1997 2.3449
7.1061 -5.9275 2.3449
7.3117 -5.6475 2.3449
7.5059 -5.3602 2.3449
7.6885 -5.0660 2.3449
7.8593 -4.7654 2.3449
8.0181 -4.4589 2.3449
8.1647 -4.1471 2.3449
8.2990 -3.8304 2.3449
8.4207 -3.5093 2.3449
8.5298 -3.1843 2.3449
8.6263 -2.8560 2.3449
8.7099 -2.5249 2.3449
8.7807 -2.1914 2.3449
8.8386 -1.8561 2.3449
6.3546 -1.0869 1.6774
6.3633 -0.8437 1.6736
6.3720 -0.6021 1.6723
6.3807 -0.3616 1.6733
6.3893 -0.1214 1.6767
6.3979 0.1191 1.6826
6.4066 0.3606 1.6908
6.4154 0.6038 1.7015
6.4242 0.8495 1.7147
6.4331 1.0984 1.7305
6.4422 1.3512 1.7491
6.4515 1.6088 1.7704
6.4609 1.8721 1.7948
6.4707 2.1421 1.8223
6.4806 2.4197 1.8532
6.4909 2.7062 1.8877
6.5016 3.0029 1.9261
6.5127 3.3111 1.9687
6.5242 3.6326 2.0160
6.5363 3.9691 2.0683
6.5490 4.3227 2.1262
6.5624 4.6959 2.1904
6.5767 5.0915 2.2615
6.5918 5.5129 2.3405
6.2634 5.6529 2.3017
6.0363 5.8758 2.3017
5.8017 6.0899 2.3017
5.5597 6.2951 2.3017
5.3108 6.4912 2.3017
5.0554 6.6778 2.3017
4.7937 6.8549 2.3017
4.5261 7.0222 2.3017
4.2529 7.1796 2.3017
3.9746 7.3268 2.3017
3.6915 7.4639 2.3017
3.4039 7.5905 2.3017
0.7785 1.9278 0.5758
2.8167 7.8120 2.3017
2.5179 7.9068 2.3017
2.3156 8.3491 2.4049
1.9975 8.4254 2.4049
1.6771 8.4902 2.4049
1.3548 8.5434 2.4049
1.0308 8.5851 2.4049
0.7058 8.6151 2.4049
0.3799 8.6335 2.4049
0.0537 8.6403 2.4049
-0.2726 8.6353 2.4049
-0.5984 8.6188 2.4049
-0.9235 8.5906 2.4049
-1.2473 8.5507 2.4049
-1.5696 8.4993 2.4049
-1.8899 8.4364 2.4049
-2.2079 8.3621 2.4049
-2.5231 8.2764 2.4049
-2.8352 8.1795 2.4049
-3.1438 8.0713 2.4049
-0.8271 1.9071 0.5768
-3.7489 7.8220 2.4049
-4.0447 7.6811 2.4049
-4.3355 7.5296 2.4049
-4.6210 7.3675 2.4049
-4.9006 7.1951 2.4049
-5.1742 7.0126 2.4049
-5.4413 6.8202 2.4049
-5.6009 6.5011 2.3625
-5.6995 6.1317 2.3019
-5.9346 5.9203 2.3019
-6.1622 5.7001 2.3019
-6.3820 5.4716 2.3019
-6.5937 5.2349 2.3019
-6.7969 4.9903 2.3019
-6.9914 4.7381 2.3019
-7.1769 4.4786 2.3019
-7.3531 4.2121 2.3019
-7.5198 3.9388 2.3019
-7.6766 3.6592 2.3019
-7.8233 3.3735 2.3019
-7.9597 3.0822 2.3019
-8.0855 2.7855 2.3019
-8.2005 2.4838 2.3019
-8.3046 2.1775 2.3019
-8.3974 1.8670 2.3019
-8.4788 1.5527 2.3019
-8.5487 1.2349 2.3019
-8.6069 0.9142 2.3019
-8.6531 0.5909 2.3019
-8.6874 0.2654 2.3019
-8.7095 -0.0617 2.3019
-8.7194 -0.3901 2.3019
-8.7170 -0.7193 2.3019
-8.7021 -1.0488 2.3019
-8.6749 -1.3782 2.3019
-8.6352 -1.7070 2.3019
-8.5829 -2.0346 2.3019
-8.5182 -2.3607 2.3019
-8.4411 -2.6848 2.3019
-8.3514 -3.0063 2.3019
-8.2495 -3.3247 2.3019
-8.1352 -3.6396 2.3019
-7.6562 -3.7780 2.3019
-7.5231 -4.0706 2.3019
-7.3787 -4.3583 2.3019
-7.2231 -4.6408 2.3019
-7.0565 -4.9175 2.3019
-6.8790 -5.1880 2.3019
-6.6909 -5.4519 2.3019
-6.4925 -5.7087 2.3019
-6.2839 -5.9580 2.3019
-6.0688 -6.2028 2.3031
-6.0752 -6.6942 2.3956
-5.8512 -6.9548 2.4049
-5.5942 -7.1796 2.4049
-5.3282 -7.3944 2.4049
-5.0538 -7.5989 2.4049
-4.7711 -7.7928 2.4049
-4.4808 -7.9756 2.4049
-4.1833 -8.1470 2.4049
-3.8789 -8.3068 2.4049
-3.5683 -8.4546 2.4049
-3.2518 -8.5902 2.4049
-2.9299 -8.7133 2.4049
-2.6032 -8.8237 2.4049
-2.2722 -8.9211 2.4049
-1.9374 -9.0055 2.4049
-1.5994 -9.0766 2.4049
-1.2586 -9.1343 2.4049
-0.9158 -9.1785 2.4049
-0.5713 -9.2091 2.4049
-0.2258 -9.2260 2.4049
0.1201 -9.2293 2.4049
0.4659 -9.2188 2.4049
0.8110 -9.1947 2.4049
1.1549 -9.1568 2.4049
1.4970 -9.1055 2.4049
1.8367 -9.0406 2.4049
2.0802 -8.5776 2.3017
2.3992 -8.4900 2.3017
2.7144 -8.3899 2.3017
3.0252 -8.2776 2.3017
3.3311 -8.1530 2.3017
3.6318 -8.0166 2.3017
3.9266 -7.8685 2.3017
4.2151 -7.7091 2.3017
4.4969 -7.5385 2.3017
4.7715 -7.3572 2.3017
5.0385 -7.1653 2.3017
5.2976 -6.9634 2.3017
4.9025 -5.9659 2.0338
5.2128 -5.8792 2.0722
6.1361 -6.4186 2.3449
6.3637 -6.1753 2.3449
6.5812 -5.9237 2.3449
6.7886 -5.6640 2.3449
6.9854 -5.3969 2.3449
7.1715 -5.1228 2.3449
7.3465 -4.8420 2.3449
7.5103 -4.5552 2.3449
7.6626 -4.2626 2.3449
7.8033 -3.9649 2.3449
7.9322 -3.6625 2.3449
8.0492 -3.3558 2.3449
8.1542 -3.0455 2.3449
8.2470 -2.7318 2.3449
8.3277 -2.4155 2.3449
8.3961 -2.0968 2.3449
8.4522 -1.7763 2.3449
6.3546 -1.0880 1.7539
6.3633 -0.8447 1.7498
6.3720 -0.6032 1.7483
6.3806 -0.3626 1.7492
6.3893 -0.1225 1.7526
6.3979 0.1180 1.7586
6.4066 0.3595 1.7670
6.4153 0.6028 1.7780
6.4242 0.8484 1.7917
6.4331 1.0973 1.8081
6.4422 1.3501 1.8273
6.4514 1.6077 1.8495
6.4609 1.8710 1.8748
6.4706 2.1409 1.9034
6.4806 2.4186 1.9355
6.4909 2.7050 1.9713
6.5015 3.0017 2.0113
6.5126 3.3099 2.0556
6.5242 3.6313 2.1048
6.5363 3.9677 2.1593
6.5490 4.3213 2.2196
6.5624 4.6945 2.2864
6.4128 4.9632 2.3017
6.2111 5.1931 2.3017
6.0015 5.4151 2.3017
5.7842 5.6289 2.3017
5.5597 5.8345 2.3017
5.3281 6.0315 2.3017
5.0899 6.2197 2.3017
4.8453 6.3989 2.3017
4.5947 6.5690 2.3017
4.3384 6.7296 2.3017
4.0768 6.8808 2.3017
3.8102 7.0223 2.3017
3.5389 7.1539 2.3017
0.8141 1.8150 0.5742
0.7449 1.8443 0.5746
0.6747 1.8710 0.5751
0.6036 1.8950 0.5755
0.5316 1.9163 0.5758
1.9153 8.0771 2.4049
1.6082 8.1394 2.4049
1.2991 8.1906 2.4049
0.9885 8.2307 2.4049
0.6768 8.2596 2.4049
0.3644 8.2773 2.4049
0.0515 8.2838 2.4049
-0.2613 8.2791 2.4049
-0.5737 8.2632 2.4049
-0.8854 8.2361 2.4049
-1.1960 8.1979 2.4049
-1.5050 8.1486 2.4049
-1.8121 8.0882 2.4049
-0.5077 1.9225 0.5767
-0.5799 1.9020 0.5765
-0.6514 1.8788 0.5762
-0.7219 1.8530 0.5759
-0.7913 1.8245 0.5756
-3.5942 7.4981 2.4049
-3.8777 7.3627 2.4049
-4.1564 7.2172 2.4049
-4.4299 7.0616 2.4049
-4.6978 6.8961 2.4049
-4.9598 6.7208 2.4049
-5.2157 6.5361 2.4049
-5.4649 6.3420 2.4049
-5.6174 6.0422 2.3671
-5.6877 5.6727 2.3019
-5.9055 5.4614 2.3019
-6.1158 5.2421 2.3019
-6.3183 5.0149 2.3019
-6.5126 4.7803 2.3019
-6.6986 4.5383 2.3019
-6.8759 4.2894 2.3019
-7.0442 4.0338 2.3019
-7.2034 3.7718 2.3019
-7.3531 3.5037 2.3019
-7.4931 3.2298 2.3019
-7.6231 2.9506 2.3019
-7.7431 2.6662 2.3019
-7.8526 2.3771 2.3019
-7.9516 2.0836 2.3019
-8.0399 1.7861 2.3019
-8.1172 1.4851 2.3019
-8.1834 1.1808 2.3019
-8.2384 0.8737 2.3019
-8.2820 0.5642 2.3019
-8.3141 0.2526 2.3019
-8.3345 -0.0604 2.3019
-8.3433 -0.3747 2.3019
-8.3403 -0.6896 2.3019
-8.3254 -1.0048 2.3019
-8.2986 -1.3198 2.3019
-8.2599 -1.6342 2.3019
-8.2092 -1.9475 2.3019
-8.1466 -2.2592 2.3019
-8.0721 -2.5688 2.3019
-7.9858 -2.8760 2.3019
-7.8876 -3.1803 2.3019
-7.7777 -3.4811 2.3019
-7.3314 -3.6191 2.3019
-7.2035 -3.8990 2.3019
-7.0647 -4.1742 2.3019
-6.9152 -4.4443 2.3019
-6.7551 -4.7089 2.3019
-6.5848 -4.9676 2.3019
-6.4043 -5.2198 2.3019
-6.2236 -5.4737 2.3054
-6.0492 -5.7370 2.3154
-6.0572 -6.1924 2.4020
-5.8363 -6.4325 2.4049
-5.5988 -6.6563 2.4049
-5.3526 -6.8710 2.4049
-5.0978 -7.0762 2.4049
-4.8349 -7.2715 2.4049
-4.5643 -7.4565 2.4049
-4.2864 -7.6311 2.4049
-4.0016 -7.7947 2.4049
-3.7103 -7.9472 2.4049
-3.4130 -8.0883 2.4049
-3.1101 -8.2177 2.4049
-2.8022 -8.3351 2.4049
-2.4896 -8.4404 2.4049
-2.1730 -8.5334 2.4049
-1.8528 -8.6139 2.4049
-1.5294 -8.6817 2.4049
-1.2036 -8.7367 2.4049
-0.8757 -8.7789 2.4049
-0.5462 -8.8080 2.4049
-0.2159 -8.8241 2.4049
0.1149 -8.8272 2.4049
0.4456 -8.8172 2.4049
0.7757 -8.7941 2.4049
1.1045 -8.7580 2.4049
1.4317 -8.7089 2.4049
1.7565 -8.6469 2.4049
1.9894 -8.2042 2.3017
2.2945 -8.1206 2.3017
2.5959 -8.0251 2.3017
2.8933 -7.9178 2.3017
3.1860 -7.7989 2.3017
3.4736 -7.6687 2.3017
3.7557 -7.5273 2.3017
4.0318 -7.3750 2.3017
4.3015 -7.2122 2.3017
4.5643 -7.0390 2.3017
4.8200 -6.8558 2.3017
5.0680 -6.6629 2.3017
4.9072 -5.9727 2.1279
5.2161 -5.8842 2.1672
5.7628 -6.0294 2.3017
5.9768 -5.8013 2.3017
6.2977 -5.6698 2.3449
6.4965 -5.4217 2.3449
6.6853 -5.1664 2.3449
6.8638 -4.9043 2.3449
7.0318 -4.6359 2.3449
7.1890 -4.3617 2.3449
7.3353 -4.0819 2.3449
7.4706 -3.7972 2.3449
7.5945 -3.5079 2.3449
7.7071 -3.2146 2.3449
7.8082 -2.9176 2.3449
7.8977 -2.6175 2.3449
7.9756 -2.3147 2.3449
8.0417 -2.0096 2.3449
8.0960 -1.7028 2.3449
6.3545 -1.0890 1.8309
6.3633 -0.8458 1.8265
6.3719 -0.6042 1.8247
6.3806 -0.3637 1.8256
6.3892 -0.1235 1.8290
6.3979 0.1169 1.8350
6.4065 0.3584 1.8437
6.4153 0.6017 1.8551
6.4241 0.8474 1.8692
6.4331 1.0962 1.8861
6.4421 1.3490 1.9060
6.4514 1.6066 1.9290
6.4609 1.8699 1.9552
6.4706 2.1398 1.9849
6.4805 2.4174 2.0182
6.4908 2.7038 2.0555
6.5015 3.0004 2.0970
6.5126 3.3086 2.1431
6.5241 3.6300 2.1942
6.5362 3.9664 2.2508
6.5489 4.3199 2.3136
6.3383 4.5328 2.3017
6.1531 4.7609 2.3017
5.9599 4.9817 2.3017
5.7591 5.1950 2.3017
5.5509 5.4006 2.3017
5.3357 5.5981 2.3017
5.1138 5.7875 2.3017
4.8854 5.9684 2.3017
4.6509 6.1408 2.3017
4.4105 6.3043 2.3017
4.1647 6.4588 2.3017
3.9137 6.6042 2.3017
3.6579 6.7402 2.3017
3.3976 6.8669 2.3017
0.7802 1.7391 0.5732
0.7139 1.7672 0.5736
0.6467 1.7928 0.5740
0.5785 1.8158 0.5744
0.5095 1.8363 0.5747
0.4398 1.8541 0.5750
0.3694 1.8693 0.5753
0.2986 1.8818 0.5755
0.2273 1.8917 0.5757
0.1556 1.8989 0.5759
0.0838 1.9034 0.5760
0.0119 1.9052 0.5761
-0.0601 1.9042 0.5761
-0.1320 1.9006 0.5761
-0.2037 1.8943 0.5761
-0.2751 1.8853 0.5760
-0.3461 1.8736 0.5759
-0.4166 1.8592 0.5758
-0.4865 1.8422 0.5756
-0.5558 1.8226 0.5754
-0.6242 1.8003 0.5751
-0.6918 1.7756 0.5749
-0.7584 1.7483 0.5745
-0.8239 1.7185 0.5742
-3.7231 7.0679 2.4049
-3.9905 6.9279 2.4049
-4.2529 6.7783 2.4049
-4.5100 6.6191 2.4049
-4.7613 6.4507 2.4049
-5.0067 6.2731 2.4049
-5.2458 6.0865 2.4049
-5.4782 5.8912 2.4049
-5.6327 5.6166 2.3750
-5.6679 5.2405 2.3019
-5.8694 5.0297 2.3019
-6.0634 4.8115 2.3019
-6.2496 4.5860 2.3019
-6.4277 4.3536 2.3019
-6.5974 4.1145 2.3019
-6.7585 3.8690 2.3019
-6.9108 3.6173 2.3019
-7.0540 3.3599 2.3019
-7.1878 3.0970 2.3019
-7.3121 2.8289 2.3019
-7.4266 2.5559 2.3019
-7.5311 2.2785 2.3019
-7.6255 1.9969 2.3019
-7.7096 1.7115 2.3019
-7.7832 1.4227 2.3019
-7.8461 1.1308 2.3019
-7.8982 0.8363 2.3019
-7.9394 0.5395 2.3019
-7.9695 0.2409 2.3019
-7.9885 -0.0593 2.3019
-7.9963 -0.3604 2.3019
-7.9927 -0.6622 2.3019
-7.9778 -0.9642 2.3019
-7.9515 -1.2660 2.3019
-7.9138 -1.5671 2.3019
-7.8647 -1.8671 2.3019
-7.8041 -2.1655 2.3019
-7.7321 -2.4620 2.3019
-7.6488 -2.7560 2.3019
-7.5542 -3.0472 2.3019
-7.4483 -3.3351 2.3019
-7.0312 -3.4723 2.3019
-6.9080 -3.7405 2.3019
-6.7745 -4.0041 2.3019
-6.6307 -4.2629 2.3019
-6.4768 -4.5163 2.3019
-6.3131 -4.7639 2.3019
-6.1396 -5.0055 2.3019
-6.0303 -5.3051 2.3303
-6.0229 -5.7134 2.4049
-5.8128 -5.9440 2.4049
-5.5937 -6.1666 2.4049
-5.3659 -6.3808 2.4049
-5.1296 -6.5862 2.4049
-4.8852 -6.7825 2.4049
-4.6330 -6.9693 2.4049
-4.3735 -7.1463 2.4049
-4.1070 -7.3132 2.4049
-3.8340 -7.4698 2.4049
-3.5547 -7.6156 2.4049
-3.2698 -7.7505 2.4049
-2.9795 -7.8742 2.4049
-2.6844 -7.9864 2.4049
-2.3849 -8.0871 2.4049
-2.0815 -8.1760 2.4049
-1.7747 -8.2529 2.4049
-1.4650 -8.3176 2.4049
-1.1528 -8.3702 2.4049
-0.8387 -8.4104 2.4049
-0.5231 -8.4383 2.4049
-0.2067 -8.4537 2.4049
0.1102 -8.4565 2.4049
0.4269 -8.4469 2.4049
0.7431 -8.4248 2.4049
1.0581 -8.3903 2.4049
1.3714 -8.3433 2.4049
1.6826 -8.2840 2.4049
1.9339 -7.9764 2.3358
2.1980 -7.7800 2.3017
2.4868 -7.6887 2.3017
2.7716 -7.5861 2.3017
3.0521 -7.4724 2.3017
3.3277 -7.3478 2.3017
3.5981 -7.2126 2.3017
3.8627 -7.0669 2.3017
4.1212 -6.9112 2.3017
4.3732 -6.7455 2.3017
4.6184 -6.5702 2.3017
4.8562 -6.3857 2.3017
4.9108 -5.9783 2.2222
5.2180 -5.8875 2.2623
5.5228 -5.7795 2.3017
5.7282 -5.5612 2.3017
5.9247 -5.3352 2.3017
6.2269 -5.1980 2.3449
6.4083 -4.9536 2.3449
6.5797 -4.7027 2.3449
6.7412 -4.4456 2.3449
6.8924 -4.1829 2.3449
7.0331 -3.9150 2.3449
7.1632 -3.6422 2.3449
7.2825 -3.3651 2.3449
7.3910 -3.0840 2.3449
7.4885 -2.7994 2.3449
7.5748 -2.5118 2.3449
7.6500 -2.2215 2.3449
7.7140 -1.9291 2.3449
7.7667 -1.6349 2.3449
6.3545 -1.0901 1.9084
6.3632 -0.8468 1.9037
6.3719 -0.6053 1.9017
6.3806 -0.3648 1.9024
6.3892 -0.1246 1.9059
6.3978 0.1159 1.9120
6.4065 0.3574 1.9209
6.4152 0.6006 1.9326
6.4241 0.8463 1.9472
6.4330 1.0951 1.9647
6.4421 1.3479 1.9852
6.4514 1.6055 2.0090
6.4608 1.8687 2.0362
6.4705 2.1386 2.0670
6.4805 2.4162 2.1015
6.4908 2.7026 2.1402
6.5015 2.9992 2.1832
6.5125 3.3073 2.2311
6.5241 3.6287 2.2842
6.5362 3.9650 2.3430
6.2595 4.1277 2.3017
6.0897 4.3538 2.3017
5.9121 4.5732 2.3017
5.7268 4.7856 2.3017
5.5342 4.9908 2.3017
5.3344 5.1886 2.3017
5.1279 5.3788 2.3017
4.9148 5.5610 2.3017
4.6955 5.7352 2.3017
4.4703 5.9011 2.3017
4.2395 6.0585 2.3017
4.0034 6.2073 2.3017
3.7623 6.3473 2.3017
3.5165 6.4783 2.3017
0.8114 1.6395 0.5718
0.7489 1.6689 0.5722
0.6853 1.6959 0.5726
0.6207 1.7204 0.5730
0.5552 1.7425 0.5734
0.4890 1.7621 0.5737
0.4221 1.7792 0.5740
0.3546 1.7939 0.5743
0.2866 1.8059 0.5745
0.2181 1.8154 0.5747
0.1494 1.8223 0.5748
0.0805 1.8266 0.5749
0.0114 1.8283 0.5750
-0.0577 1.8274 0.5751
-0.1266 1.8239 0.5751
-0.1955 1.8178 0.5750
-0.2640 1.8092 0.5750
-0.3321 1.7979 0.5749
-0.3998 1.7841 0.5747
-0.4670 1.7678 0.5746
-0.5334 1.7490 0.5744
-0.5991 1.7277 0.5741
-0.6640 1.7039 0.5738
-0.7279 1.6777 0.5735
-0.7908 1.6491 0.5732
-3.5794 6.7940 2.4049
-3.8364 6.6592 2.4049
-4.0885 6.5151 2.4049
-4.3355 6.3619 2.4049
-4.5770 6.1998 2.4049
-4.8127 6.0288 2.4049
-5.0423 5.8492 2.4049
-5.2655 5.6612 2.4049
-5.4819 5.4650 2.4049
-5.6470 5.2199 2.3862
-5.6689 4.8567 2.3133
-5.8269 4.6226 2.3019
-6.0055 4.4057 2.3019
-6.1763 4.1821 2.3019
-6.3391 3.9521 2.3019
-6.4935 3.7160 2.3019
-6.6394 3.4741 2.3019
-6.7765 3.2266 2.3019
-6.9047 2.9738 2.3019
-7.0236 2.7161 2.3019
-7.1332 2.4537 2.3019
-7.2331 2.1871 2.3019
-7.3233 1.9165 2.3019
-7.4035 1.6423 2.3019
-7.4736 1.3649 2.3019
-7.5335 1.0845 2.3019
-7.5830 0.8017 2.3019
-7.6220 0.5167 2.3019
-7.6504 0.2299 2.3019
-7.6681 -0.0582 2.3019
-7.6750 -0.3472 2.3019
-7.6710 -0.6368 2.3019
-7.6562 -0.9266 2.3019
-7.6304 -1.2161 2.3019
-7.5936 -1.5050 2.3019
-7.5459 -1.7927 2.3019
-7.4872 -2.0789 2.3019
-7.4177 -2.3632 2.3019
-7.3372 -2.6451 2.3019
-7.2459 -2.9242 2.3019
-7.1439 -3.2001 2.3019
-6.7529 -3.3362 2.3019
-6.6342 -3.5935 2.3019
-6.5055 -3.8464 2.3019
-6.3670 -4.0947 2.3019
-6.2189 -4.3377 2.3019
-6.0613 -4.5753 2.3019
-6.0118 -4.9026 2.3477
-5.9746 -5.2576 2.4049
-5.7817 -5.4860 2.4049
-5.5797 -5.7071 2.4049
-5.3691 -5.9204 2.4049
-5.1501 -6.1257 2.4049
-4.9231 -6.3226 2.4049
-4.6883 -6.5106 2.4049
-4.4461 -6.6896 2.4049
-4.1969 -6.8592 2.4049
-3.9410 -7.0191 2.4049
-3.6788 -7.1690 2.4049
-3.4108 -7.3087 2.4049
-3.1372 -7.4379 2.4049
-2.8586 -7.5563 2.4049
-2.5754 -7.6638 2.4049
-2.2880 -7.7602 2.4049
-1.9969 -7.8452 2.4049
-1.7025 -7.9189 2.4049
-1.4053 -7.9809 2.4049
-1.1058 -8.0312 2.4049
-0.8045 -8.0696 2.4049
-0.5018 -8.0963 2.4049
-0.1982 -8.1110 2.4049
0.1058 -8.1137 2.4049
0.4096 -8.1044 2.4049
0.7129 -8.0832 2.4049
1.0151 -8.0501 2.4049
1.3157 -8.0051 2.4049
1.6142 -7.9484 2.4049
1.9103 -7.8799 2.4049
2.1087 -7.4650 2.3017
2.3858 -7.3775 2.3017
2.6591 -7.2792 2.3017
2.9282 -7.1703 2.3017
3.1928 -7.0509 2.3017
3.4522 -6.9214 2.3017
3.7062 -6.7819 2.3017
3.9544 -6.6326 2.3017
4.1964 -6.4739 2.3017
4.4318 -6.3059 2.3017
4.6602 -6.1291 2.3017
4.8814 -5.9436 2.3017
5.0949 -5.7499 2.3017
5.3005 -5.5482 2.3017
5.4979 -5.3388 2.3017
5.6869 -5.1222 2.3017
5.8670 -4.8987 2.3017
6.0382 -4.6687 2.3017
6.3166 -4.5158 2.3449
6.4719 -4.2693 2.3449
6.6174 -4.0174 2.3449
6.7530 -3.7603 2.3449
6.8783 -3.4986 2.3449
6.9933 -3.2327 2.3449
7.0979 -2.9630 2.3449
7.1920 -2.6898 2.3449
7.2754 -2.4137 2.3449
7.3481 -2.1351 2.3449
7.4101 -1.8543 2.3449
7.4612 -1.5718 2.3449
6.3544 -1.0911 1.9864
6.3632 -0.8479 1.9813
6.3719 -0.6063 1.9791
6.3805 -0.3658 1.9798
6.3891 -0.1257 1.9832
6.3978 0.1148 1.9895
6.4065 0.3563 1.9986
6.4152 0.5995 2.0106
6.4240 0.8452 2.0256
6.4330 1.0940 2.0437
6.4421 1.3468 2.0650
6.4513 1.6043 2.0896
6.4608 1.8675 2.1177
6.4705 2.1374 2.1496
6.4805 2.4150 2.1854
6.4908 2.7014 2.2254
6.5014 2.9979 2.2701
6.5125 3.3060 2.3197
6.3234 3.5158 2.3017
6.1765 3.7456 2.3017
6.0214 3.9695 2.3017
5.8585 4.1872 2.3017
5.6879 4.3985 2.3017
5.5099 4.6031 2.3017
5.3249 4.8008 2.3017
5.1329 4.9913 2.3017
4.9344 5.1746 2.3017
4.7296 5.3502 2.3017
4.5188 5.5180 2.3017
4.3022 5.6779 2.3017
4.0803 5.8296 2.3017
3.8532 5.9730 2.3017
3.6212 6.1080 2.3017
3.3848 6.2343 2.3017
0.7799 1.5755 0.5709
0.7197 1.6037 0.5713
0.6586 1.6296 0.5717
0.5966 1.6532 0.5721
0.5337 1.6744 0.5725
0.4700 1.6933 0.5728
0.4057 1.7098 0.5731
0.3408 1.7238 0.5733
0.2754 1.7353 0.5735
0.2097 1.7445 0.5737
0.1436 1.7511 0.5738
0.0774 1.7552 0.5739
0.0110 1.7569 0.5740
-0.0554 1.7560 0.5741
-0.1217 1.7527 0.5741
-0.1878 1.7468 0.5740
-0.2537 1.7385 0.5740
-0.3192 1.7277 0.5739
-0.3843 1.7145 0.5738
-0.4488 1.6988 0.5736
-0.5126 1.6807 0.5734
-0.5758 1.6602 0.5732
-0.6381 1.6373 0.5729
-0.6995 1.6121 0.5726
-0.7600 1.5847 0.5723
-0.8193 1.5549 0.5719
-3.6928 6.4089 2.4049
-3.9354 6.2700 2.4049
-4.1730 6.1223 2.4049
-4.4053 5.9661 2.4049
-4.6320 5.8013 2.4049
-4.8528 5.6282 2.4049
-5.0674 5.4471 2.4049
-5.2755 5.2581 2.4049
-5.4768 5.0614 2.4049
-5.6603 4.8481 2.4004
-5.6776 4.5029 2.3309
-5.7783 4.2379 2.3019
-5.9424 4.0226 2.3019
-6.0987 3.8011 2.3019
-6.2469 3.5737 2.3019
-6.3869 3.3408 2.3019
-6.5185 3.1025 2.3019
-6.6413 2.8592 2.3019
-6.7553 2.6111 2.3019
-6.8603 2.3587 2.3019
-6.9560 2.1021 2.3019
-7.0423 1.8418 2.3019
-7.1190 1.5780 2.3019
-7.1860 1.3111 2.3019
-7.2431 1.0415 2.3019
-7.2902 0.7695 2.3019
-7.3272 0.4955 2.3019
-7.3540 0.2198 2.3019
-7.3705 -0.0571 2.3019
-7.3766 -0.3350 2.3019
-7.3723 -0.6133 2.3019
-7.3576 -0.8917 2.3019
-7.3323 -1.1699 2.3019
-7.2965 -1.4473 2.3019
-7.2501 -1.7237 2.3019
-7.1933 -1.9986 2.3019
-7.1259 -2.2715 2.3019
-7.0481 -2.5422 2.3019
-6.9600 -2.8101 2.3019
-6.8615 -3.0749 2.3019
-6.4941 -3.2095 2.3019
-6.3795 -3.4568 2.3019
-6.2554 -3.6998 2.3019
-6.1219 -3.9383 2.3019
-5.9951 -4.1829 2.3080
-5.9973 -4.5283 2.3691
-5.9203 -4.8293 2.4049
-5.7433 -5.0554 2.4049
-5.5575 -5.2747 2.4049
-5.3631 -5.4869 2.4049
-5.1605 -5.6917 2.4049
-4.9498 -5.8888 2.4049
-4.7313 -6.0777 2.4049
-4.5055 -6.2582 2.4049
-4.2726 -6.4299 2.4049
-4.0329 -6.5926 2.4049
-3.7869 -6.7460 2.4049
-3.5348 -6.8898 2.4049
-3.2771 -7.0238 2.4049
-3.0142 -7.1477 2.4049
-2.7464 -7.2612 2.4049
-2.4743 -7.3643 2.4049
-2.1981 -7.4568 2.4049
-1.9184 -7.5383 2.4049
-1.6355 -7.6089 2.4049
-1.3500 -7.6683 2.4049
-1.0623 -7.7165 2.4049
-0.7728 -7.7534 2.4049
-0.4820 -7.7789 2.4049
-0.1903 -7.7930 2.4049
0.1017 -7.7956 2.4049
0.3936 -7.7867 2.4049
0.6849 -7.7663 2.4049
0.9752 -7.7345 2.4049
1.2640 -7.6913 2.4049
1.5508 -7.6369 2.4049
1.8352 -7.5712 2.4049
2.0258 -7.1727 2.3017
2.2921 -7.0887 2.3017
2.5547 -6.9944 2.3017
2.8133 -6.8899 2.3017
3.0675 -6.7754 2.3017
3.3169 -6.6511 2.3017
3.5610 -6.5173 2.3017
3.7996 -6.3740 2.3017
4.0322 -6.2217 2.3017
4.2585 -6.0606 2.3017
4.4782 -5.8908 2.3017
4.6909 -5.7128 2.3017
4.8963 -5.5269 2.3017
5.0941 -5.3333 2.3017
5.2841 -5.1323 2.3017
5.4659 -4.9244 2.3017
5.6393 -4.7098 2.3017
5.8041 -4.4889 2.3017
5.9601 -4.2621 2.3017
6.2217 -4.1055 2.3449
6.3619 -3.8635 2.3449
6.4926 -3.6165 2.3449
6.6135 -3.3651 2.3449
6.7245 -3.1096 2.3449
6.8254 -2.8504 2.3449
6.9163 -2.5879 2.3449
6.9969 -2.3226 2.3449
7.0673 -2.0547 2.3449
7.1273 -1.7848 2.3449
7.1769 -1.5131 2.3449
6.3544 -1.0922 2.0649
6.3631 -0.8489 2.0595
6.3718 -0.6074 2.0571
6.3805 -0.3669 2.0577
6.3891 -0.1267 2.0611
6.3977 0.1137 2.0675
6.4064 0.3552 2.0768
6.4152 0.5984 2.0892
6.4240 0.8441 2.1047
6.4329 1.0929 2.1233
6.4420 1.3456 2.1453
6.4513 1.6032 2.1707
6.4607 1.8664 2.1998
6.4704 2.1362 2.2328
6.4804 2.4138 2.2698
6.4907 2.7002 2.3113
6.4667 2.9807 2.3449
6.2226 3.1577 2.3017
6.0895 3.3845 2.3017
5.9484 3.6060 2.3017
5.7993 3.8218 2.3017
5.6427 4.0317 2.3017
5.4787 4.2355 2.3017
5.3075 4.4328 2.3017
5.1295 4.6234 2.3017
4.9448 4.8072 2.3017
4.7538 4.9839 2.3017
4.5567 5.1533 2.3017
4.3538 5.3152 2.3017
4.1453 5.4695 2.3017
3.9316 5.6159 2.3017
3.7129 5.7543 2.3017
3.4895 5.8845 2.3017
0.8073 1.4865 0.5696
0.7505 1.5158 0.5701
0.6926 1.5430 0.5705
0.6338 1.5679 0.5709
0.5741 1.5906 0.5713
0.5136 1.6110 0.5716
0.4523 1.6292 0.5719
0.3904 1.6450 0.5722
0.3280 1.6585 0.5724
0.2651 1.6697 0.5726
0.2018 1.6784 0.5728
0.1382 1.6848 0.5729
0.0745 1.6888 0.5730
0.0106 1.6904 0.5731
-0.0533 1.6895 0.5731
-0.1171 1.6863 0.5732
-0.1807 1.6807 0.5731
-0.2441 1.6727 0.5731
-0.3072 1.6623 0.5730
-0.3698 1.6496 0.5728
-0.4318 1.6345 0.5727
-0.4933 1.6170 0.5725
-0.5541 1.5973 0.5723
-0.6141 1.5753 0.5720
-0.6732 1.5511 0.5717
-0.7313 1.5247 0.5714
-0.7885 1.4960 0.5711
-3.5587 6.1750 2.4049
-3.7924 6.0411 2.4049
-4.0213 5.8986 2.4049
-4.2450 5.7478 2.4049
-4.4633 5.5888 2.4049
-4.6759 5.4219 2.4049
-4.8825 5.2471 2.4049
-5.0828 5.0648 2.4049
-5.2765 4.8751 2.4049
-5.4634 4.6783 2.4049
-5.6432 4.4745 2.4049
-5.6850 4.1683 2.3509
-5.7241 3.8737 2.3019
-5.8938 3.6723 2.3095
-6.0168 3.4410 2.3019
-6.1514 3.2164 2.3019
-6.2777 2.9868 2.3019
-6.3957 2.7523 2.3019
-6.5052 2.5133 2.3019
-6.6059 2.2700 2.3019
-6.6976 2.0228 2.3019
-6.7803 1.7721 2.3019
-6.8538 1.5180 2.3019
-6.9178 1.2610 2.3019
-6.9724 1.0014 2.3019
-7.0173 0.7395 2.3019
-7.0525 0.4757 2.3019
-7.0779 0.2103 2.3019
-7.0933 -0.0562 2.3019
-7.0988 -0.3235 2.3019
-7.0942 -0.5914 2.3019
-7.0795 -0.8592 2.3019
-7.0547 -1.1268 2.3019
-7.0198 -1.3937 2.3019
-6.9748 -1.6595 2.3019
-6.9197 -1.9238 2.3019
-6.8545 -2.1862 2.3019
-6.7792 -2.4464 2.3019
-6.6940 -2.7040 2.3019
-6.5989 -2.9585 2.3019
-6.2526 -3.0914 2.3019
-6.1470 -3.3320 2.3037
-6.0222 -3.5631 2.3019
-5.9768 -3.8462 2.3345
-5.9847 -4.1770 2.3935
-5.8603 -4.4262 2.4049
-5.6984 -4.6496 2.4049
-5.5278 -4.8669 2.4049
-5.3487 -5.0778 2.4049
-5.1614 -5.2818 2.4049
-4.9661 -5.4787 2.4049
-4.7631 -5.6680 2.4049
-4.5527 -5.8496 2.4049
-4.3352 -6.0230 2.4049
-4.1109 -6.1880 2.4049
-3.8802 -6.3443 2.4049
-3.6433 -6.4917 2.4049
-3.4007 -6.6298 2.4049
-3.1527 -6.7585 2.4049
-2.8997 -6.8775 2.4049
-2.6420 -6.9866 2.4049
-2.3801 -7.0856 2.4049
-2.1144 -7.1743 2.4049
-1.8453 -7.2526 2.4049
-1.5732 -7.3204 2.4049
-1.2985 -7.3774 2.4049
-1.0217 -7.4237 2.4049
-0.7432 -7.4591 2.4049
-0.4635 -7.4836 2.4049
-0.1830 -7.4970 2.4049
0.0979 -7.4995 2.4049
0.3786 -7.4909 2.4049
0.6589 -7.4713 2.4049
0.9381 -7.4408 2.4049
1.2159 -7.3993 2.4049
1.4917 -7.3470 2.4049
1.7653 -7.2839 2.4049
1.9715 -6.9814 2.3286
2.2048 -6.8199 2.3017
2.4575 -6.7293 2.3017
2.7063 -6.6289 2.3017
2.9509 -6.5189 2.3017
3.1909 -6.3995 2.3017
3.4258 -6.2709 2.3017
3.6554 -6.1333 2.3017
3.8793 -5.9869 2.3017
4.0972 -5.8321 2.3017
4.3087 -5.6690 2.3017
4.5135 -5.4979 2.3017
4.7113 -5.3192 2.3017
4.9019 -5.1331 2.3017
5.0849 -4.9400 2.3017
5.2600 -4.7401 2.3017
5.4272 -4.5338 2.3017
5.5860 -4.3214 2.3017
5.7364 -4.1033 2.3017
5.8781 -3.8799 2.3017
6.0108 -3.6514 2.3017
6.2499 -3.4825 2.3449
6.3666 -3.2407 2.3449
6.4738 -2.9949 2.3449
6.5713 -2.7455 2.3449
6.6592 -2.4929 2.3449
6.7372 -2.2375 2.3449
6.8053 -1.9797 2.3449
6.8635 -1.7199 2.3449
6.9117 -1.4584 2.3449
6.3544 -1.0933 2.1440
6.3631 -0.8500 2.1383
6.3718 -0.6085 2.1357
6.3804 -0.3680 2.1361
6.3891 -0.1278 2.1396
6.3977 0.1126 2.1461
6.4064 0.3541 2.1556
6.4151 0.5973 2.1683
6.4240 0.8429 2.1843
6.4329 1.0917 2.2035
6.4420 1.3445 2.2262
6.4512 1.6020 2.2524
6.4607 1.8652 2.2825
6.4704 2.1350 2.3165
6.4531 2.4024 2.3449
6.2307 2.5908 2.3017
6.1189 2.8192 2.3017
5.9989 3.0429 2.3017
5.8708 3.2618 2.3017
5.7350 3.4755 2.3017
5.5916 3.6838 2.3017
5.4409 3.8863 2.3017
5.2830 4.0830 2.3017
5.1182 4.2734 2.3017
4.9467 4.4575 2.3017
4.7688 4.6349 2.3017
4.5848 4.8055 2.3017
4.3949 4.9691 2.3017
4.1993 5.1255 2.3017
3.9984 5.2744 2.3017
3.7924 5.4158 2.3017
3.5815 5.5495 2.3017
0.8314 1.4016 0.5685
0.7778 1.4319 0.5689
0.7231 1.4601 0.5693
0.6673 1.4862 0.5698
0.6107 1.5103 0.5701
0.5531 1.5322 0.5705
0.4948 1.5518 0.5708
0.4358 1.5693 0.5711
0.3762 1.5846 0.5714
0.3160 1.5976 0.5716
0.2554 1.6083 0.5718
0.1944 1.6168 0.5719
0.1332 1.6229 0.5721
0.0718 1.6268 0.5722
0.0102 1.6283 0.5722
-0.0513 1.6275 0.5723
-0.1128 1.6244 0.5723
-0.1741 1.6190 0.5723
-0.2352 1.6112 0.5722
-0.2959 1.6013 0.5721
-0.3562 1.5890 0.5720
-0.4160 1.5744 0.5718
-0.4753 1.5576 0.5717
-0.5338 1.5386 0.5714
-0.5916 1.5174 0.5712
-0.6485 1.4941 0.5709
-0.7046 1.4686 0.5706
-0.7596 1.4411 0.5703
-0.8136 1.4114 0.5699
-3.6585 5.8267 2.4049
-3.8792 5.6891 2.4049
-4.0949 5.5434 2.4049
-4.3053 5.3899 2.4049
-4.5103 5.2287 2.4049
-4.7094 5.0600 2.4049
-4.9024 4.8840 2.4049
-5.0890 4.7008 2.4049
-5.2691 4.5108 2.4049
-5.4423 4.3141 2.4049
-5.6083 4.1109 2.4049
-5.6961 3.8536 2.3754
-5.7136 3.5589 2.3218
-5.8016 3.3168 2.3019
-5.9310 3.1001 2.3019
-6.0526 2.8785 2.3019
-6.1660 2.6523 2.3019
-6.2712 2.4218 2.3019
-6.3680 2.1871 2.3019
-6.4561 1.9488 2.3019
-6.5354 1.7069 2.3019
-6.6059 1.4620 2.3019
-6.6673 1.2142 2.3019
-6.7195 0.9639 2.3019
-6.7624 0.7115 2.3019
-6.7959 0.4573 2.3019
-6.8199 0.2015 2.3019
-6.8344 -0.0553 2.3019
-6.8393 -0.3129 2.3019
-6.8345 -0.5709 2.3019
-6.8199 -0.8289 2.3019
-6.7957 -1.0866 2.3019
-6.7616 -1.3436 2.3019
-6.7179 -1.5995 2.3019
-6.6644 -1.8540 2.3019
-6.6012 -2.1066 2.3019
-6.5283 -2.3571 2.3019
-6.4459 -2.6049 2.3019
-6.3540 -2.8499 2.3019
-6.0269 -2.9810 2.3019
-5.9588 -3.2312 2.3170
-5.9614 -3.5284 2.3642
-5.9341 -3.8199 2.4049
-5.7951 -4.0459 2.4049
-5.6473 -4.2665 2.4049
-5.4910 -4.4817 2.4049
-5.3264 -4.6909 2.4049
-5.1536 -4.8938 2.4049
-4.9729 -5.0902 2.4049
-4.7845 -5.2797 2.4049
-4.5887 -5.4619 2.4049
-4.3859 -5.6365 2.4049
-4.1762 -5.8034 2.4049
-3.9600 -5.9622 2.4049
-3.7376 -6.1125 2.4049
-3.5093 -6.2543 2.4049
-3.2755 -6.3871 2.4049
-3.0365 -6.5109 2.4049
-2.7927 -6.6253 2.4049
-2.5445 -6.7302 2.4049
-2.2922 -6.8254 2.4049
-2.0363 -6.9107 2.4049
-1.7771 -6.9860 2.4049
-1.5150 -7.0511 2.4049
-1.2504 -7.1060 2.4049
-0.9839 -7.1504 2.4049
-0.7157 -7.1844 2.4049
-0.4463 -7.2079 2.4049
-0.1761 -7.2209 2.4049
0.0943 -7.2232 2.4049
0.3647 -7.2149 2.4049
0.6345 -7.1961 2.4049
0.9034 -7.1667 2.4049
1.1709 -7.1268 2.4049
1.4366 -7.0764 2.4049
1.7001 -7.0157 2.4049
1.9609 -6.9448 2.4049
2.1234 -6.5690 2.3017
2.3668 -6.4819 2.3017
2.6065 -6.3853 2.3017
2.8421 -6.2795 2.3017
3.0732 -6.1647 2.3017
3.2996 -6.0409 2.3017
3.5209 -5.9086 2.3017
3.7366 -5.7678 2.3017
3.9466 -5.6188 2.3017
4.1504 -5.4618 2.3017
4.3479 -5.2973 2.3017
4.5386 -5.1253 2.3017
4.7223 -4.9462 2.3017
4.8988 -4.7603 2.3017
5.0678 -4.5679 2.3017
5.2290 -4.3693 2.3017
5.3823 -4.1649 2.3017
5.5274 -3.9549 2.3017
5.6642 -3.7398 2.3017
5.7924 -3.5198 2.3017
5.9119 -3.2953 2.3017
6.0226 -3.0667 2.3017
6.1243 -2.8344 2.3017
6.3338 -2.6474 2.3449
6.4188 -2.4041 2.3449
6.4943 -2.1580 2.3449
6.5603 -1.9096 2.3449
6.6168 -1.6592 2.3449
6.6636 -1.4072 2.3449
6.3543 -1.0943 2.2237
6.3631 -0.8511 2.2177
6.3718 -0.6096 2.2148
6.3804 -0.3691 2.2151
6.3890 -0.1289 2.2186
6.3977 0.1115 2.2252
6.4063 0.3530 2.2350
6.4151 0.5962 2.2481
6.4239 0.8418 2.2645
6.4329 1.0906 2.2843
6.4419 1.3433 2.3076
6.4512 1.6008 2.3347
6.2857 1.8136 2.3017
6.2029 2.0456 2.3017
6.1117 2.2742 2.3017
6.0122 2.4988 2.3017
5.9047 2.7193 2.3017
5.7891 2.9354 2.3017
5.6659 3.1468 2.3017
5.5350 3.3532 2.3017
5.3969 3.5543 2.3017
5.2516 3.7500 2.3017
5.0994 3.9400 2.3017
4.9406 4.1240 2.3017
4.7753 4.3018 2.3017
4.6037 4.4733 2.3017
4.4263 4.6382 2.3017
4.2431 4.7963 2.3017
4.0544 4.9474 2.3017
3.8605 5.0914 2.3017
3.6618 5.2281 2.3017
3.4583 5.3574 2.3017
0.8018 1.3516 0.5678
0.7501 1.3807 0.5682
0.6974 1.4080 0.5686
0.6436 1.4332 0.5690
0.5890 1.4563 0.5694
0.5335 1.4774 0.5697
0.4772 1.4964 0.5701
0.4203 1.5133 0.5703
0.3628 1.5280 0.5706
0.3048 1.5406 0.5708
0.2463 1.5509 0.5710
0.1875 1.5591 0.5711
0.1285 1.5650 0.5713
0.0692 1.5687 0.5714
0.0099 1.5702 0.5714
-0.0495 1.5694 0.5715
-0.1088 1.5664 0.5715
-0.1679 1.5612 0.5715
-0.2268 1.5537 0.5714
-0.2854 1.5441 0.5713
-0.3436 1.5322 0.5712
-0.4012 1.5182 0.5711
-0.4584 1.5020 0.5709
-0.5148 1.4837 0.5707
-0.5705 1.4633 0.5704
-0.6255 1.4407 0.5702
-0.6795 1.4162 0.5699
-0.7326 1.3896 0.5695
-0.7846 1.3610 0.5692
-3.5328 5.6255 2.4049
-3.7458 5.4924 2.4049
-3.9540 5.3517 2.4049
-4.1571 5.2033 2.4049
-4.3548 5.0475 2.4049
-4.5469 4.8844 2.4049
-4.7331 4.7143 2.4049
-4.9132 4.5373 2.4049
-5.0868 4.3537 2.4049
-5.2538 4.1636 2.4049
-5.4139 3.9673 2.4049
-5.5669 3.7651 2.4049
-5.7069 3.5536 2.4026
-5.7175 3.2676 2.3503
-5.7372 2.9977 2.3070
-5.8415 2.7771 2.3019
-5.9507 2.5586 2.3019
-6.0520 2.3360 2.3019
-6.1450 2.1095 2.3019
-6.2297 1.8794 2.3019
-6.3060 1.6459 2.3019
-6.3736 1.4095 2.3019
-6.4325 1.1703 2.3019
-6.4825 0.9288 2.3019
-6.5236 0.6852 2.3019
-6.5556 0.4400 2.3019
-6.5784 0.1933 2.3019
-6.5920 -0.0545 2.3019
-6.5963 -0.3029 2.3019
-6.5913 -0.5517 2.3019
-6.5770 -0.8005 2.3019
-6.5532 -1.0490 2.3019
-6.5200 -1.2967 2.3019
-6.4774 -1.5434 2.3019
-6.4255 -1.7887 2.3019
-6.3642 -2.0322 2.3019
-6.2937 -2.2735 2.3019
-6.2139 -2.5123 2.3019
-6.1263 -2.7489 2.3024
-5.9404 -2.9394 2.3513
-5.9506 -3.2280 2.3981
-5.8507 -3.4641 2.4049
-5.7249 -3.6865 2.4049
-5.5906 -3.9043 2.4049
-5.4478 -4.1170 2.4049
-5.2968 -4.3244 2.4049
-5.1377 -4.5260 2.4049
-4.9708 -4.7215 2.4049
-4.7963 -4.9107 2.4049
-4.6145 -5.0933 2.4049
-4.4255 -5.2688 2.4049
-4.2297 -5.4371 2.4049
-4.0273 -5.5978 2.4049
-3.8187 -5.7507 2.4049
-3.6041 -5.8955 2.4049
-3.3839 -6.0320 2.4049
-3.1583 -6.1599 2.4049
-2.9278 -6.2791 2.4049
-2.6927 -6.3893 2.4049
-2.4533 -6.4903 2.4049
-2.2100 -6.5819 2.4049
-1.9632 -6.6640 2.4049
-1.7132 -6.7365 2.4049
-1.4605 -6.7992 2.4049
-1.2055 -6.8520 2.4049
-0.9484 -6.8948 2.4049
-0.6899 -6.9275 2.4049
-0.4302 -6.9501 2.4049
-0.1697 -6.9625 2.4049
0.0910 -6.9647 2.4049
0.3517 -6.9567 2.4049
0.6118 -6.9386 2.4049
0.8710 -6.9102 2.4049
1.1289 -6.8718 2.4049
1.3851 -6.8233 2.4049
1.6391 -6.7649 2.4049
1.8905 -6.6965 2.4049
2.0472 -6.3343 2.3017
2.2819 -6.2504 2.3017
2.5130 -6.1574 2.3017
2.7402 -6.0555 2.3017
2.9632 -5.9449 2.3017
3.1815 -5.8257 2.3017
3.3949 -5.6982 2.3017
3.6031 -5.5626 2.3017
3.8056 -5.4191 2.3017
4.0023 -5.2680 2.3017
4.1928 -5.1094 2.3017
4.3769 -4.9437 2.3017
