ply
format ascii 1.0
element vertex 2079
property float32 x
property float32 y
property float32 z
end_header
-69.3494 -37.2157 -0.7731
-65.0764 -38.1427 -0.7451
-61.1392 -38.9969 -0.7201
-61.7474 -42.7351 -0.7494
-62.6612 -46.9493 -0.7851
-62.6918 -50.7639 -0.8125
-62.0916 -54.2694 -0.8342
-63.3494 -59.7181 -0.8841
-62.0977 -63.1152 -0.9025
-16.5518 -18.1400 -0.2512
-29.7634 -35.1917 -0.4729
-40.9447 -56.5389 -0.7201
-30.4678 -49.5246 -0.6024
-17.7001 -46.5434 -0.5189
-15.1360 -85.4676 -0.9033
-11.8612 -85.6214 -0.8986
2.8455 -56.3333 -0.5806
4.5369 -51.3679 -0.5293
6.0401 -47.7914 -0.4929
7.8862 -47.8497 -0.4946
8.9423 -43.8959 -0.4552
2.5078 -10.3106 -0.1074
4.7255 -16.6707 -0.1746
9.0800 -27.9759 -0.2951
12.4065 -33.8340 -0.3599
13.1473 -32.0675 -0.3444
15.4365 -33.9525 -0.3687
17.0369 -34.0151 -0.3740
22.7045 -41.3671 -0.4612
20.2717 -33.8501 -0.3834
22.9443 -35.2345 -0.4060
24.2094 -34.2842 -0.4026
26.2507 -34.3555 -0.4120
28.4827 -34.5046 -0.4234
30.7609 -34.5319 -0.4345
36.6508 -38.1520 -0.4934
7.1219 -6.8761 -0.0916
7.1407 -6.3932 -0.0880
7.1585 -5.9394 -0.0848
7.2489 -5.5677 -0.0826
7.2650 -5.1575 -0.0799
7.2802 -4.7669 -0.0773
7.2238 -4.3508 -0.0743
7.2346 -3.9944 -0.0722
7.2479 -3.6530 -0.0702
7.2608 -3.3232 -0.0685
7.2733 -3.0034 -0.0669
7.2855 -2.6923 -0.0654
7.2974 -2.3888 -0.0640
7.3090 -2.0917 -0.0628
7.3204 -1.8000 -0.0616
7.3316 -1.5128 -0.0606
7.3427 -1.2292 -0.0597
7.3537 -0.9482 -0.0589
7.3646 -0.6691 -0.0581
7.3258 -0.3885 -0.0571
7.3366 -0.1127 -0.0566
7.3474 0.1636 -0.0561
7.3583 0.4412 -0.0557
7.3692 0.7208 -0.0554
7.4303 1.0102 -0.0556
7.4416 1.2985 -0.0555
7.4531 1.5915 -0.0554
7.4647 1.8902 -0.0555
7.4767 2.1956 -0.0556
20.8559 6.9867 -0.1555
20.8910 7.8842 -0.1565
14.9063 6.2758 -0.1123
13.6481 6.3607 -0.1037
12.4301 6.3727 -0.0954
11.4264 6.4120 -0.0887
10.5387 6.4467 -0.0830
9.8174 6.5252 -0.0786
9.0316 6.5056 -0.0737
8.3829 6.5310 -0.0698
7.9211 6.6649 -0.0676
8.0805 7.3354 -0.0708
8.1038 7.9327 -0.0731
6.2780 6.6259 -0.0585
8.1407 9.2664 -0.0787
8.1709 10.0384 -0.0822
8.1993 10.8853 -0.0861
8.3070 11.9375 -0.0915
8.2834 12.9139 -0.0962
6.4305 10.9073 -0.0792
8.3858 15.5311 -0.1101
9.8186 19.9450 -0.1383
8.1398 18.2353 -0.1240
7.3439 18.2693 -0.1222
6.5688 18.3021 -0.1205
16.5996 52.3672 -0.3405
14.1289 51.1823 -0.3291
12.1137 51.3385 -0.3272
10.1655 51.7144 -0.3273
8.3215 52.7474 -0.3322
3.6810 30.8264 -0.1935
4.2043 51.6467 -0.3239
2.2738 52.1163 -0.3270
0.3087 51.6345 -0.3248
-1.6803 53.0822 -0.3354
-3.6921 53.2173 -0.3384
-5.7126 53.2399 -0.3413
-7.5562 51.9220 -0.3362
-10.0210 54.4092 -0.3564
-11.6363 52.0944 -0.3460
-12.5280 47.5947 -0.3210
-16.3215 53.7113 -0.3686
-18.2827 52.9217 -0.3702
-20.6011 53.0744 -0.3792
-26.2643 60.7814 -0.4444
-29.8167 62.4409 -0.4681
-33.2250 63.3354 -0.4878
-36.3315 63.3443 -0.5022
-41.5287 66.4797 -0.5437
-40.6329 59.9063 -0.5066
-41.8938 57.0239 -0.4996
-44.9608 56.6060 -0.5151
-48.1681 56.1689 -0.5322
-51.1438 55.2872 -0.5468
-53.7636 53.9021 -0.5581
-56.4367 52.4773 -0.5704
-58.9319 50.8011 -0.5815
-27.7644 22.1693 -0.2682
-62.0257 45.8146 -0.5878
-58.2472 39.7265 -0.5428
-15.5815 9.7893 -0.1431
-59.4129 34.2799 -0.5386
-37.7833 19.9447 -0.3388
-58.5950 28.1654 -0.5206
-59.1664 25.7470 -0.5218
-38.1845 14.9346 -0.3348
-60.1579 20.9558 -0.5253
-58.7646 18.0221 -0.5117
-59.1415 15.7300 -0.5144
-59.7289 13.5027 -0.5195
-60.2174 11.2507 -0.5246
-60.7071 8.9938 -0.5304
-61.2088 6.7267 -0.5370
-59.4859 4.2805 -0.5247
-59.9692 2.0522 -0.5326
-60.5098 -0.2066 -0.5417
-29.1807 -1.1982 -0.2636
-61.5717 -4.8534 -0.5621
-67.8625 -7.9272 -0.6268
-67.5154 -10.4743 -0.6317
-28.5654 -6.6631 -0.2753
-16.0425 -4.3844 -0.1572
-84.8448 -33.8542 -0.8812
-79.1521 -35.0892 -0.8405
-74.0150 -36.2036 0.1084
-66.3877 -35.6277 0.0948
-60.3231 -35.3580 0.0842
-61.1377 -38.9972 0.0835
-61.8835 -42.8306 0.0829
-62.7999 -47.0546 0.0827
-62.6905 -50.7642 0.0814
-62.0904 -54.2696 0.0797
-63.3498 -59.7198 0.0807
-62.0967 -63.1154 0.0787
-16.5607 -18.1502 0.0210
-29.7679 -35.1976 0.0379
-40.9268 -56.5151 0.0534
-30.4724 -49.5328 0.0419
-17.6988 -46.5401 0.0329
-15.0984 -85.2535 0.0584
-11.8333 -85.4179 0.0592
2.8453 -56.3383 0.0445
4.5364 -51.3678 0.0422
6.0397 -47.7921 0.0409
7.8857 -47.8499 0.0428
8.9422 -43.8981 0.0413
2.5075 -10.3099 0.0102
4.7112 -16.6211 0.0173
9.0796 -27.9759 0.0308
12.4060 -33.8340 0.0395
13.1468 -32.0674 0.0397
15.4358 -33.9525 0.0446
17.0362 -34.0151 0.0476
22.7044 -41.3687 0.0617
20.3722 -34.0191 0.0542
22.9443 -35.2358 0.0600
24.2137 -34.2916 0.0625
26.2497 -34.3555 0.0671
28.4815 -34.5045 0.0724
30.7596 -34.5319 0.0780
36.6507 -38.1535 0.0928
7.1218 -6.8763 0.0181
7.1407 -6.3934 0.0182
7.1585 -5.9397 0.0183
7.2489 -5.5680 0.0187
7.2650 -5.1577 0.0189
7.2802 -4.7671 0.0191
7.2238 -4.3510 0.0192
7.2346 -3.9946 0.0194
7.2479 -3.6532 0.0197
7.2608 -3.3234 0.0200
7.2733 -3.0036 0.0203
7.2855 -2.6925 0.0207
7.2974 -2.3890 0.0211
7.3090 -2.0919 0.0215
7.3204 -1.8002 0.0219
7.3316 -1.5130 0.0223
7.3427 -1.2293 0.0228
7.3537 -0.9484 0.0233
7.3646 -0.6693 0.0238
7.3755 -0.3913 0.0243
7.3864 -0.1137 0.0249
7.3973 0.1645 0.0255
7.3583 0.4410 0.0260
7.3692 0.7207 0.0266
7.4303 1.0101 0.0275
7.4416 1.2984 0.0283
7.4530 1.5913 0.0290
7.4647 1.8900 0.0299
7.4767 2.1954 0.0307
20.8559 6.9862 0.0882
20.8910 7.8838 0.0910
14.9070 6.2758 0.0669
13.6481 6.3604 0.0632
12.4306 6.3727 0.0594
11.4268 6.4119 0.0565
10.5390 6.4467 0.0539
9.8177 6.5252 0.0520
9.0318 6.5056 0.0497
8.3831 6.5310 0.0479
7.9211 6.6647 0.0471
8.0809 7.3356 0.0501
8.1059 7.9345 0.0526
6.2781 6.6258 0.0426
8.1407 9.2662 0.0580
8.1709 10.0383 0.0613
8.1994 10.8853 0.0649
8.3070 11.9373 0.0696
8.2834 12.9137 0.0738
6.4305 10.9073 0.0611
8.3858 15.5310 0.0855
9.8187 19.9450 0.1080
9.2828 20.7958 0.1109
9.3830 23.3417 0.1227
18.7647 52.2825 0.2712
16.5996 52.3672 0.2683
14.1288 51.1823 0.2593
12.1135 51.3384 0.2573
10.1654 51.7146 0.2567
8.3214 52.7474 0.2596
3.6807 30.8246 0.1505
4.2040 51.6466 0.2504
2.2735 52.1161 0.2511
0.3084 51.6343 0.2474
-1.6807 53.0822 0.2531
-3.6926 53.2173 0.2528
-5.6968 53.0873 0.2514
-7.5567 51.9218 0.2453
-10.0216 54.4092 0.2566
-11.6369 52.0944 0.2456
-9.1523 34.7685 0.1639
-16.3223 53.7113 0.2535
-18.2833 52.9210 0.2503
-11.9584 30.8071 0.1461
-13.0728 30.2522 0.1440
-29.8167 62.4386 0.2987
-13.2661 25.2875 0.1217
-14.3952 25.0971 0.1216
-41.5282 66.4763 0.3249
-40.6325 59.9034 0.2956
-12.8234 17.4539 0.0871
-13.1994 16.6174 0.0839
-47.9428 55.9039 0.2864
-50.9393 55.0637 0.2866
-30.7389 30.8168 0.1633
-20.5045 19.0652 0.1030
-21.2585 18.3246 0.1012
-18.2719 14.5891 0.0826
-18.9630 14.0062 0.0815
-36.0315 24.5735 0.1476
-15.5774 9.7862 0.0608
-59.5163 34.3378 0.2219
-40.0839 21.1580 0.1428
-38.8109 18.6545 0.1323
-59.1738 25.7487 0.1932
-38.2143 14.9452 0.1196
-60.1594 20.9547 0.1806
-58.7648 18.0207 0.1694
-59.1418 15.7286 0.1638
-59.7292 13.5013 0.1591
-60.2177 11.2494 0.1543
-60.7074 8.9924 0.1497
-61.2092 6.7253 0.1454
-59.6002 4.2873 0.1364
-60.0845 2.0549 0.1326
-60.5101 -0.2079 0.1289
-29.1816 -1.1989 0.0600
-61.5720 -4.8548 0.1223
-67.8623 -7.9287 0.1303
-67.5153 -10.4757 0.1254
-28.5940 -6.6704 0.0498
-16.0389 -4.3838 0.0271
-84.8419 -33.8548 0.1311
-79.1494 -35.0897 0.1190
-44.3858 -21.7117 0.6126
-44.5016 -23.8833 0.6233
-44.6063 -26.1467 0.6353
-44.7082 -28.5185 0.6488
-44.8096 -31.0144 0.6640
-44.9196 -33.6583 0.6812
-62.6892 -50.7645 0.9754
-62.1435 -54.3174 0.9944
-45.4897 -42.8840 0.7508
-62.0956 -63.1156 1.0599
-16.5697 -18.1604 0.2934
-29.7724 -35.2036 0.5488
-40.9345 -56.5266 0.8269
-30.4771 -49.5409 0.6865
-35.5414 -62.9633 0.8521
-35.0923 -68.0246 0.9009
-32.0297 -68.2753 0.8867
-17.6974 -46.5368 0.5846
-23.3618 -69.1561 0.8569
-12.7262 -58.8674 0.7075
-15.0986 -85.2535 1.0179
-11.8337 -85.4178 1.0148
2.8451 -56.3435 0.6697
4.5359 -51.3678 0.6136
6.0213 -47.6500 0.5730
7.8641 -47.7221 0.5787
8.9422 -43.9002 0.5377
2.5072 -10.3092 0.1278
4.7084 -16.6119 0.2087
9.0792 -27.9759 0.3568
12.4054 -33.8339 0.4388
13.1462 -32.0674 0.4238
14.6275 -32.1758 0.4340
16.1339 -32.2148 0.4443
17.7137 -32.2766 0.4561
20.3713 -34.0191 0.4936
22.9442 -35.2371 0.5259
24.2179 -34.2989 0.5278
24.8585 -32.5361 0.5173
28.4277 -34.4407 0.5672
30.7583 -34.5318 0.5904
31.5029 -32.7960 0.5838
7.1218 -6.8766 0.1278
7.1407 -6.3937 0.1244
7.1585 -5.9399 0.1214
7.2489 -5.5682 0.1200
7.2649 -5.1579 0.1176
7.2802 -4.7673 0.1155
7.2238 -4.3512 0.1126
7.2345 -3.9948 0.1110
7.2479 -3.6534 0.1097
7.2608 -3.3235 0.1085
7.2733 -3.0038 0.1076
7.2855 -2.6927 0.1068
7.2974 -2.3892 0.1062
7.3090 -2.0920 0.1057
7.3204 -1.8004 0.1054
7.3316 -1.5132 0.1053
7.3427 -1.2295 0.1053
7.3537 -0.9485 0.1055
7.3646 -0.6695 0.1058
7.3755 -0.3915 0.1062
7.3881 -0.1138 0.1068
7.3989 0.1644 0.1075
7.4099 0.4439 0.1084
7.4209 0.7256 0.1095
7.4303 1.0099 0.1106
7.4416 1.2982 0.1120
7.4530 1.5912 0.1135
7.4647 1.8899 0.1152
7.4767 2.1952 0.1171
20.8558 6.9858 0.3320
20.8910 7.8833 0.3384
14.9077 6.2758 0.2462
13.6481 6.3601 0.2301
12.4311 6.3727 0.2142
11.4272 6.4119 0.2017
10.5394 6.4467 0.1908
9.8180 6.5252 0.1827
9.0321 6.5056 0.1730
8.3833 6.5310 0.1657
7.9211 6.6645 0.1618
8.0809 7.3354 0.1711
8.1079 7.9364 0.1783
6.2782 6.6258 0.1438
8.1407 9.2660 0.1947
8.1709 10.0381 0.2047
8.1995 10.8853 0.2159
8.3070 11.9371 0.2308
8.2834 12.9135 0.2438
6.4306 10.9073 0.2015
8.3858 15.5308 0.2811
9.8188 19.9450 0.3544
9.2829 20.7959 0.3633
9.3831 23.3419 0.4015
18.5620 51.7177 0.8773
16.5994 52.3666 0.8771
14.1288 51.1823 0.8477
12.1134 51.3382 0.8419
10.1279 51.5242 0.8377
8.3215 52.7496 0.8514
3.6803 30.8227 0.4945
4.2037 51.6464 0.8246
2.2732 52.1159 0.8292
0.3080 51.6342 0.8196
-1.6811 53.0822 0.8417
-3.6930 53.2174 0.8440
-5.6257 52.4201 0.8325
-7.5572 51.9216 0.8268
-10.0296 54.4493 0.8704
-11.6033 51.9408 0.8347
-9.0756 34.4753 0.5576
-16.3231 53.7114 0.8756
-18.2340 52.7759 0.8684
-13.7028 35.2992 0.5871
-26.2663 60.7810 1.0232
-29.8168 62.4362 1.0655
-13.0617 24.8969 0.4314
-14.1144 24.6066 0.4337
-41.5278 66.4730 1.1935
-40.6321 59.9004 1.0978
-12.4370 16.9273 0.3172
-12.9148 16.2585 0.3122
-13.8120 16.1050 0.3176
-51.1466 55.2857 1.1224
-53.7706 53.9046 1.1294
-20.2433 18.8215 0.4080
-18.0848 15.5883 0.3507
-17.8944 14.2870 0.3347
-18.5154 13.6750 0.3347
-58.1970 39.6886 1.0190
-15.5732 9.7831 0.2646
-42.7091 24.6395 0.7057
-40.0846 21.1571 0.6452
-38.8116 18.6537 0.6096
-59.1814 25.7503 0.9085
-38.2441 14.9558 0.5748
-60.1615 20.9539 0.8867
-43.1295 13.2249 0.6243
-59.1438 15.7277 0.8420
-59.7295 13.4999 0.8377
-60.2180 11.2480 0.8332
-43.4101 6.4292 0.5934
-61.2095 6.7239 0.8278
-59.6005 4.2860 0.7987
-60.0848 2.0535 0.7989
-60.5104 -0.2093 0.7995
-29.1830 -1.1996 0.3837
-61.5723 -4.8562 0.8068
-43.8837 -5.1281 0.5739
-67.5151 -10.4771 0.8826
-28.6228 -6.6777 0.3756
-16.0353 -4.3831 0.2113
-84.8390 -33.8554 1.1434
-79.1469 -35.0903 1.0784
-74.0106 -36.2045 1.9348
-44.5091 -23.8883 1.1834
-44.6064 -26.1477 1.2084
-44.7070 -28.5187 1.2366
-44.8094 -31.0153 1.2681
-44.9182 -33.6581 1.3034
-45.1993 -36.6025 1.3480
-62.3112 -54.4653 1.9145
-45.4881 -42.8836 1.4437
-45.6068 -46.3570 1.4993
-16.5787 -18.1706 0.5662
-29.7769 -35.2096 1.0601
-45.9562 -58.6822 1.7113
-40.9406 -56.5359 1.6008
-41.7472 -62.4680 1.7212
-30.4817 -49.5491 1.3315
-35.4265 -62.7605 1.6482
-35.0918 -68.0244 1.7494
-32.0294 -68.2752 1.7227
-11.5752 -27.3002 0.6771
-11.4632 -30.1432 0.7362
-11.6863 -34.5941 0.8334
-11.9929 -40.4612 0.9632
-12.3223 -48.1510 1.1345
-12.7262 -58.8668 1.3751
-15.0989 -85.2535 1.9776
-11.8340 -85.4178 1.9707
-4.6630 -46.4533 1.0676
-3.3039 -52.8593 1.2121
-1.3132 -52.9433 1.2131
1.0312 -80.4167 1.8440
2.8471 -56.3935 1.2962
4.5355 -51.3678 1.1852
6.0209 -47.6508 1.1055
7.8635 -47.7215 1.1148
8.9421 -43.9024 1.0344
2.5069 -10.3086 0.2454
4.7081 -16.6118 0.4001
9.0788 -27.9758 0.6828
12.4049 -33.8339 0.8383
13.1456 -32.0674 0.8079
14.6274 -32.1770 0.8258
16.1332 -32.2148 0.8437
17.7130 -32.2766 0.8643
19.3526 -32.3191 0.8865
22.9442 -35.2385 0.9921
24.2069 -34.2847 0.9928
24.8575 -32.5360 0.9712
28.4265 -34.4406 1.0622
30.7571 -34.5318 1.1030
31.5016 -32.7959 1.0879
7.1218 -6.8769 0.2375
7.1407 -6.3940 0.2307
7.1585 -5.9402 0.2245
7.2489 -5.5684 0.2213
7.2649 -5.1582 0.2164
7.2802 -4.7676 0.2120
7.2238 -4.3514 0.2061
7.2345 -3.9950 0.2026
7.2479 -3.6536 0.1996
7.2608 -3.3238 0.1970
7.2733 -3.0039 0.1948
7.2855 -2.6929 0.1929
7.2973 -2.3893 0.1913
7.3090 -2.0922 0.1900
7.3204 -1.8005 0.1890
7.3316 -1.5133 0.1883
7.3427 -1.2297 0.1878
7.3537 -0.9487 0.1877
7.3646 -0.6697 0.1877
7.3755 -0.3917 0.1881
7.3898 -0.1140 0.1888
7.4007 0.1643 0.1896
7.4116 0.4439 0.1908
7.4226 0.7256 0.1922
7.4303 1.0097 0.1937
7.4416 1.2980 0.1957
7.4530 1.5910 0.1980
7.4647 1.8897 0.2006
7.4767 2.1951 0.2035
20.8558 6.9853 0.5758
20.8909 7.8829 0.5860
14.9083 6.2758 0.4255
13.4146 6.2510 0.3902
12.4315 6.3726 0.3691
11.4276 6.4119 0.3470
10.5397 6.4466 0.3278
9.6285 6.3991 0.3073
9.0323 6.5056 0.2964
8.3836 6.5310 0.2835
7.8167 6.5765 0.2730
7.3829 6.7017 0.2669
8.1100 7.9382 0.3042
6.2783 6.6258 0.2450
8.1407 9.2658 0.3314
6.2906 7.7279 0.2681
6.3163 8.3851 0.2827
6.3450 9.1176 0.2994
6.3772 9.9417 0.3187
6.4138 10.8787 0.3410
6.4560 11.9567 0.3671
6.5393 13.2833 0.4002
6.5908 14.7650 0.4372
6.6376 16.5120 0.4813
18.3961 51.2551 1.4731
16.5994 52.3666 1.4862
14.1287 51.1823 1.4364
12.1133 51.3381 1.4267
10.1652 51.7149 1.4252
8.1765 51.8314 1.4183
3.6800 30.8208 0.8386
4.2034 51.6463 1.3991
2.2728 52.1157 1.4075
0.3077 51.6340 1.3921
-1.6815 53.0822 1.4305
-3.6295 52.2949 1.4105
-5.6206 52.3686 1.4156
-7.5577 51.9213 1.4085
-10.0228 54.4093 1.4832
-11.6382 52.0944 1.4290
-9.0854 34.5108 0.9538
-15.6652 51.5441 1.4376
-9.4380 27.3159 0.7699
-13.6708 35.2153 1.0045
-9.7435 22.5456 0.6518
-9.5956 20.0921 0.5897
-18.4918 35.2457 1.0520
-35.6622 62.1700 1.8902
-41.5273 66.4696 2.0624
-40.6317 59.8975 1.9001
-41.8983 57.0233 1.8532
-44.9657 56.6053 1.8886
-48.1533 56.1449 1.9274
-51.1481 55.2849 1.9574
-32.5271 32.6068 1.1938
-39.0225 36.2802 1.3773
-42.0104 36.2095 1.4296
-27.7588 22.1618 0.9130
-42.5442 31.4205 1.3554
-58.3255 39.7742 1.8039
-15.5691 9.7800 0.4684
-42.7096 24.6385 1.2523
-37.9840 20.0473 1.0875
-38.8123 18.6529 1.0869
-59.2198 25.7654 1.6250
-38.2740 14.9665 1.0308
-47.5408 16.5569 1.2587
-43.1295 13.2238 1.1244
-59.2409 15.7520 1.5230
-59.7402 13.5008 1.5168
-6.3032 1.1772 0.1583
-6.5058 0.9634 0.1618
-6.8970 0.7575 0.1702
-59.5895 4.2838 1.4608
-52.4689 1.7920 1.2796
-43.8567 -0.1527 1.0656
-29.1843 -1.2003 0.7075
-61.5726 -4.8576 1.4915
-43.8838 -5.1291 1.0637
-66.5571 -10.3299 1.6167
-44.1923 -8.5723 1.0773
-28.6516 -6.6850 0.7021
-16.0316 -4.3825 0.3955
-53.2308 -16.7270 1.3240
-49.1880 -17.5153 1.2356
-49.1932 -19.6318 1.2501
-79.1444 -35.0908 2.0381
-44.4231 -21.7318 1.7098
-44.5093 -23.8893 1.7436
-44.6064 -26.1486 1.7819
-44.7060 -28.5190 1.8247
-40.1164 -27.7678 1.6764
-44.9169 -33.6582 1.9259
-45.0354 -36.4708 1.9858
-45.1600 -39.4746 2.0528
-45.2940 -42.7015 2.1279
-10.7224 -10.8990 0.5221
-16.5877 -18.1808 0.8395
-10.8598 -12.8414 0.5731
-43.2015 -55.1655 2.3858
-11.0407 -15.2467 0.6405
-38.9901 -58.3433 2.3858
-11.0286 -17.9276 0.7152
-34.2728 -60.7174 2.3678
-28.3097 -54.8780 2.0961
-29.6434 -63.1897 2.3684
-11.5751 -27.3002 1.0059
-11.4625 -30.1416 1.0938
-11.6864 -34.5945 1.2384
-11.9883 -40.4458 1.4307
-12.1848 -47.6134 1.6669
-12.6107 -58.3319 2.0245
-11.8345 -66.8206 2.3026
-9.7268 -70.2059 2.4058
-4.6633 -46.4547 1.5854
-3.3042 -52.8591 1.7994
-1.3136 -52.9431 1.8004
0.9062 -70.7118 2.4058
2.8447 -56.3537 1.9210
4.5350 -51.3678 1.7572
6.0199 -47.6462 1.6380
7.8624 -47.7182 1.6511
8.7883 -43.1500 1.5051
2.5066 -10.3079 0.3630
4.7079 -16.6117 0.5915
9.0783 -27.9758 1.0090
11.7270 -31.9865 1.1703
13.1344 -32.0415 1.1913
14.5911 -32.0985 1.2148
16.1039 -32.1577 1.2411
17.6808 -32.2194 1.2703
20.3697 -34.0190 1.3729
22.9441 -35.2398 1.4585
23.0450 -32.6404 1.3883
24.8125 -32.4783 1.4228
26.8723 -32.5589 1.4724
29.0754 -32.6450 1.5276
31.4444 -32.7377 1.5894
7.1218 -6.8772 0.3473
7.1407 -6.3942 0.3370
7.1584 -5.9404 0.3277
7.2489 -5.5687 0.3227
7.2649 -5.1584 0.3152
7.2802 -4.7678 0.3085
7.2238 -4.3517 0.2996
7.2345 -3.9952 0.2943
7.2479 -3.6538 0.2897
7.2608 -3.3240 0.2856
7.2733 -3.0041 0.2821
7.2855 -2.6931 0.2790
7.2973 -2.3895 0.2765
7.3090 -2.0924 0.2743
7.3204 -1.8007 0.2726
7.3316 -1.5135 0.2713
7.3427 -1.2298 0.2704
7.3537 -0.9489 0.2699
7.3646 -0.6698 0.2698
7.3755 -0.3918 0.2700
7.3915 -0.1142 0.2708
7.4023 0.1641 0.2718
7.4133 0.4438 0.2732
7.4243 0.7256 0.2749
7.4303 1.0096 0.2769
7.4416 1.2979 0.2795
7.4530 1.5909 0.2825
7.4647 1.8895 0.2860
7.4767 2.1949 0.2899
20.8558 6.9849 0.8198
20.8909 7.8824 0.8337
14.9090 6.2757 0.6050
13.5799 6.3277 0.5612
12.4320 6.3726 0.5241
11.4280 6.4119 0.4923
10.5401 6.4466 0.4649
9.7471 6.4776 0.4409
9.0326 6.5056 0.4199
8.3838 6.5310 0.4014
7.9211 6.6642 0.3915
7.2687 6.5979 0.3716
6.7611 6.6177 0.3585
6.2785 6.6258 0.3462
6.2673 7.1334 0.3605
6.2906 7.7278 0.3786
6.3426 8.4199 0.4008
8.2415 11.8427 0.5490
8.2834 12.9132 0.5841
6.4308 10.9073 0.4823
8.3857 15.5304 0.6726
6.5394 13.2833 0.5644
6.5908 14.7648 0.6166
6.6777 16.6116 0.6828
18.1329 50.5217 2.0475
15.7209 49.5951 1.9847
14.1287 51.1823 2.0254
11.7387 49.7508 1.9497
10.1651 51.7151 2.0098
8.0603 51.0959 1.9721
3.6796 30.8190 1.1829
4.2031 51.6462 1.9739
2.2725 52.1155 1.9862
0.3073 51.6338 1.9649
-1.6111 50.8468 1.9346
-3.5784 51.5521 1.9637
-5.5414 51.6255 1.9715
-7.5582 51.9211 1.9905
-10.0235 54.4093 2.0969
-11.6389 52.0945 2.0211
-9.0859 34.5108 1.3497
-10.6501 35.0411 1.3836
-9.4071 27.2252 1.0869
-11.5365 29.7163 1.2012
-9.7440 22.5459 0.9243
-9.6144 20.1307 0.8383
-15.9626 30.4240 1.2892
-15.2515 26.5869 1.1484
-9.7369 15.5845 0.6874
-34.6151 51.0261 2.3027
-9.7880 13.3208 0.6163
-19.0071 23.9263 1.1372
-30.6729 35.7618 1.7503
-9.8927 10.6924 0.5402
-32.5003 32.5786 1.7032
-38.8394 36.1084 1.9590
-30.7954 26.5419 1.4989
-27.7569 22.1593 1.3068
-42.3890 31.3044 1.9350
-42.4882 28.9728 1.8845
-15.5649 9.7769 0.6721
-42.6638 24.6108 1.7973
-36.4877 19.2565 1.5023
-38.7705 18.6317 1.5629
-42.9105 18.6683 1.6965
-38.3039 14.9772 1.4878
-43.0586 14.9948 1.6458
-43.1293 13.2226 1.6247
-43.2027 11.4864 1.6065
-43.2816 9.7803 1.5911
-6.1817 1.1544 0.2250
-6.5061 0.9633 0.2348
-6.8973 0.7573 0.2472
-43.5872 3.1324 1.5532
-43.6762 1.4907 1.5499
-43.7827 -0.1534 1.5494
-29.1856 -1.2010 1.0315
-43.8992 -3.4642 1.5518
-43.8839 -5.1300 1.5537
-43.9894 -6.8282 1.5623
-44.0508 -8.5458 1.5716
-28.6804 -6.6924 1.0294
-16.0280 -4.3818 0.5797
-44.2435 -13.9038 1.6148
-44.3195 -15.7826 1.6351
-49.1533 -19.6169 1.8361
-62.0521 -27.5137 2.3508
-44.4220 -21.7322 2.2586
-10.5627 -5.6695 0.5468
-10.5445 -6.1814 0.5569
-44.1969 -28.1951 2.3858
-40.0803 -27.7436 2.2159
-10.7429 -8.0502 0.6096
-35.0453 -28.3812 2.0458
-32.0971 -28.0570 1.9322
-30.4978 -28.7529 1.8980
-10.7595 -10.9369 0.6942
-16.5966 -18.1910 1.1133
-10.8893 -12.8765 0.7619
-31.7714 -40.5707 2.3265
-11.0523 -15.2630 0.8503
-27.4398 -41.0605 2.2272
-11.0285 -17.9276 0.9488
-24.9054 -44.1226 2.2830
-24.1860 -46.8846 2.3763
-21.7866 -46.4421 2.3100
-11.5750 -27.3002 1.3350
-11.4618 -30.1400 1.4516
-11.6791 -34.5727 1.6426
-11.8611 -40.0166 1.8787
-12.1682 -47.5481 2.2094
-10.8077 -49.9914 2.3027
-8.9181 -50.3528 2.3027
-6.5024 -46.9312 2.1341
-4.6637 -46.4561 2.1037
-3.3301 -53.2696 2.4058
-1.3236 -53.3327 2.4058
0.6536 -51.0290 2.3025
2.5709 -50.9385 2.3025
4.5078 -51.0652 2.3158
6.0190 -47.6433 2.1709
7.6869 -46.6563 2.1392
8.7878 -43.1500 1.9938
2.5063 -10.3072 0.4807
4.7076 -16.6116 0.7832
9.0779 -27.9758 1.3354
11.7265 -31.9864 1.5485
13.1339 -32.0415 1.5757
14.5905 -32.0985 1.6062
16.1033 -32.1576 1.6403
17.6801 -32.2193 1.6782
19.3321 -32.2876 1.7207
22.9441 -35.2411 1.9253
23.0450 -32.6416 1.8319
24.8114 -32.4783 1.8764
26.8712 -32.5588 1.9409
29.0742 -32.6450 2.0128
31.4430 -32.7377 2.0932
7.1218 -6.8774 0.4572
7.1407 -6.3945 0.4434
7.1584 -5.9407 0.4310
7.2489 -5.5689 0.4242
7.2649 -5.1586 0.4141
7.2802 -4.7680 0.4051
7.2238 -4.3519 0.3933
7.2345 -3.9954 0.3860
7.2479 -3.6540 0.3798
7.2608 -3.3242 0.3743
7.2733 -3.0043 0.3694
7.2855 -2.6932 0.3653
7.2973 -2.3897 0.3617
7.3090 -2.0926 0.3587
7.3204 -1.8009 0.3563
7.3316 -1.5137 0.3544
7.3427 -1.2300 0.3531
7.3537 -0.9491 0.3522
7.3646 -0.6700 0.3519
7.3755 -0.3920 0.3520
7.3932 -0.1144 0.3530
7.4041 0.1640 0.3541
7.4150 0.4438 0.3557
7.4260 0.7256 0.3578
7.4303 1.0094 0.3602
7.4416 1.2977 0.3634
7.4530 1.5907 0.3671
7.4647 1.8894 0.3715
7.4766 2.1948 0.3764
20.8558 6.9844 1.0640
20.8909 7.8820 1.0815
14.9097 6.2757 0.7846
13.5805 6.3277 0.7275
12.4325 6.3726 0.6792
11.4284 6.4119 0.6378
10.5404 6.4466 0.6020
9.7474 6.4776 0.5709
9.0328 6.5056 0.5435
8.3840 6.5310 0.5194
7.9211 6.6640 0.5063
8.0768 7.3312 0.5340
6.8082 6.6637 0.4668
6.2786 6.6258 0.4476
6.2980 7.1682 0.4682
8.1709 10.0375 0.6355
6.3426 8.4197 0.5179
8.2415 11.8425 0.7092
8.2834 12.9130 0.7544
6.4308 10.9073 0.6229
8.3857 15.5303 0.8686
6.5395 13.2833 0.7288
6.5908 14.7647 0.7961
6.6777 16.6116 0.8816
16.5024 45.9787 2.4058
6.8996 21.7663 1.1245
12.7348 46.1330 2.3569
10.9024 46.2068 2.3379
9.0965 46.2794 2.3222
7.3124 46.3556 2.3101
3.6792 30.8171 1.5274
3.7964 46.6514 2.3027
2.0395 46.7794 2.3027
0.2785 46.8439 2.3027
-1.4847 46.8449 2.3027
-3.2476 46.7822 2.3027
-5.0278 46.8371 2.3116
-6.8278 46.9005 2.3242
-8.6540 46.9726 2.3406
-10.5115 47.0458 2.3604
-9.0284 34.2906 1.7348
-10.6131 34.9175 1.7839
-9.4076 27.2254 1.4067
-2.7989 7.2091 0.3773
-3.0742 7.1128 0.3776
-3.3470 7.0078 0.3781
-3.6173 6.8941 0.3786
-3.8848 6.7719 0.3792
-4.1493 6.6410 0.3799
-4.4107 6.5015 0.3806
-9.8222 13.3669 0.8026
-18.0168 22.6788 1.3995
-30.6740 35.7617 2.2734
-9.9270 10.7291 0.7043
-20.6226 20.6714 1.4049
-21.0480 19.5672 1.3807
-9.9722 8.5944 0.6315
-10.1764 8.1238 0.6237
-40.1332 29.6371 2.3858
-41.2851 28.1510 2.3858
-15.5608 9.7738 0.8759
-10.0787 5.8136 0.5537
-37.5238 19.8022 2.0159
-38.7712 18.6310 2.0404
-42.9095 18.6667 2.2159
-42.9849 16.8063 2.1820
-10.1673 3.5404 0.5081
-43.1295 13.2216 2.1255
-43.2029 11.4854 2.1027
-43.2744 9.7776 2.0833
-6.1816 1.1542 0.2948
-6.5063 0.9631 0.3078
-6.8975 0.7572 0.3242
-43.5439 3.1283 2.0363
-43.6120 1.4875 2.0320
-43.6805 -0.1541 2.0307
-29.1870 -1.2017 1.3558
-43.8131 -3.4584 2.0366
-43.8841 -5.1310 2.0442
-43.9536 -6.8236 2.0547
-44.0248 -8.5417 2.0684
-28.7094 -6.6997 1.3577
-16.0244 -4.3812 0.7639
-10.4549 -3.2858 0.5032
-10.4480 -3.7208 0.5086
-46.6997 -18.6387 2.3025
-46.0268 -20.4092 2.3025
-37.1886 -18.1943 2.3509
-10.6080 -5.6940 0.6830
-34.2102 -20.0557 2.2473
-33.8627 -21.6032 2.2742
-34.1519 -23.6407 2.3496
-10.7886 -8.0847 0.7620
-31.9071 -25.8405 2.3188
-27.6705 -24.1881 2.0740
-26.7063 -25.1789 2.0699
-10.7596 -10.9373 0.8646
-16.6057 -18.2013 1.3876
-10.8888 -12.8762 0.9492
-23.3977 -29.8784 2.1350
-11.0524 -15.2633 1.0597
-22.9489 -34.3409 2.3216
-11.0284 -17.9277 1.1826
-20.7517 -36.7644 2.3713
-19.4781 -37.7587 2.3858
-18.0480 -38.4729 2.3858
-11.3701 -26.8171 1.6350
-11.4612 -30.1384 1.8097
-11.6358 -34.4446 2.0405
-11.6599 -39.3378 2.3027
-10.1717 -39.7465 2.3027
-8.6687 -40.0968 2.3027
-7.4736 -42.1963 2.4058
-5.8801 -42.4387 2.4058
-4.2787 -42.6186 2.4058
-2.6719 -42.7360 2.4058
-1.0622 -42.7905 2.4058
0.5241 -40.9462 2.3025
2.0628 -40.8784 2.3025
3.5970 -40.7509 2.3025
5.1537 -40.7973 2.3158
6.6804 -40.5496 2.3158
8.1953 -40.2431 2.3158
2.5060 -10.3065 0.5985
4.7074 -16.6115 0.9750
9.0775 -27.9758 1.6622
11.7260 -31.9864 1.9270
13.1333 -32.0415 1.9604
14.5899 -32.0984 1.9979
16.1026 -32.1576 2.0398
17.6794 -32.2193 2.0866
19.3312 -32.2873 2.1388
22.2075 -34.1111 2.3158
23.0449 -32.6428 2.2759
24.5129 -32.0888 2.3025
25.6727 -31.1080 2.3025
26.7928 -30.0847 2.3025
27.8717 -29.0205 2.3025
7.1218 -6.8777 0.5673
7.1407 -6.3948 0.5499
7.1584 -5.9409 0.5343
7.2489 -5.5692 0.5258
7.2649 -5.1589 0.5131
7.2802 -4.7683 0.5019
7.2238 -4.3521 0.4870
7.2345 -3.9956 0.4779
7.2479 -3.6542 0.4700
7.2608 -3.3244 0.4630
7.2733 -3.0045 0.4569
7.2855 -2.6934 0.4516
7.2973 -2.3899 0.4470
7.3089 -2.0928 0.4432
7.3204 -1.8011 0.4401
7.3316 -1.5139 0.4376
7.3427 -1.2302 0.4358
7.3537 -0.9492 0.4346
7.3646 -0.6702 0.4340
7.3755 -0.3922 0.4341
7.3949 -0.1146 0.4352
7.4058 0.1639 0.4365
7.4167 0.4437 0.4384
7.4277 0.7256 0.4409
7.4303 1.0093 0.4435
7.4416 1.2975 0.4473
7.4530 1.5905 0.4518
7.4647 1.8892 0.4570
7.4766 2.1946 0.4630
20.8558 6.9840 1.3084
20.8909 7.8815 1.3297
14.9104 6.2757 0.9644
13.5810 6.3277 0.8941
12.4330 6.3726 0.8345
11.4288 6.4119 0.7835
10.5408 6.4466 0.7394
9.7476 6.4776 0.7010
9.0331 6.5056 0.6673
8.3842 6.5310 0.6375
7.9211 6.6638 0.6214
8.0724 7.3270 0.6549
6.8082 6.6636 0.5727
6.2787 6.6258 0.5491
6.2981 7.1682 0.5743
8.1709 10.0373 0.7793
6.3426 8.4196 0.6350
8.2415 11.8423 0.8695
8.2834 12.9128 0.9249
6.4309 10.9072 0.7636
8.3857 15.5301 1.0647
6.5395 13.2833 0.8934
6.5908 14.7646 0.9758
6.6777 16.6116 1.0806
12.8864 35.9038 2.3026
6.8996 21.7663 1.3783
10.1505 36.7713 2.3026
8.7607 37.1300 2.3027
7.3587 37.4382 2.3027
6.2123 39.3827 2.4058
3.6691 30.7335 1.8673
3.2352 39.7576 2.4058
1.7378 39.8639 2.4058
0.2370 39.9156 2.4058
-1.2653 39.9128 2.4058
-2.7671 39.8552 2.4058
-4.2667 39.7431 2.4058
-5.7620 39.5764 2.4058
-7.2510 39.3551 2.4058
-8.3573 37.4023 2.3025
-9.0283 34.2888 2.1288
-9.1764 30.1895 1.8930
-2.4332 7.0413 0.4466
-2.4830 6.3954 0.4109
-2.5781 5.9647 0.3889
-2.8059 5.8745 0.3893
-3.0312 5.7769 0.3897
-3.2540 5.6719 0.3903
-3.4738 5.5596 0.3909
-3.6906 5.4399 0.3915
-3.9042 5.3129 0.3923
-4.1143 5.1787 0.3931
-4.3208 5.0373 0.3940
-4.5234 4.8887 0.3949
-20.2819 20.3291 1.7008
-26.6877 24.8091 2.1555
-10.0078 8.6247 0.7806
-10.2253 8.1625 0.7721
-19.2789 14.2362 1.4124
-20.0080 13.6422 1.4253
-15.5566 9.7707 1.0798
-10.1131 5.8332 0.6854
-34.6399 18.2793 2.2962
-32.1070 15.4277 2.0855
-32.3507 14.0725 2.0627
-33.4975 13.0960 2.1000
-10.1673 3.5401 0.6277
-38.9701 11.9455 2.3734
-37.7022 10.0221 2.2685
-40.0752 9.0538 2.3858
-6.1815 1.1540 0.3647
-6.5065 0.9630 0.3809
-6.8978 0.7571 0.4013
-41.2031 2.9592 2.3858
-41.3405 1.4092 2.3858
-41.4192 -0.1470 2.3858
-29.1883 -1.2024 1.6805
-41.3989 -3.2687 2.3858
-10.3510 -1.2105 0.5980
-38.4949 -5.9770 2.2324
-37.1959 -7.2175 2.1686
-28.7384 -6.7071 1.6870
-16.0208 -4.3805 0.9483
-10.4548 -3.2859 0.6250
-10.4480 -3.7210 0.6318
-38.6976 -15.4457 2.3709
-38.0105 -16.8554 2.3635
-30.3592 -14.8537 2.2952
-10.6078 -5.6941 0.8169
-10.6991 -6.2725 0.8408
-29.0084 -18.5069 2.3310
-28.2621 -19.5642 2.3268
-10.7880 -8.0845 0.9119
-26.7252 -21.6444 2.3248
-24.6442 -21.5432 2.2113
-23.6847 -22.3306 2.1978
-10.7598 -10.9377 1.0353
-16.6147 -18.2116 1.6626
-10.8884 -12.8759 1.1367
-15.4973 -19.7900 1.6937
-11.0524 -15.2636 1.2693
-19.6873 -29.4606 2.3858
-11.0282 -17.9277 1.4168
-17.4272 -30.8750 2.3858
-16.2574 -31.5157 2.3858
-11.2066 -23.8893 1.7750
-11.3185 -26.6956 1.9502
-11.4605 -30.1368 2.1683
-10.9590 -32.4413 2.3027
-9.7312 -32.8306 2.3027
-8.4892 -33.1720 2.3027
-7.5589 -34.9631 2.4058
-6.2378 -35.2181 2.4058
-4.9080 -35.4216 2.4058
-3.5715 -35.5733 2.4058
-2.2305 -35.6731 2.4058
-0.8870 -35.7208 2.4058
0.4402 -34.4088 2.3177
1.7220 -34.1296 2.3025
3.0031 -34.0260 2.3025
4.2786 -33.8730 2.3025
5.5787 -33.8645 2.3158
6.8446 -33.6121 2.3158
2.5057 -10.3059 0.7165
4.7071 -16.6114 1.1670
9.0771 -27.9758 1.9894
11.7254 -31.9864 2.3059
12.8916 -31.4531 2.3025
14.0546 -30.9221 2.3025
15.1954 -30.3472 2.3025
16.3125 -29.7294 2.3025
17.4041 -29.0697 2.3025
18.4686 -28.3693 2.3025
19.7349 -27.9554 2.3297
21.3998 -28.0146 2.4024
22.4486 -27.2023 2.4058
23.4326 -26.3126 2.4058
24.3809 -25.3868 2.4058
7.1218 -6.8780 0.6774
7.1407 -6.3950 0.6565
7.1584 -5.9412 0.6378
7.2488 -5.5694 0.6275
7.2649 -5.1591 0.6123
7.2802 -4.7685 0.5987
7.2238 -4.3524 0.5808
7.2345 -3.9959 0.5698
7.2479 -3.6544 0.5603
7.2608 -3.3246 0.5519
7.2733 -3.0047 0.5444
7.2854 -2.6936 0.5380
7.2973 -2.3901 0.5325
7.3089 -2.0930 0.5278
7.3203 -1.8013 0.5240
7.3316 -1.5140 0.5209
7.3427 -1.2304 0.5186
7.3537 -0.9494 0.5171
7.3646 -0.6703 0.5163
7.3755 -0.3923 0.5163
7.3966 -0.1148 0.5176
7.4075 0.1638 0.5190
7.4184 0.4436 0.5212
7.4295 0.7256 0.5240
7.4303 1.0091 0.5269
7.4415 1.2974 0.5314
7.4530 1.5904 0.5366
7.4647 1.8891 0.5427
7.4766 2.1944 0.5497
20.8558 6.9835 1.5531
20.8909 7.8811 1.5782
14.9111 6.2756 1.1445
13.5816 6.3277 1.0609
12.4335 6.3726 0.9900
11.4292 6.4118 0.9294
10.5411 6.4466 0.8769
9.7479 6.4776 0.8312
9.0333 6.5056 0.7912
8.3844 6.5309 0.7558
7.9211 6.6636 0.7366
8.0679 7.3228 0.7758
6.8082 6.6634 0.6787
6.2789 6.6258 0.6507
6.2982 7.1682 0.6805
8.1709 10.0371 0.9234
6.3426 8.4195 0.7523
8.2415 11.8421 1.0301
8.2834 12.9126 1.0956
6.4310 10.9072 0.9045
7.9313 14.6884 1.1928
6.5315 13.2668 1.0568
6.5634 14.7032 1.1509
6.6778 16.6116 1.2799
10.6610 29.7034 2.2562
6.8996 21.7663 1.6325
8.7308 31.6284 2.3458
7.0702 29.9654 2.2010
6.2125 31.6075 2.3026
5.0199 31.8242 2.3026
3.6673 30.7190 2.2107
2.7310 33.5639 2.4058
1.4668 33.6520 2.4058
0.1998 33.6938 2.4058
-1.0682 33.6892 2.4058
-2.3358 33.6383 2.4058
-3.6012 33.5409 2.4058
-4.8627 33.3973 2.4058
-5.8561 31.7823 2.3025
-7.0515 31.5566 2.3025
-8.2384 31.2872 2.3025
-9.1768 30.1892 2.2442
-2.4334 7.0415 0.5295
-2.4832 6.3956 0.4873
-2.5258 5.8436 0.4518
-2.5627 5.3652 0.4217
-2.6082 4.9704 0.3978
-2.7989 4.8785 0.3983
-2.9869 4.7801 0.3988
-3.1721 4.6754 0.3994
-3.3543 4.5644 0.4001
-3.5332 4.4471 0.4008
-3.7088 4.3236 0.4016
-3.8807 4.1939 0.4024
-4.0489 4.0581 0.4033
-4.2130 3.9163 0.4043
-4.3730 3.7685 0.4053
-4.5286 3.6148 0.4064
-4.6796 3.4554 0.4076
-19.6359 13.3878 1.6632
-15.5525 9.7676 1.2839
-10.1133 5.8329 0.8153
-27.2749 14.3921 2.1511
-28.3786 13.6354 2.1936
-30.2861 13.1735 2.2985
-26.8683 10.5036 2.0054
-10.2028 3.5522 0.7501
-27.0500 8.2909 1.9622
-32.2601 8.5746 2.3124
-31.7835 7.1797 2.2547
-6.1814 1.1539 0.4346
-6.5068 0.9629 0.4541
-6.8980 0.7570 0.4785
-34.1029 2.4485 2.3551
-33.9293 1.1558 2.3358
-32.5006 -0.1160 2.2337
-29.1748 -1.2025 2.0046
-31.8662 -2.5167 2.1921
-10.3874 -1.2150 0.7164
-32.4026 -5.0318 2.2439
-33.2140 -6.4456 2.3128
-28.7676 -6.7145 2.0173
-16.0172 -4.3799 1.1328
-10.5074 -3.3027 0.7507
-10.4839 -3.7340 0.7578
-31.9152 -12.7393 2.3377
-10.6448 -4.7205 0.7914
-26.5858 -13.0081 2.3397
-10.6075 -5.6942 0.9510
-10.6947 -6.2701 0.9786
-24.6893 -15.7519 2.3102
-24.3594 -16.8632 2.3356
-10.7874 -8.0843 1.0621
-23.2612 -18.8395 2.3570
-21.8986 -19.1436 2.2890
-20.5832 -19.4068 2.2252
-10.7599 -10.9381 1.2063
-16.6238 -18.2219 1.9383
-10.8880 -12.8756 1.3246
-14.6853 -18.7534 1.8703
-11.0525 -15.2640 1.4793
-13.5241 -20.2381 1.9101
-11.0281 -17.9278 1.6513
-14.9518 -26.4897 2.3858
-13.9477 -27.0385 2.3858
-11.2070 -23.8904 2.0690
-11.3183 -26.6951 2.2731
-10.4411 -27.4564 2.3027
-9.4015 -27.8307 2.3027
-8.3482 -28.1648 2.3027
-7.3896 -28.8752 2.3365
-6.4848 -29.9947 2.4058
-5.3515 -30.2140 2.4058
-4.2108 -30.3893 2.4058
-3.0644 -30.5204 2.4058
-1.9139 -30.6072 2.4058
-0.7613 -30.6494 2.4058
0.3919 -30.6473 2.4058
1.5227 -30.1848 2.3731
2.5769 -29.2001 2.3025
3.6718 -29.0706 2.3025
4.7604 -28.8993 2.3025
5.8411 -28.6861 2.3025
2.5054 -10.3052 0.8346
4.7068 -16.6113 1.3594
9.0198 -27.8006 2.3025
10.1135 -27.5904 2.3164
11.3235 -27.6284 2.3552
12.5786 -27.6758 2.3995
13.6368 -27.2356 2.4058
14.6411 -26.6843 2.4058
15.6227 -26.0954 2.4058
16.5804 -25.4698 2.4058
17.5127 -24.8085 2.4058
18.4184 -24.1126 2.4058
19.2961 -23.3833 2.4058
20.1448 -22.6217 2.4058
20.9631 -21.8289 2.4058
7.1218 -6.8783 0.7878
7.1407 -6.3953 0.7634
7.1584 -5.9415 0.7415
7.2488 -5.5697 0.7293
7.2649 -5.1593 0.7116
7.2802 -4.7687 0.6957
7.2238 -4.3526 0.6748
7.2345 -3.9961 0.6619
7.2479 -3.6547 0.6507
7.2608 -3.3248 0.6408
7.2733 -3.0049 0.6321
7.2854 -2.6938 0.6246
7.2973 -2.3903 0.6181
7.3089 -2.0932 0.6125
7.3203 -1.8014 0.6080
7.3316 -1.5142 0.6044
7.3427 -1.2305 0.6016
7.3537 -0.9496 0.5997
7.3646 -0.6705 0.5987
7.3754 -0.3925 0.5986
7.3983 -0.1150 0.6002
7.4092 0.1636 0.6017
7.4201 0.4436 0.6041
7.4310 0.7256 0.6074
7.4303 1.0089 0.6105
7.4415 1.2972 0.6156
7.4530 1.5902 0.6216
7.4647 1.8889 0.6285
7.4766 2.1943 0.6366
20.8557 6.9831 1.7983
20.8909 7.8806 1.8270
14.9118 6.2756 1.3248
13.5822 6.3276 1.2279
12.4339 6.3725 1.1458
11.4296 6.4118 1.0755
10.5414 6.4466 1.0147
9.7482 6.4776 0.9617
9.0336 6.5056 0.9153
8.3847 6.5309 0.8743
7.9211 6.6635 0.8520
8.0646 7.3196 0.8969
6.8082 6.6633 0.7849
6.2790 6.6258 0.7524
6.2983 7.1681 0.7868
8.1709 10.0370 1.0676
6.3426 8.4193 0.8698
8.2415 11.8419 1.1909
7.8177 12.1866 1.1954
6.4311 10.9072 1.0457
6.4560 11.9560 1.1224
6.4715 13.1449 1.2105
6.5295 14.6270 1.3235
6.6023 16.4237 1.4627
9.0175 25.1242 2.2059
6.8996 21.7663 1.8870
7.2373 26.2177 2.2477
6.3986 27.1192 2.3026
5.3744 27.3437 2.3026
4.3425 27.5305 2.3026
3.3042 27.6793 2.3027
2.3623 29.0338 2.4058
1.2686 29.1088 2.4058
0.1727 29.1437 2.4058
-0.9242 29.1384 2.4058
-2.0204 29.0929 2.4058
-3.1147 29.0070 2.4058
-4.2054 28.8809 2.4058
-5.1805 28.1139 2.3554
-6.0974 27.2853 2.3025
-7.1231 27.0502 2.3025
-8.1401 26.7774 2.3025
-2.4336 7.0418 0.6126
-2.4834 6.3957 0.5638
-2.5260 5.8437 0.5228
-2.5629 5.3653 0.4880
-2.5952 4.9456 0.4581
-2.6239 4.5734 0.4321
-2.6497 4.2402 0.4095
-2.7808 4.0986 0.4053
-2.9396 4.0000 0.4059
-3.0954 3.8959 0.4066
-3.2480 3.7863 0.4073
-3.3973 3.6713 0.4080
-3.5430 3.5510 0.4088
-3.6851 3.4254 0.4097
-3.8233 3.2947 0.4106
-3.9575 3.1588 0.4116
-4.0874 3.0180 0.4126
-4.3245 2.9484 0.4246
-4.7472 2.9813 0.4544
-10.1134 5.8327 0.9454
-25.7227 13.5722 2.3528
-25.9612 12.4731 2.3277
-25.7583 11.2034 2.2679
-25.3113 9.8942 2.1920
-10.2028 3.5520 0.8705
-25.9057 7.9396 2.1811
-26.6655 7.0870 2.2189
-28.2559 6.3821 2.3272
-6.1814 1.1537 0.5047
-6.5070 0.9628 0.5274
-6.8983 0.7568 0.5559
-28.9287 2.0764 2.3209
-29.0480 0.9889 2.3236
-29.1637 -0.1048 2.3293
-29.0065 -1.1962 2.3165
-29.1508 -2.3029 2.3311
-10.3873 -1.2152 0.8329
-28.9395 -4.4946 2.3304
-27.1177 -5.2631 2.1961
-25.8658 -6.0378 2.1098
-16.0136 -4.3792 1.3176
-10.5073 -3.3029 0.8734
-10.4838 -3.7342 0.8818
-27.6158 -11.0237 2.3541
-10.6394 -4.7184 0.9207
-23.5831 -11.5394 2.3685
-10.6072 -5.6942 1.0854
-10.6830 -6.2635 1.1157
-22.1248 -14.1162 2.3632
-21.6183 -14.9661 2.3663
-10.7868 -8.0841 1.2125
-20.4380 -16.5534 2.3645
-19.7607 -17.2751 2.3585
-19.0350 -17.9476 2.3498
-10.7601 -10.9385 1.3776
-16.6329 -18.2322 2.2148
-10.8875 -12.8753 1.5127
-14.2283 -18.1702 2.0697
-10.9308 -15.0961 1.6710
-10.9714 -16.4183 1.7699
-11.0280 -17.9278 1.8862
-12.3901 -21.9515 2.2583
-11.6766 -22.6360 2.2815
-10.9187 -23.2758 2.3027
-10.0366 -23.6724 2.3027
-9.1399 -24.0348 2.3027
-8.2298 -24.3624 2.3027
-7.3078 -24.6547 2.3027
-6.6607 -26.0266 2.4058
-5.6768 -26.2570 2.4058
-4.6848 -26.4493 2.4058
-3.6863 -26.6033 2.4058
-2.6828 -26.7186 2.4058
-1.6757 -26.7954 2.4058
-0.6666 -26.8333 2.4058
0.3429 -26.8323 2.4058
1.3514 -26.7925 2.4058
2.3573 -26.7140 2.4058
3.3591 -26.5970 2.4058
4.3553 -26.4416 2.4058
5.3444 -26.2481 2.4058
2.5051 -10.3045 0.9529
4.7066 -16.6112 1.5521
8.2545 -25.4430 2.4058
9.2007 -25.1013 2.4058
10.1326 -24.7238 2.4058
11.0488 -24.3110 2.4058
11.9481 -23.8638 2.4058
12.8291 -23.3828 2.4058
13.6905 -22.8688 2.4058
14.5311 -22.3227 2.4058
15.3497 -21.7453 2.4058
16.1452 -21.1375 2.4058
16.1915 -19.6218 2.3027
16.9051 -18.9844 2.3027
17.5935 -18.3209 2.3026
7.1218 -6.8786 0.8983
7.1406 -6.3956 0.8704
7.1584 -5.9417 0.8454
7.2488 -5.5699 0.8314
7.2649 -5.1596 0.8111
7.2802 -4.7689 0.7928
7.2238 -4.3528 0.7690
7.2345 -3.9963 0.7542
7.2478 -3.6549 0.7414
7.2607 -3.3250 0.7300
7.2733 -3.0051 0.7200
7.2854 -2.6940 0.7113
7.2973 -2.3905 0.7038
7.3089 -2.0933 0.6974
7.3203 -1.8016 0.6921
7.3316 -1.5144 0.6879
7.3427 -1.2307 0.6847
7.3537 -0.9498 0.6825
7.3646 -0.6707 0.6813
7.3754 -0.3927 0.6810
7.4000 -0.1152 0.6830
7.4109 0.1635 0.6846
7.4219 0.4435 0.6873
7.4310 0.7254 0.6907
7.4303 1.0088 0.6942
7.4415 1.2971 0.6999
7.4530 1.5901 0.7066
7.4647 1.8887 0.7145
7.4766 2.1941 0.7236
20.8557 6.9826 2.0438
20.8908 7.8802 2.0763
14.9124 6.2756 1.5056
13.5828 6.3276 1.3953
12.4344 6.3725 1.3018
11.4300 6.4118 1.2218
10.5418 6.4466 1.1527
9.7485 6.4776 1.0924
9.0339 6.5055 1.0396
8.3849 6.5309 0.9930
7.9211 6.6633 0.9676
8.0646 7.3194 1.0185
6.8082 6.6631 0.8912
6.2791 6.6258 0.8543
6.2985 7.1681 0.8934
8.1035 9.9540 1.2021
6.3426 8.4191 0.9875
6.4422 9.2565 1.0568
6.3772 9.9408 1.1071
6.4311 10.9072 1.1871
6.4226 11.8940 1.2675
6.4715 13.1447 1.3741
6.5295 14.6268 1.5024
6.6023 16.4236 1.6604
7.9159 22.0549 2.1981
7.0994 22.3965 2.2040
6.5312 23.6604 2.3025
5.6368 23.8908 2.3026
4.7345 24.0882 2.3026
3.8253 24.2524 2.3027
2.9199 24.4605 2.3100
2.0808 25.5754 2.4058
1.1173 25.6408 2.4058
0.1519 25.6708 2.4058
-0.8142 25.6652 2.4058
-1.7797 25.6240 2.4058
-2.7434 25.5473 2.4058
-3.7039 25.4350 2.4058
-4.6600 25.2875 2.4058
-5.3696 24.0272 2.3025
-6.2725 23.8188 2.3025
-7.1675 23.5771 2.3025
-2.4338 7.0420 0.6958
-2.4836 6.3959 0.6404
-2.5261 5.8438 0.5939
-2.5630 5.3654 0.5544
-2.5954 4.9457 0.5205
-2.6241 4.5735 0.4910
-2.6498 4.2403 0.4653
-2.6730 3.9395 0.4428
-2.6941 3.6658 0.4228
-2.7535 3.4655 0.4111
-2.8885 3.3671 0.4117
-3.0203 3.2638 0.4124
-3.1489 3.1559 0.4131
-3.2741 3.0433 0.4139
-3.3957 2.9261 0.4147
-3.6263 2.8944 0.4289
-3.9549 2.9200 0.4541
-4.3256 2.9490 0.4832
-4.7485 2.9820 0.5171
-10.1136 5.8325 1.0757
-21.9792 11.5964 2.2878
-21.3473 10.2557 2.1784
-20.8714 9.0773 2.0917
-10.2945 4.0238 1.0149
-10.2028 3.5517 0.9911
-23.0130 7.0524 2.2063
-24.1073 6.4064 2.2844
-24.6327 5.5632 2.3107
-6.1813 1.1535 0.5749
-6.5072 0.9627 0.6009
-6.8986 0.7567 0.6334
-25.4940 1.8293 2.3307
-25.5606 0.8695 2.3301
-25.4250 -0.0919 2.3145
-25.3503 -1.0459 2.3077
-25.3946 -2.0067 2.3151
-10.3873 -1.2154 0.9497
-25.0324 -3.8883 2.2985
-24.7773 -4.8094 2.2883
-24.4150 -5.6996 2.2713
-16.0099 -4.3786 1.5025
-10.5072 -3.3031 0.9963
-10.4838 -3.7345 1.0060
-22.3436 -8.9196 2.1732
-10.6265 -4.7128 1.0494
-21.0230 -10.2871 2.3731
-10.6069 -5.6943 1.2200
-10.6826 -6.2635 1.2542
-19.8686 -12.6771 2.3858
-19.3874 -13.4221 2.3858
-10.7743 -8.0749 1.3616
-18.3407 -14.8551 2.3858
-17.7766 -15.5410 2.3858
-17.1658 -16.1855 2.3829
-10.7602 -10.9389 1.5492
-10.9146 -11.9644 1.6345
-10.8328 -12.8109 1.6927
-10.8751 -13.8883 1.7792
-10.9229 -15.0855 1.8781
-10.9713 -16.4184 1.9908
-11.0279 -17.9279 2.1215
-11.8724 -21.0344 2.4341
-10.4768 -20.3103 2.3027
-9.7067 -20.6925 2.3027
-8.9225 -21.0448 2.3027
-8.1253 -21.3668 2.3027
-7.3162 -21.6580 2.3027
-6.7874 -22.8991 2.4058
-5.9213 -23.1374 2.4058
-5.0467 -23.3424 2.4058
-4.1649 -23.5136 2.4058
-3.2773 -23.6509 2.4058
-2.3852 -23.7539 2.4058
-1.4899 -23.8226 2.4058
-0.5929 -23.8569 2.4058
0.3047 -23.8567 2.4058
1.2013 -23.8222 2.4058
2.0958 -23.7532 2.4058
2.9866 -23.6500 2.4058
3.8726 -23.5129 2.4058
4.7524 -23.3419 2.4058
2.5048 -10.3038 1.0714
4.7070 -16.6136 1.7454
7.3414 -22.6296 2.4058
5.4392 -14.8399 1.5990
9.0128 -21.9924 2.4058
9.8285 -21.6267 2.4058
10.6291 -21.2303 2.4058
11.4137 -20.8038 2.4058
11.6589 -19.4761 2.3027
12.3756 -19.0122 2.3027
13.0737 -18.5217 2.3027
13.7522 -18.0052 2.3026
14.4100 -17.4636 2.3026
15.0464 -16.8978 2.3026
15.6604 -16.3086 2.3026
7.1217 -6.8789 1.0090
7.1406 -6.3958 0.9776
7.1584 -5.9420 0.9494
7.2488 -5.5702 0.9337
7.2649 -5.1598 0.9107
7.2801 -4.7692 0.8902
7.2238 -4.3530 0.8633
7.2345 -3.9965 0.8467
7.2478 -3.6551 0.8322
7.2607 -3.3252 0.8193
7.2733 -3.0053 0.8080
7.2854 -2.6942 0.7982
7.2973 -2.3906 0.7897
7.3089 -2.0935 0.7825
7.3203 -1.8018 0.7765
7.3316 -1.5146 0.7717
7.3427 -1.2309 0.7680
7.3536 -0.9499 0.7655
7.3646 -0.6708 0.7640
7.3754 -0.3929 0.7637
7.4017 -0.1154 0.7660
7.4126 0.1634 0.7678
7.4236 0.4434 0.7706
7.4310 0.7253 0.7742
7.4303 1.0086 0.7781
7.4415 1.2969 0.7844
7.4530 1.5899 0.7919
7.4647 1.8886 0.8007
7.4766 2.1940 0.8108
20.8557 6.9822 2.2899
20.8908 7.8797 2.3261
14.9131 6.2756 1.6867
13.5833 6.3276 1.5630
12.4349 6.3725 1.4582
11.4304 6.4118 1.3685
10.5421 6.4465 1.2910
9.7488 6.4776 1.2234
9.0341 6.5055 1.1642
8.3851 6.5309 1.1120
7.8180 6.5764 1.0693
8.0646 7.3192 1.1403
6.8082 6.6630 0.9979
6.2792 6.6258 0.9565
6.2986 7.1681 1.0002
6.3638 7.8169 1.0568
6.3163 8.3840 1.1009
6.3449 9.1165 1.1652
6.3442 9.8893 1.2328
6.3806 10.8214 1.3184
6.4226 11.8939 1.4188
6.4715 13.1446 1.5380
6.5295 14.6267 1.6817
6.6022 16.4233 1.8585
7.0722 19.7043 2.1981
6.4498 20.3474 2.2412
5.8351 21.1385 2.3025
5.0359 21.3440 2.3025
4.2296 21.5198 2.3025
3.4173 21.6658 2.3025
2.6403 22.1192 2.3382
1.8588 22.8482 2.4058
0.9980 22.9062 2.4058
0.1355 22.9323 2.4058
-0.7275 22.9267 2.4058
-1.5900 22.8892 2.4058
-2.4507 22.8199 2.4058
-3.3086 22.7188 2.4058
-4.1624 22.5860 2.4058
-5.0111 22.4217 2.4058
-5.6026 21.2738 2.3027
-6.4017 21.0568 2.3027
-2.4340 7.0423 0.7792
-2.4838 6.3961 0.7172
-2.5263 5.8440 0.6652
-2.5632 5.3655 0.6210
-2.5956 4.9458 0.5830
-2.6242 4.5736 0.5500
-2.6499 4.2404 0.5213
-2.6731 3.9395 0.4960
-2.6942 3.6658 0.4737
-2.7136 3.4150 0.4539
-2.7314 3.1838 0.4362
-2.7479 2.9693 0.4205
-2.8332 2.8393 0.4166
-3.0677 2.8512 0.4347
-3.3331 2.8720 0.4563
-3.6272 2.8949 0.4809
-3.9558 2.9206 0.5092
-4.3267 2.9496 0.5419
-4.7498 2.9826 0.5800
-10.1138 5.8323 1.2063
-19.8572 10.4762 2.3181
-19.8447 9.5333 2.2714
-19.9275 8.6662 2.2402
-10.2947 4.0236 1.1386
-10.2029 3.5514 1.1120
-21.0915 6.4630 2.2688
-21.8768 5.8132 2.3263
-22.5121 5.0837 2.3699
-6.1812 1.1534 0.6452
-6.5074 0.9625 0.6745
-6.8988 0.7565 0.7110
-23.1038 1.6572 2.3712
-23.1448 0.7868 2.3689
-23.1116 -0.0841 2.3624
-23.0623 -0.9521 2.3576
-23.0339 -1.8207 2.3583
-10.3872 -1.2156 1.0666
-22.9293 -3.5621 2.3649
-22.8858 -4.4427 2.3744
-22.8274 -5.3295 2.3858
-16.0063 -4.3779 1.6878
-10.5071 -3.3033 1.1195
-10.4838 -3.7347 1.1305
-21.1143 -8.4293 2.3079
-10.6261 -4.7129 1.1793
-19.0314 -9.3130 2.3858
-10.6066 -5.6944 1.3549
-10.6822 -6.2635 1.3930
-17.8878 -11.4137 2.3858
-17.4538 -12.0838 2.3858
-10.7856 -8.0836 1.5142
-16.5100 -13.3727 2.3858
-10.9413 -9.5656 1.6313
-10.7498 -10.1362 1.6579
-10.7604 -10.9393 1.7212
-10.7951 -11.8335 1.7961
-10.8330 -12.8113 1.8808
-10.8752 -13.8887 1.9769
-10.9230 -15.0859 2.0869
-10.9712 -16.4185 2.2121
-10.7152 -17.4197 2.2906
-10.1074 -17.9075 2.3027
-9.4281 -18.2775 2.3027
-8.7350 -18.6211 2.3027
-8.0292 -18.9381 2.3027
-7.3118 -19.2276 2.3027
-6.8785 -20.3621 2.4058
-6.1079 -20.6064 2.4058
-5.3285 -20.8210 2.4058
-4.5415 -21.0056 2.4058
-3.7481 -21.1598 2.4058
-2.9494 -21.2836 2.4058
-2.1466 -21.3766 2.4058
-1.3410 -21.4388 2.4058
-0.5337 -21.4701 2.4058
0.2740 -21.4704 2.4058
1.0810 -21.4398 2.4058
1.8860 -21.3784 2.4058
2.6879 -21.2863 2.4058
3.4854 -21.1635 2.4058
4.2774 -21.0104 2.4058
2.5045 -10.3031 1.1901
4.7148 -16.6418 1.9422
6.6086 -20.3718 2.4058
5.4263 -14.8053 1.7720
7.7663 -18.9516 2.3027
8.4695 -18.6373 2.3027
9.1599 -18.2965 2.3027
9.8365 -17.9299 2.3026
10.4983 -17.5379 2.3026
11.1443 -17.1212 2.3026
11.7736 -16.6805 2.3026
12.3854 -16.2164 2.3026
12.9787 -15.7297 2.3025
6.4771 -7.2744 1.1004
14.2189 -14.8080 2.3208
7.1217 -6.8791 1.1201
7.1406 -6.3961 1.0851
7.1584 -5.9422 1.0537
7.2488 -5.5704 1.0361
7.2649 -5.1601 1.0106
7.2801 -4.7694 0.9878
7.2238 -4.3533 0.9579
7.2345 -3.9967 0.9393
7.2478 -3.6553 0.9232
7.2607 -3.3254 0.9089
7.2732 -3.0055 0.8963
7.2854 -2.6944 0.8853
7.2973 -2.3908 0.8758
7.3089 -2.0937 0.8677
7.3203 -1.8020 0.8610
7.3316 -1.5148 0.8556
7.3426 -1.2311 0.8515
7.3536 -0.9501 0.8486
7.3646 -0.6710 0.8470
7.3754 -0.3930 0.8465
7.4034 -0.1156 0.8492
7.4143 0.1633 0.8511
7.4253 0.4434 0.8542
7.4310 0.7251 0.8580
7.4302 1.0084 0.8622
7.4415 1.2967 0.8691
7.4530 1.5897 0.8774
7.4647 1.8884 0.8870
7.4766 2.1938 0.8981
12.5878 4.2140 1.5310
11.3291 4.2730 1.3970
10.3060 4.3366 1.2910
13.5839 6.3276 1.7311
12.4354 6.3725 1.6150
11.4308 6.4118 1.5155
10.5425 6.4465 1.4296
9.7491 6.4776 1.3547
9.0344 6.5055 1.2891
8.3853 6.5309 1.2312
7.9211 6.6629 1.1995
7.2699 6.5978 1.1381
6.7621 6.6177 1.0972
6.2794 6.6258 1.0589
6.2673 7.1324 1.1017
6.2906 7.7268 1.1564
6.2836 8.3405 1.2123
6.3121 9.0692 1.2831
6.3442 9.8891 1.3646
6.3806 10.8213 1.4593
6.4226 11.8937 1.5704
6.4715 13.1445 1.7024
6.5295 14.6266 1.8613
6.6022 16.4232 2.0570
6.4139 17.8701 2.2065
5.9866 18.8861 2.3025
5.2719 19.0982 2.3025
4.5498 19.2838 2.3025
3.8213 19.4425 2.3025
3.0873 19.5743 2.3025
2.4543 20.5613 2.4058
1.6792 20.6420 2.4058
0.9015 20.6940 2.4058
0.1223 20.7172 2.4058
-0.6574 20.7116 2.4058
-1.4365 20.6772 2.4058
-2.2140 20.6140 2.4058
-2.9889 20.5220 2.4058
-3.7601 20.4015 2.4058
-4.5265 20.2523 2.4058
-5.2871 20.0749 2.4058
-5.7821 19.0180 2.3027
-2.4342 7.0425 0.8628
-2.4840 6.3963 0.7942
-2.5265 5.8442 0.7366
-2.5634 5.3657 0.6877
-2.5957 4.9459 0.6456
-2.6244 4.5736 0.6092
-2.6501 4.2404 0.5774
-2.6733 3.9395 0.5494
-2.6944 3.6658 0.5247
-2.7137 3.4150 0.5028
-2.7315 3.1838 0.4833
-2.7481 2.9693 0.4658
-2.8269 2.8329 0.4605
-3.0683 2.8517 0.4817
-3.3338 2.8724 0.5057
-3.6280 2.8954 0.5331
-3.9568 2.9211 0.5645
-4.3278 2.9502 0.6007
-4.7511 2.9833 0.6430
-10.1139 5.8321 1.3373
-18.2544 9.6301 2.3623
-18.6536 8.9605 2.3670
-18.9485 8.2399 2.3618
-10.2949 4.0234 1.2625
-10.2029 3.5512 1.2331
-19.9465 6.1117 2.3795
-20.2261 5.3740 2.3854
-20.4320 4.6135 2.3858
-6.1811 1.1532 0.7157
-6.5077 0.9624 0.7482
-6.8991 0.7564 0.7889
-20.9512 1.5023 2.3858
-21.0073 0.7137 2.3858
-21.0336 -0.0770 2.3858
-21.0300 -0.8686 2.3858
-20.9964 -1.6601 2.3858
-10.3872 -1.2158 1.1839
-20.8392 -3.2379 2.3858
-20.7158 -4.0219 2.3858
-20.5626 -4.8012 2.3858
-16.0027 -4.3773 1.8734
-10.5070 -3.3034 1.2430
-10.4838 -3.7349 1.2552
-19.6093 -7.8289 2.3801
-10.6258 -4.7130 1.3096
-17.3044 -8.4683 2.3858
-10.6063 -5.6944 1.4901
-10.6818 -6.2635 1.5321
-16.2625 -10.3770 2.3858
-10.8748 -7.5291 1.6351
-10.6852 -8.0086 1.6501
-10.6719 -8.6442 1.6965
-10.6986 -9.3536 1.7548
-10.7273 -10.1152 1.8201
-10.7605 -10.9397 1.8936
-10.7952 -11.8340 1.9762
-10.8331 -12.8118 2.0693
-10.8753 -13.8891 2.1752
-10.9231 -15.0862 2.2962
-10.3796 -15.5334 2.3027
-9.7898 -15.9155 2.3027
-9.1857 -16.2748 2.3027
-8.5683 -16.6108 2.3027
-7.9383 -16.9229 2.3027
-7.2969 -17.2108 2.3027
-6.9423 -18.2562 2.4058
-6.2511 -18.5048 2.4058
-5.5508 -18.7268 2.4058
-4.8425 -18.9219 2.4058
-4.1273 -19.0897 2.4058
-3.4063 -19.2300 2.4058
-2.6805 -19.3427 2.4058
-1.9510 -19.4275 2.4058
-1.2188 -19.4843 2.4058
-0.4852 -19.5130 2.4058
0.2489 -19.5137 2.4058
0.9824 -19.4863 2.4058
1.7141 -19.4309 2.4058
2.4429 -19.3477 2.4058
3.1679 -19.2367 2.4058
3.8879 -19.0981 2.4058
2.5042 -10.3025 1.3092
4.7370 -16.7210 2.1467
5.7499 -17.7256 2.3026
5.4261 -14.8055 1.9492
7.0602 -17.2293 2.3026
7.6998 -16.9442 2.3026
8.3278 -16.6352 2.3026
8.9434 -16.3026 2.3026
9.5455 -15.9469 2.3026
10.1334 -15.5688 2.3025
10.7912 -15.2892 2.3208
11.3526 -14.8647 2.3208
6.0855 -7.3756 1.1871
6.4430 -7.2364 1.2035
12.9330 -13.4694 2.3208
7.1217 -6.8794 1.2313
7.1406 -6.3964 1.1928
7.1584 -5.9425 1.1583
7.2488 -5.5707 1.1389
7.2648 -5.1603 1.1108
7.2801 -4.7696 1.0856
7.2238 -4.3535 1.0527
7.2345 -3.9969 1.0322
7.2478 -3.6555 1.0144
7.2607 -3.3256 0.9986
7.2732 -3.0057 0.9847
7.2854 -2.6946 0.9726
7.2973 -2.3910 0.9621
7.3089 -2.0939 0.9532
7.3203 -1.8022 0.9458
7.3315 -1.5149 0.9398
7.3426 -1.2312 0.9352
7.3536 -0.9503 0.9320
7.3645 -0.6712 0.9301
7.3754 -0.3932 0.9295
7.4052 -0.1158 0.9326
7.4161 0.1631 0.9347
7.4271 0.4433 0.9381
7.4310 0.7249 0.9419
7.4302 1.0083 0.9465
7.4415 1.2966 0.9540
7.4530 1.5896 0.9630
7.4647 1.8883 0.9736
7.4766 2.1936 0.9857
12.5885 4.2140 1.6803
11.3296 4.2729 1.5333
10.2727 4.3224 1.4121
13.5845 6.3275 1.8997
12.4358 6.3725 1.7722
11.4313 6.4118 1.6630
10.5428 6.4465 1.5686
9.7494 6.4776 1.4864
8.9887 6.4725 1.4071
8.3855 6.5309 1.3507
7.7858 6.5490 1.2934
7.2417 6.5721 1.2436
6.7376 6.5936 1.1992
6.2795 6.6258 1.1616
6.2349 7.0954 1.2022
6.2580 7.6867 1.2619
6.2836 8.3404 1.3297
6.3121 9.0691 1.4073
6.3442 9.8890 1.4967
6.3806 10.8212 1.6005
6.4226 11.8936 1.7224
6.4715 13.1443 1.8671
6.5295 14.6265 2.0415
6.6022 16.4231 2.2560
6.1025 17.0025 2.3025
5.4584 17.2198 2.3025
4.8067 17.4132 2.3025
4.1483 17.5823 2.3025
3.4840 17.7270 2.3025
2.8148 17.8470 2.3025
2.2376 18.7467 2.4058
1.5308 18.8200 2.4058
0.8218 18.8671 2.4058
0.1114 18.8880 2.4058
-0.5995 18.8826 2.4058
-1.3098 18.8508 2.4058
-2.0186 18.7927 2.4058
-2.7250 18.7084 2.4058
-3.4279 18.5980 2.4058
-4.1265 18.4615 2.4058
-4.8197 18.2992 2.4058
-5.5067 18.1112 2.4058
