ply
format ascii 1.0
element vertex 1991
property float32 x
property float32 y
property float32 z
end_header
8.6796 -5.2276 -1.7865
8.4986 -7.6089 -2.0115
8.7069 -4.8073 -1.7536
8.5948 -7.1312 -1.9693
8.7332 -4.4016 -1.7243
8.7332 -3.9971 -1.6934
7.4709 -1.5415 -1.3448
8.7580 -3.6164 -1.6706
7.4855 -1.2531 -1.3380
8.7821 -3.2454 -1.6507
8.9182 -1.1500 -1.5852
8.8056 -2.8825 -1.6335
8.8287 -2.5266 -1.6190
20.6310 -1.8746 -3.6518
8.8515 -2.1765 -1.6069
20.6815 -1.0969 -3.6508
20.7828 0.4626 -3.6644
20.7321 -0.3186 -3.6550
20.8339 1.2490 -3.6790
20.8855 2.0429 -3.6990
11.8999 3.0132 -2.1636
20.9377 2.8466 -3.7245
10.5580 3.1003 -1.9395
20.9907 3.6627 -3.7558
9.4666 3.1712 -1.7596
13.5952 2.9030 -2.4503
8.5592 3.2302 -1.6124
6.8453 3.5094 -1.3558
7.7398 3.2586 -1.4801
6.7085 3.7645 -1.3558
7.0835 3.3012 -1.3774
6.5622 4.0142 -1.3558
6.2097 5.2248 -1.4302
6.4066 4.2582 -1.3558
8.4283 7.6511 -2.0061
6.2420 4.4962 -1.3558
8.4698 8.2909 -2.0888
6.1833 4.8173 -1.3814
8.5150 8.9868 -2.1818
8.6798 11.5231 -2.5424
8.5645 9.7487 -2.2869
8.6417 12.4184 -2.6663
8.6191 10.5890 -2.4062
10.9583 17.0840 -3.5769
10.0658 17.0733 -3.4929
9.8021 18.1541 -3.6360
9.8163 19.9401 -3.9169
-19.6864 21.2813 -5.1112
-11.5581 11.5880 -2.8856
-11.2349 8.2986 -2.4628
-10.9961 10.2247 -2.6474
-11.4830 7.8318 -2.4509
-10.5038 9.0546 -2.4451
-12.8348 8.0637 -2.6728
-10.8850 8.6915 -2.4560
-18.6484 10.7597 -3.7964
-18.4281 8.0192 -3.5441
-13.5304 5.2920 -2.5621
-16.1497 8.5250 -3.2202
-15.2352 7.3233 -2.9809
-13.5543 4.7216 -2.5312
-13.4837 4.1352 -2.4872
-17.7396 3.3143 -3.1828
-13.4159 3.5683 -2.4483
-16.4174 2.4322 -2.9271
-13.3506 3.0181 -2.4139
-16.6865 1.8337 -2.9607
-26.7988 1.9283 -4.7388
-32.7752 -1.3460 -5.7858
-27.1835 0.9302 -4.7973
-17.4692 -1.3771 -3.0909
-29.2172 -0.0999 -5.1533
-15.8747 -1.8544 -2.8191
-15.6832 -2.4332 -2.7995
-15.3731 -2.9811 -2.7622
-16.4681 -3.8414 -2.9829
-15.9574 -4.3612 -2.9181
-20.4504 -6.4251 -3.7813
-19.9928 -7.1181 -3.7436
-18.7315 -7.4742 -3.5577
-13.0939 -5.8048 -2.5266
-13.1590 -6.4364 -2.4171
-12.4401 -6.6759 -2.3296
-11.7710 -6.8994 -2.2513
-15.3410 -9.7852 -3.0025
-15.3497 -10.6236 -3.0803
-12.9863 -9.7302 -2.6776
-12.4005 -10.0413 -2.6329
-13.1552 -11.4981 -2.8831
-18.9204 -17.8360 -4.2907
-19.9108 -20.2373 -4.6847
-15.4927 -16.9795 -3.7929
-14.3953 -17.0210 -3.6785
-13.6965 -17.4885 -3.6656
-12.4240 -17.1561 -3.4954
-11.3389 -16.9664 -3.3674
-11.0214 -17.9153 -3.4709
-11.3093 -20.0348 -3.7964
-18.2046 -35.2884 -6.5523
-14.0854 -30.0247 -5.4726
-12.8932 -30.4086 -5.4502
-12.6597 -33.2899 -5.8770
-11.5898 -34.3089 -5.9756
-15.0371 -50.7330 -8.7314
-13.3268 -52.0779 -8.8702
2.2153 -13.4416 -2.2476
35.8962 -55.1241 -10.8511
8.3368 -10.0995 -2.1601
8.3817 -9.4092 -2.0785
8.4233 -8.7683 -2.0055
8.4622 -8.1701 -1.9401
8.4986 -7.6089 -1.8814
8.5948 -7.1312 -1.8419
8.6276 -6.6267 -1.7942
8.6587 -6.1469 -1.7513
8.6512 -5.6646 -1.7054
8.6796 -5.2276 -1.6710
8.7069 -4.8073 -1.6402
8.7332 -4.4016 -1.6128
7.3449 -3.3617 -1.3321
7.3462 -3.0335 -1.3106
7.3665 -2.7222 -1.2950
7.3862 -2.4179 -1.2816
7.4056 -2.1194 -1.2702
7.4247 -1.8257 -1.2607
7.4435 -1.5359 -1.2532
7.4621 -1.2492 -1.2475
7.6224 -0.9829 -1.2672
20.6310 -1.8746 -3.4156
20.6815 -1.0970 -3.4146
20.7321 -0.3186 -3.4185
20.7828 0.4626 -3.4273
20.8339 1.2490 -3.4410
20.8855 2.0429 -3.4597
20.9377 2.8466 -3.4836
20.9907 3.6627 -3.5128
13.5953 2.9030 -2.2918
11.8999 3.0132 -2.0237
10.5580 3.1003 -1.8140
9.4666 3.1712 -1.6458
8.5592 3.2302 -1.5081
7.7398 3.2586 -1.3843
7.4547 3.4742 -1.3558
7.3188 3.7522 -1.3558
7.1726 4.0249 -1.3558
7.0162 4.2919 -1.3558
6.8498 4.5528 -1.3558
6.6738 4.8072 -1.3558
6.4883 5.0549 -1.3558
6.2936 5.2954 -1.3558
6.2382 5.6630 -1.3888
8.4698 8.2909 -1.9536
8.5150 8.9868 -2.0406
8.5645 9.7487 -2.1389
8.6191 10.5889 -2.2505
8.6798 11.5231 -2.3779
8.7479 12.5709 -2.5244
10.8039 16.8432 -3.2983
9.9253 16.8350 -3.2213
9.8022 18.1543 -3.4007
9.8958 20.1015 -3.6931
4.3628 27.6533 -4.6147
-20.7928 22.4773 -5.0493
-11.5749 11.6047 -2.7029
-11.4207 10.6195 -2.5718
-10.4823 9.0361 -2.2823
-10.8626 8.6736 -2.2925
-11.2164 8.2849 -2.2997
-11.4641 7.8189 -2.2886
-13.8679 8.7127 -2.7011
-14.0546 8.1092 -2.6762
-17.1539 9.0551 -3.1993
-15.2305 7.3210 -2.7872
-18.4601 8.0331 -3.3206
-13.4820 5.2730 -2.3878
-13.5300 4.7131 -2.3633
-13.4600 4.1279 -2.3223
-13.3927 3.5620 -2.2860
-18.1553 4.1043 -3.0704
-16.8963 3.1568 -2.8355
-16.4302 2.4341 -2.7400
-26.6246 2.9258 -4.4186
-27.1754 1.9554 -4.4947
-27.4631 0.9397 -4.5333
-27.4699 -0.0939 -4.5319
-31.7108 -1.3023 -5.2360
-17.6521 -1.3915 -2.9213
-15.8424 -1.8507 -2.6315
-15.6515 -2.4282 -2.6132
-15.3445 -2.9756 -2.5788
-16.6344 -3.8802 -2.8182
-15.9225 -4.3517 -2.7235
-20.4539 -6.4262 -3.5374
-20.2827 -7.2213 -3.5524
-18.7616 -7.4863 -3.3330
-13.1987 -5.8513 -2.3822
-13.1254 -6.4200 -2.2449
-12.4094 -6.6595 -2.1638
-15.3299 -8.9854 -2.7301
-15.6993 -10.0137 -2.8610
-15.2672 -10.5665 -2.8528
-13.9193 -10.4293 -2.6724
-13.6642 -11.0646 -2.7015
-18.9598 -16.5715 -3.8691
-20.5320 -19.3553 -4.3355
-16.8469 -17.1232 -3.6909
-13.0584 -16.6738 -3.2542
-12.6414 -17.4562 -3.3116
-11.2725 -16.8670 -3.1172
-11.0969 -18.0379 -3.2540
-11.2977 -20.0143 -3.5313
-16.8846 -32.7298 -5.6587
-14.2974 -30.4765 -5.1724
-12.6666 -29.8743 -4.9857
-12.1349 -31.9099 -5.2455
-11.6519 -34.4927 -5.5940
-14.8393 -50.0655 -8.0232
-13.2412 -51.7435 -8.2064
-14.5333 -67.2291 -10.5680
2.2153 -13.4412 -2.0928
18.7180 -57.6710 -9.3141
20.8753 -56.9292 -9.3145
35.7851 -54.9537 -10.0725
8.3368 -10.0995 -2.0113
8.3817 -9.4092 -1.9353
8.4233 -8.7684 -1.8673
8.4622 -8.1702 -1.8064
8.4986 -7.6089 -1.7518
8.5948 -7.1312 -1.7151
8.6276 -6.6267 -1.6706
8.6587 -6.1469 -1.6306
7.2544 -4.7500 -1.3315
7.2593 -4.3722 -1.3013
7.2821 -4.0207 -1.2773
7.3041 -3.6814 -1.2559
7.3255 -3.3528 -1.2370
7.3462 -3.0335 -1.2203
7.3665 -2.7222 -1.2058
7.3862 -2.4179 -1.1933
7.4056 -2.1194 -1.1826
7.4247 -1.8257 -1.1739
7.4435 -1.5359 -1.1668
7.4621 -1.2492 -1.1615
7.6224 -0.9829 -1.1799
20.6310 -1.8746 -3.1802
20.6815 -1.0970 -3.1793
20.7321 -0.3186 -3.1829
20.7828 0.4626 -3.1911
20.8339 1.2490 -3.2038
20.8855 2.0429 -3.2212
20.9377 2.8466 -3.2435
20.9907 3.6627 -3.2707
13.5953 2.9030 -2.1338
11.9000 3.0132 -1.8842
10.5580 3.1003 -1.6890
9.4666 3.1712 -1.5324
8.5592 3.2302 -1.4041
8.0330 3.3820 -1.3377
8.0066 3.7314 -1.3558
7.8607 4.0300 -1.3558
7.7036 4.3228 -1.3558
7.5356 4.6096 -1.3558
7.3570 4.8898 -1.3558
7.1679 5.1631 -1.3558
6.9686 5.4291 -1.3558
6.7595 5.6874 -1.3558
6.5409 5.9377 -1.3558
6.3129 6.1796 -1.3558
6.3024 6.6516 -1.4063
8.5645 9.7487 -1.9915
8.6191 10.5890 -2.0954
8.6798 11.5231 -2.2140
8.7479 12.5709 -2.3504
10.4314 16.2625 -2.9651
9.7101 16.4700 -2.9342
9.8023 18.1544 -3.1663
9.9334 20.1778 -3.4516
4.3626 27.6526 -4.2965
-20.7127 22.3907 -4.6832
-20.7516 20.8049 -4.5119
-11.5346 10.7254 -2.4185
-10.4610 9.0177 -2.1207
-10.8405 8.6559 -2.1301
-11.1980 8.2713 -2.1378
-11.4454 7.8062 -2.1274
-17.2047 10.8090 -3.1202
-18.3869 10.6088 -3.2599
-17.1825 9.0701 -2.9838
-15.2257 7.3187 -2.5944
-15.4439 6.7206 -2.5867
-17.4489 6.8245 -2.8775
-13.5059 4.7047 -2.1966
-13.4364 4.1207 -2.1585
-13.3696 3.5559 -2.1248
-18.0756 4.0862 -2.8464
-17.8416 3.3334 -2.7878
-25.1454 3.7252 -3.9045
-25.4225 2.7937 -3.9285
-26.3533 1.8962 -4.0585
-27.7474 0.9494 -4.2648
-27.4907 -0.0940 -4.2229
-14.3069 -15.6800 -3.2614
-14.5046 -17.1502 -3.4512
-28.7865 -1.1822 -4.4258
-31.7732 -2.5048 -4.8961
-15.8104 -1.8470 -2.4453
-15.6201 -2.4234 -2.4283
-15.3161 -2.9701 -2.3968
-17.0002 -3.9655 -2.6818
-16.9219 -4.6249 -2.6951
-16.7121 -5.2506 -2.6913
-20.2861 -7.2225 -3.3083
-18.7918 -7.4983 -3.1085
-13.3049 -5.8984 -2.2360
-13.0920 -6.4036 -2.0741
-12.3789 -6.6432 -1.9994
-15.6782 -9.1895 -2.5863
-15.7476 -10.0445 -2.6583
-15.1858 -10.5101 -2.6284
-14.1795 -10.6243 -2.5217
-19.5965 -15.8682 -3.5888
-18.9400 -16.5542 -3.5802
-20.1759 -19.0196 -3.9463
-16.8433 -17.1195 -3.4181
-14.3568 -15.7347 -3.0316
-13.9266 -16.4667 -3.0695
-13.5705 -17.3277 -3.1325
-13.2697 -18.3239 -3.2200
-11.2071 -16.7691 -2.8707
-11.1236 -18.0814 -3.0215
-12.7361 -22.5625 -3.6875
-16.0984 -31.2057 -4.9976
-13.8904 -29.6091 -4.6548
-12.8524 -30.3125 -4.6860
-12.5514 -33.0051 -5.0257
-11.7145 -34.6779 -5.2095
-14.7233 -49.6739 -7.3738
-12.4939 -48.8233 -7.1725
2.2152 -13.4409 -1.9385
18.4321 -56.7902 -8.4957
20.8826 -56.9494 -8.6309
35.2303 -54.1017 -9.1852
38.8656 -55.0399 -9.5858
8.3368 -10.0995 -1.8630
8.3817 -9.4092 -1.7926
8.4233 -8.7684 -1.7296
8.4622 -8.1702 -1.6732
8.4986 -7.6089 -1.6226
7.1575 -5.9387 -1.3229
7.1848 -5.5185 -1.2886
7.2108 -5.1190 -1.2578
7.2355 -4.7376 -1.2301
7.2593 -4.3722 -1.2053
7.2821 -4.0207 -1.1831
7.3041 -3.6814 -1.1633
7.3255 -3.3528 -1.1458
7.3462 -3.0335 -1.1303
7.3664 -2.7223 -1.1169
7.3862 -2.4179 -1.1052
7.4056 -2.1194 -1.0954
7.4247 -1.8257 -1.0873
7.4435 -1.5359 -1.0808
7.4621 -1.2492 -1.0759
7.6222 -0.9829 -1.0928
20.6310 -1.8746 -2.9456
20.6815 -1.0970 -2.9448
20.7321 -0.3186 -2.9481
20.7828 0.4626 -2.9557
20.8339 1.2490 -2.9675
20.8855 2.0428 -2.9836
20.9377 2.8466 -3.0042
20.9907 3.6626 -3.0294
13.5954 2.9030 -1.9764
11.9000 3.0132 -1.7452
10.5580 3.1003 -1.5644
9.4666 3.1712 -1.4193
8.5592 3.2302 -1.3006
8.0330 3.3820 -1.2390
8.1789 3.8117 -1.2828
8.2045 4.2062 -1.3107
8.2313 4.6190 -1.3418
8.1359 4.9768 -1.3558
7.9430 5.2793 -1.3558
7.7389 5.5744 -1.3558
7.5238 5.8616 -1.3558
7.2980 6.1405 -1.3558
7.0619 6.4107 -1.3558
6.8158 6.6718 -1.3558
6.5601 6.9235 -1.3558
6.3390 7.2155 -1.3652
6.3794 7.8374 -1.4365
8.6798 11.5231 -2.0506
8.7479 12.5709 -2.1770
10.6372 16.5834 -2.8005
9.8884 16.7725 -2.7676
9.8023 18.1546 -2.9327
9.9335 20.1780 -3.1969
4.3625 27.6518 -3.9794
-20.6335 22.3050 -4.3213
-20.8457 20.8992 -4.1981
-11.9215 11.0851 -2.3152
-10.4399 8.9995 -1.9604
-10.8185 8.6383 -1.9690
-11.1797 8.2578 -1.9769
-11.4269 7.7935 -1.9674
-17.2065 10.8102 -2.8904
-19.3118 11.1424 -3.1714
-17.2111 9.0852 -2.7684
-15.2210 7.3164 -2.4023
-18.5240 8.0609 -2.8738
-17.5324 6.8571 -2.6781
-13.4820 4.6964 -2.0310
-13.4130 4.1135 -1.9959
-18.0651 4.8047 -2.6594
-17.9968 4.0684 -2.6250
-24.9019 4.6524 -3.6042
-25.0991 3.7183 -3.6100
-25.6990 2.8241 -3.6784
-26.2926 1.8918 -3.7507
-26.4182 0.9039 -3.7611
-27.5114 -0.0941 -3.9146
-32.5159 -1.3354 -4.6306
-31.6425 -2.4945 -4.5165
-15.7786 -1.8433 -2.2605
-15.5889 -2.4186 -2.2448
-15.2879 -2.9646 -2.2160
-16.9781 -3.9604 -2.4809
-16.8850 -4.6148 -2.4910
-20.4607 -6.4283 -3.0521
-16.4724 -5.8647 -2.4883
-20.5801 -8.2119 -3.1534
-13.4125 -5.9460 -2.0879
-13.0588 -6.3874 -1.9048
-13.7509 -7.3795 -2.0448
-16.0456 -9.4049 -2.4370
-15.2653 -9.7369 -2.3725
-15.1055 -10.4546 -2.4071
-15.4969 -11.6113 -2.5374
-19.5760 -15.8517 -3.3007
-18.9202 -16.5369 -3.2928
-20.4180 -19.2478 -3.6769
-15.9283 -16.1895 -2.9761
-14.4069 -15.7896 -2.8009
-14.6858 -17.3644 -2.9801
-14.0411 -17.9286 -2.9841
-13.2599 -18.3103 -2.9624
-12.2847 -18.3816 -2.8971
-11.1504 -18.1249 -2.7885
-12.7595 -22.6038 -3.4013
-15.9598 -30.9370 -4.5616
-14.1011 -30.0582 -4.3506
-13.0431 -30.7622 -4.3784
-12.5983 -33.1284 -4.6443
-11.7776 -34.8645 -4.8221
-13.6496 -46.0514 -6.2938
-12.6397 -49.3928 -6.6807
-14.2851 -66.0806 -8.8587
4.6544 -52.6984 -6.9313
2.2151 -13.4405 -1.7846
7.7059 -37.8266 -5.0575
9.0141 -37.0609 -4.9968
10.5279 -37.1409 -5.0574
12.0354 -37.0818 -5.1073
13.6355 -37.1857 -5.1885
34.8199 -58.1432 -8.8772
36.3975 -55.8943 -8.7366
8.3368 -10.0995 -1.7152
8.3817 -9.4092 -1.6504
7.0888 -7.3793 -1.3401
7.0981 -6.8532 -1.2922
7.1287 -6.3824 -1.2531
7.1575 -5.9387 -1.2179
7.1848 -5.5185 -1.1864
7.2108 -5.1190 -1.1580
7.2355 -4.7377 -1.1325
7.2593 -4.3722 -1.1096
7.2821 -4.0207 -1.0892
7.3041 -3.6814 -1.0710
7.3255 -3.3528 -1.0548
7.3462 -3.0335 -1.0406
7.3664 -2.7223 -1.0282
7.3862 -2.4179 -1.0175
7.4056 -2.1194 -1.0085
7.4247 -1.8257 -1.0010
7.4435 -1.5359 -0.9950
7.4621 -1.2492 -0.9905
7.6221 -0.9829 -1.0060
20.6310 -1.8747 -2.7118
20.6815 -1.0970 -2.7110
20.7321 -0.3187 -2.7141
20.7828 0.4626 -2.7210
20.8339 1.2490 -2.7319
20.8855 2.0428 -2.7467
20.9377 2.8465 -2.7657
20.9907 3.6626 -2.7889
13.5954 2.9030 -1.8195
11.9000 3.0132 -1.6066
10.5580 3.1003 -1.4402
9.4666 3.1712 -1.3066
8.5592 3.2302 -1.1973
8.0330 3.3820 -1.1407
8.1789 3.8117 -1.1809
8.2045 4.2062 -1.2066
8.2313 4.6190 -1.2352
8.2595 5.0524 -1.2671
8.2892 5.5094 -1.3025
8.3206 5.9934 -1.3419
8.1728 6.3672 -1.3558
7.9275 6.6702 -1.3558
7.6711 6.9637 -1.3558
7.4038 7.2474 -1.3558
7.1259 7.5208 -1.3558
6.7251 7.6550 -1.3334
6.5404 8.0352 -1.3558
6.4244 8.5288 -1.3973
8.7479 12.5709 -2.0041
10.6372 16.5834 -2.5781
9.8884 16.7725 -2.5478
9.8027 18.1553 -2.6999
9.9335 20.1782 -2.9431
4.3624 27.6511 -3.6633
-20.5552 22.2202 -3.9631
-20.8506 20.9042 -3.8658
-11.9386 11.1009 -2.1345
-10.4189 8.9814 -1.8011
-10.7966 8.6208 -1.8091
-11.1616 8.2444 -1.8170
-11.4084 7.7809 -1.8083
-17.2083 10.8113 -2.6613
-27.1534 15.6667 -4.1053
-17.2398 9.1003 -2.5529
-15.2163 7.3141 -2.2110
-18.5559 8.0748 -2.6503
-17.6164 6.8900 -2.4774
-13.9139 4.8468 -1.9297
-13.3897 4.1063 -1.8343
-17.9860 4.7837 -2.4377
-17.9189 4.0508 -2.4063
-24.8563 4.6439 -3.3121
-25.0531 3.7115 -3.3175
-26.0896 2.8670 -3.4381
-26.1882 1.8843 -3.4394
-28.1574 0.9634 -3.6907
-27.5321 -0.0942 -3.6067
-33.1329 -1.3608 -4.3442
-33.1703 -2.6150 -4.3590
-15.7470 -1.8396 -2.0770
-15.5579 -2.4138 -2.0626
-15.2599 -2.9592 -2.0365
-16.6872 -3.8925 -2.2450
-16.8483 -4.6048 -2.2884
-20.4641 -6.4294 -2.8104
-20.2928 -7.2249 -2.8223
-16.4214 -6.5525 -2.3166
-13.5214 -5.9944 -1.9379
-13.0260 -6.3714 -1.7368
-13.7150 -7.3602 -1.8643
-13.9858 -8.1976 -1.9417
-15.3441 -9.7872 -2.1799
-15.0263 -10.3998 -2.1888
-15.4822 -11.6004 -2.3172
-19.5556 -15.8352 -3.0140
-18.9006 -16.5197 -3.0068
-16.9162 -15.9467 -2.7846
-16.0489 -16.3121 -2.7410
-14.4572 -15.8447 -2.5692
-14.7373 -17.4252 -2.7336
-14.1431 -18.0588 -2.7476
-13.2093 -18.2404 -2.6976
-12.2969 -18.3998 -2.6509
-13.4698 -21.8950 -3.0792
-12.7829 -22.6452 -3.1148
-16.0722 -31.1550 -4.1991
-14.3177 -30.5199 -4.0380
-13.2166 -31.1713 -4.0555
-12.7199 -33.4481 -4.2864
-15.8090 -46.7986 -5.9167
-13.7713 -46.4621 -5.8045
-12.4639 -48.7055 -6.0218
-13.9016 -64.3064 -7.8803
4.5486 -51.5002 -6.1918
6.5354 -51.7106 -6.2421
2.2151 -13.4402 -1.6313
7.7169 -37.8810 -4.6296
9.0140 -37.0609 -4.5675
10.5332 -37.1596 -4.6252
12.0935 -37.2610 -4.6910
13.7013 -37.3654 -4.7656
15.3636 -37.4734 -4.8496
17.0880 -37.5854 -4.9437
35.8413 -55.0402 -7.8638
7.0030 -8.4837 -1.3170
7.0306 -7.8926 -1.2654
7.0655 -7.3550 -1.2209
7.0981 -6.8532 -1.1811
7.1287 -6.3824 -1.1454
7.1575 -5.9387 -1.1133
7.1848 -5.5185 -1.0844
7.2108 -5.1190 -1.0585
7.2355 -4.7377 -1.0352
7.2593 -4.3722 -1.0143
7.2821 -4.0207 -0.9956
7.3041 -3.6814 -0.9789
7.3255 -3.3528 -0.9642
7.3462 -3.0335 -0.9512
7.3664 -2.7223 -0.9398
7.3862 -2.4179 -0.9300
7.4056 -2.1194 -0.9218
7.4247 -1.8257 -0.9149
7.4435 -1.5359 -0.9094
7.4621 -1.2492 -0.9053
7.6220 -0.9829 -0.9195
20.6310 -1.8747 -2.4786
20.6815 -1.0970 -2.4779
20.7321 -0.3187 -2.4807
20.7828 0.4626 -2.4871
20.8339 1.2490 -2.4970
20.8855 2.0428 -2.5105
20.9377 2.8465 -2.5278
20.9907 3.6626 -2.5490
13.5954 2.9030 -1.6630
11.9001 3.0132 -1.4685
10.5581 3.1003 -1.3163
9.4666 3.1712 -1.1942
8.5592 3.2302 -1.0943
8.0330 3.3820 -1.0426
8.1789 3.8117 -1.0793
8.1625 4.1847 -1.0972
8.1892 4.5953 -1.1232
8.2595 5.0524 -1.1581
8.2892 5.5094 -1.1905
8.3206 5.9934 -1.2265
8.3541 6.5085 -1.2666
8.3898 7.0591 -1.3114
8.3671 7.5956 -1.3516
8.1005 7.9294 -1.3558
7.7966 8.2285 -1.3558
6.7251 7.6550 -1.2187
7.1560 8.7914 -1.3558
6.8202 9.0543 -1.3558
6.4748 9.3045 -1.3558
10.6372 16.5834 -2.3564
9.8884 16.7725 -2.3287
9.7637 18.0830 -2.4579
9.9340 20.1791 -2.6901
4.3622 27.6503 -3.3482
-16.2100 88.0124 -10.7059
-28.6770 60.0540 -7.9625
-20.9713 21.0251 -3.5539
-11.9556 11.1167 -1.9538
-12.8047 11.0380 -2.0233
-13.4162 10.7125 -2.0548
-12.3741 9.1399 -1.8413
-13.6640 9.3192 -1.9797
-17.2102 10.8124 -2.4328
-26.8905 15.5150 -3.7161
-17.2684 9.1154 -2.3374
-15.2116 7.3118 -2.0204
-19.0419 8.2862 -2.4860
-17.7010 6.9230 -2.2754
-13.8539 4.8259 -1.7563
-15.0950 4.6293 -1.8902
-17.9077 4.7628 -2.2185
-19.3519 4.3747 -2.3754
-24.8110 4.6354 -3.0220
-25.7027 3.8077 -3.1110
-26.3779 2.8986 -3.1774
-26.1726 1.8831 -3.1420
-28.1790 0.9641 -3.3762
-27.5527 -0.0943 -3.2993
-33.6514 -1.3821 -4.0331
-33.4525 -2.6372 -4.0184
-15.7157 -1.8359 -1.8948
-15.5272 -2.4090 -1.8817
-15.2320 -2.9538 -1.8581
-18.5702 -4.3318 -2.2837
-16.8119 -4.5948 -2.0873
-20.4675 -6.4305 -2.5694
-20.2962 -7.2261 -2.5803
-24.4795 -9.7679 -3.1567
-18.7165 -8.2975 -2.4521
-17.1845 -8.4054 -2.0765
-17.1588 -9.2083 -2.1138
-13.9506 -8.1769 -1.7553
-15.4235 -9.8379 -1.9858
-14.9481 -10.3457 -1.9734
-15.4676 -11.5894 -2.0981
-19.5353 -15.8187 -2.7287
-18.8810 -16.5026 -2.7222
-20.9325 -19.7329 -3.1228
-16.1026 -16.3667 -2.4924
-14.5077 -15.9001 -2.3366
-14.1238 -16.6999 -2.3743
-14.1961 -18.1265 -2.4994
-13.1591 -18.1712 -2.4355
-12.8728 -19.2615 -2.5150
-13.8069 -22.4431 -2.8605
-15.0562 -26.6726 -3.3250
-16.1723 -31.3489 -3.8293
-14.5404 -30.9946 -3.7165
-13.2120 -31.1604 -3.6741
-12.6933 -33.3782 -3.8765
-15.7520 -46.6297 -5.3428
-13.2889 -44.8344 -5.0762
-12.4595 -48.6886 -5.4555
-13.6678 -63.2245 -7.0216
4.4489 -50.3725 -5.4885
6.3908 -50.5667 -5.5319
2.2150 -13.4398 -1.4783
7.7169 -37.8811 -4.1957
9.0293 -37.1238 -4.1464
10.5332 -37.1596 -4.1916
12.0935 -37.2610 -4.2513
13.7013 -37.3654 -4.3189
15.3635 -37.4734 -4.3950
17.0880 -37.5854 -4.4802
21.7379 -39.6065 -4.9023
22.6166 -37.7661 -4.7764
24.6683 -37.8824 -4.9049
6.9078 -9.7826 -1.2993
6.9522 -9.0988 -1.2424
6.9930 -8.4716 -1.1918
7.0306 -7.8926 -1.1467
7.0655 -7.3550 -1.1064
7.0981 -6.8532 -1.0703
7.1287 -6.3825 -1.0380
7.1575 -5.9387 -1.0089
7.1848 -5.5186 -0.9827
7.2108 -5.1191 -0.9592
7.2355 -4.7377 -0.9381
7.2593 -4.3722 -0.9191
7.2821 -4.0207 -0.9022
7.3041 -3.6814 -0.8871
7.3255 -3.3528 -0.8737
7.3462 -3.0335 -0.8619
7.3664 -2.7223 -0.8517
7.3862 -2.4179 -0.8428
7.4056 -2.1194 -0.8353
7.4247 -1.8257 -0.8291
7.4435 -1.5359 -0.8241
7.4621 -1.2492 -0.8204
7.6219 -0.9829 -0.8332
20.6310 -1.8747 -2.2461
20.6815 -1.0970 -2.2454
20.7321 -0.3187 -2.2480
20.7828 0.4625 -2.2537
20.8339 1.2489 -2.2627
20.8855 2.0428 -2.2750
20.9377 2.8465 -2.2906
20.9907 3.6626 -2.3098
13.5955 2.9030 -1.5070
11.9001 3.0132 -1.3307
10.5581 3.1003 -1.1928
9.4345 3.1605 -1.0785
8.5593 3.2302 -0.9916
8.0330 3.3820 -0.9447
8.1789 3.8117 -0.9780
8.2052 4.2066 -0.9994
8.2317 4.6192 -1.0231
8.2496 5.0464 -1.0481
8.2892 5.5094 -1.0787
8.3206 5.9934 -1.1114
8.3541 6.5085 -1.1478
8.3898 7.0591 -1.1883
8.3672 7.5956 -1.2247
8.4698 8.2909 -1.2845
8.5150 8.9868 -1.3417
6.7251 7.6550 -1.1043
7.8972 9.7020 -1.3558
7.5266 9.9922 -1.3558
7.1455 10.2682 -1.3558
6.7542 10.5298 -1.3558
6.5972 11.1900 -1.4078
9.7637 18.0830 -2.2272
9.8491 20.0068 -2.4167
4.3621 27.6496 -3.0339
-13.2664 91.1590 -9.9858
-16.2101 88.0124 -9.7013
-28.6717 66.3522 -7.8367
-28.6019 59.8965 -7.1965
-35.0645 61.1348 -7.6416
-22.7607 22.8190 -3.4953
-11.9726 11.1326 -1.7731
-12.8111 11.0434 -1.8344
-13.4229 10.7178 -1.8630
-12.3834 9.1468 -1.6698
-13.6512 9.3105 -1.7923
-17.2120 10.8136 -2.2049
-27.1926 15.6893 -3.4054
-19.7001 10.3989 -2.4165
-15.2070 7.3096 -1.8303
-16.8705 7.3413 -1.9960
-17.7862 6.9563 -2.0719
-17.6804 6.1588 -2.0312
-17.4903 5.3639 -1.9848
-17.8303 4.7422 -2.0018
-29.0874 6.5754 -3.2356
-32.1782 6.0117 -3.5519
-29.7597 4.4087 -3.2644
-26.3174 2.8920 -2.8729
-26.1132 1.8788 -2.8409
-28.8861 0.9883 -3.1364
-27.5734 -0.0944 -2.9922
-33.6273 -1.3811 -3.6523
-35.2959 -2.7826 -3.8423
-18.3875 -2.1481 -2.0091
-18.6425 -2.8924 -2.0475
-18.6120 -3.6093 -2.0576
-18.5810 -4.3343 -2.0708
-16.7758 -4.5850 -1.8876
-20.4708 -6.4316 -2.3289
-22.0794 -7.8610 -2.5439
-24.5596 -9.7998 -2.8701
-25.4745 -11.2935 -3.0246
-19.3442 -9.4618 -2.0963
-17.2536 -9.2592 -1.9062
-16.3102 -9.5600 -1.8404
-15.3194 -9.7714 -1.7689
-14.8709 -10.2923 -1.7606
-15.4530 -11.5785 -1.8798
-19.5151 -15.8024 -2.4447
-18.8615 -16.4856 -2.4388
-16.7395 -15.7802 -2.2397
-16.2947 -16.5619 -2.2620
-14.5584 -15.9557 -2.1029
-14.5189 -17.1671 -2.1889
-13.8630 -17.7012 -2.1890
-13.1095 -18.1027 -2.1761
-14.9607 -22.3856 -2.6213
-13.9034 -22.6000 -2.5833
-17.4260 -30.8706 -3.4513
-16.2733 -31.5448 -3.4557
-14.9520 -31.8718 -3.4274
-13.1461 -31.0051 -3.2787
-13.7466 -36.1478 -3.7651
-15.4082 -45.6119 -4.6871
-13.3815 -45.1468 -4.5842
-12.3093 -48.1017 -4.8337
-13.2623 -61.3488 -6.1104
4.5186 -51.1613 -4.9993
6.4428 -50.9786 -5.0015
2.2149 -13.4395 -1.3257
7.7169 -37.8812 -3.7627
9.0293 -37.1237 -3.7185
10.5331 -37.1596 -3.7591
12.0935 -37.2610 -3.8125
13.7013 -37.3654 -3.8732
15.3635 -37.4734 -3.9414
17.0879 -37.5854 -4.0179
21.6853 -43.2964 -4.7122
21.9052 -39.9114 -4.4302
22.7153 -37.9309 -4.3021
24.7875 -38.0655 -4.4199
6.9078 -9.7827 -1.1652
6.9522 -9.0988 -1.1141
6.9930 -8.4716 -1.0688
7.0306 -7.8926 -1.0283
7.0655 -7.3550 -0.9922
7.0981 -6.8532 -0.9598
7.1287 -6.3825 -0.9308
7.1575 -5.9387 -0.9047
7.1848 -5.5186 -0.8812
7.2108 -5.1191 -0.8602
7.2355 -4.7377 -0.8412
7.2593 -4.3722 -0.8242
7.2821 -4.0207 -0.8090
7.3041 -3.6814 -0.7955
7.3255 -3.3528 -0.7835
7.3462 -3.0335 -0.7729
7.3664 -2.7223 -0.7637
7.3862 -2.4179 -0.7558
7.4056 -2.1194 -0.7490
7.4247 -1.8257 -0.7435
7.4435 -1.5360 -0.7390
7.4621 -1.2492 -0.7356
7.6218 -0.9829 -0.7472
20.6310 -1.8747 -2.0141
20.6815 -1.0971 -2.0135
20.7321 -0.3187 -2.0158
20.7828 0.4625 -2.0209
20.8339 1.2489 -2.0289
20.8855 2.0428 -2.0399
20.9377 2.8465 -2.0540
20.9907 3.6626 -2.0712
13.5955 2.9030 -1.3513
11.9001 3.0132 -1.1932
10.3257 3.0321 -1.0460
9.4345 3.1605 -0.9671
8.5593 3.2302 -0.8892
8.0330 3.3820 -0.8471
8.1789 3.8117 -0.8770
8.2069 4.2075 -0.8963
8.2334 4.6201 -0.9176
8.2595 5.0524 -0.9410
8.2892 5.5094 -0.9673
8.3206 5.9934 -0.9966
8.2874 6.4565 -1.0209
8.3138 6.9952 -1.0559
8.3672 7.5956 -1.0982
8.4698 8.2909 -1.1518
8.5150 8.9868 -1.2031
6.7251 7.6550 -0.9902
8.6191 10.5889 -1.3268
8.3940 11.1437 -1.3558
7.9689 11.4516 -1.3558
7.5325 11.7432 -1.3558
7.0855 12.0182 -1.3558
6.6732 12.3591 -1.3649
9.8491 20.0068 -2.1670
12.5229 28.0546 -2.9856
4.3620 27.6489 -2.7203
-13.2310 90.9155 -8.9302
-16.1669 87.7773 -8.6758
-18.8333 84.3138 -8.3978
-28.5793 66.1382 -7.0046
-28.7123 60.1276 -6.4781
-32.5425 62.0336 -6.8108
-35.1261 61.2421 -6.8644
-22.9953 23.0542 -3.1667
-12.2227 11.3651 -1.6232
-12.8174 11.0489 -1.6458
-13.4297 10.7232 -1.6715
-13.7526 10.1581 -1.6630
-13.6386 9.3018 -1.6058
-26.0544 16.3688 -2.9930
-26.2733 15.1588 -2.9506
-19.4450 10.2643 -2.1389
-15.2023 7.3073 -1.6409
-19.0504 8.2899 -2.0212
-17.8720 6.9899 -1.8670
-17.7626 6.1874 -1.8300
-17.5697 5.3882 -1.7880
-17.7538 4.7219 -1.7875
-30.6780 6.9350 -3.0603
-32.1676 6.0097 -3.1842
-30.2459 4.4807 -2.9753
-26.2574 2.8853 -2.5705
-26.0543 1.8746 -2.5420
-28.8935 0.9885 -2.8135
-27.5940 -0.0945 -2.6854
-33.5767 -1.3791 -3.2705
-35.2582 -2.7796 -3.4421
-18.6832 -2.1826 -1.8308
-18.6531 -2.8940 -1.8372
-18.6227 -3.6113 -1.8464
-18.0859 -4.2189 -1.8076
-16.7399 -4.5752 -1.6892
-28.5837 -8.9805 -2.9164
-24.8294 -8.8402 -2.5655
-24.6399 -9.8319 -2.5824
-16.2227 -7.1919 -1.7274
-19.3462 -9.4628 -1.8558
-18.6221 -9.9936 -1.8212
-16.3999 -9.6126 -1.6381
-15.4003 -9.8231 -1.5741
-14.7947 -10.2395 -1.5506
-25.9062 -19.4108 -2.7897
-25.2969 -20.4843 -2.8052
-19.4680 -17.0157 -2.2283
-16.8669 -15.9003 -1.9977
-16.4200 -16.6893 -2.0177
-14.6094 -16.0116 -1.8680
-15.2445 -18.0250 -2.0345
-14.4824 -18.4921 -2.0243
-13.0604 -18.0348 -1.9191
-15.0301 -22.4895 -2.3312
-14.4826 -23.5413 -2.3821
-17.2724 -30.5986 -3.0282
-15.9409 -30.9004 -2.9966
-14.8940 -31.7483 -3.0223
-14.7900 -34.8821 -3.2652
-13.7594 -36.1814 -3.3360
-15.4901 -45.8544 -4.1711
-13.3371 -44.9968 -4.0445
-12.4196 -48.5323 -4.3172
-13.2129 -61.1202 -5.3888
2.8585 -56.5932 -4.8825
4.5489 -51.5050 -4.4551
6.4588 -51.1058 -4.4383
2.2149 -13.4391 -1.1735
7.7169 -37.8814 -3.3307
9.0292 -37.1237 -3.2916
10.5331 -37.1596 -3.3274
12.0934 -37.2609 -3.3748
13.7012 -37.3654 -3.4284
15.3635 -37.4734 -3.4888
17.0879 -37.5854 -3.5565
21.6115 -43.1492 -4.1568
21.9502 -39.9936 -3.9295
22.6716 -37.8580 -3.8007
24.7874 -38.0655 -3.9123
6.9078 -9.7827 -1.0314
6.9522 -9.0988 -0.9862
6.9930 -8.4716 -0.9460
7.0306 -7.8926 -0.9102
7.0655 -7.3551 -0.8782
7.0981 -6.8533 -0.8496
7.1287 -6.3825 -0.8239
7.1575 -5.9387 -0.8008
7.1848 -5.5186 -0.7800
7.2108 -5.1191 -0.7613
7.2355 -4.7377 -0.7446
7.2593 -4.3722 -0.7295
7.2821 -4.0207 -0.7161
7.3041 -3.6814 -0.7041
7.3255 -3.3528 -0.6935
7.3462 -3.0335 -0.6841
7.3664 -2.7223 -0.6759
7.3862 -2.4179 -0.6689
7.4056 -2.1194 -0.6629
7.4247 -1.8257 -0.6580
7.4435 -1.5360 -0.6541
7.4621 -1.2492 -0.6511
7.6217 -0.9828 -0.6613
20.6310 -1.8747 -1.7826
20.6815 -1.0971 -1.7821
20.7321 -0.3187 -1.7841
20.7828 0.4625 -1.7886
20.8339 1.2489 -1.7957
20.8855 2.0428 -1.8054
20.9377 2.8465 -1.8179
20.9907 3.6626 -1.8331
13.5955 2.9030 -1.1960
11.9001 3.0132 -1.0560
10.3566 3.0411 -0.9285
9.4345 3.1604 -0.8559
8.5593 3.2302 -0.7869
8.0330 3.3820 -0.7497
8.1789 3.8117 -0.7762
8.2086 4.2083 -0.7934
8.2351 4.6211 -0.8122
8.2606 5.0531 -0.8329
8.2892 5.5094 -0.8561
8.3206 5.9934 -0.8820
8.3540 6.5084 -0.9108
8.3898 7.0591 -0.9430
8.3672 7.5956 -0.9719
8.4919 8.3125 -1.0220
8.4399 8.9075 -1.0553
6.7251 7.6550 -0.8764
8.6191 10.5889 -1.1742
8.6798 11.5231 -1.2407
8.7479 12.5709 -1.3171
8.4035 13.1011 -1.3386
7.7688 13.1773 -1.3156
7.0030 12.9700 -1.2677
9.8491 20.0068 -1.9178
19.4621 48.4154 -4.4878
17.1104 47.6731 -4.3562
15.1349 47.7462 -4.3079
13.1876 47.7721 -4.2625
11.3532 48.1155 -4.2520
9.6891 49.2904 -4.3206
4.3618 27.6481 -2.4075
5.8077 48.6358 -4.2130
3.9379 48.3744 -4.1747
2.1275 48.7632 -4.1984
0.2909 48.6565 -4.1854
-1.5835 50.0232 -4.3052
-3.4788 50.1419 -4.3237
-5.3221 49.5991 -4.2912
-7.1217 48.9361 -4.2542
-9.1247 49.5421 -4.3338
-10.9791 49.1517 -4.3328
-23.0263 87.4773 -7.7824
-26.7591 88.0588 -7.9184
-30.6070 88.5949 -8.0647
-28.6540 66.3110 -6.2157
-28.7122 60.1274 -5.7335
-32.3004 61.5721 -5.9831
-35.2694 61.4917 -6.1002
-39.1119 57.6632 -5.9964
-39.8433 54.2322 -5.7917
-43.2164 54.4090 -5.9802
-23.5529 23.6132 -2.8708
-12.2287 11.3706 -1.4374
-12.8238 11.0543 -1.4574
-13.4364 10.7286 -1.4802
-13.9013 10.2679 -1.4878
-13.6259 9.2932 -1.4200
-25.9774 16.3203 -2.6413
-25.9492 14.9718 -2.5794
-28.0925 14.8289 -2.7352
-15.1977 7.3050 -1.4520
-19.0547 8.2917 -1.7894
-17.9584 7.0237 -1.6605
-17.8453 6.2162 -1.6274
-17.6496 5.4127 -1.5899
-18.4658 4.9112 -1.6456
-30.7222 6.9449 -2.7128
-28.3840 5.3028 -2.4870
-30.3650 4.4983 -2.6440
-26.1977 2.8788 -2.2701
-30.8057 2.2164 -2.6604
-30.5967 1.0468 -2.6372
-33.2344 -0.1139 -2.8630
-40.4416 -1.6610 -3.4869
-35.2206 -2.7767 -3.0437
-18.6938 -2.1839 -1.6215
-18.6638 -2.8957 -1.6272
-18.6334 -3.6134 -1.6353
-18.3709 -4.2853 -1.6253
-16.8990 -4.6187 -1.5095
-28.6122 -8.9895 -2.5842
-30.0174 -10.6873 -2.7455
-25.0730 -10.0047 -2.3261
-16.2175 -7.1897 -1.5286
-19.3483 -9.4638 -1.6158
-18.6240 -9.9947 -1.5856
-16.4905 -9.6657 -1.4340
-15.4820 -9.8752 -1.3777
-15.5451 -10.7589 -1.4183
-26.6408 -19.9613 -2.4975
-30.8235 -24.9595 -2.9757
-21.7023 -18.9686 -2.1625
-20.9739 -19.7719 -2.1626
-16.5470 -16.8184 -1.7702
-14.6607 -16.0677 -1.6320
-15.3728 -18.1767 -1.7861
-14.4922 -18.5046 -1.7635
-13.0117 -17.9676 -1.6645
-15.1000 -22.5940 -2.0390
-14.4600 -23.5046 -2.0705
-17.5132 -31.0252 -2.6731
-16.2445 -31.4890 -2.6584
-14.8366 -31.6260 -2.6210
-15.4443 -36.4253 -2.9684
-14.5664 -38.3034 -3.0746
-15.5256 -45.9596 -3.6396
-13.1750 -44.4501 -3.4783
-15.4078 -60.2094 -4.6627
-13.5089 -62.4893 -4.7964
2.9080 -57.5737 -4.3242
4.5489 -51.5059 -3.8785
6.4588 -51.1057 -3.8638
2.2148 -13.4385 -1.0215
7.7169 -37.8815 -2.8995
8.9966 -36.9898 -2.8551
10.5331 -37.1596 -2.8966
12.0934 -37.2609 -2.9378
13.7012 -37.3654 -2.9845
15.3634 -37.4734 -3.0371
17.0878 -37.5854 -3.0960
21.7299 -43.3857 -3.6384
21.9502 -39.9936 -3.4207
22.6716 -37.8580 -3.3085
24.7874 -38.0655 -3.4057
6.9078 -9.7827 -0.8978
6.9522 -9.0989 -0.8584
6.9930 -8.4716 -0.8235
7.0306 -7.8926 -0.7923
7.0655 -7.3551 -0.7645
7.0981 -6.8533 -0.7395
7.1287 -6.3825 -0.7172
7.1575 -5.9387 -0.6970
7.1848 -5.5186 -0.6790
7.2108 -5.1191 -0.6627
7.2355 -4.7377 -0.6481
7.2593 -4.3722 -0.6350
7.2821 -4.0207 -0.6233
7.3041 -3.6814 -0.6129
7.3255 -3.3528 -0.6036
7.3462 -3.0336 -0.5955
7.3664 -2.7223 -0.5884
7.3862 -2.4179 -0.5822
7.4056 -2.1194 -0.5770
7.4247 -1.8257 -0.5727
7.4435 -1.5360 -0.5693
7.4621 -1.2492 -0.5667
7.6216 -0.9828 -0.5756
20.6310 -1.8748 -1.5515
20.6815 -1.0971 -1.5511
20.7321 -0.3188 -1.5528
20.7828 0.4625 -1.5567
20.8339 1.2489 -1.5629
20.8855 2.0427 -1.5714
20.9377 2.8465 -1.5822
20.9907 3.6625 -1.5955
13.2963 2.8391 -1.0180
11.9001 3.0132 -0.9191
10.3566 3.0411 -0.8081
9.4345 3.1604 -0.7449
8.5593 3.2302 -0.6849
8.0330 3.3820 -0.6525
8.1789 3.8116 -0.6755
8.2102 4.2092 -0.6907
8.2368 4.6220 -0.7070
8.2623 5.0541 -0.7250
8.2892 5.5094 -0.7450
8.3206 5.9934 -0.7676
8.3540 6.5084 -0.7927
8.3898 7.0591 -0.8207
8.3672 7.5956 -0.8458
8.5359 8.3556 -0.8941
8.4811 8.9510 -0.9230
6.7251 7.6550 -0.7627
8.5146 10.4605 -1.0096
8.5745 11.3833 -1.0667
8.7479 12.5709 -1.1463
8.5476 13.3256 -1.1850
7.8997 13.3993 -1.1643
7.0030 12.9700 -1.1033
9.8491 20.0068 -1.6691
21.6580 48.5196 -3.9771
19.5588 48.6559 -3.9252
17.1833 47.8763 -3.8075
15.1713 47.8610 -3.7582
13.2211 47.8936 -3.7191
11.3833 48.2429 -3.7104
9.7057 49.3752 -3.7668
4.3617 27.6474 -2.0953
5.8175 48.7184 -3.6730
3.9429 48.4361 -3.6380
2.1308 48.8400 -3.6598
0.2913 48.7209 -3.6476
-1.5863 50.1087 -3.7534
-3.4851 50.2321 -3.7699
-5.3425 49.7887 -3.7492
-7.1360 49.0342 -3.7100
-9.1474 49.6649 -3.7813
-11.0424 49.4347 -3.7928
-13.3706 50.7950 -3.9331
-15.4771 50.9318 -3.9862
-17.2170 49.8361 -3.9485
-28.3193 65.5363 -5.3468
-28.6336 59.9626 -4.9766
-32.0624 61.1183 -5.1693
-35.2694 61.4916 -5.3096
-39.7732 63.6685 -5.6231
-39.1119 57.6630 -5.2192
-40.2160 54.7393 -5.0882
-43.1584 54.3359 -5.1983
-46.3002 53.9899 -5.3284
-49.3175 53.3120 -5.4411
-23.5805 23.6408 -2.5017
-22.5623 20.9790 -2.3084
-12.8301 11.0598 -1.2692
-13.4432 10.7339 -1.2891
-13.9813 10.3270 -1.3025
-13.6133 9.2846 -1.2349
-25.9010 16.2723 -2.2924
-30.6101 17.6609 -2.6486
-28.8174 15.2115 -2.4423
-15.1930 7.3028 -1.2635
-19.0589 8.2935 -1.5580
-19.2062 7.5117 -1.5459
-17.9286 6.2452 -1.4232
-17.7301 5.4374 -1.3903
-18.4437 4.9053 -1.4308
-30.7665 6.9549 -2.3649
-32.1466 6.0057 -2.4519
-30.4848 4.5160 -2.3107
-26.1384 2.8722 -1.9717
-30.6569 2.2057 -2.3048
-34.7522 1.1889 -2.6075
-34.2781 -0.1175 -2.5706
-40.6216 -1.6685 -3.0489
-40.3747 -3.1831 -3.0374
-36.8946 -4.3102 -2.7859
-18.6744 -2.8973 -1.4174
-18.6440 -3.6155 -1.4244
-18.6334 -4.3466 -1.4351
-16.8427 -4.6033 -1.3097
-28.6407 -8.9984 -2.2519
-30.1677 -10.7408 -2.4021
-25.9349 -10.3487 -2.0947
-16.2124 -7.1874 -1.3304
-19.3503 -9.4649 -1.3761
-18.7767 -10.0766 -1.3614
-16.5819 -9.7192 -1.2279
-15.5645 -9.9278 -1.1794
-26.7802 -18.5349 -2.0808
-26.6782 -19.9893 -2.1298
-30.9798 -25.0860 -2.5469
-23.3207 -20.3831 -1.9789
-21.0500 -19.8437 -1.8483
-16.6758 -16.9493 -1.5192
-16.3115 -17.8771 -1.5463
-15.7946 -18.6755 -1.5628
-18.8126 -24.0211 -1.9495
-26.4205 -36.4836 -2.8782
-15.1704 -22.6994 -1.7445
-18.8475 -30.6365 -2.2983
-17.8710 -31.6591 -2.3229
-16.5553 -32.0913 -2.3072
-14.7798 -31.5048 -2.2234
-15.4865 -36.5249 -2.5348
-14.5328 -38.2151 -2.6122
-15.6562 -46.3461 -3.1255
-13.7907 -46.5271 -3.1005
-15.1578 -59.2322 -3.9062
-13.5826 -62.8300 -4.1068
2.9113 -57.6398 -3.6865
4.5490 -51.5071 -3.3028
6.4589 -51.1066 -3.2902
2.2146 -13.4377 -0.8698
7.7169 -37.8816 -2.4691
9.0139 -37.0609 -2.4359
10.5331 -37.1596 -2.4666
12.0934 -37.2609 -2.5016
13.7012 -37.3654 -2.5414
15.3634 -37.4734 -2.5861
17.0878 -37.5854 -2.6362
21.7299 -43.3858 -3.0981
21.9502 -39.9937 -2.9127
22.6715 -37.8580 -2.8172
24.7873 -38.0655 -2.8998
6.9078 -9.7827 -0.7645
6.9522 -9.0989 -0.7309
6.9930 -8.4716 -0.7012
7.0306 -7.8926 -0.6746
7.0655 -7.3551 -0.6509
7.0981 -6.8533 -0.6297
7.1287 -6.3825 -0.6106
7.1575 -5.9388 -0.5935
7.1848 -5.5186 -0.5781
7.2108 -5.1191 -0.5642
7.2355 -4.7377 -0.5518
7.2593 -4.3722 -0.5407
7.2821 -4.0207 -0.5307
7.3041 -3.6815 -0.5218
7.3255 -3.3528 -0.5139
7.3462 -3.0336 -0.5070
7.3664 -2.7223 -0.5009
7.3862 -2.4180 -0.4957
7.4056 -2.1194 -0.4913
7.4247 -1.8257 -0.4876
7.4435 -1.5360 -0.4847
7.4621 -1.2492 -0.4825
7.6215 -0.9828 -0.4900
20.6310 -1.8748 -1.3209
20.6815 -1.0971 -1.3205
20.7321 -0.3188 -1.3219
20.7828 0.4625 -1.3253
20.8339 1.2489 -1.3305
20.8855 2.0427 -1.3377
20.9377 2.8465 -1.3469
20.9907 3.6625 -1.3582
13.7506 2.9361 -0.8962
11.9002 3.0132 -0.7824
10.3566 3.0411 -0.6879
9.4345 3.1604 -0.6341
8.5593 3.2302 -0.5830
8.0330 3.3820 -0.5554
8.1789 3.8116 -0.5750
8.2119 4.2100 -0.5881
8.2386 4.6230 -0.6020
8.2639 5.0550 -0.6173
8.2892 5.5094 -0.6342
8.3206 5.9934 -0.6534
8.3540 6.5084 -0.6748
8.3898 7.0591 -0.6986
8.3672 7.5956 -0.7200
8.5359 8.3556 -0.7611
8.4811 8.9510 -0.7857
6.7251 7.6550 -0.6492
8.5922 10.5559 -0.8672
8.6798 11.5231 -0.9192
8.6417 12.4184 -0.9640
8.6964 13.5577 -1.0263
8.0348 13.6284 -1.0080
7.0030 12.9700 -0.9392
6.7727 13.7576 -0.9770
12.0650 27.0286 -1.8859
19.5734 48.6922 -3.3438
17.2517 48.0669 -3.2541
15.1530 47.8033 -3.1953
13.2211 47.8936 -3.1659
11.4142 48.3741 -3.1671
9.7220 49.4578 -3.2119
4.3616 27.6466 -1.7836
5.8440 48.9402 -3.1409
3.9429 48.4361 -3.0969
2.1377 48.9975 -3.1255
0.2913 48.7209 -3.1051
-1.5889 50.1925 -3.2005
-3.4910 50.3161 -3.2146
-5.3442 49.8050 -3.1926
-7.1304 48.9949 -3.1558
-9.1677 49.7751 -3.2261
-11.0424 49.4347 -3.2288
-13.4142 50.9607 -3.3592
-15.5017 51.0127 -3.3988
-17.2451 49.9173 -3.3669
-22.9471 59.1175 -4.0430
-25.1822 58.2763 -4.0476
-28.7125 60.1277 -4.2484
-32.0021 61.0032 -4.3925
-35.1049 61.2047 -4.4992
-39.7731 63.6683 -4.7872
-39.1119 57.6629 -4.4434
-40.4961 55.1206 -4.3621
-43.5083 54.7763 -4.4615
-46.6115 54.3528 -4.5669
-49.3705 53.3692 -4.6374
-51.9424 52.0752 -4.6917
-24.9596 23.2080 -2.1742
-25.7482 22.1953 -2.1687
-13.4499 10.7393 -1.0981
-13.9677 10.3169 -1.1079
-31.0668 21.1881 -2.3993
-25.8252 16.2246 -1.9461
-30.4372 17.5612 -2.2424
-29.5905 15.6196 -2.1353
-15.1884 7.3006 -1.0755
-19.2390 8.3719 -1.3391
-25.6399 10.0278 -1.7572
-18.0126 6.2744 -1.2175
-17.8112 5.4622 -1.1892
-36.2654 9.6451 -2.3955
-32.0135 7.2367 -2.0952
-29.8776 5.5818 -1.9404
-30.6054 4.5339 -1.9753
-27.8061 3.0555 -1.7860
-32.0656 2.3070 -2.0527
-35.4141 1.2115 -2.2626
-34.1983 -0.1172 -2.1838
-38.6785 -1.5887 -2.4721
-40.5382 -3.1960 -2.5969
-29.7488 -3.4755 -1.9128
-27.9066 -4.3298 -1.8036
-18.6547 -3.6176 -1.2137
-18.5898 -4.3364 -1.2192
-25.2601 -6.9039 -1.6726
-28.6693 -9.0074 -1.9195
-30.3193 -10.7948 -2.0558
-26.6237 -10.6236 -1.8311
-16.2073 -7.1851 -1.1325
-19.6272 -9.6003 -1.1529
-38.8998 -20.8758 -2.3295
-16.7074 -9.7928 -1.0219
-29.8400 -19.0335 -1.8677
-26.7598 -18.5208 -1.7173
-26.6573 -19.9737 -1.7578
-31.1352 -25.2119 -2.1142
-30.4329 -26.5995 -2.1330
-21.2484 -20.0307 -1.5411
-16.8064 -17.0821 -1.2647
-16.3081 -17.8733 -1.2769
-15.7912 -18.6715 -1.2905
-27.2245 -34.7620 -2.3302
-26.2546 -36.2545 -2.3624
-23.0438 -34.4804 -2.1887
-21.9679 -35.7086 -2.2126
-17.9940 -31.8769 -1.9318
-17.0849 -33.1179 -1.9667
-15.4189 -32.8671 -1.9159
-15.5231 -36.6110 -2.0986
-14.4994 -38.1272 -2.1527
-15.7404 -46.5953 -2.5954
-15.1070 -50.9681 -2.8053
-15.6608 -61.1977 -3.3334
2.9113 -57.6398 -3.0448
4.5185 -51.1616 -2.7095
6.4427 -50.9786 -2.7106
2.2145 -13.4370 -0.7184
7.7169 -37.8817 -2.0392
9.0139 -37.0609 -2.0118
10.5330 -37.1596 -2.0371
12.0933 -37.2609 -2.0661
13.7011 -37.3654 -2.0989
15.3633 -37.4734 -2.1358
17.0878 -37.5854 -2.1772
21.6853 -43.2968 -2.5533
21.9052 -39.9116 -2.4005
22.7151 -37.9309 -2.3310
24.7873 -38.0655 -2.3948
6.9078 -9.7827 -0.6313
6.9522 -9.0989 -0.6036
6.9930 -8.4716 -0.5790
7.0306 -7.8927 -0.5571
7.0655 -7.3551 -0.5375
7.0981 -6.8533 -0.5200
7.1287 -6.3825 -0.5042
7.1575 -5.9388 -0.4901
7.1852 -5.5189 -0.4774
7.2116 -5.1197 -0.4660
7.2355 -4.7377 -0.4556
7.2593 -4.3723 -0.4464
7.2821 -4.0207 -0.4382
7.3041 -3.6815 -0.4308
7.3255 -3.3529 -0.4243
7.3462 -3.0336 -0.4186
7.3664 -2.7223 -0.4136
7.3862 -2.4180 -0.4093
7.4056 -2.1194 -0.4056
7.4247 -1.8258 -0.4026
7.4435 -1.5360 -0.4002
7.4621 -1.2492 -0.3983
7.6214 -0.9828 -0.4045
20.6310 -1.8748 -1.0905
20.6815 -1.0971 -1.0902
20.7321 -0.3188 -1.0914
20.7828 0.4624 -1.0941
20.8339 1.2489 -1.0985
20.8855 2.0427 -1.1044
20.9377 2.8464 -1.1120
20.9907 3.6625 -1.1213
13.7506 2.9361 -0.7399
11.9002 3.0132 -0.6459
10.3566 3.0411 -0.5679
9.4345 3.1604 -0.5235
8.5593 3.2302 -0.4813
8.0330 3.3820 -0.4585
8.1789 3.8116 -0.4747
8.2136 4.2109 -0.4856
8.2403 4.6239 -0.4971
8.2655 5.0560 -0.5097
8.2892 5.5094 -0.5236
8.3206 5.9934 -0.5394
8.3540 6.5084 -0.5570
8.3898 7.0591 -0.5767
8.3672 7.5956 -0.5944
8.5359 8.3556 -0.6283
8.4811 8.9510 -0.6486
6.7252 7.6550 -0.5359
8.5922 10.5559 -0.7159
8.6798 11.5231 -0.7588
8.6417 12.4184 -0.7957
10.6372 16.5834 -1.0362
8.1744 13.8652 -0.8466
7.0030 12.9700 -0.7753
6.8867 13.9892 -0.8201
9.4174 21.0974 -1.2152
10.5669 26.2870 -1.4902
17.2517 48.0668 -2.6862
15.1530 47.8034 -2.6377
13.2210 47.8936 -2.6135
11.4142 48.3741 -2.6145
9.7219 49.4578 -2.6514
4.3615 27.6459 -1.4723
5.8440 48.9402 -2.5928
3.9428 48.4361 -2.5565
2.1376 48.9975 -2.5802
0.2912 48.7209 -2.5633
-1.5890 50.1925 -2.6421
-3.4910 50.3161 -2.6538
-5.3443 49.8051 -2.6357
-7.1304 48.9948 -2.6053
-9.1675 49.7740 -2.6633
-11.0425 49.4348 -2.6656
-13.4143 50.9607 -2.7733
-15.5017 51.0127 -2.8060
-17.2452 49.9174 -2.7796
-22.9837 59.2118 -3.3432
-25.2814 58.5056 -3.3549
-28.7126 60.1277 -3.5075
-32.0887 61.1682 -3.6363
-35.1050 61.2047 -3.7146
-39.7731 63.6682 -3.9525
-39.1119 57.6628 -3.6687
-40.4962 55.1206 -3.6016
-43.5177 54.7879 -3.6845
-46.6855 54.4391 -3.7767
-49.5811 53.5967 -3.8453
-52.1899 52.3232 -3.8924
-24.9833 23.2301 -1.7969
-25.6773 22.1341 -1.7857
-13.4566 10.7446 -0.9071
-31.3082 23.1249 -2.0505
-31.0549 21.1800 -1.9805
-27.1652 17.0665 -1.6904
-30.2666 17.4626 -1.8412
-59.0703 31.1806 -3.5198
-15.1838 7.2984 -0.8878
-32.3271 14.0671 -1.8580
-33.4927 13.0991 -1.8955
-26.7238 9.3088 -1.4916
-26.9096 8.2523 -1.4837
-36.2167 9.6321 -1.9756
-32.0030 7.2343 -1.7297
-32.1257 6.0018 -1.7230
-30.7268 4.5518 -1.6378
-30.3175 3.3314 -1.6082
-35.8060 2.5760 -1.8930
-36.9232 1.2631 -1.9482
-34.1189 -0.1170 -1.7993
-40.9858 -1.6835 -2.1634
-40.7028 -3.2090 -2.1534
-29.6525 -3.4642 -1.5747
-27.9652 -4.3389 -1.4927
-18.6654 -3.6197 -1.0029
-27.6451 -6.4488 -1.4975
-32.5576 -8.8984 -1.7806
-28.6979 -9.0164 -1.5870
-30.4722 -10.8493 -1.7065
-26.4793 -10.5659 -1.5042
-16.2021 -7.1829 -0.9351
-36.7462 -17.9738 -1.7041
-71.2965 -38.2617 -3.3708
-67.0472 -39.2989 -3.2377
-29.9202 -19.0847 -1.4785
-29.4016 -20.3492 -1.4897
-40.3597 -30.2404 -2.1012
-31.2799 -25.3291 -1.6770
-31.2075 -27.2766 -1.7270
-41.4684 -39.0920 -2.3746
-34.3803 -34.9442 -2.0426
-16.3047 -17.8695 -1.0080
-19.2966 -22.8162 -1.2451
-42.2607 -53.9613 -2.8560
-25.9983 -35.9005 -1.8470
-24.1454 -36.1288 -1.8107
-21.9715 -35.7146 -1.7473
-18.0997 -32.0641 -1.5342
-17.0681 -33.0853 -1.5512
-22.7956 -48.5914 -2.2364
-15.5715 -36.7253 -1.6621
-16.9365 -44.5357 -1.9853
-15.8255 -46.8470 -2.0603
-15.7591 -53.1682 -2.3105
-15.8361 -61.8824 -2.6613
2.9112 -57.6398 -2.4038
4.5184 -51.1617 -2.1391
6.4426 -50.9786 -2.1400
2.2144 -13.4363 -0.5671
7.7169 -37.8818 -1.6099
8.7164 -35.8381 -1.5358
10.0589 -35.4871 -1.5358
11.4101 -35.1556 -1.5388
12.9270 -35.2542 -1.5632
14.4953 -35.3560 -1.5907
16.1222 -35.4617 -1.6215
21.6853 -43.2969 -2.0155
21.9052 -39.9118 -1.8948
22.7150 -37.9309 -1.8400
24.7872 -38.0655 -1.8903
6.9078 -9.7828 -0.4983
6.9522 -9.0989 -0.4764
6.9940 -8.4729 -0.4571
7.0330 -7.8953 -0.4399
7.0655 -7.3551 -0.4242
7.0981 -6.8533 -0.4104
7.1326 -6.3860 -0.3982
7.1619 -5.9425 -0.3870
7.1897 -5.5224 -0.3770
7.2161 -5.1229 -0.3680
7.2355 -4.7377 -0.3596
7.2593 -4.3723 -0.3523
7.2821 -4.0208 -0.3458
7.3041 -3.6815 -0.3400
7.3255 -3.3529 -0.3349
7.3462 -3.0336 -0.3303
7.3664 -2.7223 -0.3264
7.3862 -2.4180 -0.3230
7.4056 -2.1195 -0.3201
7.4247 -1.8258 -0.3177
7.4435 -1.5360 -0.3158
7.4621 -1.2492 -0.3143
7.6213 -0.9828 -0.3192
20.6310 -1.8748 -0.8604
20.6815 -1.0972 -0.8602
20.7321 -0.3188 -0.8611
20.7828 0.4624 -0.8633
20.8339 1.2488 -0.8667
20.8855 2.0427 -0.8713
20.9377 2.8464 -0.8773
20.9907 3.6625 -0.8846
13.7506 2.9361 -0.5837
11.9002 3.0132 -0.5096
10.3566 3.0411 -0.4480
9.4345 3.1604 -0.4130
8.5593 3.2302 -0.3797
8.0330 3.3819 -0.3617
8.1789 3.8116 -0.3745
8.2152 4.2117 -0.3831
8.2420 4.6249 -0.3922
8.2671 5.0570 -0.4022
8.2892 5.5094 -0.4130
8.3206 5.9934 -0.4255
8.3540 6.5084 -0.4394
8.3898 7.0591 -0.4549
8.3672 7.5956 -0.4688
8.5359 8.3555 -0.4956
8.4811 8.9510 -0.5116
6.7252 7.6550 -0.4228
8.5922 10.5559 -0.5647
8.6798 11.5231 -0.5985
8.6417 12.4184 -0.6277
10.6372 16.5834 -0.8174
8.3188 14.1101 -0.6796
7.0030 12.9700 -0.6116
7.0045 14.2284 -0.6580
9.5723 21.4445 -0.9744
9.0911 22.6156 -1.0113
9.3063 25.9294 -1.1431
15.1530 47.8034 -2.0808
13.2210 47.8936 -2.0617
11.4142 48.3742 -2.0624
9.7219 49.4578 -2.0916
4.3613 27.6452 -1.1615
5.8439 48.9401 -2.0454
3.9428 48.4361 -2.0168
2.1376 48.9975 -2.0355
0.2912 48.7209 -2.0222
-1.5890 50.1925 -2.0844
-3.4910 50.3161 -2.0936
-5.3443 49.8051 -2.0793
-7.1304 48.9947 -2.0554
-9.1678 49.7750 -2.1012
-11.0425 49.4348 -2.1030
-13.4143 50.9607 -2.1880
-15.5018 51.0127 -2.2139
-17.2452 49.9175 -2.1931
-22.9839 59.2119 -2.6378
-25.2814 58.5056 -2.6470
-28.7126 60.1277 -2.7675
-32.0888 61.1682 -2.8692
-35.1050 61.2047 -2.9310
-39.7731 63.6681 -3.1187
-39.1118 57.6626 -2.8948
-40.4165 55.0120 -2.8363
-43.4320 54.6800 -2.9017
-46.5937 54.3318 -2.9744
-49.5811 53.5966 -3.0344
-52.1475 52.2806 -3.0691
-25.0070 23.2521 -1.4194
-25.6069 22.0734 -1.4054
-59.0472 47.1468 -3.1413
-60.6266 44.7801 -3.1337
-31.0430 21.1718 -1.5624
-30.0042 18.8500 -1.4735
-30.0980 17.3654 -1.4451
-59.0932 31.1926 -2.7791
-15.1792 7.2961 -0.7005
-35.7310 15.5482 -1.6209
-58.8958 23.0342 -2.6308
-26.7315 9.3114 -1.1777
-26.8703 8.2403 -1.1694
-36.1682 9.6192 -1.5573
-31.8312 7.1955 -1.3580
-32.1153 5.9998 -1.3596
-30.8487 4.5698 -1.2979
-30.4304 3.3438 -1.2742
-35.8674 2.5804 -1.4968
-36.9029 1.2623 -1.5371
-42.2709 -0.1450 -1.7598
-41.1700 -1.6911 -1.7155
-40.8685 -3.2221 -1.7069
-29.6889 -3.4685 -1.2446
-28.0241 -4.3480 -1.1809
-28.4919 -5.5253 -1.2086
-27.6485 -6.4496 -1.1824
-28.7264 -9.0254 -1.2541
-30.6264 -10.9042 -1.3541
-30.0292 -11.9824 -1.3467
-16.1970 -7.1806 -0.7380
-75.9175 -37.1338 -2.5828
-71.2964 -38.2617 -2.4730
-67.0471 -39.2989 -2.3754
-30.0008 -19.1361 -1.0877
-29.4005 -20.3485 -1.0929
-40.3788 -30.2548 -1.5424
-31.4259 -25.4473 -1.2361
-63.6062 -55.5942 -2.5825
-42.1591 -39.7430 -1.7712
-35.1587 -35.7353 -1.5326
-42.6417 -46.7342 -1.9341
-29.0551 -34.3546 -1.3756
-42.3172 -54.0334 -2.0983
-36.2380 -50.0404 -1.8889
-30.2170 -49.1176 -1.7631
-28.6476 -50.7501 -1.7817
-18.1176 -35.1197 -1.2081
-22.8191 -48.6413 -1.6426
-21.3397 -50.3295 -1.6712
-17.8233 -46.8675 -1.5329
-17.3533 -51.3697 -1.6575
-15.5402 -60.7265 -1.9161
-15.9632 -90.1380 -2.7979
2.9079 -57.5748 -1.7614
4.5184 -51.1618 -1.5692
6.4426 -50.9786 -1.5698
2.2143 -13.4356 -0.4160
7.7169 -37.8819 -1.1809
9.0140 -37.0619 -1.1650
10.5330 -37.1596 -1.1796
12.0933 -37.2609 -1.1963
13.7011 -37.3654 -1.2152
15.3633 -37.4734 -1.2366
17.0877 -37.5854 -1.2605
18.1199 -36.1784 -1.2352
21.9051 -39.9118 -1.3897
22.0781 -36.8673 -1.3115
23.3859 -35.9135 -1.3079
6.9078 -9.7828 -0.3654
6.9522 -9.0989 -0.3494
7.0634 -8.5570 -0.3385
7.1014 -7.9722 -0.3257
7.0655 -7.3551 -0.3111
7.0981 -6.8533 -0.3009
7.1287 -6.3825 -0.2918
7.1575 -5.9388 -0.2836
7.1848 -5.5186 -0.2762
7.2108 -5.1191 -0.2696
7.2355 -4.7377 -0.2636
7.2593 -4.3723 -0.2583
7.2821 -4.0208 -0.2535
7.3041 -3.6815 -0.2492
7.3255 -3.3529 -0.2455
7.3462 -3.0336 -0.2421
7.3664 -2.7223 -0.2392
7.3862 -2.4180 -0.2367
7.4056 -2.1195 -0.2346
7.4247 -1.8258 -0.2328
7.4435 -1.5360 -0.2314
7.4621 -1.2492 -0.2303
7.6212 -0.9828 -0.2339
20.6310 -1.8748 -0.6306
20.6815 -1.0972 -0.6304
20.7321 -0.3188 -0.6310
20.7828 0.4624 -0.6326
20.8339 1.2488 -0.6351
20.8855 2.0427 -0.6385
20.9377 2.8464 -0.6428
20.9907 3.6625 -0.6482
13.7506 2.9361 -0.4277
11.9002 3.0132 -0.3734
10.3566 3.0411 -0.3283
9.4345 3.1604 -0.3026
8.5593 3.2302 -0.2782
8.0330 3.3819 -0.2650
8.1789 3.8116 -0.2744
8.2169 4.2126 -0.2807
8.2437 4.6259 -0.2874
8.2687 5.0580 -0.2947
8.2892 5.5094 -0.3026
8.3206 5.9934 -0.3117
8.3540 6.5084 -0.3219
8.3898 7.0591 -0.3333
8.3672 7.5956 -0.3435
8.5359 8.3555 -0.3631
8.4811 8.9510 -0.3748
6.7252 7.6550 -0.3097
8.5922 10.5559 -0.4137
8.6798 11.5231 -0.4385
8.6417 12.4184 -0.4598
10.6372 16.5834 -0.5988
8.4682 14.3636 -0.5068
7.0030 12.9700 -0.4480
7.1262 14.4757 -0.4904
12.2572 27.4594 -0.9140
9.2056 22.9005 -0.7502
9.4235 26.2560 -0.8479
15.1529 47.8032 -1.5244
13.2033 47.8294 -1.5083
11.3686 48.1810 -1.5049
9.6953 49.3223 -1.5282
4.3611 27.6437 -0.8508
5.8082 48.6411 -1.4894
3.9381 48.3785 -1.4759
2.1276 48.7681 -1.4843
0.2908 48.6608 -1.4798
-1.5847 50.0551 -1.5230
-3.4815 50.1783 -1.5298
-5.3333 49.7024 -1.5204
-7.1282 48.9792 -1.5055
-9.1365 49.6053 -1.5344
-11.0270 49.3652 -1.5388
-13.3774 50.8202 -1.5989
-15.4852 50.9579 -1.6205
-17.2297 49.8723 -1.6057
-22.9437 59.1084 -1.9296
-25.1811 58.2734 -1.9321
-28.7127 60.1277 -2.0282
-32.0023 61.0032 -2.0971
-35.1051 61.2047 -2.1481
-39.7731 63.6680 -2.2857
-39.1118 57.6626 -2.1217
-40.4579 55.0683 -2.0810
-43.4632 54.7191 -2.1284
-46.6113 54.3522 -2.1810
-49.5812 53.5966 -2.2243
-52.1800 52.3131 -2.2512
-54.8457 50.9966 -2.2820
-57.4576 49.5289 -2.3117
-59.0473 47.1468 -2.3029
-60.6267 44.7800 -2.2974
-31.2083 21.2845 -1.1515
-30.1242 18.9254 -1.0846
-58.4723 33.7361 -2.0583
-59.0932 31.1925 -2.0376
-15.1746 7.2939 -0.5135
-35.7082 15.5383 -1.1878
-58.9094 23.0394 -1.9295
-37.4834 13.0566 -1.2109
-40.4027 12.3901 -1.2894
-41.2352 10.9667 -1.3020
-59.1122 13.3623 -1.8494
-59.6505 11.1439 -1.8520
-30.9661 4.5872 -0.9555
-60.7557 6.6759 -1.8658
-59.0816 4.2505 -1.8084
-36.8826 1.2616 -1.1268
-60.2836 -0.2068 -1.8408
-41.3556 -1.6988 -1.2640
-41.0355 -3.2353 -1.2571
-68.2428 -7.9727 -2.0985
-67.9596 -10.5442 -2.1007
-28.7551 -9.0345 -0.9209
-43.6625 -15.5456 -1.4162
-39.6160 -15.8079 -1.3034
-16.1919 -7.1784 -0.5413
-75.9174 -37.1339 -1.6457
-71.2964 -38.2618 -1.5758
-67.0471 -39.2990 -1.5136
-63.1156 -40.2586 -1.4581
-62.8104 -43.4719 -1.4879
-40.3983 -30.2694 -0.9834
-41.0250 -33.2203 -1.0284
-63.4713 -55.4764 -1.6423
-42.1775 -39.7605 -1.1293
-45.1355 -45.8759 -1.2539
-42.7968 -46.9043 -1.2371
-28.9802 -34.2661 -0.8744
-43.2805 -55.2635 -1.3677
-42.5253 -58.7223 -1.4127
-30.2077 -49.1024 -1.1233
-32.4019 -57.4009 -1.2843
-18.1103 -35.1056 -0.7696
-21.4731 -50.6439 -1.0717
-21.9600 -65.0064 -1.3367
-15.7397 -88.8753 -1.7579
2.7536 -54.5199 -1.0626
4.5488 -51.5057 -1.0064
6.4586 -51.1060 -1.0025
2.2141 -13.4349 -0.2650
7.7169 -37.8820 -0.7522
9.0157 -37.0686 -0.7422
10.5329 -37.1596 -0.7513
12.0932 -37.2609 -0.7619
13.7010 -37.3654 -0.7739
15.3632 -37.4734 -0.7875
17.0876 -37.5854 -0.8027
18.6913 -37.3192 -0.8113
21.9502 -39.9940 -0.8867
22.6896 -37.8886 -0.8582
24.7871 -38.0655 -0.8825
6.9078 -9.7828 -0.2326
6.9522 -9.0989 -0.2224
7.0634 -8.5570 -0.2155
7.1014 -7.9722 -0.2073
7.0655 -7.3551 -0.1980
7.0981 -6.8533 -0.1915
7.1287 -6.3826 -0.1857
7.1575 -5.9388 -0.1805
7.1848 -5.5186 -0.1758
7.2108 -5.1191 -0.1715
7.2355 -4.7378 -0.1677
7.2593 -4.3723 -0.1643
7.2821 -4.0208 -0.1613
7.3041 -3.6815 -0.1585
7.3255 -3.3529 -0.1561
7.3462 -3.0336 -0.1540
7.3664 -2.7223 -0.1521
7.3862 -2.4180 -0.1505
7.4056 -2.1195 -0.1492
7.4247 -1.8258 -0.1480
7.4435 -1.5360 -0.1471
7.4621 -1.2493 -0.1465
7.6211 -0.9828 -0.1487
20.6310 -1.8748 -0.4009
20.6815 -1.0972 -0.4007
20.7321 -0.3188 -0.4011
20.7828 0.4624 -0.4021
20.8339 1.2488 -0.4036
20.8855 2.0427 -0.4058
20.9377 2.8464 -0.4085
20.9907 3.6625 -0.4119
13.7506 2.9361 -0.2718
11.9003 3.0132 -0.2373
10.3566 3.0411 -0.2086
9.4345 3.1604 -0.1923
8.5594 3.2302 -0.1768
8.0330 3.3819 -0.1684
8.1789 3.8116 -0.1743
8.2186 4.2134 -0.1784
8.2454 4.6268 -0.1826
8.2704 5.0590 -0.1872
8.2892 5.5093 -0.1922
8.3206 5.9934 -0.1980
8.3540 6.5084 -0.2045
8.3898 7.0591 -0.2117
8.3672 7.5956 -0.2182
8.5359 8.3555 -0.2306
8.4811 8.9510 -0.2381
6.7252 7.6550 -0.1967
8.5922 10.5559 -0.2628
8.6798 11.5231 -0.2785
8.6417 12.4184 -0.2921
10.6372 16.5834 -0.3803
