ply
format ascii 1.0
element vertex 2177
property float32 x
property float32 y
property float32 z
end_header
2.5523 -7.8321 2.3033
2.8165 -7.6492 2.2776
3.1407 -7.6281 2.3032
3.4294 -7.5103 2.3032
3.7139 -7.3822 2.3032
3.9940 -7.2440 2.3032
4.2692 -7.0956 2.3032
4.5393 -6.9374 2.3032
4.8038 -6.7694 2.3032
5.0624 -6.5918 2.3032
5.3149 -6.4048 2.3032
5.5608 -6.2086 2.3031
5.8458 -6.0509 2.3214
6.0795 -5.8353 2.3214
6.3057 -5.6110 2.3214
6.5239 -5.3783 2.3214
6.7340 -5.1375 2.3214
6.4822 -4.5693 2.1697
7.1283 -4.6325 2.3214
7.3908 -4.4160 2.3464
7.3429 -4.0198 2.2769
7.3442 -3.6678 2.2283
7.3455 -3.3288 2.1846
7.3468 -3.0011 2.1452
7.3480 -2.6832 2.1100
7.3492 -2.3740 2.0786
7.3503 -2.0721 2.0508
7.3515 -1.7766 2.0264
7.3526 -1.4863 2.0053
7.3537 -1.2004 1.9872
7.3547 -0.9179 1.9722
7.3558 -0.6380 1.9600
7.3569 -0.3599 1.9507
7.3579 -0.0828 1.9441
7.3590 0.1941 1.9404
7.3600 0.4716 1.9393
7.3611 0.7504 1.9410
7.3622 1.0315 1.9455
7.3633 1.3156 1.9528
7.3644 1.6035 1.9630
7.3655 1.8963 1.9763
7.3237 2.1820 1.9810
7.3771 2.5033 2.0148
7.3776 2.8168 2.0377
7.3781 3.1393 2.0642
7.3715 3.4689 2.0926
7.3728 3.8140 2.1275
7.3742 4.1729 2.1668
7.3756 4.5474 2.2111
7.3771 4.9398 2.2608
7.4739 5.4216 2.3464
7.2798 5.7097 2.3464
4.8264 4.0871 1.6008
4.6434 4.2412 1.5888
6.6301 6.5286 2.3464
6.3920 6.7848 2.3464
6.1436 7.0318 2.3464
5.7768 7.1353 2.3031
5.5139 7.3585 2.3031
5.2421 7.5716 2.3031
4.9618 7.7740 2.3031
4.6732 7.9654 2.3031
4.3770 8.1455 2.3031
4.0735 8.3139 2.3031
3.7633 8.4703 2.3031
0.7778 1.9439 0.5197
3.1246 8.7459 2.3031
2.7971 8.8646 2.3031
2.4649 8.9702 2.3031
2.1285 9.0625 2.3031
1.7966 9.1829 2.3136
1.5103 9.6194 2.4064
1.1493 9.6733 2.4064
0.7863 9.7127 2.4064
0.4219 9.7376 2.4064
0.0568 9.7479 2.4064
-0.3084 9.7436 2.4064
-0.6732 9.7246 2.4064
-1.0369 9.6911 2.4064
-1.3989 9.6432 2.4064
-1.7587 9.5807 2.4064
-2.1155 9.5040 2.4064
-2.4688 9.4132 2.4064
-2.8180 9.3083 2.4064
-3.1626 9.1897 2.4064
-3.5020 9.0575 2.4064
-0.8277 1.9233 0.5193
-4.1628 8.7536 2.4064
-4.4832 8.5823 2.4064
-4.7962 8.3987 2.4064
-5.1014 8.2030 2.4064
-5.3983 7.9956 2.4064
-5.6864 7.7769 2.4064
-5.9653 7.5472 2.4064
-6.2345 7.3071 2.4064
-6.2750 6.8191 2.3253
-6.4619 6.5141 2.3062
-6.6816 6.2484 2.3033
-6.8989 5.9826 2.3033
-7.1052 5.7090 2.3033
-7.3004 5.4280 2.3033
-7.4842 5.1402 2.3033
-7.6564 4.8459 2.3033
-7.8167 4.5458 2.3033
-6.2742 3.3402 1.8144
-6.5923 3.1979 1.8743
-8.2249 3.6149 2.3033
-8.3362 3.2962 2.3033
-8.4351 2.9741 2.3033
-8.5213 2.6492 2.3033
-8.5949 2.3218 2.3033
-8.6559 1.9926 2.3033
-8.7041 1.6621 2.3033
-8.7398 1.3307 2.3033
-8.7627 0.9988 2.3033
-8.7732 0.6671 2.3033
-8.7710 0.3360 2.3033
-8.7565 0.0059 2.3033
-8.7297 -0.3226 2.3033
-8.6906 -0.6492 2.3033
-8.6395 -0.9734 2.3033
-8.5765 -1.2947 2.3033
-8.5018 -1.6127 2.3033
-8.4154 -1.9271 2.3033
-8.3177 -2.2374 2.3033
-8.2089 -2.5431 2.3033
-8.0890 -2.8440 2.3033
-7.9585 -3.1397 2.3033
-7.8175 -3.4297 2.3033
-7.3430 -3.5557 2.3033
-7.1892 -3.8221 2.3033
-7.0260 -4.0822 2.3033
-6.8538 -4.3356 2.3033
-6.6728 -4.5822 2.3033
-6.4832 -4.8216 2.3033
-6.3049 -5.0691 2.3104
-6.2987 -5.4678 2.3862
-6.1290 -5.7399 2.4064
-5.8984 -5.9573 2.4064
-5.6606 -6.1658 2.4064
-5.4157 -6.3654 2.4064
-5.1641 -6.5557 2.4064
-4.9062 -6.7366 2.4064
-4.6423 -6.9079 2.4064
-4.3728 -7.0694 2.4064
-4.0979 -7.2210 2.4064
-3.8181 -7.3624 2.4064
-3.5337 -7.4936 2.4064
-3.2451 -7.6144 2.4064
-2.9526 -7.7248 2.4064
-2.6566 -7.8245 2.4064
-2.3575 -7.9135 2.4064
-2.0555 -7.9917 2.4064
-1.7512 -8.0591 2.4064
-1.4448 -8.1156 2.4064
-1.1367 -8.1611 2.4064
-0.8273 -8.1955 2.4064
-0.5169 -8.2190 2.4064
-0.2060 -8.2313 2.4064
0.1051 -8.2326 2.4064
0.4161 -8.2228 2.4064
0.7265 -8.2019 2.4064
1.0361 -8.1700 2.4064
1.3444 -8.1271 2.4064
1.6510 -8.0732 2.4064
1.8718 -7.6653 2.3033
2.1611 -7.5928 2.3033
2.4478 -7.5101 2.3033
2.7315 -7.4171 2.3033
3.0120 -7.3140 2.3033
3.2887 -7.2008 2.3032
3.5615 -7.0778 2.3032
3.8299 -6.9449 2.3032
4.0936 -6.8024 2.3032
4.3524 -6.6503 2.3032
2.3253 -3.2760 1.1628
2.4099 -3.1372 1.1436
5.0953 -6.1387 2.3032
5.3308 -5.9503 2.3032
5.5596 -5.7533 2.3031
5.8273 -5.5918 2.3214
6.0437 -5.3764 2.3214
6.2525 -5.1531 2.3214
6.4534 -4.9219 2.3214
6.4843 -4.5693 2.2649
6.8650 -4.4599 2.3332
7.0812 -4.2295 2.3464
7.2495 -3.9672 2.3464
7.4083 -3.6983 2.3464
7.3455 -3.3273 2.2806
7.3468 -2.9996 2.2397
7.3480 -2.6818 2.2031
7.3492 -2.3726 2.1705
7.3503 -2.0707 2.1417
7.3515 -1.7752 2.1164
7.3526 -1.4849 2.0945
7.3537 -1.1990 2.0759
7.3547 -0.9165 2.0603
7.3558 -0.6366 2.0478
7.3569 -0.3585 2.0383
7.3579 -0.0815 2.0316
7.3590 0.1955 2.0279
7.3601 0.4729 2.0269
7.3611 0.7518 2.0289
7.3622 1.0329 2.0338
7.3633 1.3170 2.0417
7.3644 1.6049 2.0525
7.3655 1.8977 2.0666
7.3250 2.1838 2.0721
7.3743 2.5038 2.1065
7.3748 2.8172 2.1306
7.3752 3.1396 2.1585
7.3715 3.4705 2.1893
7.3728 3.8156 2.2260
7.3742 4.1745 2.2674
7.3756 4.5491 2.3139
7.3156 4.9003 2.3464
7.1406 5.1816 2.3464
6.9546 5.4564 2.3464
4.8294 4.0908 1.6769
4.6454 4.2443 1.6641
6.3324 6.2371 2.3464
6.1045 6.4813 2.3464
5.7587 6.5930 2.3031
5.5162 6.8151 2.3031
5.2649 7.0278 2.3031
5.0050 7.2308 2.3031
4.7370 7.4236 2.3031
4.4613 7.6059 2.3031
4.1783 7.7774 2.3031
3.8884 7.9377 2.3031
0.8134 1.8311 0.5215
0.7442 1.8604 0.5210
0.6740 1.8871 0.5206
0.6029 1.9111 0.5202
0.5309 1.9325 0.5198
2.0312 8.6503 2.3031
1.7833 9.1165 2.4064
1.4412 9.1814 2.4064
1.0967 9.2327 2.4064
0.7503 9.2701 2.4064
0.4026 9.2938 2.4064
0.0542 9.3036 2.4064
-0.2944 9.2994 2.4064
-0.6424 9.2814 2.4064
-0.9895 9.2495 2.4064
-1.3350 9.2038 2.4064
-1.6783 9.1444 2.4064
-2.0188 9.0713 2.4064
-0.5084 1.9387 0.5192
-0.5806 1.9182 0.5195
-0.6520 1.8950 0.5198
-0.7225 1.8691 0.5202
-0.7920 1.8407 0.5206
-3.9733 8.3568 2.4064
-4.2793 8.1937 2.4064
-4.5784 8.0188 2.4064
-4.8700 7.8324 2.4064
-5.1537 7.6348 2.4064
-5.4290 7.4264 2.4064
-5.6956 7.2076 2.4064
-5.9531 6.9788 2.4064
-6.2010 6.7404 2.4064
-6.2725 6.3248 2.3441
-6.3813 5.9691 2.3033
-6.5893 5.7157 2.3033
-6.7869 5.4548 2.3033
-6.9739 5.1869 2.3033
-7.1501 4.9123 2.3033
-7.3152 4.6316 2.3033
-7.4690 4.3452 2.3033
-7.6114 4.0536 2.3033
-6.5890 3.1976 1.9602
-7.8611 3.4567 2.3033
-7.9683 3.1523 2.3033
-8.0635 2.8447 2.3033
-8.1467 2.5343 2.3033
-8.2179 2.2216 2.3033
-8.2770 1.9070 2.3033
-8.3239 1.5910 2.3033
-8.3588 1.2742 2.3033
-8.3816 0.9570 2.3033
-8.3924 0.6397 2.3033
-8.3912 0.3230 2.3033
-8.3781 0.0072 2.3033
-8.3532 -0.3071 2.3033
-8.3166 -0.6197 2.3033
-8.2685 -0.9300 2.3033
-8.2090 -1.2377 2.3033
-8.1382 -1.5422 2.3033
-8.0563 -1.8433 2.3033
-7.9635 -2.1405 2.3033
-7.8600 -2.4335 2.3033
-7.7460 -2.7219 2.3033
-7.6216 -3.0052 2.3033
-7.4872 -3.2833 2.3033
-7.0441 -3.4095 2.3033
-6.8971 -3.6653 2.3033
-6.7411 -3.9151 2.3033
-6.5763 -4.1586 2.3033
-6.4031 -4.3955 2.3033
-6.2948 -4.6799 2.3304
-6.2967 -5.0610 2.4043
-6.0964 -5.2906 2.4064
-5.8829 -5.5078 2.4064
-5.6619 -5.7168 2.4064
-5.4339 -5.9174 2.4064
-5.1991 -6.1093 2.4064
-4.9578 -6.2924 2.4064
-4.7105 -6.4664 2.4064
-4.4573 -6.6312 2.4064
-4.1987 -6.7865 2.4064
-3.9350 -6.9323 2.4064
-3.6665 -7.0685 2.4064
-3.3935 -7.1947 2.4064
-3.1165 -7.3110 2.4064
-2.8357 -7.4172 2.4064
-2.5515 -7.5132 2.4064
-2.2642 -7.5989 2.4064
-1.9743 -7.6742 2.4064
-1.6820 -7.7391 2.4064
-1.3877 -7.7934 2.4064
-1.0918 -7.8372 2.4064
-0.7947 -7.8704 2.4064
-0.4966 -7.8930 2.4064
-0.1979 -7.9049 2.4064
0.1009 -7.9061 2.4064
0.3996 -7.8967 2.4064
0.6978 -7.8767 2.4064
0.9951 -7.8460 2.4064
1.2912 -7.8047 2.4064
1.5857 -7.7528 2.4064
1.7978 -7.3610 2.3033
2.0757 -7.2913 2.3033
2.3510 -7.2116 2.3033
2.6234 -7.1222 2.3033
2.8926 -7.0229 2.3033
3.1583 -6.9140 2.3032
3.4202 -6.7956 2.3032
3.6778 -6.6678 2.3032
3.9310 -6.5307 2.3032
4.1793 -6.3844 2.3032
2.3153 -3.2612 1.2058
2.3904 -3.1111 1.1814
2.4290 -2.9257 1.1436
5.1178 -5.7112 2.3032
5.3372 -5.5217 2.3032
5.5499 -5.3241 2.3031
5.8012 -5.1593 2.3214
6.0013 -4.9446 2.3214
6.1937 -4.7224 2.3214
6.3782 -4.4931 2.3214
6.6252 -4.3027 2.3464
6.7949 -4.0571 2.3464
6.9558 -3.8050 2.3464
7.1077 -3.5468 2.3464
7.2503 -3.2827 2.3464
7.3834 -3.0131 2.3464
7.3480 -2.6804 2.2968
7.3492 -2.3711 2.2630
7.3503 -2.0693 2.2331
7.3515 -1.7738 2.2070
7.3526 -1.4835 2.1843
7.3537 -1.1976 2.1650
7.3547 -0.9151 2.1490
7.3558 -0.6353 2.1362
7.3569 -0.3572 2.1264
7.3579 -0.0801 2.1196
7.3590 0.1968 2.1159
7.3601 0.4743 2.1151
7.3611 0.7532 2.1174
7.3622 1.0343 2.1227
7.3633 1.3184 2.1311
7.3644 1.6063 2.1426
7.3655 1.8991 2.1575
7.3263 2.1857 2.1638
7.3715 2.5044 2.1986
7.3720 2.8176 2.2240
7.3724 3.1398 2.2534
7.3715 3.4720 2.2866
7.4405 3.8522 2.3464
7.3054 4.1372 2.3464
7.1592 4.4172 2.3464
7.0020 4.6919 2.3464
6.8341 4.9607 2.3464
6.6555 5.2233 2.3464
4.8325 4.0946 1.7534
4.6491 4.2488 1.7405
6.0587 5.9692 2.3464
5.7326 6.0880 2.3031
5.5091 6.3087 2.3031
5.2767 6.5208 2.3031
5.0360 6.7239 2.3031
4.7871 6.9176 2.3031
4.5305 7.1017 2.3031
4.2666 7.2757 2.3031
3.9957 7.4393 2.3031
3.7183 7.5923 2.3031
0.7795 1.7553 0.5227
0.7132 1.7833 0.5222
0.6460 1.8089 0.5218
0.5778 1.8319 0.5214
0.5088 1.8524 0.5210
0.4391 1.8702 0.5207
0.3687 1.8854 0.5205
0.2979 1.8980 0.5202
0.2266 1.9079 0.5200
0.1550 1.9150 0.5199
0.0831 1.9195 0.5198
0.0112 1.9213 0.5197
-0.0608 1.9204 0.5197
-0.1327 1.9168 0.5197
-0.2044 1.9104 0.5198
-0.2758 1.9014 0.5199
-0.3468 1.8897 0.5201
-0.4173 1.8753 0.5203
-0.4872 1.8583 0.5205
-0.5565 1.8387 0.5208
-0.6249 1.8165 0.5211
-0.6925 1.7917 0.5214
-0.7591 1.7644 0.5218
-0.8246 1.7346 0.5223
-4.0921 7.8368 2.4064
-4.3783 7.6699 2.4064
-4.6573 7.4920 2.4064
-4.9289 7.3034 2.4064
-5.1925 7.1045 2.4064
-5.4478 6.8956 2.4064
-5.6944 6.6772 2.4064
-5.9319 6.4495 2.4064
-6.1601 6.2130 2.4064
-6.2721 5.8686 2.3663
-6.3046 5.4704 2.3033
-6.4942 5.2211 2.3033
-6.6737 4.9651 2.3033
-6.8428 4.7026 2.3033
-7.0013 4.4343 2.3033
-7.1491 4.1606 2.3033
-7.2859 3.8818 2.3033
-6.5856 3.1974 2.0466
-7.5262 3.3109 2.3033
-7.6295 3.0198 2.3033
-7.7213 2.7255 2.3033
-7.8017 2.4285 2.3033
-7.8705 2.1292 2.3033
-7.9278 1.8280 2.3033
-7.9735 1.5256 2.3033
-8.0076 1.2222 2.3033
-8.0302 0.9183 2.3033
-8.0412 0.6145 2.3033
-8.0408 0.3110 2.3033
-8.0290 0.0085 2.3033
-8.0058 -0.2929 2.3033
-7.9715 -0.5925 2.3033
-7.9261 -0.8900 2.3033
-7.8697 -1.1850 2.3033
-7.8025 -1.4771 2.3033
-7.7246 -1.7659 2.3033
-7.6363 -2.0511 2.3033
-7.5377 -2.3322 2.3033
-7.4289 -2.6090 2.3033
-7.3103 -2.8810 2.3033
-7.1819 -3.1479 2.3033
-6.7670 -3.2739 2.3033
-6.6262 -3.5199 2.3033
-6.4768 -3.7602 2.3033
-6.3189 -3.9944 2.3033
-6.2930 -4.3185 2.3558
-6.2465 -4.6425 2.4064
-6.0567 -4.8666 2.4064
-5.8593 -5.0833 2.4064
-5.6543 -5.2924 2.4064
-5.4423 -5.4936 2.4064
-5.2234 -5.6867 2.4064
-4.9979 -5.8714 2.4064
-4.7663 -6.0477 2.4064
-4.5287 -6.2153 2.4064
-4.2855 -6.3740 2.4064
-4.0370 -6.5237 2.4064
-3.7836 -6.6641 2.4064
-3.5256 -6.7953 2.4064
-3.2632 -6.9169 2.4064
-2.9969 -7.0290 2.4064
-2.7270 -7.1313 2.4064
-2.4537 -7.2238 2.4064
-2.1776 -7.3064 2.4064
-1.8988 -7.3790 2.4064
-1.6177 -7.4415 2.4064
-1.3347 -7.4939 2.4064
-1.0501 -7.5362 2.4064
-0.7643 -7.5682 2.4064
-0.4776 -7.5899 2.4064
-0.1904 -7.6014 2.4064
0.0970 -7.6027 2.4064
0.3843 -7.5936 2.4064
0.6711 -7.5743 2.4064
0.9571 -7.5447 2.4064
1.2418 -7.5049 2.4064
1.5251 -7.4549 2.4064
1.7341 -7.0989 2.3101
1.9962 -7.0109 2.3033
2.2609 -6.9342 2.3033
2.5229 -6.8480 2.3033
2.7817 -6.7524 2.3033
3.0372 -6.6475 2.3033
3.2889 -6.5334 2.3032
3.5365 -6.4103 2.3032
3.7798 -6.2782 2.3032
4.0184 -6.1373 2.3032
2.3158 -3.2612 1.2544
2.3904 -3.1104 1.2288
2.3336 -2.8101 1.1428
2.5062 -2.7961 1.1732
5.1306 -5.3066 2.3032
5.3348 -5.1164 2.3032
5.5322 -4.9187 2.3031
5.7227 -4.7137 2.3031
5.9526 -4.5372 2.3214
6.1956 -4.3631 2.3464
6.3665 -4.1333 2.3464
6.5292 -3.8970 2.3464
6.6834 -3.6546 2.3464
6.8289 -3.4062 2.3464
6.9654 -3.1523 2.3464
7.0927 -2.8930 2.3464
7.2107 -2.6288 2.3464
7.3190 -2.3600 2.3464
7.4175 -2.0868 2.3464
7.3515 -1.7723 2.2981
7.3526 -1.4821 2.2747
7.3537 -1.1962 2.2548
7.3548 -0.9137 2.2383
7.3558 -0.6339 2.2251
7.3569 -0.3558 2.2151
7.3579 -0.0787 2.2082
7.3590 0.1982 2.2045
7.3601 0.4757 2.2039
7.3611 0.7546 2.2064
7.3622 1.0357 2.2121
7.3633 1.3198 2.2210
7.3644 1.6078 2.2333
7.3655 1.9006 2.2489
7.3276 2.1875 2.2561
7.3687 2.5049 2.2914
7.3691 2.8180 2.3180
7.3621 3.1370 2.3464
7.2537 3.4181 2.3464
7.1345 3.6953 2.3464
7.0044 3.9682 2.3464
6.8637 4.2364 2.3464
6.7125 4.4994 2.3464
6.5510 4.7568 2.3464
6.3794 5.0082 2.3464
4.8355 4.0984 1.8306
4.6531 4.2537 1.8176
5.6991 5.6164 2.3031
5.4933 5.8354 2.3031
5.2787 6.0466 2.3031
5.0558 6.2494 2.3031
4.8249 6.4436 2.3031
4.5862 6.6289 2.3031
4.3402 6.8048 2.3031
4.0871 6.9712 2.3031
3.8274 7.1276 2.3031
0.8107 1.6557 0.5243
0.7482 1.6850 0.5238
0.6846 1.7120 0.5233
0.6200 1.7365 0.5229
0.5546 1.7586 0.5225
0.4883 1.7783 0.5222
0.4214 1.7954 0.5219
0.3539 1.8100 0.5216
0.2859 1.8220 0.5214
0.2174 1.8315 0.5212
0.1487 1.8384 0.5211
0.0798 1.8427 0.5210
0.0107 1.8444 0.5209
-0.0584 1.8435 0.5209
-0.1273 1.8401 0.5209
-0.1961 1.8340 0.5210
-0.2647 1.8253 0.5211
-0.3328 1.8141 0.5213
-0.4005 1.8003 0.5214
-0.4676 1.7840 0.5217
-0.5341 1.7651 0.5219
-0.5998 1.7438 0.5222
-0.6647 1.7200 0.5226
-0.7286 1.6938 0.5230
-0.7915 1.6652 0.5234
-3.9196 7.5078 2.4064
-4.1938 7.3483 2.4064
-4.4613 7.1782 2.4064
-4.7217 6.9979 2.4064
-4.9744 6.8077 2.4064
-5.2193 6.6079 2.4064
-5.4559 6.3990 2.4064
-5.6838 6.1812 2.4064
-5.9027 5.9549 2.4064
-6.1123 5.7206 2.4064
-6.2738 5.4451 2.3917
-6.2819 5.0519 2.3247
-6.3965 4.7603 2.3033
-6.5590 4.5091 2.3033
-6.7114 4.2522 2.3033
-6.8536 3.9901 2.3033
-6.9853 3.7231 2.3033
-6.5823 3.1971 2.1334
-7.2169 3.1763 2.3033
-7.3164 2.8973 2.3033
-7.4051 2.6153 2.3033
-7.4828 2.3306 2.3033
-7.5494 2.0437 2.3033
-7.6050 1.7550 2.3033
-7.6494 1.4650 2.3033
-7.6828 1.1740 2.3033
-7.7050 0.8826 2.3033
-7.7163 0.5911 2.3033
-7.7165 0.2999 2.3033
-7.7058 0.0095 2.3033
-7.6842 -0.2797 2.3033
-7.6519 -0.5673 2.3033
-7.6089 -0.8529 2.3033
-7.5554 -1.1363 2.3033
-7.4915 -1.4168 2.3033
-7.4173 -1.6943 2.3033
-7.3331 -1.9682 2.3033
-7.2389 -2.2384 2.3033
-7.1351 -2.5043 2.3033
-7.0216 -2.7658 2.3033
-6.8989 -3.0224 2.3033
-6.5092 -3.1478 2.3033
-6.3742 -3.3846 2.3033
-6.2902 -3.6504 2.3252
-6.2914 -3.9756 2.3837
-6.1849 -4.2428 2.4064
-6.0104 -4.4656 2.4064
-5.8282 -4.6815 2.4064
-5.6384 -4.8903 2.4064
-5.4416 -5.0918 2.4064
-5.2378 -5.2857 2.4064
-5.0273 -5.4718 2.4064
-4.8106 -5.6499 2.4064
-4.5878 -5.8198 2.4064
-4.3593 -5.9814 2.4064
-4.1254 -6.1344 2.4064
-3.8864 -6.2788 2.4064
-3.6426 -6.4142 2.4064
-3.3943 -6.5407 2.4064
-3.1418 -6.6580 2.4064
-2.8855 -6.7661 2.4064
-2.6256 -6.8648 2.4064
-2.3626 -6.9541 2.4064
-2.0968 -7.0338 2.4064
-1.8283 -7.1038 2.4064
-1.5577 -7.1641 2.4064
-1.2853 -7.2147 2.4064
-1.0113 -7.2555 2.4064
-0.7361 -7.2864 2.4064
-0.4600 -7.3074 2.4064
-0.1834 -7.3185 2.4064
0.0934 -7.3197 2.4064
0.3701 -7.3110 2.4064
0.6462 -7.2923 2.4064
0.9216 -7.2638 2.4064
1.1958 -7.2254 2.4064
1.4685 -7.1773 2.4064
1.7232 -7.0531 2.3840
1.9308 -6.7801 2.3137
2.1770 -6.6756 2.3033
2.4292 -6.5924 2.3033
2.6784 -6.5002 2.3033
2.9242 -6.3991 2.3033
3.1665 -6.2891 2.3032
3.4048 -6.1703 2.3032
3.6389 -6.0429 2.3032
3.8685 -5.9071 2.3032
2.3163 -3.2612 1.3034
2.3904 -3.1096 1.2765
2.3096 -2.7806 1.1750
2.5068 -2.7961 1.2192
4.9382 -5.1063 2.3032
5.1345 -4.9230 2.3032
5.3242 -4.7325 2.3032
5.5072 -4.5349 2.3031
5.6831 -4.3305 2.3031
5.9617 -4.1970 2.3464
6.1258 -3.9756 2.3464
6.2819 -3.7480 2.3464
6.4299 -3.5146 2.3464
6.5694 -3.2754 2.3464
6.7003 -3.0309 2.3464
6.8224 -2.7814 2.3464
6.9353 -2.5271 2.3464
7.0390 -2.2683 2.3464
7.1333 -2.0054 2.3464
7.2179 -1.7387 2.3464
7.2927 -1.4686 2.3464
7.3576 -1.1954 2.3464
7.4124 -0.9195 2.3464
7.3558 -0.6325 2.3146
7.3569 -0.3544 2.3043
7.3580 -0.0773 2.2974
7.3590 0.1996 2.2937
7.3601 0.4771 2.2932
7.3611 0.7560 2.2960
7.3622 1.0371 2.3021
7.3633 1.3212 2.3116
7.4338 1.6244 2.3464
7.3826 1.9065 2.3464
7.3206 2.1869 2.3464
7.2479 2.4653 2.3464
7.1645 2.7412 2.3464
7.0704 3.0142 2.3464
6.9658 3.2839 2.3464
6.8508 3.5498 2.3464
6.7254 3.8117 2.3464
6.5899 4.0689 2.3464
6.4443 4.3211 2.3464
6.2888 4.5679 2.3464
6.1236 4.8089 2.3464
4.8386 4.1022 1.9084
4.6572 4.2587 1.8954
5.4696 5.3917 2.3031
5.2717 5.6016 2.3031
5.0656 5.8039 2.3031
4.8514 5.9982 2.3031
4.6295 6.1842 2.3031
4.4003 6.3617 2.3031
4.1640 6.5302 2.3031
3.9210 6.6895 2.3031
3.6718 6.8392 2.3031
0.7792 1.5916 0.5252
0.7191 1.6198 0.5248
0.6579 1.6457 0.5243
0.5959 1.6693 0.5239
0.5330 1.6906 0.5236
0.4693 1.7094 0.5233
0.4050 1.7259 0.5230
0.3401 1.7399 0.5227
0.2747 1.7515 0.5225
0.2090 1.7606 0.5223
0.1429 1.7672 0.5222
0.0767 1.7714 0.5221
0.0103 1.7730 0.5221
-0.0561 1.7722 0.5220
-0.1224 1.7688 0.5221
-0.1885 1.7630 0.5221
-0.2544 1.7547 0.5222
-0.3199 1.7439 0.5224
-0.3850 1.7306 0.5225
-0.4495 1.7149 0.5227
-0.5133 1.6968 0.5230
-0.5765 1.6763 0.5233
-0.6388 1.6535 0.5236
-0.7002 1.6283 0.5240
-0.7607 1.6008 0.5244
-0.8200 1.5711 0.5248
-4.0232 7.0508 2.4064
-4.2800 6.8879 2.4064
-4.5299 6.7152 2.4064
-4.7727 6.5330 2.4064
-5.0078 6.3417 2.4064
-5.2351 6.1415 2.4064
-5.4540 5.9328 2.4064
-5.6644 5.7160 2.4064
-5.8660 5.4915 2.4064
-6.0583 5.2596 2.4064
-6.2413 5.0207 2.4064
-6.2767 4.6726 2.3547
-6.2962 4.3299 2.3033
-6.4430 4.0835 2.3033
-6.5799 3.8321 2.3033
-6.7068 3.5760 2.3033
-6.5789 3.1968 2.2207
-6.9301 3.0515 2.3033
-7.0262 2.7838 2.3033
-7.1119 2.5132 2.3033
-7.1870 2.2399 2.3033
-7.2516 1.9645 2.3033
-7.3055 1.6873 2.3033
-7.3487 1.4088 2.3033
-7.3813 1.1294 2.3033
-7.4033 0.8494 2.3033
-7.4147 0.5694 2.3033
-7.4155 0.2896 2.3033
-7.4057 0.0106 2.3033
-7.3856 -0.2674 2.3033
-7.3551 -0.5439 2.3033
-7.3143 -0.8185 2.3033
-7.2634 -1.0909 2.3033
-7.2025 -1.3608 2.3033
-7.1317 -1.6276 2.3033
-7.0513 -1.8912 2.3033
-6.9612 -2.1511 2.3033
-6.8618 -2.4070 2.3033
-6.7532 -2.6587 2.3033
-6.6356 -2.9057 2.3033
-6.2945 -3.0426 2.3128
-6.2890 -3.3380 2.3595
-6.2700 -3.6373 2.4064
-6.1179 -3.8645 2.4064
-5.9578 -4.0857 2.4064
-5.7901 -4.3005 2.4064
-5.6148 -4.5087 2.4064
-5.4323 -4.7101 2.4064
-5.2429 -4.9045 2.4064
-5.0468 -5.0915 2.4064
-4.8443 -5.2711 2.4064
-4.6356 -5.4430 2.4064
-4.4212 -5.6070 2.4064
-4.2011 -5.7629 2.4064
-3.9759 -5.9106 2.4064
-3.7456 -6.0499 2.4064
-3.5108 -6.1807 2.4064
-3.2716 -6.3028 2.4064
-3.0283 -6.4161 2.4064
-2.7813 -6.5205 2.4064
-2.5310 -6.6158 2.4064
-2.2775 -6.7020 2.4064
-2.0212 -6.7789 2.4064
-1.7625 -6.8466 2.4064
-1.5017 -6.9049 2.4064
-1.2391 -6.9537 2.4064
-0.9749 -6.9931 2.4064
-0.7096 -7.0230 2.4064
-0.4435 -7.0433 2.4064
-0.1768 -7.0540 2.4064
0.0900 -7.0552 2.4064
0.3567 -7.0468 2.4064
0.6229 -7.0288 2.4064
0.8884 -7.0013 2.4064
1.1527 -6.9642 2.4064
1.4156 -6.9177 2.4064
1.6768 -6.8618 2.4064
1.8529 -6.5053 2.3033
2.0986 -6.4339 2.3033
2.3416 -6.3536 2.3033
2.5818 -6.2645 2.3033
2.8187 -6.1669 2.3033
3.0521 -6.0607 2.3033
3.2818 -5.9461 2.3032
3.5073 -5.8231 2.3032
3.7284 -5.6920 2.3032
2.3168 -3.2612 1.3527
2.3904 -3.1089 1.3246
2.3225 -2.7954 1.2261
2.5075 -2.7961 1.2655
4.7585 -4.9192 2.3032
4.9474 -4.7424 2.3032
5.1300 -4.5586 2.3032
5.3061 -4.3680 2.3032
5.4753 -4.1709 2.3031
5.6374 -3.9674 2.3031
5.9011 -3.8285 2.3464
6.0512 -3.6090 2.3464
6.1933 -3.3839 2.3464
6.3274 -3.1534 2.3464
6.4531 -2.9177 2.3464
6.5702 -2.6772 2.3464
6.6786 -2.4322 2.3464
6.7780 -2.1828 2.3464
6.8683 -1.9296 2.3464
6.9493 -1.6727 2.3464
7.0209 -1.4125 2.3464
7.0829 -1.1494 2.3464
7.1351 -0.8837 2.3464
7.1775 -0.6158 2.3464
7.2099 -0.3459 2.3464
7.2323 -0.0746 2.3464
7.2445 0.1979 2.3464
7.2464 0.4711 2.3464
7.2381 0.7448 2.3464
7.2195 1.0184 2.3464
7.1905 1.2916 2.3464
7.1511 1.5640 2.3464
7.1013 1.8352 2.3464
7.0412 2.1048 2.3464
6.9708 2.3724 2.3464
6.8901 2.6376 2.3464
6.7992 2.9000 2.3464
6.6982 3.1591 2.3464
6.5871 3.4146 2.3464
6.4661 3.6661 2.3464
6.3354 3.9132 2.3464
6.1950 4.1554 2.3464
6.0451 4.3924 2.3464
5.7775 4.5385 2.3031
4.8418 4.1062 1.9869
4.6613 4.2636 1.9739
5.2564 5.1830 2.3031
5.0660 5.3844 2.3031
4.8676 5.5785 2.3031
4.6616 5.7650 2.3031
4.4482 5.9434 2.3031
4.2277 6.1136 2.3031
4.0005 6.2753 2.3031
3.7669 6.4280 2.3031
0.8066 1.5027 0.5266
0.7498 1.5320 0.5262
0.6919 1.5591 0.5257
0.6331 1.5840 0.5253
0.5734 1.6067 0.5249
0.5129 1.6272 0.5246
0.4516 1.6453 0.5242
0.3897 1.6612 0.5240
0.3273 1.6747 0.5237
0.2644 1.6858 0.5235
0.2011 1.6946 0.5234
0.1375 1.7010 0.5232
0.0738 1.7049 0.5231
0.0099 1.7065 0.5231
-0.0540 1.7057 0.5231
-0.1178 1.7025 0.5231
-0.1814 1.6969 0.5232
-0.2448 1.6888 0.5233
-0.3079 1.6785 0.5234
-0.3705 1.6657 0.5236
-0.4325 1.6506 0.5238
-0.4940 1.6332 0.5240
-0.5548 1.6135 0.5243
-0.6147 1.5915 0.5246
-0.6739 1.5672 0.5250
-0.7320 1.5408 0.5253
-0.7891 1.5122 0.5258
-3.8649 6.7747 2.4064
-4.1117 6.6185 2.4064
-4.3520 6.4528 2.4064
-4.5854 6.2781 2.4064
-4.8116 6.0945 2.4064
-5.0301 5.9025 2.4064
-5.2408 5.7022 2.4064
-5.4432 5.4942 2.4064
-5.6372 5.2787 2.4064
-5.8224 5.0561 2.4064
-5.9985 4.8268 2.4064
-6.1655 4.5912 2.4064
-6.2781 4.3188 2.3893
-6.2832 3.9837 2.3367
-6.3255 3.6853 2.3033
-6.4479 3.4394 2.3033
-6.5606 3.1893 2.3033
-6.6635 2.9354 2.3033
-6.7564 2.6783 2.3033
-6.8392 2.4182 2.3033
-6.9119 2.1556 2.3033
-6.9745 1.8908 2.3033
-7.0268 1.6244 2.3033
-7.0690 1.3566 2.3033
-7.1008 1.0878 2.3033
-7.1225 0.8186 2.3033
-7.1339 0.5492 2.3033
-7.1352 0.2801 2.3033
-7.1263 0.0115 2.3033
-7.1074 -0.2560 2.3033
-7.0786 -0.5221 2.3033
-7.0398 -0.7864 2.3033
-6.9914 -1.0487 2.3033
-6.9332 -1.3085 2.3033
-6.8656 -1.5655 2.3033
-6.7885 -1.8194 2.3033
-6.7023 -2.0697 2.3033
-6.6070 -2.3163 2.3033
-6.5029 -2.5588 2.3033
-6.3900 -2.7968 2.3033
-6.2879 -3.0380 2.3963
-6.1841 -3.2810 2.4064
-6.0457 -3.5059 2.4064
-5.8994 -3.7251 2.4064
-5.7454 -3.9386 2.4064
-5.5839 -4.1460 2.4064
-5.4151 -4.3470 2.4064
-5.2394 -4.5415 2.4064
-5.0570 -4.7291 2.4064
-4.8680 -4.9098 2.4064
-4.6729 -5.0832 2.4064
-4.4718 -5.2493 2.4064
-4.2651 -5.4077 2.4064
-4.0530 -5.5583 2.4064
-3.8358 -5.7010 2.4064
-3.6138 -5.8357 2.4064
-3.3873 -5.9620 2.4064
-3.1566 -6.0800 2.4064
-2.9220 -6.1895 2.4064
-2.6838 -6.2904 2.4064
-2.4423 -6.3825 2.4064
-2.1977 -6.4658 2.4064
-1.9505 -6.5402 2.4064
-1.7009 -6.6056 2.4064
-1.4492 -6.6620 2.4064
-1.1958 -6.7092 2.4064
-0.9409 -6.7473 2.4064
-0.6848 -6.7761 2.4064
-0.4280 -6.7958 2.4064
-0.1707 -6.8062 2.4064
0.0868 -6.8073 2.4064
0.3442 -6.7992 2.4064
0.6011 -6.7818 2.4064
0.8573 -6.7552 2.4064
1.1124 -6.7195 2.4064
1.3661 -6.6745 2.4064
1.6181 -6.6204 2.4064
1.7880 -6.2764 2.3033
2.0251 -6.2074 2.3033
2.2596 -6.1298 2.3033
2.4912 -6.0438 2.3033
2.7198 -5.9494 2.3033
2.9450 -5.8468 2.3033
3.1665 -5.7360 2.3032
3.3840 -5.6172 2.3032
3.5973 -5.4906 2.3032
2.3174 -3.2612 1.4024
2.3904 -3.1082 1.3730
2.3230 -2.7954 1.2712
2.5081 -2.7961 1.3122
4.5902 -4.7440 2.3032
4.7723 -4.5733 2.3032
4.9482 -4.3958 2.3032
5.1178 -4.2117 2.3032
5.2807 -4.0214 2.3032
5.4369 -3.8250 2.3032
5.5859 -3.6227 2.3031
5.7277 -3.4149 2.3031
5.9720 -3.2617 2.3464
6.1009 -3.0393 2.3464
6.2218 -2.8119 2.3464
6.3343 -2.5798 2.3464
6.4384 -2.3434 2.3464
6.5339 -2.1029 2.3464
6.6206 -1.8586 2.3464
6.6982 -1.6109 2.3464
6.7668 -1.3601 2.3464
6.8261 -1.1064 2.3464
6.8760 -0.8503 2.3464
6.9164 -0.5920 2.3464
6.9472 -0.3320 2.3464
6.9683 -0.0705 2.3464
6.9796 0.1920 2.3464
6.9810 0.4552 2.3464
6.9725 0.7188 2.3464
6.9541 0.9823 2.3464
6.9257 1.2454 2.3464
6.8873 1.5077 2.3464
6.8390 1.7688 2.3464
6.7806 2.0283 2.3464
6.7123 2.2859 2.3464
6.6342 2.5410 2.3464
6.5462 2.7935 2.3464
6.4486 3.0428 2.3464
6.3412 3.2886 2.3464
6.2244 3.5305 2.3464
6.0981 3.7681 2.3464
5.9627 4.0010 2.3464
5.7108 4.1508 2.3031
5.1990 4.0853 2.1535
4.8451 4.1102 2.0661
4.6654 4.2687 2.0531
5.0579 4.9887 2.3031
4.8744 5.1822 2.3031
4.6833 5.3687 2.3031
4.4848 5.5478 2.3031
4.2793 5.7193 2.3031
4.0671 5.8827 2.3031
3.8483 6.0380 2.3031
0.8307 1.4178 0.5280
0.7771 1.4481 0.5275
0.7224 1.4763 0.5270
0.6666 1.5024 0.5266
0.6100 1.5264 0.5262
0.5524 1.5483 0.5258
0.4941 1.5680 0.5255
0.4351 1.5855 0.5252
0.3755 1.6007 0.5249
0.3153 1.6137 0.5247
0.2547 1.6245 0.5245
0.1937 1.6329 0.5243
0.1325 1.6391 0.5242
0.0711 1.6429 0.5241
0.0095 1.6444 0.5241
-0.0520 1.6436 0.5240
-0.1135 1.6405 0.5241
-0.1748 1.6351 0.5241
-0.2359 1.6274 0.5242
-0.2966 1.6174 0.5243
-0.3569 1.6051 0.5245
-0.4167 1.5906 0.5247
-0.4759 1.5738 0.5249
-0.5345 1.5548 0.5252
-0.5923 1.5336 0.5255
-0.6492 1.5102 0.5259
-0.7053 1.4848 0.5262
-0.7603 1.4572 0.5266
-0.8143 1.4276 0.5271
-3.9551 6.3677 2.4064
-4.1864 6.2086 2.4064
-4.4111 6.0408 2.4064
-4.6288 5.8644 2.4064
-4.8393 5.6799 2.4064
-5.0422 5.4876 2.4064
-5.2372 5.2877 2.4064
-5.4241 5.0806 2.4064
-5.6026 4.8667 2.4064
-5.7724 4.6463 2.4064
-5.9333 4.4198 2.4064
-6.0852 4.1875 2.4064
-6.2278 3.9499 2.4064
-6.2806 3.6606 2.3760
-6.2865 3.3546 2.3329
-6.3155 3.0714 2.3033
-6.4149 2.8273 2.3033
-6.5047 2.5799 2.3033
-6.5849 2.3296 2.3033
-6.6554 2.0769 2.3033
-6.7160 1.8221 2.3033
-6.7669 1.5656 2.3033
-6.8079 1.3078 2.3033
-6.8390 1.0490 2.3033
-6.8604 0.7898 2.3033
-6.8718 0.5303 2.3033
-6.8735 0.2711 2.3033
-6.8654 0.0124 2.3033
-6.8477 -0.2453 2.3033
-6.8203 -0.5017 2.3033
-6.7835 -0.7565 2.3033
-6.7372 -1.0093 2.3033
-6.6816 -1.2597 2.3033
-6.6168 -1.5075 2.3033
-6.5430 -1.7523 2.3033
-6.4603 -1.9937 2.3033
-6.3689 -2.2315 2.3033
-6.2928 -2.4748 2.3121
-6.2868 -2.7503 2.3505
-6.0941 -2.9431 2.4064
-5.9687 -3.1654 2.4064
-5.8355 -3.3826 2.4064
-5.6945 -3.5944 2.4064
-5.5461 -3.8007 2.4064
-5.3905 -4.0011 2.4064
-5.2278 -4.1953 2.4064
-5.0584 -4.3833 2.4064
-4.8825 -4.5647 2.4064
-4.7003 -4.7393 2.4064
-4.5121 -4.9069 2.4064
-4.3181 -5.0675 2.4064
-4.1186 -5.2206 2.4064
-3.9140 -5.3663 2.4064
-3.7044 -5.5043 2.4064
-3.4901 -5.6345 2.4064
-3.2715 -5.7567 2.4064
-3.0487 -5.8708 2.4064
-2.8222 -5.9768 2.4064
-2.5922 -6.0743 2.4064
-2.3590 -6.1634 2.4064
-2.1228 -6.2440 2.4064
-1.8840 -6.3160 2.4064
-1.6430 -6.3793 2.4064
-1.3999 -6.4338 2.4064
-1.1551 -6.4795 2.4064
-0.9089 -6.5164 2.4064
-0.6616 -6.5443 2.4064
-0.4135 -6.5633 2.4064
-0.1649 -6.5734 2.4064
0.0838 -6.5745 2.4064
0.3325 -6.5667 2.4064
0.5807 -6.5499 2.4064
0.8281 -6.5242 2.4064
1.0745 -6.4896 2.4064
1.3196 -6.4461 2.4064
1.5630 -6.3938 2.4064
1.7365 -6.0944 2.3158
1.9560 -5.9947 2.3033
2.1825 -5.9196 2.3033
2.4063 -5.8364 2.3033
2.6270 -5.7452 2.3033
2.8444 -5.6459 2.3033
3.0583 -5.5388 2.3033
3.2683 -5.4239 2.3032
3.4741 -5.3014 2.3032
2.2657 -3.1878 1.4198
2.3733 -3.0853 1.4116
2.3236 -2.7954 1.3168
2.5087 -2.7961 1.3592
4.4323 -4.5797 2.3032
4.6079 -4.4146 2.3032
4.7776 -4.2430 2.3032
4.9411 -4.0652 2.3032
5.0982 -3.8812 2.3032
5.2487 -3.6914 2.3032
5.3924 -3.4960 2.3032
5.5289 -3.2951 2.3031
5.6582 -3.0891 2.3031
5.8886 -2.9323 2.3464
6.0050 -2.7126 2.3464
6.1133 -2.4885 2.3464
6.2134 -2.2602 2.3464
6.3052 -2.0280 2.3464
6.3884 -1.7922 2.3464
6.4630 -1.5531 2.3464
6.5288 -1.3109 2.3464
6.5856 -1.0661 2.3464
6.6333 -0.8190 2.3464
6.6719 -0.5698 2.3464
6.7012 -0.3189 2.3464
6.7211 -0.0667 2.3464
6.7316 0.1865 2.3464
6.7325 0.4403 2.3464
6.7240 0.6945 2.3464
6.7058 0.9485 2.3464
6.6780 1.2022 2.3464
6.6405 1.4550 2.3464
6.5935 1.7066 2.3464
6.5368 1.9567 2.3464
6.4706 2.2049 2.3464
6.3949 2.4507 2.3464
6.3098 2.6939 2.3464
6.2152 2.9340 2.3464
6.1114 3.1708 2.3464
5.9985 3.4037 2.3464
5.7681 3.5655 2.3031
5.6397 3.7855 2.3031
5.5026 4.0008 2.3031
5.1978 4.0857 2.2346
4.8484 4.1143 2.1460
4.6696 4.2737 2.1331
4.8725 4.8072 2.3031
4.6955 4.9934 2.3031
4.5112 5.1728 2.3031
4.3198 5.3451 2.3031
4.1217 5.5100 2.3031
3.9171 5.6672 2.3031
3.7063 5.8165 2.3031
0.8011 1.3677 0.5287
0.7494 1.3969 0.5283
0.6967 1.4241 0.5278
0.6429 1.4493 0.5274
0.5883 1.4725 0.5270
0.5328 1.4936 0.5267
0.4765 1.5126 0.5263
0.4196 1.5295 0.5260
0.3621 1.5442 0.5258
0.3041 1.5567 0.5256
0.2456 1.5671 0.5254
0.1868 1.5752 0.5252
0.1278 1.5811 0.5251
0.0685 1.5848 0.5250
0.0092 1.5863 0.5250
-0.0502 1.5855 0.5250
-0.1095 1.5825 0.5250
-0.1686 1.5773 0.5250
-0.2275 1.5699 0.5251
-0.2861 1.5602 0.5252
-0.3442 1.5484 0.5254
-0.4019 1.5343 0.5256
-0.4590 1.5182 0.5258
-0.5155 1.4998 0.5261
-0.5712 1.4794 0.5264
-0.6262 1.4569 0.5267
-0.6802 1.4323 0.5271
-0.7333 1.4057 0.5275
-0.7853 1.3772 0.5279
-3.8089 6.1337 2.4064
-4.0318 5.9807 2.4064
-4.2484 5.8193 2.4064
-4.4582 5.6497 2.4064
-4.6612 5.4722 2.4064
-4.8568 5.2871 2.4064
-5.0449 5.0948 2.4064
-5.2251 4.8956 2.4064
-5.3973 4.6897 2.4064
-5.5612 4.4776 2.4064
-5.7165 4.2596 2.4064
-5.8632 4.0361 2.4064
-6.0009 3.8073 2.4064
-6.1295 3.5738 2.4064
-6.2488 3.3358 2.4064
-6.2829 3.0569 2.3777
-6.2866 2.7720 2.3421
-6.2945 2.4978 2.3125
-6.3471 2.2468 2.3033
-6.4154 2.0033 2.3033
-6.4803 1.7594 2.3054
-6.5238 1.5106 2.3033
-6.5637 1.2622 2.3033
-6.5941 1.0128 2.3033
-6.6151 0.7628 2.3033
-6.6266 0.5127 2.3033
-6.6286 0.2627 2.3033
-6.6212 0.0133 2.3033
-6.6045 -0.2353 2.3033
-6.5786 -0.4827 2.3033
-6.5434 -0.7284 2.3033
-6.4992 -0.9723 2.3033
-6.4459 -1.2140 2.3033
-6.3838 -1.4531 2.3033
-6.3130 -1.6894 2.3033
-6.2842 -1.9381 2.3220
-6.2847 -2.2007 2.3554
-6.2857 -2.4707 2.3932
-6.2113 -2.7159 2.4064
-5.8871 -2.8418 2.4064
-5.7663 -3.0567 2.4064
-5.6379 -3.2667 2.4064
-5.5020 -3.4716 2.4064
-5.3589 -3.6710 2.4064
-5.2087 -3.8648 2.4064
-5.0518 -4.0527 2.4064
-4.8883 -4.2345 2.4064
-4.7185 -4.4100 2.4064
-4.5425 -4.5790 2.4064
-4.3608 -4.7412 2.4064
-4.1735 -4.8965 2.4064
-3.9809 -5.0447 2.4064
-3.7832 -5.1857 2.4064
-3.5807 -5.3193 2.4064
-3.3737 -5.4453 2.4064
-3.1624 -5.5636 2.4064
-2.9472 -5.6740 2.4064
-2.7283 -5.7766 2.4064
-2.5060 -5.8710 2.4064
-2.2806 -5.9573 2.4064
-2.0523 -6.0354 2.4064
-1.8215 -6.1051 2.4064
-1.5885 -6.1663 2.4064
-1.3535 -6.2191 2.4064
-1.1168 -6.2634 2.4064
-0.8788 -6.2991 2.4064
-0.6397 -6.3262 2.4064
-0.3998 -6.3446 2.4064
-0.1595 -6.3543 2.4064
0.0810 -6.3554 2.4064
0.3214 -6.3479 2.4064
0.5614 -6.3316 2.4064
0.8006 -6.3067 2.4064
1.0389 -6.2732 2.4064
1.2758 -6.2311 2.4064
1.5111 -6.1805 2.4064
1.7270 -6.0600 2.3823
1.8911 -5.7945 2.3033
2.1100 -5.7219 2.3033
2.3263 -5.6413 2.3033
2.5396 -5.5530 2.3033
2.7498 -5.4569 2.3033
2.9564 -5.3532 2.3033
3.1594 -5.2421 2.3032
3.3583 -5.1235 2.3032
2.2121 -3.1116 1.4340
2.3028 -2.9929 1.4170
2.3242 -2.7954 1.3626
2.5094 -2.7961 1.4066
4.2838 -4.4251 2.3032
4.4534 -4.2654 2.3032
4.6172 -4.0994 2.3032
4.7750 -3.9273 2.3032
4.9267 -3.7494 2.3032
5.0719 -3.5659 2.3032
5.2104 -3.3769 2.3032
5.3422 -3.1826 2.3032
5.4668 -2.9834 2.3031
5.5843 -2.7795 2.3031
5.6943 -2.5711 2.3031
5.9056 -2.4027 2.3464
6.0020 -2.1821 2.3464
6.0903 -1.9577 2.3464
6.1704 -1.7298 2.3464
6.2421 -1.4987 2.3464
6.3053 -1.2648 2.3464
6.3598 -1.0283 2.3464
6.4055 -0.7896 2.3464
6.4424 -0.5490 2.3464
6.4703 -0.3067 2.3464
6.4892 -0.0632 2.3464
6.4989 0.1813 2.3464
6.4994 0.4264 2.3464
6.4908 0.6717 2.3464
6.4728 0.9169 2.3464
6.4456 1.1616 2.3464
6.4091 1.4056 2.3464
6.3633 1.6484 2.3464
6.3083 1.8896 2.3464
6.2441 2.1290 2.3464
6.1706 2.3661 2.3464
6.0881 2.6006 2.3464
5.9966 2.8321 2.3464
5.8961 3.0604 2.3464
5.6801 3.2243 2.3031
5.5643 3.4407 2.3031
5.4401 3.6529 2.3031
5.3076 3.8603 2.3031
5.1671 4.0629 2.3031
4.8509 4.1177 2.2262
4.6732 4.2783 2.2135
4.6989 4.6372 2.3031
4.5280 4.8166 2.3031
4.3501 4.9894 2.3031
4.1654 5.1553 2.3031
3.9742 5.3141 2.3031
3.7767 5.4655 2.3031
0.8222 1.2907 0.5300
0.7734 1.3207 0.5295
0.7235 1.3489 0.5290
0.6726 1.3752 0.5286
0.6207 1.3995 0.5282
0.5679 1.4219 0.5278
0.5144 1.4422 0.5275
0.4601 1.4606 0.5271
0.4051 1.4769 0.5269
0.3496 1.4911 0.5266
0.2936 1.5032 0.5264
0.2371 1.5132 0.5262
0.1804 1.5210 0.5261
0.1233 1.5268 0.5260
0.0661 1.5303 0.5259
0.0088 1.5318 0.5258
-0.0485 1.5310 0.5258
-0.1057 1.5281 0.5258
-0.1628 1.5231 0.5259
-0.2196 1.5159 0.5260
-0.2762 1.5066 0.5261
-0.3324 1.4951 0.5262
-0.3880 1.4816 0.5264
-0.4432 1.4660 0.5266
-0.4977 1.4483 0.5269
-0.5515 1.4285 0.5272
-0.6045 1.4068 0.5275
-0.6567 1.3831 0.5278
-0.7079 1.3574 0.5282
-0.7582 1.3299 0.5286
-0.8074 1.3004 0.5291
-3.8872 5.7675 2.4064
-4.0961 5.6120 2.4064
-4.2986 5.4487 2.4064
-4.4944 5.2777 2.4064
-4.6832 5.0995 2.4064
-4.8648 4.9143 2.4064
-5.0389 4.7223 2.4064
-5.2051 4.5240 2.4064
-5.3634 4.3197 2.4064
-5.5135 4.1096 2.4064
-5.6552 3.8942 2.4064
-5.7883 3.6738 2.4064
-5.9127 3.4487 2.4064
-6.0281 3.2193 2.4064
-6.1345 2.9860 2.4064
-6.2318 2.7492 2.4064
-6.2850 2.4953 2.3932
-6.2861 2.2264 2.3641
-6.2901 1.9654 2.3403
-6.2955 1.7105 2.3209
-6.3002 1.4601 2.3049
-6.3347 1.2194 2.3033
-6.3645 0.9787 2.3033
-6.3851 0.7375 2.3033
-6.3965 0.4961 2.3033
-6.3988 0.2549 2.3033
-6.3921 0.0140 2.3033
-6.3764 -0.2259 2.3033
-6.3516 -0.4648 2.3033
-6.3181 -0.7021 2.3033
-6.2894 -0.9397 2.3083
-6.2808 -1.1817 2.3241
-6.2817 -1.4286 2.3469
-6.2827 -1.6800 2.3735
-6.2836 -1.9366 2.4039
-6.2017 -2.1703 2.4064
-6.1050 -2.3983 2.4064
-6.0001 -2.6223 2.4064
-5.6923 -2.7465 2.4064
-5.5757 -2.9544 2.4064
-5.4518 -3.1577 2.4064
-5.3206 -3.3559 2.4064
-5.1824 -3.5489 2.4064
-5.0375 -3.7365 2.4064
-4.8859 -3.9184 2.4064
-4.7280 -4.0944 2.4064
-4.5639 -4.2643 2.4064
-4.3939 -4.4279 2.4064
-4.2183 -4.5849 2.4064
-4.0372 -4.7353 2.4064
-3.8510 -4.8789 2.4064
-3.6599 -5.0154 2.4064
-3.4641 -5.1448 2.4064
-3.2640 -5.2669 2.4064
-3.0597 -5.3815 2.4064
-2.8515 -5.4885 2.4064
-2.6398 -5.5878 2.4064
-2.4247 -5.6793 2.4064
-2.2067 -5.7630 2.4064
-1.9859 -5.8386 2.4064
-1.7626 -5.9061 2.4064
-1.5371 -5.9655 2.4064
-1.3097 -6.0167 2.4064
-1.0807 -6.0596 2.4064
-0.8504 -6.0942 2.4064
-0.6190 -6.1204 2.4064
-0.3869 -6.1383 2.4064
-0.1544 -6.1477 2.4064
0.0784 -6.1488 2.4064
0.3110 -6.1414 2.4064
0.5432 -6.1257 2.4064
0.7747 -6.1016 2.4064
1.0052 -6.0691 2.4064
1.2345 -6.0284 2.4064
1.4622 -5.9793 2.4064
1.6880 -5.9220 2.4064
1.8298 -5.6057 2.3033
2.0416 -5.5354 2.3033
2.2509 -5.4574 2.3033
2.4572 -5.3718 2.3033
2.6605 -5.2787 2.3033
2.8604 -5.1783 2.3033
3.0567 -5.0706 2.3033
3.2491 -4.9557 2.3032
2.2121 -3.1109 1.4823
2.2359 -2.9052 1.4221
2.3248 -2.7954 1.4089
2.5100 -2.7961 1.4545
4.1439 -4.2794 2.3032
4.3078 -4.1247 2.3032
4.4661 -3.9640 2.3032
4.6185 -3.7975 2.3032
4.7650 -3.6253 2.3032
4.9052 -3.4475 2.3032
5.0390 -3.2646 2.3032
5.1662 -3.0766 2.3032
5.2865 -2.8839 2.3032
5.3999 -2.6865 2.3032
5.5060 -2.4849 2.3031
5.6047 -2.2792 2.3031
5.6959 -2.0696 2.3031
5.8880 -1.8915 2.3464
5.9652 -1.6710 2.3464
6.0342 -1.4476 2.3464
6.0949 -1.2214 2.3464
6.1473 -0.9927 2.3464
6.1912 -0.7620 2.3464
6.2265 -0.5293 2.3464
6.2531 -0.2952 2.3464
6.2710 -0.0598 2.3464
6.2801 0.1764 2.3464
6.2802 0.4132 2.3464
6.2715 0.6502 2.3464
6.2538 0.8871 2.3464
6.2272 1.1235 2.3464
6.1916 1.3591 2.3464
6.1470 1.5936 2.3464
6.0936 1.8265 2.3464
6.0312 2.0576 2.3464
5.9599 2.2865 2.3464
5.7715 2.4666 2.3031
5.6844 2.6859 2.3031
5.5889 2.9021 2.3031
5.4850 3.1148 2.3031
5.3729 3.3236 2.3031
5.2527 3.5283 2.3031
5.1245 3.7285 2.3031
4.9886 3.9238 2.3031
4.8451 4.1140 2.3031
4.6753 4.2815 2.2939
4.5360 4.4777 2.3031
4.3708 4.6507 2.3031
4.1989 4.8173 2.3031
4.0205 4.9772 2.3031
3.8358 5.1303 2.3031
3.6451 5.2763 2.3031
0.7946 1.2475 0.5306
0.7474 1.2765 0.5302
0.6991 1.3038 0.5297
0.6499 1.3291 0.5293
0.5998 1.3527 0.5289
0.5488 1.3743 0.5285
0.4970 1.3940 0.5282
0.4446 1.4117 0.5279
0.3915 1.4274 0.5276
0.3378 1.4412 0.5274
0.2837 1.4529 0.5272
0.2291 1.4625 0.5270
0.1743 1.4701 0.5269
0.1192 1.4756 0.5268
0.0639 1.4791 0.5267
0.0085 1.4805 0.5266
-0.0468 1.4797 0.5266
-0.1021 1.4770 0.5266
-0.1573 1.4721 0.5267
-0.2123 1.4651 0.5268
-0.2669 1.4561 0.5269
-0.3212 1.4451 0.5270
-0.3750 1.4320 0.5272
-0.4283 1.4169 0.5274
-0.4809 1.3998 0.5277
-0.5329 1.3807 0.5279
-0.5842 1.3597 0.5282
-0.6346 1.3368 0.5286
-0.6841 1.3120 0.5289
-0.7327 1.2854 0.5293
-0.7802 1.2569 0.5298
-0.8266 1.2267 0.5302
-3.9533 5.4176 2.4064
-4.1489 5.2601 2.4064
-4.3380 5.0953 2.4064
-4.5204 4.9235 2.4064
-4.6959 4.7449 2.4064
-4.8641 4.5598 2.4064
-5.0248 4.3686 2.4064
-5.1778 4.1715 2.4064
-5.3230 3.9689 2.4064
-5.4600 3.7611 2.4064
-5.5888 3.5484 2.4064
-5.7091 3.3313 2.4064
-5.8209 3.1099 2.4064
-5.9239 2.8848 2.4064
-6.0182 2.6562 2.4064
-6.1034 2.4245 2.4064
-6.1797 2.1900 2.4064
-6.2469 1.9532 2.4064
-6.2880 1.7097 2.3999
-6.2890 1.4588 2.3819
-6.2900 1.2120 2.3675
-6.2909 0.9687 2.3566
-6.2927 0.7281 2.3495
-6.2944 0.4895 2.3459
-6.2955 0.2520 2.3453
-6.2958 0.0151 2.3477
-6.2771 -0.2212 2.3464
-6.2780 -0.4581 2.3557
-6.2789 -0.6965 2.3685
-6.2798 -0.9370 2.3847
-6.2807 -1.1804 2.4045
-6.2259 -1.4147 2.4064
-6.1575 -1.6452 2.4064
-6.0806 -1.8728 2.4064
-5.9956 -2.0969 2.4064
-5.9024 -2.3175 2.4064
-5.8012 -2.5341 2.4064
-5.5084 -2.6566 2.4064
-5.3959 -2.8579 2.4064
-5.2762 -3.0547 2.4064
-5.1495 -3.2467 2.4064
-5.0160 -3.4337 2.4064
-4.8758 -3.6154 2.4064
-4.7293 -3.7916 2.4064
-4.5766 -3.9621 2.4064
-4.4180 -4.1267 2.4064
-4.2536 -4.2852 2.4064
-4.0837 -4.4374 2.4064
-3.9086 -4.5832 2.4064
-3.7284 -4.7223 2.4064
-3.5435 -4.8547 2.4064
-3.3540 -4.9800 2.4064
-3.1603 -5.0984 2.4064
-2.9626 -5.2095 2.4064
-2.7611 -5.3132 2.4064
-2.5561 -5.4095 2.4064
-2.3480 -5.4983 2.4064
-2.1369 -5.5793 2.4064
-1.9231 -5.6526 2.4064
-1.7069 -5.7181 2.4064
-1.4885 -5.7757 2.4064
-1.2684 -5.8253 2.4064
-1.0466 -5.8670 2.4064
-0.8236 -5.9005 2.4064
-0.5995 -5.9260 2.4064
-0.3748 -5.9433 2.4064
-0.1495 -5.9525 2.4064
0.0759 -5.9535 2.4064
0.3011 -5.9464 2.4064
0.5260 -5.9312 2.4064
0.7502 -5.9078 2.4064
0.9735 -5.8763 2.4064
1.1955 -5.8368 2.4064
1.4159 -5.7892 2.4064
1.6346 -5.7337 2.4064
1.7719 -5.4274 2.3033
1.9770 -5.3592 2.3033
2.1796 -5.2835 2.3033
2.3794 -5.2006 2.3033
2.5762 -5.1104 2.3033
2.7697 -5.0130 2.3033
2.9597 -4.9086 2.3033
3.1459 -4.7973 2.3032
2.2121 -3.1102 1.5309
2.2130 -2.8748 1.4538
2.3253 -2.7954 1.4556
2.5107 -2.7961 1.5027
4.0117 -4.1418 2.3032
4.1703 -3.9919 2.3032
4.3233 -3.8362 2.3032
4.4708 -3.6749 2.3032
4.6124 -3.5080 2.3032
4.7480 -3.3359 2.3032
4.8773 -3.1587 2.3032
5.0002 -2.9766 2.3032
5.1164 -2.7899 2.3032
5.2259 -2.5988 2.3032
5.3283 -2.4036 2.3032
5.4236 -2.2044 2.3032
5.5117 -2.0015 2.3031
5.5922 -1.7953 2.3031
5.6652 -1.5859 2.3031
5.7304 -1.3736 2.3031
5.8966 -1.1805 2.3464
5.9469 -0.9592 2.3464
5.9891 -0.7359 2.3464
6.0229 -0.5108 2.3464
6.0484 -0.2843 2.3464
6.0654 -0.0566 2.3464
6.0738 0.1719 2.3464
6.0737 0.4008 2.3464
6.0649 0.6300 2.3464
6.0475 0.8591 2.3464
6.0215 1.0876 2.3464
5.9867 1.3154 2.3464
5.9433 1.5420 2.3464
5.8913 1.7671 2.3464
5.7232 1.9538 2.3031
5.6553 2.1709 2.3031
5.5791 2.3856 2.3031
5.4947 2.5975 2.3031
5.4020 2.8063 2.3031
5.3014 3.0118 2.3031
5.1928 3.2135 2.3031
5.0764 3.4111 2.3031
4.9523 3.6044 2.3031
4.8207 3.7930 2.3031
4.6818 3.9766 2.3031
4.5358 4.1550 2.3031
4.3828 4.3277 2.3031
4.2230 4.4947 2.3031
4.0568 4.6554 2.3031
3.8842 4.8098 2.3031
3.7057 4.9576 2.3031
0.8130 1.1771 0.5317
0.7684 1.2068 0.5312
0.7228 1.2349 0.5308
0.6762 1.2612 0.5304
0.6286 1.2858 0.5300
0.5801 1.3085 0.5296
0.5308 1.3294 0.5292
0.4807 1.3485 0.5289
0.4300 1.3656 0.5286
0.3786 1.3808 0.5284
0.3267 1.3941 0.5281
0.2744 1.4054 0.5279
0.2216 1.4148 0.5277
0.1686 1.4221 0.5276
0.1153 1.4275 0.5275
0.0618 1.4308 0.5274
0.0083 1.4321 0.5274
-0.0453 1.4314 0.5274
-0.0988 1.4287 0.5274
-0.1522 1.4240 0.5274
-0.2053 1.4173 0.5275
-0.2581 1.4086 0.5276
-0.3106 1.3979 0.5278
-0.3627 1.3852 0.5279
-0.4142 1.3706 0.5281
-0.4652 1.3541 0.5284
-0.5154 1.3357 0.5286
-0.5650 1.3154 0.5289
-0.6138 1.2932 0.5293
-0.6617 1.2692 0.5296
-0.7086 1.2434 0.5300
-0.7546 1.2159 0.5304
-0.7995 1.1867 0.5308
-3.8190 5.2348 2.4064
-4.0081 5.0829 2.4064
-4.1910 4.9238 2.4064
-4.3673 4.7580 2.4064
-4.5370 4.5856 2.4064
-4.6997 4.4069 2.4064
-4.8552 4.2223 2.4064
-5.0032 4.0320 2.4064
-5.1437 3.8365 2.4064
-5.2764 3.6358 2.4064
-5.4010 3.4305 2.4064
-5.5176 3.2207 2.4064
-5.6259 3.0070 2.4064
-5.7257 2.7895 2.4064
-5.8171 2.5687 2.4064
-5.8998 2.3448 2.4064
-5.9738 2.1183 2.4064
-6.0391 1.8895 2.4064
-6.0955 1.6586 2.4064
-6.1430 1.4261 2.4064
-6.1816 1.1924 2.4064
-6.2113 0.9577 2.4064
-6.2321 0.7223 2.4064
-6.2439 0.4868 2.4064
-6.2469 0.2513 2.4064
-6.2410 0.0162 2.4064
-6.2263 -0.2181 2.4064
-6.2028 -0.4514 2.4064
-6.1707 -0.6833 2.4064
-6.1299 -0.9134 2.4064
-6.0807 -1.1416 2.4064
-6.0231 -1.3674 2.4064
-5.9572 -1.5905 2.4064
-5.8832 -1.8107 2.4064
-5.8011 -2.0277 2.4064
-5.7112 -2.2412 2.4064
-5.6136 -2.4509 2.4064
-5.3347 -2.5716 2.4064
-5.2259 -2.7667 2.4064
-5.1102 -2.9574 2.4064
-4.9877 -3.1435 2.4064
-4.8585 -3.3247 2.4064
-4.7230 -3.5009 2.4064
-4.5812 -3.6717 2.4064
-4.4335 -3.8370 2.4064
-4.2800 -3.9966 2.4064
-4.1208 -4.1503 2.4064
-3.9564 -4.2979 2.4064
-3.7868 -4.4392 2.4064
-3.6124 -4.5742 2.4064
-3.4333 -4.7025 2.4064
-3.2499 -4.8242 2.4064
-3.0622 -4.9389 2.4064
-2.8707 -5.0467 2.4064
-2.6756 -5.1473 2.4064
-2.4770 -5.2408 2.4064
-2.2753 -5.3269 2.4064
-2.0708 -5.4055 2.4064
-1.8636 -5.4767 2.4064
-1.6541 -5.5402 2.4064
-1.4426 -5.5961 2.4064
-1.2292 -5.6443 2.4064
-1.0143 -5.6847 2.4064
-0.7982 -5.7172 2.4064
-0.5811 -5.7419 2.4064
-0.3632 -5.7588 2.4064
-0.1450 -5.7677 2.4064
0.0735 -5.7687 2.4064
0.2918 -5.7618 2.4064
0.5098 -5.7470 2.4064
0.7270 -5.7243 2.4064
0.9434 -5.6938 2.4064
1.1585 -5.6554 2.4064
1.3722 -5.6093 2.4064
1.5841 -5.5555 2.4064
1.7361 -5.3167 2.3288
1.9159 -5.1924 2.3033
2.1122 -5.1190 2.3033
2.3058 -5.0385 2.3033
2.4964 -4.9510 2.3033
2.6839 -4.8566 2.3033
2.8679 -4.7553 2.3033
3.0483 -4.6474 2.3033
2.2121 -3.1094 1.5800
2.2130 -2.8741 1.5004
2.3259 -2.7954 1.5027
2.5113 -2.7961 1.5514
3.8867 -4.0116 2.3032
4.0402 -3.8663 2.3032
4.1883 -3.7154 2.3032
4.3310 -3.5589 2.3032
4.4681 -3.3971 2.3032
4.5992 -3.2303 2.3032
4.7243 -3.0585 2.3032
4.8432 -2.8821 2.3032
4.9556 -2.7011 2.3032
5.0614 -2.5159 2.3032
5.1604 -2.3267 2.3032
5.2525 -2.1337 2.3032
5.3375 -1.9372 2.3032
5.4153 -1.7373 2.3032
5.4857 -1.5345 2.3031
5.5486 -1.3289 2.3031
5.6039 -1.1208 2.3031
5.6515 -0.9104 2.3031
5.6913 -0.6982 2.3031
5.7232 -0.4843 2.3031
5.7471 -0.2690 2.3031
5.7630 -0.0527 2.3031
5.7707 0.1644 2.3031
5.7703 0.3820 2.3031
5.7617 0.5997 2.3031
5.7449 0.8172 2.3031
5.7198 1.0343 2.3031
5.6866 1.2506 2.3031
5.6451 1.4658 2.3031
5.5954 1.6795 2.3031
5.5376 1.8916 2.3031
5.4716 2.1016 2.3031
5.3976 2.3091 2.3031
5.3157 2.5141 2.3031
5.2258 2.7160 2.3031
5.1282 2.9146 2.3031
5.0229 3.1096 2.3031
4.9101 3.3006 2.3031
4.7899 3.4874 2.3031
4.6625 3.6697 2.3031
4.5279 3.8471 2.3031
4.3865 4.0194 2.3031
4.2384 4.1864 2.3031
4.0838 4.3476 2.3031
3.9228 4.5030 2.3031
3.7559 4.6521 2.3031
0.8289 1.1092 0.5328
0.7869 1.1396 0.5323
0.7438 1.1684 0.5318
0.6996 1.1956 0.5314
0.6545 1.2211 0.5310
0.6084 1.2448 0.5306
0.5615 1.2668 0.5302
0.5137 1.2871 0.5299
0.4653 1.3055 0.5296
0.4162 1.3221 0.5293
0.3665 1.3368 0.5290
0.3162 1.3497 0.5288
0.2656 1.3606 0.5286
0.2145 1.3697 0.5285
0.1631 1.3768 0.5283
0.1116 1.3820 0.5282
0.0598 1.3852 0.5281
0.0080 1.3865 0.5281
-0.0439 1.3858 0.5281
-0.0956 1.3832 0.5281
-0.1473 1.3786 0.5281
-0.1987 1.3721 0.5282
-0.2499 1.3637 0.5283
-0.3007 1.3534 0.5285
-0.3511 1.3411 0.5286
-0.4009 1.3270 0.5288
-0.4502 1.3110 0.5291
-0.4989 1.2931 0.5293
-0.5469 1.2735 0.5296
-0.5941 1.2520 0.5299
-0.6405 1.2288 0.5303
-0.6859 1.2038 0.5306
-0.7304 1.1772 0.5310
-0.7738 1.1489 0.5314
-0.8162 1.1190 0.5319
-3.8755 4.9159 2.4064
-4.0524 4.7622 2.4064
-4.2231 4.6020 2.4064
-4.3873 4.4355 2.4064
-4.5448 4.2629 2.4064
-4.6953 4.0845 2.4064
-4.8387 3.9007 2.4064
-4.9747 3.7116 2.4064
-5.1032 3.5177 2.4064
-5.2240 3.3193 2.4064
-5.3370 3.1166 2.4064
-5.4420 2.9099 2.4064
-5.5388 2.6997 2.4064
-5.6275 2.4862 2.4064
-5.7077 2.2697 2.4064
-5.7796 2.0507 2.4064
-5.8430 1.8293 2.4064
-5.8979 1.6061 2.4064
-5.9442 1.3812 2.4064
-5.9818 1.1550 2.4064
-6.0109 0.9279 2.4064
-6.0312 0.7003 2.4064
-6.0430 0.4723 2.4064
-6.0462 0.2444 2.4064
-6.0407 0.0169 2.4064
-6.0268 -0.2100 2.4064
-6.0044 -0.4358 2.4064
-5.9735 -0.6603 2.4064
-5.9344 -0.8831 2.4064
-5.8870 -1.1040 2.4064
-5.8315 -1.3227 2.4064
-5.7680 -1.5388 2.4064
-5.6966 -1.7521 2.4064
-5.6174 -1.9623 2.4064
-5.5306 -2.1691 2.4064
-5.4363 -2.3723 2.4064
-5.1701 -2.4911 2.4064
-5.0650 -2.6803 2.4064
-4.9530 -2.8653 2.4064
-4.8344 -3.0458 2.4064
-4.7094 -3.2215 2.4064
-4.5782 -3.3924 2.4064
-4.4410 -3.5581 2.4064
-4.2979 -3.7184 2.4064
-4.1492 -3.8733 2.4064
-3.9951 -4.0224 2.4064
-3.8358 -4.1657 2.4064
-3.6715 -4.3028 2.4064
-3.5025 -4.4338 2.4064
-3.3289 -4.5583 2.4064
-3.1511 -4.6764 2.4064
-2.9693 -4.7878 2.4064
-2.7836 -4.8924 2.4064
-2.5944 -4.9901 2.4064
-2.4020 -5.0808 2.4064
-2.2064 -5.1644 2.4064
-2.0081 -5.2408 2.4064
-1.8073 -5.3098 2.4064
-1.6041 -5.3715 2.4064
-1.3990 -5.4258 2.4064
-1.1921 -5.4726 2.4064
-0.9837 -5.5118 2.4064
-0.7741 -5.5434 2.4064
-0.5636 -5.5674 2.4064
-0.3523 -5.5838 2.4064
-0.1406 -5.5924 2.4064
0.0712 -5.5934 2.4064
0.2830 -5.5867 2.4064
0.4943 -5.5724 2.4064
0.7050 -5.5504 2.4064
0.9149 -5.5207 2.4064
1.1235 -5.4835 2.4064
1.3307 -5.4387 2.4064
1.5362 -5.3864 2.4064
1.7299 -5.2967 2.3928
1.8579 -5.0343 2.3033
2.0482 -4.9631 2.3033
2.2359 -4.8849 2.3033
2.4208 -4.8000 2.3033
2.6025 -4.7083 2.3033
2.7809 -4.6100 2.3033
2.9557 -4.5052 2.3033
2.2121 -3.1087 1.6295
2.2130 -2.8734 1.5475
2.3265 -2.7954 1.5503
2.5120 -2.7961 1.6006
3.7683 -3.8883 2.3032
3.9169 -3.7473 2.3032
4.0604 -3.6008 2.3032
4.1987 -3.4490 2.3032
4.3313 -3.2921 2.3032
4.4583 -3.1302 2.3032
4.5794 -2.9636 2.3032
4.6944 -2.7925 2.3032
4.8032 -2.6170 2.3032
4.9056 -2.4374 2.3032
5.0013 -2.2539 2.3032
5.0904 -2.0668 2.3032
5.1726 -1.8762 2.3032
5.2477 -1.6825 2.3032
5.3157 -1.4858 2.3032
5.3765 -1.2865 2.3032
5.4298 -1.0848 2.3032
5.4757 -0.8810 2.3031
5.5140 -0.6753 2.3031
5.5447 -0.4681 2.3031
5.5676 -0.2595 2.3031
5.5827 -0.0499 2.3031
5.5899 0.1604 2.3031
5.5893 0.3711 2.3031
5.5807 0.5820 2.3031
5.5641 0.7926 2.3031
5.5396 1.0029 2.3031
5.5071 1.2123 2.3031
5.4667 1.4206 2.3031
5.4183 1.6275 2.3031
5.3621 1.8328 2.3031
5.2980 2.0360 2.3031
5.2261 2.2369 2.3031
5.1466 2.4352 2.3031
5.0594 2.6306 2.3031
4.9646 2.8228 2.3031
4.8625 3.0114 2.3031
4.7531 3.1962 2.3031
4.6366 3.3769 2.3031
4.5130 3.5532 2.3031
4.3826 3.7248 2.3031
4.2456 3.8915 2.3031
4.1020 4.0529 2.3031
3.9522 4.2088 2.3031
3.7964 4.3590 2.3031
3.6347 4.5032 2.3031
0.8029 1.0747 0.5333
0.7622 1.1042 0.5329
0.7205 1.1321 0.5324
0.6777 1.1584 0.5320
0.6340 1.1831 0.5316
0.5893 1.2061 0.5312
0.5439 1.2274 0.5308
0.4976 1.2470 0.5305
0.4507 1.2649 0.5302
0.4031 1.2809 0.5299
0.3550 1.2952 0.5297
0.3063 1.3077 0.5295
0.2572 1.3183 0.5293
0.2078 1.3270 0.5291
0.1580 1.3339 0.5290
0.1081 1.3389 0.5289
0.0579 1.3421 0.5288
0.0077 1.3433 0.5288
-0.0425 1.3427 0.5288
-0.0927 1.3401 0.5288
-0.1427 1.3357 0.5288
-0.1925 1.3294 0.5289
-0.2421 1.3212 0.5290
-0.2913 1.3112 0.5291
-0.3401 1.2994 0.5293
-0.3884 1.2857 0.5295
-0.4362 1.2702 0.5297
-0.4833 1.2529 0.5300
-0.5298 1.2338 0.5302
-0.5755 1.2130 0.5305
-0.6204 1.1906 0.5309
-0.6644 1.1664 0.5312
-0.7075 1.1406 0.5316
-0.7496 1.1132 0.5320
-0.7906 1.0842 0.5325
-0.8305 1.0537 0.5329
-3.9216 4.6097 2.4064
-4.0869 4.4548 2.4064
-4.2460 4.2938 2.4064
-4.3985 4.1269 2.4064
-4.5444 3.9544 2.4064
-4.6833 3.7766 2.4064
-4.8152 3.5937 2.4064
-4.9397 3.4062 2.4064
-5.0569 3.2142 2.4064
-5.1664 3.0181 2.4064
-5.2683 2.8182 2.4064
-5.3622 2.6148 2.4064
-5.4483 2.4082 2.4064
-5.5262 2.1987 2.4064
-5.5961 1.9867 2.4064
-5.6577 1.7725 2.4064
-5.7111 1.5564 2.4064
-5.7562 1.3387 2.4064
-5.7929 1.1198 2.4064
-5.8213 0.8999 2.4064
-5.8413 0.6794 2.4064
-5.8530 0.4587 2.4064
-5.8563 0.2379 2.4064
-5.8513 0.0175 2.4064
-5.8381 -0.2022 2.4064
-5.8166 -0.4210 2.4064
-5.7870 -0.6384 2.4064
-5.7494 -0.8544 2.4064
-5.7037 -1.0684 2.4064
-5.6502 -1.2803 2.4064
-5.5889 -1.4898 2.4064
-5.5199 -1.6966 2.4064
-5.4434 -1.9003 2.4064
-5.3595 -2.1009 2.4064
-5.2684 -2.2978 2.4064
-5.0141 -2.4147 2.4064
-4.9123 -2.5983 2.4064
-4.8038 -2.7778 2.4064
-4.6890 -2.9530 2.4064
-4.5680 -3.1236 2.4064
-4.4408 -3.2894 2.4064
-4.3079 -3.4503 2.4064
-4.1692 -3.6060 2.4064
-4.0251 -3.7563 2.4064
-3.8757 -3.9011 2.4064
-3.7213 -4.0401 2.4064
-3.5620 -4.1733 2.4064
-3.3981 -4.3005 2.4064
-3.2298 -4.4215 2.4064
-3.0574 -4.5361 2.4064
-2.8810 -4.6443 2.4064
-2.7010 -4.7459 2.4064
-2.5174 -4.8408 2.4064
-2.3307 -4.9289 2.4064
-2.1410 -5.0101 2.4064
-1.9486 -5.0843 2.4064
-1.7538 -5.1514 2.4064
-1.5567 -5.2114 2.4064
-1.3576 -5.2641 2.4064
-1.1569 -5.3095 2.4064
-0.9547 -5.3476 2.4064
-0.7513 -5.3783 2.4064
-0.5469 -5.4017 2.4064
-0.3419 -5.4175 2.4064
-0.1365 -5.4260 2.4064
0.0691 -5.4269 2.4064
0.2746 -5.4205 2.4064
0.4797 -5.4065 2.4064
0.6842 -5.3852 2.4064
0.8878 -5.3564 2.4064
1.0902 -5.3202 2.4064
1.2913 -5.2767 2.4064
1.4907 -5.2259 2.4064
1.6882 -5.1679 2.4064
1.8029 -4.8841 2.3033
1.9875 -4.8149 2.3033
2.1696 -4.7391 2.3033
2.3489 -4.6566 2.3033
2.5252 -4.5675 2.3033
