ply
format ascii 1.0
element vertex 2176
property float32 x
property float32 y
property float32 z
end_header
5.5221 -2.7850 2.3026
5.6225 -2.5752 2.3026
5.7149 -2.3617 2.3026
5.7991 -2.1450 2.3026
5.8752 -1.9252 2.3026
5.9428 -1.7028 2.3026
6.1148 -1.5057 2.3458
6.1665 -1.2746 2.3458
6.2094 -1.0417 2.3458
6.2435 -0.8074 2.3458
6.2688 -0.5719 2.3458
6.2852 -0.3357 2.3458
6.2926 -0.0991 2.3458
6.2912 0.1376 2.3458
6.2808 0.3740 2.3458
6.2615 0.6099 2.3458
6.2334 0.8448 2.3458
6.0822 1.0587 2.3026
6.0373 1.2865 2.3026
5.9839 1.5125 2.3026
5.9220 1.7362 2.3026
5.8518 1.9575 2.3026
5.7732 2.1759 2.3026
5.6866 2.3912 2.3026
5.5919 2.6030 2.3026
5.4893 2.8112 2.3026
5.3789 3.0152 2.3026
5.2610 3.2150 2.3026
5.1356 3.4102 2.3026
5.0031 3.6005 2.3026
4.8634 3.7856 2.3026
4.7170 3.9654 2.3026
4.5638 4.1395 2.3026
4.4043 4.3076 2.3026
4.2386 4.4697 2.3026
4.0669 4.6254 2.3026
3.8896 4.7745 2.3026
3.7067 4.9169 2.3026
3.5187 5.0523 2.3026
0.7951 1.2385 0.5505
0.7479 1.2676 0.5506
0.6997 1.2948 0.5506
0.6505 1.3202 0.5507
0.6004 1.3437 0.5507
0.5494 1.3653 0.5508
0.4976 1.3850 0.5508
0.4451 1.4027 0.5509
0.3920 1.4185 0.5509
0.3384 1.4322 0.5510
0.2842 1.4439 0.5510
0.2297 1.4535 0.5510
0.1749 1.4611 0.5511
0.1197 1.4667 0.5511
0.0645 1.4701 0.5511
0.0091 1.4715 0.5512
-0.0463 1.4708 0.5512
-0.1016 1.4680 0.5512
-0.1567 1.4631 0.5513
-0.2117 1.4562 0.5513
-0.2663 1.4472 0.5513
-0.3206 1.4361 0.5513
-0.3744 1.4230 0.5514
-0.4277 1.4079 0.5514
-0.4804 1.3908 0.5514
-0.5324 1.3718 0.5514
-0.5836 1.3508 0.5514
-0.6340 1.3278 0.5514
-0.6836 1.3030 0.5514
-0.7321 1.2764 0.5514
-0.7796 1.2479 0.5514
-0.8260 1.2177 0.5514
-3.8015 5.1737 2.4058
-3.9936 5.0271 2.4058
-4.1800 4.8734 2.4058
-4.3606 4.7128 2.4058
-4.5350 4.5455 2.4058
-4.7030 4.3718 2.4058
-4.8644 4.1919 2.4058
-5.0190 4.0060 2.4058
-5.1664 3.8146 2.4058
-5.3066 3.6177 2.4058
-5.4393 3.4156 2.4058
-5.5644 3.2087 2.4058
-5.6816 2.9973 2.4058
-5.7907 2.7816 2.4058
-5.8690 2.5520 2.3965
-5.8854 2.2999 2.3660
-5.9043 2.0547 2.3406
-5.9248 1.8150 2.3198
-5.9454 1.5792 2.3028
-6.0012 1.3545 2.3028
-6.0485 1.1279 2.3028
-6.0873 0.8996 2.3028
-6.1175 0.6700 2.3028
-6.1390 0.4394 2.3028
-6.1519 0.2081 2.3028
-6.1561 -0.0235 2.3028
-6.1516 -0.2551 2.3028
-6.1384 -0.4864 2.3028
-6.1165 -0.7171 2.3028
-6.1075 -0.9502 2.3109
-6.1187 -1.1892 2.3301
-6.1293 -1.4325 2.3528
-6.1457 -1.6825 2.3814
-6.1413 -1.9324 2.4058
-4.6363 -1.6530 1.8391
-4.2990 -1.7176 1.7295
-3.9991 -1.7750 1.6343
-3.7299 -1.8265 1.6038
-3.4865 -1.8731 1.5282
-3.2647 -1.9156 1.4613
-3.0612 -1.9545 1.4020
-2.8732 -1.9905 1.3491
-2.6987 -2.0239 1.3018
-2.7029 -2.1907 1.3425
-2.7433 -2.3999 1.4062
-2.7877 -2.6303 1.4785
-2.8371 -2.8862 1.5610
-2.8925 -3.1728 1.6558
-2.9551 -3.4971 1.7656
-3.0268 -3.8681 1.8938
-3.6581 -5.0557 2.4058
-3.4658 -5.1903 2.4058
-3.2685 -5.3176 2.4058
-3.0666 -5.4374 2.4058
-2.8602 -5.5495 2.4058
-2.6498 -5.6537 2.4058
-2.4356 -5.7500 2.4058
-2.2179 -5.8381 2.4058
-1.9970 -5.9179 2.4058
-1.7732 -5.9894 2.4058
-1.5468 -6.0524 2.4058
-1.3183 -6.1068 2.4058
-1.0878 -6.1526 2.4058
-0.8558 -6.1897 2.4058
-0.6225 -6.2179 2.4058
-0.3883 -6.2374 2.4058
-0.1535 -6.2480 2.4058
0.0816 -6.2498 2.4058
0.3165 -6.2427 2.4058
0.5511 -6.2267 2.4058
0.7848 -6.2019 2.4058
1.0175 -6.1683 2.4058
1.2488 -6.1259 2.4058
1.4783 -6.0749 2.4058
1.6523 -5.8267 2.3305
1.8619 -5.7352 2.3202
2.0606 -5.6184 2.3026
2.2704 -5.5370 2.3026
2.4770 -5.4478 2.3026
2.6801 -5.3509 2.3026
2.8794 -5.2464 2.3026
3.0746 -5.1344 2.3026
3.2655 -5.0151 2.3026
3.4517 -4.8888 2.3026
3.6330 -4.7554 2.3026
3.8092 -4.6154 2.3026
3.9799 -4.4688 2.3026
4.1450 -4.3159 2.3026
4.3042 -4.1568 2.3026
4.4572 -3.9919 2.3026
4.6040 -3.8213 2.3026
4.7442 -3.6453 2.3026
4.8776 -3.4642 2.3026
4.7359 -3.1024 2.1792
4.7479 -2.8611 2.1338
5.1451 -2.8424 2.2628
5.3403 -2.6934 2.3026
5.4374 -2.4905 2.3026
5.5268 -2.2841 2.3026
5.6083 -2.0745 2.3026
5.6818 -1.8620 2.3026
5.7473 -1.6468 2.3026
5.8046 -1.4294 2.3026
5.8537 -1.2100 2.3026
5.8945 -0.9889 2.3026
5.9269 -0.7665 2.3026
5.9509 -0.5430 2.3026
5.9664 -0.3188 2.3026
5.9735 -0.0942 2.3026
5.9722 0.1305 2.3026
5.9623 0.3550 2.3026
5.9441 0.5789 2.3026
5.9174 0.8019 2.3026
5.8823 1.0238 2.3026
5.8389 1.2441 2.3026
5.7873 1.4627 2.3026
5.7275 1.6791 2.3026
5.6595 1.8931 2.3026
5.5836 2.1043 2.3026
5.4998 2.3125 2.3026
5.4082 2.5175 2.3026
5.3090 2.7187 2.3026
5.2023 2.9161 2.3026
5.0883 3.1094 2.3026
4.9671 3.2981 2.3026
4.8388 3.4822 2.3026
4.7038 3.6613 2.3026
4.5622 3.8351 2.3026
4.4141 4.0035 2.3026
4.2598 4.1662 2.3026
4.0996 4.3230 2.3026
3.9336 4.4736 2.3026
3.7620 4.6178 2.3026
3.5852 4.7555 2.3026
0.8135 1.1681 0.5504
0.7690 1.1978 0.5505
0.7234 1.2259 0.5505
0.6767 1.2522 0.5506
0.6291 1.2768 0.5506
0.5806 1.2995 0.5507
0.5313 1.3204 0.5507
0.4813 1.3395 0.5508
0.4305 1.3566 0.5508
0.3792 1.3718 0.5509
0.3273 1.3851 0.5509
0.2749 1.3965 0.5510
0.2222 1.4058 0.5510
0.1691 1.4131 0.5510
0.1158 1.4185 0.5511
0.0624 1.4218 0.5511
0.0088 1.4232 0.5511
-0.0447 1.4225 0.5512
-0.0982 1.4198 0.5512
-0.1516 1.4150 0.5512
-0.2047 1.4083 0.5512
-0.2576 1.3996 0.5513
-0.3101 1.3889 0.5513
-0.3621 1.3763 0.5513
-0.4136 1.3617 0.5513
-0.4646 1.3451 0.5513
-0.5149 1.3267 0.5513
-0.5644 1.3064 0.5513
-0.6132 1.2842 0.5513
-0.6611 1.2602 0.5513
-0.7081 1.2344 0.5513
-0.7540 1.2069 0.5513
-0.7989 1.1777 0.5513
-3.6770 5.0043 2.4058
-3.8628 4.8624 2.4058
-4.0431 4.7137 2.4058
-4.2178 4.5584 2.4058
-4.3865 4.3966 2.4058
-4.5490 4.2285 2.4058
-4.7051 4.0545 2.4058
-4.8545 3.8748 2.4058
-4.9972 3.6895 2.4058
-5.1328 3.4991 2.4058
-5.2611 3.3037 2.4058
-5.3820 3.1035 2.4058
-5.4954 2.8990 2.4058
-5.6010 2.6904 2.4058
-5.6987 2.4779 2.4058
-5.7884 2.2619 2.4058
-5.8699 2.0427 2.4058
-5.9173 1.8126 2.3954
-5.9328 1.5758 2.3757
-5.9480 1.3424 2.3597
-5.9642 1.1121 2.3476
-5.9811 0.8838 2.3393
-5.9972 0.6567 2.3340
-6.0125 0.4303 2.3317
-6.0271 0.2038 2.3325
-6.0410 -0.0231 2.3363
-6.0543 -0.2511 2.3432
-6.0672 -0.4809 2.3532
-6.0823 -0.7132 2.3676
-6.0977 -0.9487 2.3855
-6.1101 -1.1877 2.4058
-6.0619 -1.4169 2.4058
-6.0051 -1.6441 2.4058
-5.9397 -1.8691 2.4058
-4.6362 -1.6530 1.9015
-4.2988 -1.7176 1.7881
-3.9990 -1.7750 1.6898
-3.7298 -1.8265 1.6569
-3.4865 -1.8731 1.5788
-3.2647 -1.9156 1.5097
-3.0611 -1.9546 1.4484
-2.8732 -1.9905 1.3938
-2.6986 -2.0240 1.3449
-2.7032 -2.1910 1.3871
-2.7435 -2.4002 1.4530
-2.7880 -2.6306 1.5277
-2.8375 -2.8866 1.6130
-2.8928 -3.1733 1.7110
-2.9555 -3.4977 1.8244
-3.0272 -3.8687 1.9569
-3.5406 -4.8935 2.4058
-3.3545 -5.0238 2.4058
-3.1635 -5.1470 2.4058
-2.9681 -5.2629 2.4058
-2.7683 -5.3713 2.4058
-2.5647 -5.4722 2.4058
-2.3573 -5.5654 2.4058
-2.1466 -5.6506 2.4058
-1.9328 -5.7279 2.4058
-1.7162 -5.7971 2.4058
-1.4971 -5.8580 2.4058
-1.2759 -5.9107 2.4058
-1.0528 -5.9550 2.4058
-0.8282 -5.9908 2.4058
-0.6024 -6.0182 2.4058
-0.3757 -6.0370 2.4058
-0.1485 -6.0473 2.4058
0.0790 -6.0490 2.4058
0.3064 -6.0421 2.4058
0.5334 -6.0266 2.4058
0.7597 -6.0026 2.4058
0.9849 -5.9701 2.4058
1.2087 -5.9291 2.4058
1.4308 -5.8796 2.4058
1.6476 -5.8104 2.4011
1.7885 -5.5088 2.3026
1.9944 -5.4378 2.3026
2.1975 -5.3591 2.3026
2.3974 -5.2727 2.3026
2.5940 -5.1789 2.3026
2.7869 -5.0777 2.3026
2.9758 -4.9694 2.3026
3.1605 -4.8539 2.3026
3.3408 -4.7316 2.3026
3.5162 -4.6026 2.3026
3.6867 -4.4671 2.3026
3.8520 -4.3252 2.3026
4.0117 -4.1772 2.3026
4.1658 -4.0232 2.3026
4.3140 -3.8636 2.3026
4.4560 -3.6985 2.3026
4.5917 -3.5282 2.3026
4.7209 -3.3529 2.3026
4.7381 -3.1039 2.2526
4.7520 -2.8637 2.2065
5.0674 -2.7996 2.3026
5.1687 -2.6069 2.3026
5.2627 -2.4105 2.3026
5.3492 -2.2107 2.3026
5.4281 -2.0079 2.3026
5.4993 -1.8022 2.3026
5.5627 -1.5940 2.3026
5.6182 -1.3836 2.3026
5.6657 -1.1712 2.3026
5.7052 -0.9572 2.3026
5.7366 -0.7420 2.3026
5.7598 -0.5256 2.3026
5.7749 -0.3086 2.3026
5.7818 -0.0912 2.3026
5.7805 0.1262 2.3026
5.7710 0.3435 2.3026
5.7533 0.5602 2.3026
5.7275 0.7761 2.3026
5.6936 0.9908 2.3026
5.6516 1.2041 2.3026
5.6016 1.4157 2.3026
5.5437 1.6251 2.3026
5.4780 1.8323 2.3026
5.4045 2.0367 2.3026
5.3234 2.2383 2.3026
5.2348 2.4367 2.3026
5.1388 2.6315 2.3026
5.0355 2.8226 2.3026
4.9252 3.0096 2.3026
4.8079 3.1923 2.3026
4.6838 3.3705 2.3026
4.5531 3.5439 2.3026
4.4160 3.7122 2.3026
4.2727 3.8752 2.3026
4.1234 4.0327 2.3026
3.9683 4.1844 2.3026
3.8076 4.3302 2.3026
3.6416 4.4699 2.3026
0.8295 1.1002 0.5503
0.7875 1.1306 0.5504
0.7444 1.1594 0.5504
0.7002 1.1866 0.5505
0.6551 1.2121 0.5506
0.6090 1.2358 0.5506
0.5620 1.2579 0.5507
0.5143 1.2781 0.5507
0.4658 1.2965 0.5507
0.4167 1.3131 0.5508
0.3670 1.3279 0.5508
0.3168 1.3407 0.5509
0.2661 1.3517 0.5509
0.2151 1.3607 0.5510
0.1637 1.3678 0.5510
0.1121 1.3730 0.5510
0.0604 1.3762 0.5511
0.0085 1.3775 0.5511
-0.0433 1.3768 0.5511
-0.0951 1.3742 0.5511
-0.1467 1.3697 0.5512
-0.1982 1.3632 0.5512
-0.2493 1.3547 0.5512
-0.3001 1.3444 0.5512
-0.3505 1.3321 0.5512
-0.4004 1.3180 0.5513
-0.4497 1.3020 0.5513
-0.4984 1.2841 0.5513
-0.5463 1.2645 0.5513
-0.5935 1.2430 0.5513
-0.6399 1.2198 0.5513
-0.6853 1.1949 0.5513
-0.7298 1.1682 0.5513
-0.7733 1.1399 0.5513
-0.8156 1.1100 0.5513
-3.7393 4.7069 2.4058
-3.9138 4.5629 2.4058
-4.0829 4.4126 2.4058
-4.2462 4.2559 2.4058
-4.4035 4.0932 2.4058
-4.5546 3.9248 2.4058
-4.6993 3.7508 2.4058
-4.8373 3.5715 2.4058
-4.9686 3.3871 2.4058
-5.0928 3.1979 2.4058
-5.2099 3.0042 2.4058
-5.3196 2.8062 2.4058
-5.4218 2.6043 2.4058
-5.5164 2.3986 2.4058
-5.6032 2.1895 2.4058
-5.6820 1.9772 2.4058
-5.7529 1.7622 2.4058
-5.8157 1.5446 2.4058
-5.8702 1.3248 2.4058
-5.9165 1.1031 2.4058
-5.9544 0.8798 2.4058
-5.9839 0.6552 2.4058
-6.0049 0.4296 2.4058
-6.0175 0.2034 2.4058
-6.0215 -0.0231 2.4058
-6.0171 -0.2497 2.4058
-6.0041 -0.4759 2.4058
-5.9827 -0.7016 2.4058
-5.9527 -0.9263 2.4058
-5.9144 -1.1497 2.4058
-5.8677 -1.3715 2.4058
-5.8126 -1.5915 2.4058
-5.7494 -1.8093 2.4058
-4.6361 -1.6530 1.9644
-4.2987 -1.7176 1.8473
-3.9989 -1.7750 1.7457
-3.7297 -1.8266 1.7104
-3.4864 -1.8731 1.6298
-3.2646 -1.9156 1.5585
-3.0611 -1.9546 1.4953
-2.8731 -1.9906 1.4389
-2.6986 -2.0240 1.3884
-2.7034 -2.1912 1.4322
-2.7438 -2.4005 1.5002
-2.7883 -2.6310 1.5774
-2.8378 -2.8870 1.6654
-2.8932 -3.1738 1.7666
-2.9559 -3.4982 1.8837
-3.6049 -4.6072 2.4058
-3.4295 -4.7401 2.4058
-3.2492 -4.8663 2.4058
-3.0642 -4.9856 2.4058
-2.8749 -5.0978 2.4058
-2.6814 -5.2029 2.4058
-2.4841 -5.3006 2.4058
-2.2833 -5.3908 2.4058
-2.0792 -5.4733 2.4058
-1.8720 -5.5482 2.4058
-1.6622 -5.6152 2.4058
-1.4501 -5.6742 2.4058
-1.2358 -5.7252 2.4058
-1.0197 -5.7681 2.4058
-0.8022 -5.8028 2.4058
-0.5835 -5.8293 2.4058
-0.3639 -5.8475 2.4058
-0.1438 -5.8574 2.4058
0.0766 -5.8590 2.4058
0.2968 -5.8524 2.4058
0.5167 -5.8374 2.4058
0.7358 -5.8141 2.4058
0.9540 -5.7826 2.4058
1.1707 -5.7429 2.4058
1.3859 -5.6950 2.4058
1.5991 -5.6390 2.4058
1.7323 -5.3358 2.3026
1.9318 -5.2670 2.3026
2.1284 -5.1908 2.3026
2.3221 -5.1071 2.3026
2.5125 -5.0163 2.3026
2.6993 -4.9183 2.3026
2.8824 -4.8133 2.3026
3.0613 -4.7015 2.3026
3.2358 -4.5830 2.3026
3.4058 -4.4581 2.3026
3.5709 -4.3268 2.3026
3.7310 -4.1894 2.3026
3.8857 -4.0460 2.3026
4.0350 -3.8969 2.3026
4.1785 -3.7423 2.3026
4.3161 -3.5824 2.3026
4.4475 -3.4175 2.3026
4.5726 -3.2477 2.3026
4.6912 -3.0733 2.3026
4.7543 -2.8651 2.2792
4.9083 -2.7117 2.3026
5.0064 -2.5251 2.3026
5.0975 -2.3349 2.3026
5.1813 -2.1414 2.3026
5.2577 -1.9449 2.3026
5.3267 -1.7457 2.3026
5.3881 -1.5440 2.3026
5.4419 -1.3402 2.3026
5.4879 -1.1345 2.3026
5.5261 -0.9273 2.3026
5.5566 -0.7187 2.3026
5.5791 -0.5092 2.3026
5.5937 -0.2990 2.3026
5.6004 -0.0885 2.3026
5.5992 0.1222 2.3026
5.5900 0.3326 2.3026
5.5729 0.5426 2.3026
5.5479 0.7517 2.3026
5.5151 0.9597 2.3026
5.4744 1.1663 2.3026
5.4260 1.3712 2.3026
5.3700 1.5741 2.3026
5.3063 1.7748 2.3026
5.2352 1.9728 2.3026
5.1566 2.1681 2.3026
5.0708 2.3602 2.3026
4.9778 2.5490 2.3026
4.8778 2.7341 2.3026
4.7709 2.9152 2.3026
4.6573 3.0923 2.3026
4.5371 3.2649 2.3026
4.4106 3.4328 2.3026
4.2778 3.5958 2.3026
4.1390 3.7538 2.3026
3.9944 3.9063 2.3026
3.8441 4.0534 2.3026
3.6885 4.1946 2.3026
3.5276 4.3299 2.3026
0.8035 1.0657 0.5503
0.7628 1.0952 0.5504
0.7210 1.1231 0.5504
0.6783 1.1494 0.5505
0.6345 1.1741 0.5505
0.5899 1.1971 0.5506
0.5444 1.2184 0.5506
0.4982 1.2380 0.5507
0.4513 1.2559 0.5507
0.4037 1.2719 0.5508
0.3555 1.2862 0.5508
0.3069 1.2987 0.5508
0.2578 1.3093 0.5509
0.2083 1.3180 0.5509
0.1586 1.3249 0.5509
0.1086 1.3299 0.5510
0.0585 1.3331 0.5510
0.0083 1.3343 0.5510
-0.0419 1.3337 0.5511
-0.0921 1.3311 0.5511
-0.1421 1.3267 0.5511
-0.1919 1.3204 0.5511
-0.2415 1.3123 0.5512
-0.2907 1.3022 0.5512
-0.3395 1.2904 0.5512
-0.3878 1.2767 0.5512
-0.4356 1.2612 0.5512
-0.4827 1.2439 0.5512
-0.5292 1.2248 0.5512
-0.5749 1.2041 0.5512
-0.6198 1.1816 0.5512
-0.6639 1.1574 0.5512
-0.7069 1.1316 0.5512
-0.7490 1.1042 0.5512
-0.7901 1.0752 0.5512
-0.8300 1.0447 0.5512
-3.7915 4.4203 2.4058
-3.9553 4.2746 2.4058
-4.1135 4.1229 2.4058
-4.2658 3.9653 2.4058
-4.4122 3.8021 2.4058
-4.5524 3.6335 2.4058
-4.6861 3.4598 2.4058
-4.8133 3.2812 2.4058
-4.9336 3.0979 2.4058
-5.0470 2.9102 2.4058
-5.1533 2.7184 2.4058
-5.2523 2.5228 2.4058
-5.3439 2.3235 2.4058
-5.4279 2.1209 2.4058
-5.5043 1.9153 2.4058
-5.5730 1.7070 2.4058
-5.6338 1.4962 2.4058
-5.6866 1.2833 2.4058
-5.7314 1.0685 2.4058
-5.7681 0.8522 2.4058
-5.7967 0.6346 2.4058
-5.8170 0.4161 2.4058
-5.8292 0.1970 2.4058
-5.8331 -0.0225 2.4058
-5.8287 -0.2419 2.4058
-5.8162 -0.4611 2.4058
-5.7954 -0.6797 2.4058
-5.7664 -0.8973 2.4058
-5.7292 -1.1138 2.4058
-5.6839 -1.3287 2.4058
-5.6306 -1.5418 2.4058
-5.5693 -1.7527 2.4058
-5.5001 -1.9612 2.4058
-4.2986 -1.7177 1.9070
-3.9987 -1.7751 1.8021
-3.7296 -1.8266 1.7645
-3.4863 -1.8732 1.6813
-3.2645 -1.9156 1.6078
-3.0610 -1.9546 1.5425
-2.8731 -1.9906 1.4843
-2.6985 -2.0240 1.4323
-2.7037 -2.1915 1.4777
-2.7441 -2.4008 1.5478
-2.7887 -2.6314 1.6275
-2.8381 -2.8874 1.7184
-2.8936 -3.1743 1.8228
-2.9563 -3.4988 1.9436
-3.4943 -4.4659 2.4058
-3.3242 -4.5947 2.4058
-3.1494 -4.7170 2.4058
-2.9701 -4.8326 2.4058
-2.7866 -4.9414 2.4058
-2.5991 -5.0432 2.4058
-2.4078 -5.1379 2.4058
-2.2131 -5.2253 2.4058
-2.0153 -5.3054 2.4058
-1.8145 -5.3779 2.4058
-1.6112 -5.4428 2.4058
-1.4055 -5.5000 2.4058
-1.1978 -5.5494 2.4058
-0.9883 -5.5910 2.4058
-0.7775 -5.6246 2.4058
-0.5655 -5.6503 2.4058
-0.3527 -5.6679 2.4058
-0.1393 -5.6775 2.4058
0.0743 -5.6791 2.4058
0.2878 -5.6726 2.4058
0.5009 -5.6581 2.4058
0.7133 -5.6355 2.4058
0.9247 -5.6050 2.4058
1.1348 -5.5665 2.4058
1.3433 -5.5201 2.4058
1.5500 -5.4658 2.4058
1.6940 -5.2177 2.3230
1.8724 -5.1052 2.3026
2.0631 -5.0313 2.3026
2.2508 -4.9502 2.3026
2.4353 -4.8622 2.3026
2.6164 -4.7672 2.3026
2.7938 -4.6654 2.3026
2.9672 -4.5571 2.3026
3.1364 -4.4422 2.3026
3.3012 -4.3211 2.3026
3.4612 -4.1939 2.3026
3.6164 -4.0607 2.3026
3.7664 -3.9217 2.3026
3.9110 -3.7772 2.3026
4.0501 -3.6274 2.3026
4.1835 -3.4724 2.3026
4.3109 -3.3125 2.3026
4.4321 -3.1479 2.3026
4.5471 -2.9789 2.3026
4.6556 -2.8057 2.3026
4.7575 -2.6285 2.3026
4.8527 -2.4476 2.3026
4.9409 -2.2632 2.3026
5.0222 -2.0757 2.3026
5.0963 -1.8852 2.3026
5.1631 -1.6921 2.3026
5.2227 -1.4967 2.3026
5.2748 -1.2991 2.3026
5.3194 -1.0998 2.3026
5.3565 -0.8989 2.3026
5.3860 -0.6967 2.3026
5.4079 -0.4937 2.3026
5.4220 -0.2899 2.3026
5.4286 -0.0858 2.3026
5.4274 0.1184 2.3026
5.4185 0.3224 2.3026
5.4019 0.5258 2.3026
5.3777 0.7286 2.3026
5.3459 0.9302 2.3026
5.3065 1.1304 2.3026
5.2596 1.3291 2.3026
5.2053 1.5258 2.3026
5.1436 1.7203 2.3026
5.0747 1.9123 2.3026
4.9986 2.1015 2.3026
4.9154 2.2878 2.3026
4.8253 2.4708 2.3026
4.7283 2.6502 2.3026
4.6248 2.8258 2.3026
4.5146 2.9974 2.3026
4.3981 3.1647 2.3026
4.2755 3.3276 2.3026
4.1468 3.4856 2.3026
4.0122 3.6387 2.3026
3.8720 3.7866 2.3026
3.7264 3.9292 2.3026
3.5756 4.0661 2.3026
0.8172 1.0030 0.5502
0.7789 1.0330 0.5503
0.7394 1.0616 0.5504
0.6990 1.0886 0.5504
0.6575 1.1141 0.5505
0.6151 1.1381 0.5505
0.5718 1.1604 0.5505
0.5278 1.1811 0.5506
0.4829 1.2001 0.5506
0.4374 1.2174 0.5507
0.3913 1.2329 0.5507
0.3446 1.2468 0.5508
0.2975 1.2588 0.5508
0.2499 1.2691 0.5508
0.2020 1.2776 0.5509
0.1537 1.2843 0.5509
0.1053 1.2892 0.5509
0.0567 1.2922 0.5510
0.0080 1.2934 0.5510
-0.0406 1.2928 0.5510
-0.0893 1.2903 0.5511
-0.1377 1.2861 0.5511
-0.1860 1.2800 0.5511
-0.2341 1.2720 0.5511
-0.2818 1.2623 0.5511
-0.3291 1.2508 0.5512
-0.3759 1.2375 0.5512
-0.4222 1.2225 0.5512
-0.4679 1.2057 0.5512
-0.5130 1.1873 0.5512
-0.5573 1.1671 0.5512
-0.6008 1.1453 0.5512
-0.6435 1.1219 0.5512
-0.6853 1.0969 0.5512
-0.7261 1.0703 0.5512
-0.7658 1.0423 0.5512
-0.8045 1.0127 0.5512
-3.6756 4.2851 2.4058
-3.8343 4.1439 2.4058
-3.9877 3.9967 2.4058
-4.1354 3.8440 2.4058
-4.2773 3.6858 2.4058
-4.4132 3.5224 2.4058
-4.5428 3.3539 2.4058
-4.6660 3.1808 2.4058
-4.7827 3.0031 2.4058
-4.8926 2.8212 2.4058
-4.9956 2.6352 2.4058
-5.0916 2.4455 2.4058
-5.1804 2.2524 2.4058
-5.2619 2.0560 2.4058
-5.3359 1.8567 2.4058
-5.4025 1.6547 2.4058
-5.4614 1.4504 2.4058
-5.5126 1.2440 2.4058
-5.5560 1.0358 2.4058
-5.5916 0.8261 2.4058
-5.6192 0.6151 2.4058
-5.6390 0.4033 2.4058
-5.6507 0.1909 2.4058
-5.6545 -0.0219 2.4058
-5.6503 -0.2346 2.4058
-5.6381 -0.4471 2.4058
-5.6179 -0.6589 2.4058
-5.5897 -0.8699 2.4058
-5.5537 -1.0797 2.4058
-5.5098 -1.2881 2.4058
-5.4581 -1.4946 2.4058
-5.3986 -1.6991 2.4058
-5.3315 -1.9012 2.4058
-4.2985 -1.7177 1.9672
-3.9986 -1.7751 1.8590
-3.7295 -1.8266 1.8190
-3.4862 -1.8732 1.7333
-3.2644 -1.9157 1.6575
-3.0609 -1.9546 1.5902
-2.8730 -1.9906 1.5303
-2.6984 -2.0240 1.4766
-2.7040 -2.1918 1.5236
-2.7444 -2.4012 1.5960
-2.7890 -2.6318 1.6781
-2.8385 -2.8879 1.7718
-2.8776 -3.1568 1.8688
-2.9567 -3.4994 2.0041
-3.3893 -4.3318 2.4058
-3.2243 -4.4567 2.4058
-3.0548 -4.5753 2.4058
-2.8808 -4.6875 2.4058
-2.7028 -4.7930 2.4058
-2.5209 -4.8917 2.4058
-2.3354 -4.9835 2.4058
-2.1466 -5.0683 2.4058
-1.9546 -5.1459 2.4058
-1.7599 -5.2163 2.4058
-1.5627 -5.2792 2.4058
-1.3632 -5.3347 2.4058
-1.1617 -5.3826 2.4058
-0.9586 -5.4229 2.4058
-0.7541 -5.4555 2.4058
-0.5484 -5.4804 2.4058
-0.3420 -5.4975 2.4058
-0.1351 -5.5068 2.4058
0.0721 -5.5083 2.4058
0.2791 -5.5020 2.4058
0.4858 -5.4879 2.4058
0.6918 -5.4660 2.4058
0.8969 -5.4364 2.4058
1.1007 -5.3990 2.4058
1.3030 -5.3540 2.4058
1.5034 -5.3014 2.4058
1.6877 -5.1981 2.3860
1.8161 -4.9517 2.3026
2.0010 -4.8800 2.3026
2.1831 -4.8014 2.3026
2.3621 -4.7159 2.3026
2.5377 -4.6238 2.3026
2.7098 -4.5251 2.3026
2.8780 -4.4200 2.3026
3.0421 -4.3086 2.3026
3.2019 -4.1912 2.3026
3.3571 -4.0678 2.3026
3.5076 -3.9386 2.3026
3.6531 -3.8038 2.3026
3.7934 -3.6637 2.3026
3.9283 -3.5183 2.3026
4.0576 -3.3680 2.3026
4.1812 -3.2129 2.3026
4.2988 -3.0533 2.3026
4.4104 -2.8894 2.3026
4.5156 -2.7213 2.3026
4.6145 -2.5495 2.3026
4.7068 -2.3740 2.3026
4.7924 -2.1952 2.3026
4.8712 -2.0133 2.3026
4.9430 -1.8286 2.3026
5.0079 -1.6413 2.3026
5.0657 -1.4517 2.3026
5.1162 -1.2601 2.3026
5.1595 -1.0668 2.3026
5.1955 -0.8719 2.3026
5.2241 -0.6759 2.3026
5.2454 -0.4789 2.3026
5.2591 -0.2813 2.3026
5.2655 -0.0833 2.3026
5.2643 0.1148 2.3026
5.2557 0.3126 2.3026
5.2397 0.5100 2.3026
5.2162 0.7066 2.3026
5.1854 0.9022 2.3026
5.1472 1.0964 2.3026
5.1017 1.2891 2.3026
5.0490 1.4799 2.3026
4.9892 1.6685 2.3026
4.9224 1.8548 2.3026
4.8485 2.0384 2.3026
4.7679 2.2190 2.3026
4.6805 2.3965 2.3026
4.5865 2.5706 2.3026
4.4860 2.7410 2.3026
4.3792 2.9074 2.3026
4.2662 3.0697 2.3026
4.1472 3.2277 2.3026
4.0224 3.3810 2.3026
3.8919 3.5295 2.3026
3.7560 3.6730 2.3026
3.6147 3.8112 2.3026
0.8287 0.9424 0.5502
0.7927 0.9729 0.5502
0.7555 1.0020 0.5503
0.7173 1.0297 0.5503
0.6780 1.0559 0.5504
0.6378 1.0807 0.5504
0.5966 1.1039 0.5505
0.5547 1.1255 0.5505
0.5119 1.1456 0.5506
0.4685 1.1640 0.5506
0.4243 1.1808 0.5507
0.3796 1.1959 0.5507
0.3343 1.2093 0.5507
0.2886 1.2211 0.5508
0.2424 1.2310 0.5508
0.1959 1.2393 0.5508
0.1491 1.2458 0.5509
0.1021 1.2505 0.5509
0.0550 1.2534 0.5509
0.0078 1.2546 0.5510
-0.0394 1.2540 0.5510
-0.0866 1.2516 0.5510
-0.1336 1.2474 0.5510
-0.1805 1.2415 0.5511
-0.2270 1.2338 0.5511
-0.2733 1.2244 0.5511
-0.3192 1.2133 0.5511
-0.3646 1.2004 0.5511
-0.4095 1.1858 0.5511
-0.4539 1.1695 0.5511
-0.4976 1.1516 0.5511
-0.5406 1.1321 0.5512
-0.5828 1.1109 0.5512
-0.6242 1.0882 0.5512
-0.6647 1.0640 0.5512
-0.7043 1.0382 0.5511
-0.7428 1.0110 0.5511
-0.7804 0.9823 0.5511
-0.8168 0.9522 0.5511
-3.7195 4.0197 2.4058
-3.8683 3.8770 2.4058
-4.0116 3.7288 2.4058
-4.1492 3.5754 2.4058
-4.2810 3.4168 2.4058
-4.4068 3.2535 2.4058
-4.5263 3.0855 2.4058
-4.6395 2.9131 2.4058
-4.7461 2.7366 2.4058
-4.8460 2.5562 2.4058
-4.9391 2.3722 2.4058
-5.0252 2.1848 2.4058
-5.1042 1.9943 2.4058
-5.1761 1.8010 2.4058
-5.2406 1.6051 2.4058
-5.2977 1.4069 2.4058
-5.3474 1.2066 2.4058
-5.3895 1.0047 2.4058
-5.4240 0.8012 2.4058
-5.4508 0.5966 2.4058
-5.4699 0.3912 2.4058
-5.4813 0.1851 2.4058
-5.4850 -0.0213 2.4058
-5.4809 -0.2276 2.4058
-5.4690 -0.4338 2.4058
-5.4494 -0.6393 2.4058
-5.4221 -0.8439 2.4058
-5.3871 -1.0474 2.4058
-5.3445 -1.2495 2.4058
-5.2943 -1.4499 2.4058
-5.2367 -1.6482 2.4058
-5.1715 -1.8442 2.4058
-5.0991 -2.0377 2.4058
-3.9985 -1.7751 1.9165
-3.7294 -1.8266 1.8741
-3.4861 -1.8732 1.7858
-3.2643 -1.9157 1.7077
-3.0608 -1.9546 1.6384
-2.8729 -1.9906 1.5766
-2.6984 -2.0240 1.5214
-2.7043 -2.1921 1.5699
-2.7447 -2.4015 1.6445
-2.7893 -2.6321 1.7292
-2.8388 -2.8883 1.8258
-2.8565 -3.1338 1.9114
-3.4448 -4.0773 2.4058
-3.2894 -4.2044 2.4058
-3.1293 -4.3256 2.4058
-2.9648 -4.4407 2.4058
-2.7960 -4.5495 2.4058
-2.6232 -4.6519 2.4058
-2.4466 -4.7477 2.4058
-2.2666 -4.8368 2.4058
-2.0833 -4.9191 2.4058
-1.8970 -4.9944 2.4058
-1.7080 -5.0626 2.4058
-1.5166 -5.1237 2.4058
-1.3230 -5.1776 2.4058
-1.1274 -5.2241 2.4058
-0.9303 -5.2632 2.4058
-0.7318 -5.2948 2.4058
-0.5322 -5.3189 2.4058
-0.3319 -5.3355 2.4058
-0.1311 -5.3446 2.4058
0.0700 -5.3460 2.4058
0.2709 -5.3399 2.4058
0.4715 -5.3262 2.4058
0.6715 -5.3050 2.4058
0.8705 -5.2762 2.4058
1.0683 -5.2399 2.4058
1.2646 -5.1962 2.4058
1.4591 -5.1452 2.4058
1.6515 -5.0868 2.4058
1.7626 -4.8057 2.3026
1.9421 -4.7361 2.3026
2.1188 -4.6598 2.3026
2.2925 -4.5769 2.3026
2.4629 -4.4875 2.3026
2.6299 -4.3917 2.3026
2.7931 -4.2897 2.3026
2.9524 -4.1817 2.3026
3.1075 -4.0676 2.3026
3.2582 -3.9479 2.3026
3.4042 -3.8225 2.3026
3.5454 -3.6917 2.3026
3.6816 -3.5557 2.3026
3.8125 -3.4147 2.3026
3.9380 -3.2688 2.3026
4.0580 -3.1183 2.3026
4.1721 -2.9634 2.3026
4.2804 -2.8043 2.3026
4.3825 -2.6412 2.3026
4.4785 -2.4744 2.3026
4.5681 -2.3041 2.3026
4.6511 -2.1306 2.3026
4.7276 -1.9541 2.3026
4.7974 -1.7748 2.3026
4.8604 -1.5930 2.3026
4.9164 -1.4090 2.3026
4.9655 -1.2231 2.3026
5.0076 -1.0354 2.3026
5.0425 -0.8463 2.3026
5.0703 -0.6560 2.3026
5.0909 -0.4649 2.3026
5.1043 -0.2731 2.3026
5.1104 -0.0809 2.3026
5.1093 0.1113 2.3026
5.1010 0.3033 2.3026
5.0854 0.4949 2.3026
5.0627 0.6857 2.3026
5.0328 0.8756 2.3026
4.9957 1.0641 2.3026
4.9516 1.2511 2.3026
4.9005 1.4362 2.3026
4.8425 1.6194 2.3026
4.7776 1.8001 2.3026
4.7059 1.9783 2.3026
4.6277 2.1537 2.3026
4.5428 2.3260 2.3026
4.4516 2.4949 2.3026
4.3541 2.6603 2.3026
4.2505 2.8218 2.3026
4.1408 2.9794 2.3026
4.0253 3.1327 2.3026
3.9042 3.2815 2.3026
3.7776 3.4257 2.3026
3.6456 3.5650 2.3026
3.5085 3.6992 2.3026
0.8044 0.9147 0.5502
0.7694 0.9443 0.5502
0.7333 0.9725 0.5503
0.6962 0.9994 0.5503
0.6581 1.0249 0.5504
0.6190 1.0489 0.5504
0.5791 1.0714 0.5505
0.5384 1.0924 0.5505
0.4969 1.1119 0.5505
0.4547 1.1298 0.5506
0.4118 1.1461 0.5506
0.3684 1.1607 0.5507
0.3245 1.1738 0.5507
0.2801 1.1851 0.5507
0.2353 1.1948 0.5508
0.1902 1.2028 0.5508
0.1448 1.2091 0.5508
0.0992 1.2137 0.5509
0.0534 1.2165 0.5509
0.0076 1.2177 0.5509
-0.0382 1.2171 0.5510
-0.0840 1.2148 0.5510
-0.1297 1.2107 0.5510
-0.1751 1.2050 0.5510
-0.2204 1.1975 0.5510
-0.2653 1.1884 0.5511
-0.3098 1.1776 0.5511
-0.3539 1.1650 0.5511
-0.3975 1.1509 0.5511
-0.4405 1.1351 0.5511
-0.4829 1.1177 0.5511
-0.5247 1.0988 0.5511
-0.5656 1.0782 0.5511
-0.6058 1.0562 0.5511
-0.6451 1.0326 0.5511
-0.6835 1.0076 0.5511
-0.7210 0.9812 0.5511
-0.7574 0.9534 0.5511
-0.7927 0.9242 0.5511
-0.8270 0.8937 0.5511
-3.7547 3.7632 2.4058
-3.8938 3.6194 2.4058
-4.0274 3.4704 2.4058
-4.1553 3.3165 2.4058
-4.2774 3.1579 2.4058
-4.3934 2.9949 2.4058
-4.5033 2.8275 2.4058
-4.6067 2.6562 2.4058
-4.7037 2.4811 2.4058
-4.7941 2.3025 2.4058
-4.8777 2.1206 2.4058
-4.9544 1.9357 2.4058
-5.0241 1.7481 2.4058
-5.0867 1.5579 2.4058
-5.1421 1.3655 2.4058
-5.1903 1.1711 2.4058
-5.2312 0.9751 2.4058
-5.2646 0.7776 2.4058
-5.2907 0.5790 2.4058
-5.3092 0.3796 2.4058
-5.3203 0.1796 2.4058
-5.3238 -0.0207 2.4058
-5.3198 -0.2210 2.4058
-5.3083 -0.4211 2.4058
-5.2892 -0.6205 2.4058
-5.2627 -0.8192 2.4058
-5.2288 -1.0167 2.4058
-5.1874 -1.2128 2.4058
-5.1387 -1.4073 2.4058
-5.0827 -1.5998 2.4058
-5.0195 -1.7901 2.4058
-4.9491 -1.9779 2.4058
-3.9984 -1.7751 1.9745
-3.7293 -1.8267 1.9298
-3.4860 -1.8732 1.8388
-3.2643 -1.9157 1.7584
-3.0608 -1.9546 1.6871
-2.8728 -1.9906 1.6234
-2.6983 -2.0240 1.5666
-2.7046 -2.1924 1.6168
-2.7450 -2.4018 1.6936
-2.7896 -2.6325 1.7808
-2.8392 -2.8887 1.8803
-2.8414 -3.1173 1.9579
-3.3453 -3.9596 2.4058
-3.1944 -4.0830 2.4058
-3.0389 -4.2007 2.4058
-2.8791 -4.3125 2.4058
-2.7151 -4.4181 2.4058
-2.5473 -4.5176 2.4058
-2.3759 -4.6106 2.4058
-2.2010 -4.6971 2.4058
-2.0230 -4.7770 2.4058
-1.8422 -4.8501 2.4058
-1.6586 -4.9164 2.4058
-1.4727 -4.9757 2.4058
-1.2847 -5.0280 2.4058
-1.0948 -5.0731 2.4058
-0.9034 -5.1111 2.4058
-0.7106 -5.1418 2.4058
-0.5168 -5.1652 2.4058
-0.3223 -5.1813 2.4058
-0.1272 -5.1901 2.4058
0.0680 -5.1915 2.4058
0.2632 -5.1856 2.4058
0.4579 -5.1723 2.4058
0.6521 -5.1516 2.4058
0.8454 -5.1237 2.4058
1.0374 -5.0884 2.4058
1.2280 -5.0460 2.4058
1.4169 -4.9964 2.4058
1.6038 -4.9397 2.4058
1.7271 -4.7090 2.3234
1.8859 -4.5992 2.3026
2.0575 -4.5251 2.3026
2.2262 -4.4446 2.3026
2.3917 -4.3578 2.3026
2.5539 -4.2648 2.3026
2.7124 -4.1657 2.3026
2.8670 -4.0608 2.3026
3.0176 -3.9501 2.3026
3.1640 -3.8338 2.3026
3.3058 -3.7120 2.3026
3.4429 -3.5850 2.3026
3.5751 -3.4529 2.3026
3.7023 -3.3160 2.3026
3.8242 -3.1743 2.3026
3.9407 -3.0282 2.3026
4.0515 -2.8777 2.3026
4.1566 -2.7232 2.3026
4.2559 -2.5649 2.3026
4.3490 -2.4029 2.3026
4.4360 -2.2376 2.3026
4.5167 -2.0691 2.3026
4.5910 -1.8976 2.3026
4.6588 -1.7236 2.3026
4.7199 -1.5471 2.3026
4.7744 -1.3684 2.3026
4.8220 -1.1878 2.3026
4.8629 -1.0056 2.3026
4.8968 -0.8219 2.3026
4.9238 -0.6371 2.3026
4.9438 -0.4515 2.3026
4.9568 -0.2652 2.3026
4.9628 -0.0787 2.3026
4.9618 0.1080 2.3026
4.9537 0.2945 2.3026
4.9386 0.4805 2.3026
4.9165 0.6658 2.3026
4.8875 0.8502 2.3026
4.8515 1.0333 2.3026
4.8087 1.2149 2.3026
4.7591 1.3947 2.3026
4.7027 1.5726 2.3026
4.6397 1.7481 2.3026
4.5702 1.9212 2.3026
4.4941 2.0915 2.3026
4.4118 2.2588 2.3026
4.3232 2.4228 2.3026
4.2285 2.5835 2.3026
4.1279 2.7404 2.3026
4.0214 2.8934 2.3026
3.9093 3.0423 2.3026
3.7916 3.1868 2.3026
3.6687 3.3268 2.3026
3.5405 3.4621 2.3026
0.8140 0.8583 0.5501
0.7812 0.8883 0.5502
0.7472 0.9170 0.5502
0.7121 0.9444 0.5502
0.6761 0.9706 0.5503
0.6391 0.9953 0.5503
0.6012 1.0186 0.5504
0.5624 1.0405 0.5504
0.5229 1.0609 0.5505
0.4826 1.0798 0.5505
0.4416 1.0972 0.5506
0.4000 1.1130 0.5506
0.3578 1.1272 0.5506
0.3151 1.1399 0.5507
0.2720 1.1509 0.5507
0.2285 1.1603 0.5507
0.1847 1.1681 0.5508
0.1406 1.1742 0.5508
0.0963 1.1786 0.5508
0.0519 1.1814 0.5509
0.0074 1.1825 0.5509
-0.0371 1.1819 0.5509
-0.0816 1.1797 0.5509
-0.1259 1.1758 0.5510
-0.1701 1.1702 0.5510
-0.2140 1.1630 0.5510
-0.2576 1.1541 0.5510
-0.3009 1.1436 0.5510
-0.3437 1.1314 0.5510
-0.3860 1.1177 0.5510
-0.4278 1.1024 0.5511
-0.4690 1.0855 0.5511
-0.5095 1.0671 0.5511
-0.5493 1.0471 0.5511
-0.5883 1.0257 0.5511
-0.6265 1.0028 0.5511
-0.6638 0.9786 0.5511
-0.7002 0.9529 0.5511
-0.7355 0.9259 0.5511
-0.7699 0.8975 0.5510
-0.8031 0.8679 0.5510
-3.6466 3.6548 2.4058
-3.7817 3.5151 2.4058
-3.9115 3.3704 2.4058
-4.0357 3.2210 2.4058
-4.1542 3.0669 2.4058
-4.2669 2.9086 2.4058
-4.3736 2.7461 2.4058
-4.4741 2.5797 2.4058
-4.5683 2.4096 2.4058
-4.6560 2.2362 2.4058
-4.7372 2.0595 2.4058
-4.8117 1.8799 2.4058
-4.8794 1.6976 2.4058
-4.9402 1.5129 2.4058
-4.9940 1.3261 2.4058
-5.0408 1.1373 2.4058
-5.0805 0.9469 2.4058
-5.1129 0.7552 2.4058
-5.1382 0.5623 2.4058
-5.1562 0.3686 2.4058
-5.1669 0.1743 2.4058
-5.1703 -0.0202 2.4058
-5.1665 -0.2147 2.4058
-5.1552 -0.4090 2.4058
-5.1367 -0.6027 2.4058
-5.1110 -0.7957 2.4058
-5.0780 -0.9875 2.4058
-5.0378 -1.1780 2.4058
-4.9905 -1.3668 2.4058
-4.9361 -1.5537 2.4058
-4.8747 -1.7385 2.4058
-4.8064 -1.9209 2.4058
-4.7312 -2.1006 2.4058
-3.7293 -1.8267 1.9860
-3.4859 -1.8733 1.8924
-3.2642 -1.9157 1.8097
-3.0607 -1.9547 1.7362
-2.8728 -1.9907 1.6708
-2.6982 -2.0241 1.6122
-2.7048 -2.1927 1.6641
-2.7453 -2.4022 1.7432
-2.7900 -2.6329 1.8330
-2.8395 -2.8892 1.9354
-2.8319 -3.1070 2.0083
-3.2505 -3.8474 2.4058
-3.1038 -3.9673 2.4058
-2.9527 -4.0817 2.4058
-2.7974 -4.1902 2.4058
-2.6381 -4.2929 2.4058
-2.4751 -4.3895 2.4058
-2.3085 -4.4799 2.4058
-2.1386 -4.5640 2.4058
-1.9656 -4.6416 2.4058
-1.7899 -4.7126 2.4058
-1.6115 -4.7770 2.4058
-1.4309 -4.8346 2.4058
-1.2482 -4.8854 2.4058
-1.0637 -4.9292 2.4058
-0.8777 -4.9661 2.4058
-0.6904 -4.9959 2.4058
-0.5021 -5.0187 2.4058
-0.3131 -5.0343 2.4058
-0.1236 -5.0429 2.4058
0.0661 -5.0442 2.4058
0.2557 -5.0384 2.4058
0.4450 -5.0255 2.4058
0.6336 -5.0054 2.4058
0.8214 -4.9783 2.4058
1.0080 -4.9440 2.4058
1.1932 -4.9028 2.4058
1.3767 -4.8546 2.4058
1.5583 -4.7996 2.4058
1.7208 -4.6916 2.3824
1.8324 -4.4687 2.3026
1.9991 -4.3967 2.3026
2.1630 -4.3185 2.3026
2.3239 -4.2341 2.3026
2.4814 -4.1438 2.3026
2.6354 -4.0475 2.3026
2.7857 -3.9455 2.3026
2.9320 -3.8380 2.3026
3.0742 -3.7250 2.3026
3.2120 -3.6067 2.3026
3.3452 -3.4833 2.3026
3.4737 -3.3550 2.3026
3.5972 -3.2219 2.3026
3.7157 -3.0843 2.3026
3.8288 -2.9422 2.3026
3.9366 -2.7961 2.3026
4.0387 -2.6460 2.3026
4.1351 -2.4921 2.3026
4.2256 -2.3348 2.3026
4.3102 -2.1741 2.3026
4.3886 -2.0104 2.3026
4.4607 -1.8439 2.3026
4.5266 -1.6747 2.3026
4.5860 -1.5032 2.3026
4.6389 -1.3296 2.3026
4.6853 -1.1542 2.3026
4.7250 -0.9771 2.3026
4.7579 -0.7987 2.3026
4.7842 -0.6191 2.3026
4.8036 -0.4388 2.3026
4.8163 -0.2578 2.3026
4.8221 -0.0765 2.3026
4.8211 0.1049 2.3026
4.8133 0.2861 2.3026
4.7986 0.4668 2.3026
4.7772 0.6469 2.3026
4.7490 0.8260 2.3026
4.7140 1.0039 2.3026
4.6724 1.1804 2.3026
4.6242 1.3551 2.3026
4.5695 1.5279 2.3026
4.5083 1.6985 2.3026
4.4407 1.8667 2.3026
4.3669 2.0322 2.3026
4.2869 2.1947 2.3026
4.2008 2.3542 2.3026
4.1088 2.5102 2.3026
4.0110 2.6627 2.3026
3.9076 2.8114 2.3026
3.7986 2.9561 2.3026
3.6843 3.0965 2.3026
3.5648 3.2326 2.3026
0.8218 0.8036 0.5500
0.7910 0.8339 0.5501
0.7590 0.8631 0.5501
0.7260 0.8910 0.5502
0.6920 0.9177 0.5502
0.6569 0.9431 0.5503
0.6210 0.9671 0.5503
0.5842 0.9897 0.5504
0.5465 1.0110 0.5504
0.5081 1.0308 0.5505
0.4689 1.0492 0.5505
0.4291 1.0661 0.5505
0.3887 1.0814 0.5506
0.3477 1.0953 0.5506
0.3062 1.1076 0.5506
0.2643 1.1183 0.5507
0.2220 1.1275 0.5507
0.1795 1.1350 0.5507
0.1366 1.1409 0.5508
0.0936 1.1452 0.5508
0.0504 1.1479 0.5508
0.0072 1.1490 0.5509
-0.0361 1.1484 0.5509
-0.0793 1.1463 0.5509
-0.1223 1.1425 0.5509
-0.1652 1.1370 0.5509
-0.2079 1.1300 0.5510
-0.2503 1.1214 0.5510
-0.2923 1.1112 0.5510
-0.3339 1.0994 0.5510
-0.3751 1.0860 0.5510
-0.4157 1.0711 0.5510
-0.4557 1.0547 0.5510
-0.4951 1.0368 0.5510
-0.5337 1.0174 0.5510
-0.5716 0.9966 0.5510
-0.6088 0.9744 0.5510
-0.6450 0.9508 0.5510
-0.6803 0.9259 0.5510
-0.7147 0.8996 0.5510
-0.7480 0.8721 0.5510
-0.7803 0.8433 0.5510
-0.8115 0.8133 0.5510
-3.6748 3.4157 2.4058
-3.8009 3.2751 2.4058
-3.9216 3.1299 2.4058
-4.0368 2.9802 2.4058
-4.1463 2.8263 2.4058
-4.2499 2.6684 2.4058
-4.3476 2.5067 2.4058
-4.4391 2.3415 2.4058
-4.5244 2.1729 2.4058
-4.6032 2.0012 2.4058
-4.6756 1.8267 2.4058
-4.7414 1.6496 2.4058
-4.8005 1.4701 2.4058
-4.8528 1.2885 2.4058
-4.8982 1.1051 2.4058
-4.9367 0.9201 2.4058
-4.9683 0.7337 2.4058
-4.9928 0.5463 2.4058
-5.0103 0.3581 2.4058
-5.0207 0.1693 2.4058
-5.0240 -0.0197 2.4058
-5.0202 -0.2087 2.4058
-5.0093 -0.3975 2.4058
-4.9913 -0.5857 2.4058
-4.9663 -0.7732 2.4058
-4.9342 -0.9596 2.4058
-4.8951 -1.1447 2.4058
-4.8491 -1.3282 2.4058
-4.7963 -1.5098 2.4058
-4.7366 -1.6894 2.4058
-4.6702 -1.8666 2.4058
-4.5972 -2.0411 2.4058
-4.3919 -2.1514 2.4058
-3.4859 -1.8733 1.9465
-3.2641 -1.9157 1.8614
-3.0606 -1.9547 1.7859
-2.8727 -1.9907 1.7186
-2.6982 -2.0241 1.6584
-2.7051 -2.1930 1.7120
-2.7456 -2.4025 1.7934
-2.7903 -2.6333 1.8857
-2.8399 -2.8897 1.9911
-2.8289 -3.1038 2.0636
-3.1599 -3.7403 2.4058
-3.0173 -3.8569 2.4058
-2.8704 -3.9680 2.4058
-2.7194 -4.0736 2.4058
-2.5646 -4.1734 2.4058
-2.4061 -4.2673 2.4058
-2.2441 -4.3551 2.4058
-2.0789 -4.4368 2.4058
-1.9108 -4.5123 2.4058
-1.7399 -4.5813 2.4058
-1.5666 -4.6439 2.4058
-1.3910 -4.6999 2.4058
-1.2134 -4.7492 2.4058
-1.0340 -4.7919 2.4058
-0.8532 -4.8277 2.4058
-0.6711 -4.8567 2.4058
-0.4881 -4.8788 2.4058
-0.3043 -4.8940 2.4058
-0.1201 -4.9023 2.4058
0.0643 -4.9036 2.4058
0.2486 -4.8980 2.4058
0.4326 -4.8854 2.4058
0.6160 -4.8659 2.4058
0.7985 -4.8395 2.4058
0.9799 -4.8062 2.4058
1.1600 -4.7661 2.4058
1.3384 -4.7193 2.4058
1.5149 -4.6657 2.4058
1.6892 -4.6056 2.4058
1.7813 -4.3441 2.3026
1.9562 -4.3023 2.3178
2.1027 -4.1981 2.3026
2.2591 -4.1161 2.3026
2.4122 -4.0282 2.3026
2.5619 -3.9347 2.3026
2.7080 -3.8355 2.3026
2.8502 -3.7310 2.3026
2.9884 -3.6211 2.3026
3.1224 -3.5061 2.3026
3.2519 -3.3862 2.3026
3.3768 -3.2614 2.3026
3.4969 -3.1321 2.3026
3.6121 -2.9983 2.3026
3.7221 -2.8603 2.3026
3.8268 -2.7182 2.3026
3.9261 -2.5723 2.3026
4.0198 -2.4227 2.3026
4.1078 -2.2697 2.3026
4.1900 -2.1136 2.3026
4.2662 -1.9544 2.3026
4.3364 -1.7925 2.3026
4.4004 -1.6281 2.3026
4.4582 -1.4614 2.3026
4.5097 -1.2926 2.3026
4.5547 -1.1221 2.3026
4.5933 -0.9499 2.3026
4.6254 -0.7765 2.3026
4.6509 -0.6020 2.3026
4.6698 -0.4266 2.3026
4.6821 -0.2507 2.3026
4.6878 -0.0744 2.3026
4.6868 0.1019 2.3026
4.6792 0.2781 2.3026
4.6650 0.4538 2.3026
4.6441 0.6288 2.3026
4.6167 0.8030 2.3026
4.5828 0.9759 2.3026
4.5424 1.1474 2.3026
4.4955 1.3173 2.3026
4.4423 1.4853 2.3026
4.3828 1.6512 2.3026
4.3171 1.8146 2.3026
4.2454 1.9755 2.3026
4.1676 2.1336 2.3026
4.0839 2.2886 2.3026
3.9945 2.4403 2.3026
3.8995 2.5885 2.3026
3.7989 2.7331 2.3026
3.6930 2.8738 2.3026
3.5819 3.0103 2.3026
0.8278 0.7506 0.5500
0.7990 0.7812 0.5500
0.7690 0.8107 0.5501
0.7379 0.8391 0.5501
0.7058 0.8662 0.5502
0.6727 0.8921 0.5502
0.6387 0.9168 0.5503
0.6037 0.9402 0.5503
0.5679 0.9622 0.5503
0.5313 0.9829 0.5504
0.4939 1.0021 0.5504
0.4559 1.0200 0.5505
0.4171 1.0364 0.5505
0.3778 1.0513 0.5505
0.3380 1.0648 0.5506
0.2977 1.0767 0.5506
0.2570 1.0872 0.5507
0.2159 1.0960 0.5507
0.1745 1.1034 0.5507
0.1328 1.1091 0.5507
0.0910 1.1134 0.5508
0.0490 1.1160 0.5508
0.0070 1.1170 0.5508
-0.0351 1.1165 0.5508
-0.0770 1.1143 0.5509
-0.1189 1.1106 0.5509
-0.1606 1.1054 0.5509
-0.2021 1.0985 0.5509
-0.2433 1.0902 0.5509
-0.2842 1.0802 0.5510
-0.3246 1.0688 0.5510
-0.3646 1.0558 0.5510
-0.4041 1.0413 0.5510
-0.4430 1.0253 0.5510
-0.4813 1.0079 0.5510
-0.5189 0.9891 0.5510
-0.5557 0.9689 0.5510
-0.5918 0.9473 0.5510
-0.6270 0.9243 0.5510
-0.6614 0.9001 0.5510
-0.6948 0.8746 0.5510
-0.7272 0.8478 0.5510
-0.7586 0.8198 0.5510
-0.7889 0.7907 0.5509
-0.8181 0.7605 0.5509
-3.6953 3.1841 2.4058
-3.8127 3.0429 2.4058
-3.9246 2.8974 2.4058
-4.0311 2.7477 2.4058
-4.1319 2.5942 2.4058
-4.2268 2.4370 2.4058
-4.3158 2.2764 2.4058
-4.3986 2.1125 2.4058
-4.4753 1.9455 2.4058
-4.5457 1.7759 2.4058
-4.6096 1.6037 2.4058
-4.6670 1.4292 2.4058
-4.7179 1.2527 2.4058
-4.7621 1.0743 2.4058
-4.7995 0.8944 2.4058
-4.8302 0.7133 2.4058
-4.8540 0.5311 2.4058
-4.8710 0.3481 2.4058
-4.8811 0.1645 2.4058
-4.8843 -0.0192 2.4058
-4.8806 -0.2030 2.4058
-4.8700 -0.3865 2.4058
-4.8525 -0.5695 2.4058
-4.8282 -0.7518 2.4058
-4.7970 -0.9330 2.4058
-4.7590 -1.1129 2.4058
-4.7142 -1.2913 2.4058
-4.6628 -1.4679 2.4058
-4.6048 -1.6424 2.4058
-4.5403 -1.8147 2.4058
-4.4693 -1.9844 2.4058
-4.2717 -2.0926 2.4058
-3.4858 -1.8733 2.0013
-3.2640 -1.9158 1.9138
-3.0605 -1.9547 1.8361
-2.8726 -1.9907 1.7669
-2.6981 -2.0241 1.7050
-2.7054 -2.1933 1.7604
-2.7460 -2.4029 1.8441
-2.7906 -2.6337 1.9391
-2.9014 -2.9523 2.0915
-2.8341 -3.1096 2.1257
-3.0733 -3.6379 2.4058
-2.9346 -3.7513 2.4058
-2.7918 -3.8594 2.4058
-2.6449 -3.9621 2.4058
-2.4943 -4.0591 2.4058
-2.3401 -4.1504 2.4058
-2.1826 -4.2359 2.4058
-2.0219 -4.3153 2.4058
-1.8584 -4.3887 2.4058
-1.6922 -4.4559 2.4058
-1.5236 -4.5167 2.4058
-1.3528 -4.5712 2.4058
-1.1801 -4.6191 2.4058
-1.0056 -4.6606 2.4058
-0.8297 -4.6954 2.4058
-0.6527 -4.7236 2.4058
-0.4746 -4.7451 2.4058
-0.2959 -4.7599 2.4058
-0.1168 -4.7679 2.4058
0.0626 -4.7692 2.4058
0.2418 -4.7637 2.4058
0.4208 -4.7515 2.4058
0.5991 -4.7325 2.4058
0.7767 -4.7068 2.4058
0.9531 -4.6745 2.4058
1.1282 -4.6355 2.4058
1.3017 -4.5899 2.4058
1.4734 -4.5378 2.4058
1.6429 -4.4793 2.4058
1.7536 -4.2763 2.3306
1.8901 -4.1569 2.3026
2.0451 -4.0830 2.3026
2.1971 -4.0032 2.3026
2.3461 -3.9178 2.3026
2.4917 -3.8268 2.3026
2.6338 -3.7304 2.3026
2.7721 -3.6287 2.3026
2.9065 -3.5219 2.3026
3.0368 -3.4100 2.3026
3.1628 -3.2934 2.3026
3.2842 -3.1721 2.3026
3.4011 -3.0463 2.3026
3.5130 -2.9161 2.3026
3.6200 -2.7819 2.3026
3.7219 -2.6437 2.3026
3.8185 -2.5018 2.3026
3.9096 -2.3563 2.3026
3.9952 -2.2076 2.3026
4.0752 -2.0557 2.3026
4.1493 -1.9009 2.3026
4.2176 -1.7434 2.3026
4.2798 -1.5835 2.3026
4.3360 -1.4214 2.3026
4.3861 -1.2572 2.3026
4.4299 -1.0914 2.3026
4.4675 -0.9240 2.3026
4.4987 -0.7553 2.3026
4.5235 -0.5855 2.3026
4.5419 -0.4150 2.3026
4.5539 -0.2439 2.3026
4.5594 -0.0724 2.3026
4.5585 0.0990 2.3026
4.5511 0.2704 2.3026
4.5372 0.4413 2.3026
4.5170 0.6115 2.3026
4.4903 0.7809 2.3026
4.4573 0.9491 2.3026
4.4180 1.1160 2.3026
4.3725 1.2812 2.3026
4.3207 1.4446 2.3026
4.2629 1.6059 2.3026
4.1990 1.7649 2.3026
4.1292 1.9214 2.3026
4.0536 2.0751 2.3026
3.9722 2.2259 2.3026
3.8852 2.3735 2.3026
3.7928 2.5177 2.3026
3.6950 2.6583 2.3026
3.5920 2.7951 2.3026
0.8321 0.6993 0.5499
0.8052 0.7301 0.5500
0.7771 0.7598 0.5500
0.7480 0.7885 0.5501
0.7178 0.8161 0.5501
0.6865 0.8425 0.5502
0.6543 0.8677 0.5502
0.6212 0.8917 0.5502
0.5872 0.9144 0.5503
0.5524 0.9358 0.5503
0.5168 0.9559 0.5504
0.4804 0.9747 0.5504
0.4434 0.9920 0.5504
0.4057 1.0080 0.5505
0.3675 1.0225 0.5505
0.3288 1.0356 0.5506
0.2896 1.0473 0.5506
0.2499 1.0574 0.5506
0.2100 1.0660 0.5507
0.1697 1.0732 0.5507
0.1292 1.0788 0.5507
0.0885 1.0829 0.5507
0.0477 1.0854 0.5508
0.0068 1.0864 0.5508
-0.0341 1.0859 0.5508
-0.0749 1.0839 0.5508
-0.1157 1.0803 0.5509
-0.1562 1.0751 0.5509
-0.1966 1.0685 0.5509
-0.2367 1.0603 0.5509
-0.2764 1.0507 0.5509
-0.3157 1.0395 0.5509
-0.3546 1.0269 0.5509
-0.3930 1.0128 0.5509
-0.4309 0.9973 0.5510
-0.4681 0.9803 0.5510
-0.5047 0.9620 0.5510
-0.5405 0.9424 0.5510
-0.5756 0.9214 0.5510
-0.6099 0.8990 0.5510
-0.6433 0.8755 0.5509
-0.6758 0.8506 0.5509
-0.7073 0.8246 0.5509
-0.7379 0.7974 0.5509
-0.7673 0.7691 0.5509
-0.7957 0.7396 0.5509
-0.8230 0.7092 0.5509
-3.7085 2.9597 2.4058
-3.8174 2.8182 2.4058
-3.9210 2.6726 2.4058
-4.0190 2.5233 2.4058
-4.1113 2.3704 2.4058
-4.1979 2.2141 2.4058
-4.2785 2.0547 2.4058
-4.3530 1.8923 2.4058
-4.4215 1.7273 2.4058
-4.4837 1.5598 2.4058
-4.5395 1.3901 2.4058
-4.5890 1.2184 2.4058
-4.6319 1.0449 2.4058
-4.6683 0.8699 2.4058
-4.6982 0.6937 2.4058
-4.7214 0.5165 2.4058
-4.7379 0.3385 2.4058
-4.7477 0.1600 2.4058
-4.7508 -0.0188 2.4058
-4.7472 -0.1975 2.4058
-4.7368 -0.3760 2.4058
-4.7198 -0.5540 2.4058
-4.6961 -0.7313 2.4058
-4.6657 -0.9075 2.4058
-4.6288 -1.0825 2.4058
-4.5853 -1.2560 2.4058
-4.5352 -1.4278 2.4058
-4.4788 -1.5976 2.4058
-4.4160 -1.7651 2.4058
-4.3470 -1.9302 2.4058
-4.1567 -2.0363 2.4058
-4.0776 -2.1915 2.4058
-3.2639 -1.9158 1.9667
-3.0605 -1.9547 1.8869
-2.8726 -1.9907 1.8158
-2.6980 -2.0241 1.7522
-2.7057 -2.1937 1.8093
-2.7463 -2.4032 1.8954
-2.7910 -2.6341 1.9930
-2.9097 -2.9608 2.1556
-2.8535 -3.1310 2.1996
-2.9904 -3.5400 2.4058
-2.8555 -3.6503 2.4058
-2.7165 -3.7555 2.4058
-2.5736 -3.8553 2.4058
-2.4270 -3.9498 2.4058
-2.2770 -4.0386 2.4058
-2.1237 -4.1217 2.4058
-1.9674 -4.1990 2.4058
-1.8082 -4.2704 2.4058
-1.6465 -4.3357 2.4058
-1.4825 -4.3949 2.4058
-1.3163 -4.4479 2.4058
-1.1482 -4.4946 2.4058
-0.9785 -4.5349 2.4058
-0.8073 -4.5688 2.4058
-0.6350 -4.5963 2.4058
-0.4618 -4.6172 2.4058
-0.2879 -4.6316 2.4058
-0.1136 -4.6394 2.4058
0.0609 -4.6406 2.4058
0.2354 -4.6353 2.4058
0.4095 -4.6234 2.4058
0.5830 -4.6049 2.4058
0.7558 -4.5799 2.4058
0.9274 -4.5484 2.4058
1.0978 -4.5104 2.4058
1.2666 -4.4661 2.4058
1.4336 -4.4154 2.4058
1.5986 -4.3585 2.4058
1.7487 -4.2644 2.3885
1.8392 -4.0448 2.3026
1.9899 -3.9728 2.3026
2.1379 -3.8953 2.3026
2.2828 -3.8121 2.3026
2.4245 -3.7236 2.3026
2.5627 -3.6298 2.3026
2.6973 -3.5309 2.3026
2.8281 -3.4269 2.3026
2.9549 -3.3181 2.3026
3.0774 -3.2046 2.3026
3.1956 -3.0865 2.3026
3.3093 -2.9641 2.3026
3.4183 -2.8375 2.3026
3.5224 -2.7069 2.3026
3.6215 -2.5724 2.3026
3.7155 -2.4343 2.3026
3.8042 -2.2928 2.3026
3.8875 -2.1481 2.3026
3.9653 -2.0003 2.3026
4.0374 -1.8497 2.3026
4.1038 -1.6965 2.3026
4.1644 -1.5409 2.3026
4.2191 -1.3831 2.3026
4.2678 -1.2234 2.3026
4.3105 -1.0620 2.3026
4.3470 -0.8991 2.3026
4.3774 -0.7349 2.3026
4.4015 -0.5698 2.3026
4.4195 -0.4038 2.3026
4.4311 -0.2374 2.3026
4.4365 -0.0706 2.3026
4.4356 0.0963 2.3026
4.4284 0.2630 2.3026
4.4150 0.4293 2.3026
4.3953 0.5950 2.3026
4.3694 0.7598 2.3026
4.3373 0.9235 2.3026
4.2990 1.0858 2.3026
4.2547 1.2466 2.3026
4.2044 1.4056 2.3026
4.1481 1.5626 2.3026
4.0859 1.7173 2.3026
4.0180 1.8696 2.3026
3.9444 2.0192 2.3026
3.8653 2.1659 2.3026
3.7807 2.3095 2.3026
3.6907 2.4498 2.3026
3.5956 2.5866 2.3026
3.4953 2.7198 2.3026
0.8097 0.6804 0.5499
0.7835 0.7104 0.5500
0.7562 0.7394 0.5500
0.7278 0.7673 0.5501
0.6984 0.7941 0.5501
0.6680 0.8198 0.5501
0.6367 0.8443 0.5502
0.6045 0.8677 0.5502
0.5714 0.8898 0.5503
0.5375 0.9106 0.5503
0.5029 0.9302 0.5504
0.4675 0.9484 0.5504
0.4315 0.9653 0.5504
0.3948 0.9809 0.5505
0.3576 0.9950 0.5505
0.3199 1.0077 0.5505
0.2818 1.0190 0.5506
0.2432 1.0289 0.5506
0.2043 1.0373 0.5506
0.1651 1.0443 0.5507
0.1257 1.0497 0.5507
0.0861 1.0537 0.5507
0.0464 1.0562 0.5507
0.0066 1.0572 0.5508
-0.0332 1.0567 0.5508
-0.0729 1.0546 0.5508
-0.1125 1.0511 0.5508
-0.1520 1.0461 0.5508
-0.1913 1.0397 0.5509
-0.2303 1.0317 0.5509
-0.2689 1.0223 0.5509
-0.3072 1.0115 0.5509
-0.3451 0.9992 0.5509
-0.3824 0.9855 0.5509
-0.4193 0.9704 0.5509
-0.4555 0.9539 0.5509
-0.4911 0.9361 0.5509
-0.5260 0.9170 0.5509
-0.5601 0.8965 0.5509
-0.5934 0.8748 0.5509
-0.6259 0.8519 0.5509
-0.6576 0.8277 0.5509
-0.6883 0.8024 0.5509
-0.7180 0.7759 0.5509
-0.7467 0.7483 0.5509
-0.7743 0.7197 0.5509
-0.8009 0.6901 0.5509
-0.8263 0.6594 0.5508
-3.7148 2.7424 2.4058
-3.8156 2.6007 2.4058
-3.9109 2.4554 2.4058
-4.0008 2.3066 2.4058
-4.0850 2.1545 2.4058
-4.1634 1.9994 2.4058
-4.2360 1.8414 2.4058
-4.3026 1.6808 2.4058
-4.3631 1.5178 2.4058
-4.4174 1.3526 2.4058
-4.4655 1.1855 2.4058
-4.5073 1.0167 2.4058
-4.5428 0.8465 2.4058
-4.5718 0.6750 2.4058
-4.5943 0.5025 2.4058
-4.6104 0.3293 2.4058
-4.6200 0.1556 2.4058
-4.6230 -0.0183 2.4058
-4.6194 -0.1923 2.4058
-4.6094 -0.3660 2.4058
-4.5928 -0.5392 2.4058
-4.5697 -0.7117 2.4058
-4.5402 -0.8832 2.4058
-4.5042 -1.0535 2.4058
-4.4618 -1.2223 2.4058
-4.4131 -1.3894 2.4058
-4.3582 -1.5546 2.4058
-4.2971 -1.7177 2.4058
-4.2299 -1.8783 2.4058
-4.0464 -1.9824 2.4058
-3.9694 -2.1334 2.4058
-3.8868 -2.2814 2.4058
-3.0604 -1.9547 1.9383
-2.8725 -1.9907 1.8652
-2.6980 -2.0241 1.7999
-2.7060 -2.1940 1.8589
-2.7466 -2.4036 1.9473
-3.0672 -2.8949 2.2500
-2.9315 -2.9831 2.2310
-3.0383 -3.3339 2.4058
-2.9110 -3.4461 2.4058
-2.7797 -3.5535 2.4058
-2.6443 -3.6559 2.4058
-2.5052 -3.7531 2.4058
-2.3625 -3.8450 2.4058
-2.2165 -3.9314 2.4058
-2.0673 -4.0124 2.4058
-1.9151 -4.0876 2.4058
-1.7602 -4.1571 2.4058
-1.6028 -4.2207 2.4058
-1.4431 -4.2783 2.4058
-1.2813 -4.3299 2.4058
-1.1177 -4.3753 2.4058
-0.9524 -4.4146 2.4058
-0.7858 -4.4475 2.4058
-0.6181 -4.4742 2.4058
-0.4495 -4.4946 2.4058
-0.2802 -4.5086 2.4058
-0.1105 -4.5162 2.4058
0.0593 -4.5174 2.4058
0.2291 -4.5122 2.4058
0.3986 -4.5006 2.4058
0.5676 -4.4826 2.4058
0.7357 -4.4582 2.4058
0.9028 -4.4276 2.4058
1.0687 -4.3907 2.4058
1.2330 -4.3475 2.4058
1.3956 -4.2982 2.4058
1.5562 -4.2428 2.4058
1.7146 -4.1813 2.4058
1.7903 -3.9374 2.3026
1.9371 -3.8673 2.3026
2.0811 -3.7918 2.3026
2.2222 -3.7109 2.3026
2.3601 -3.6247 2.3026
2.4947 -3.5334 2.3026
2.6257 -3.4371 2.3026
2.7530 -3.3359 2.3026
2.8764 -3.2300 2.3026
2.9957 -3.1195 2.3026
3.1108 -3.0046 2.3026
3.2214 -2.8854 2.3026
3.3275 -2.7622 2.3026
3.4288 -2.6350 2.3026
3.5253 -2.5041 2.3026
3.6168 -2.3697 2.3026
3.7031 -2.2320 2.3026
3.7842 -2.0911 2.3026
3.8599 -1.9472 2.3026
3.9302 -1.8006 2.3026
3.9949 -1.6515 2.3026
4.0538 -1.5000 2.3026
4.1071 -1.3464 2.3026
4.1545 -1.1910 2.3026
4.1960 -1.0339 2.3026
4.2316 -0.8753 2.3026
4.2612 -0.7155 2.3026
4.2847 -0.5547 2.3026
4.3022 -0.3932 2.3026
4.3135 -0.2311 2.3026
4.3188 -0.0687 2.3026
4.3179 0.0937 2.3026
4.3109 0.2560 2.3026
4.2978 0.4179 2.3026
4.2787 0.5792 2.3026
4.2534 0.7396 2.3026
4.2222 0.8989 2.3026
4.1850 1.0570 2.3026
4.1418 1.2135 2.3026
4.0929 1.3683 2.3026
4.0381 1.5211 2.3026
3.9776 1.6717 2.3026
3.9115 1.8199 2.3026
3.8399 1.9656 2.3026
3.7628 2.1084 2.3026
3.6804 2.2482 2.3026
3.5929 2.3848 2.3026
3.5003 2.5180 2.3026
0.8126 0.6323 0.5499
0.7882 0.6624 0.5499
0.7627 0.6915 0.5500
0.7362 0.7197 0.5500
0.7085 0.7469 0.5501
0.6799 0.7730 0.5501
0.6503 0.7980 0.5501
0.6198 0.8219 0.5502
0.5885 0.8446 0.5502
0.5563 0.8662 0.5503
0.5233 0.8865 0.5503
0.4895 0.9055 0.5503
0.4551 0.9233 0.5504
0.4200 0.9397 0.5504
0.3844 0.9548 0.5504
0.3482 0.9686 0.5505
0.3115 0.9810 0.5505
0.2743 0.9920 0.5505
0.2368 1.0016 0.5506
0.1989 1.0098 0.5506
0.1608 1.0166 0.5506
0.1224 1.0219 0.5507
0.0839 1.0257 0.5507
0.0452 1.0281 0.5507
0.0065 1.0291 0.5507
-0.0323 1.0286 0.5508
-0.0710 1.0267 0.5508
-0.1096 1.0232 0.5508
-0.1480 1.0184 0.5508
-0.1862 1.0121 0.5508
-0.2618 0.9952 0.5509
-0.2242 1.0044 0.5508
-0.2991 0.9846 0.5509
-0.4780 0.9113 0.5509
-0.3359 0.9727 0.5509
-0.5120 0.8926 0.5509
-0.5452 0.8727 0.5509
-0.3723 0.9593 0.5509
-0.5777 0.8516 0.5509
-0.4081 0.9447 0.5509
-0.6093 0.8293 0.5509
-0.6401 0.8057 0.5509
-0.4434 0.9286 0.5509
-0.6700 0.7811 0.5509
-0.6989 0.7553 0.5509
-0.8279 0.6112 0.5508
-0.7269 0.7285 0.5508
-3.7145 2.5319 2.4058
-0.7538 0.7006 0.5508
-3.8074 2.3904 2.4058
-0.7796 0.6717 0.5508
-0.8043 0.6419 0.5508
-3.8949 2.2455 2.4058
-4.1238 1.7926 2.4058
-3.9768 2.0974 2.4058
-4.1886 1.6363 2.4058
-4.2475 1.4776 2.4058
-4.0532 1.9464 2.4058
-4.3004 1.3168 2.4058
-4.4224 0.8240 2.4058
-4.3473 1.1541 2.4058
-4.3880 0.9898 2.4058
-4.4507 0.6571 2.4058
-4.4970 -0.1872 2.4058
-4.4726 0.4891 2.4058
-4.4872 -0.3563 2.4058
-4.4883 0.3205 2.4058
-4.4711 -0.5250 2.4058
-4.4486 -0.6929 2.4058
-4.4975 0.1514 2.4058
-4.4198 -0.8598 2.4058
-4.5005 -0.0179 2.4058
-4.3848 -1.0256 2.4058
-4.3435 -1.1900 2.4058
-4.2961 -1.3527 2.4058
-4.2426 -1.5135 2.4058
-4.1831 -1.6722 2.4058
-4.1177 -1.8286 2.4058
-3.9407 -1.9306 2.4058
-3.8657 -2.0777 2.4058
-3.7852 -2.2219 2.4058
-3.0603 -1.9548 1.9903
-2.8724 -1.9908 1.9153
-2.6979 -2.0242 1.8482
-2.7063 -2.1943 1.9090
-2.7469 -2.4039 1.9998
-3.1938 -3.0146 2.4058
-3.0079 -3.0610 2.3506
-2.9588 -3.2467 2.4058
-2.8349 -3.3560 2.4058
-2.7069 -3.4606 2.4058
-2.5751 -3.5603 2.4058
-2.4397 -3.6550 2.4058
-2.3007 -3.7444 2.4058
-2.1585 -3.8287 2.4058
-2.0131 -3.9074 2.4058
-1.8650 -3.9807 2.4058
-1.7141 -4.0484 2.4058
-1.5608 -4.1103 2.4058
-0.9275 -4.2991 2.4058
-1.4053 -4.1664 2.4058
-0.7652 -4.3312 2.4058
-1.2477 -4.2166 2.4058
-1.0884 -4.2608 2.4058
-0.6019 -4.3572 2.4058
0.0578 -4.3992 2.4058
1.0407 -4.2758 2.4058
-0.4377 -4.3770 2.4058
1.2007 -4.2337 2.4058
0.2232 -4.3941 2.4058
1.3591 -4.1857 2.4058
-0.2728 -4.3906 2.4058
0.3882 -4.3828 2.4058
1.5155 -4.1317 2.4058
-0.1076 -4.3980 2.4058
0.5527 -4.3653 2.4058
1.6697 -4.0719 2.4058
0.7165 -4.3416 2.4058
1.8864 -3.7661 2.3026
1.7746 -3.9028 2.3437
0.8792 -4.3117 2.4058
2.6809 -3.2486 2.3026
2.0266 -3.6926 2.3026
2.8011 -3.1454 2.3026
2.1640 -3.6138 2.3026
3.3391 -2.5661 2.3026
2.9173 -3.0379 2.3026
3.0293 -2.9260 2.3026
2.2983 -3.5298 2.3026
3.4331 -2.4387 2.3026
3.1371 -2.8099 2.3026
3.5221 -2.3078 2.3026
2.4294 -3.4409 2.3026
3.2404 -2.6899 2.3026
3.6062 -2.1736 2.3026
3.8273 -1.7535 2.3026
2.5570 -3.3471 2.3026
3.6852 -2.0364 2.3026
3.8903 -1.6083 2.3026
4.1209 -0.8524 2.3026
3.7589 -1.8963 2.3026
3.9478 -1.4608 2.3026
