ply
format ascii 1.0
element vertex 2113
property float32 x
property float32 y
property float32 z
end_header
-6.8845 2.9955 0.6900
-22.1283 8.6537 2.1834
-23.2220 8.0882 2.2594
-10.3510 3.1739 0.9947
-24.5720 6.5343 2.3356
-24.8605 5.6189 2.3410
-25.0020 4.6701 2.3358
-25.0941 3.7165 2.3294
-10.3734 1.1395 0.9581
-10.3544 0.7446 0.9530
-25.1404 0.8591 2.3089
-25.2194 -0.0873 2.3145
-25.2408 -1.0376 2.3181
-24.9724 -1.9697 2.2983
-10.4186 -1.2176 0.9623
-10.3587 -1.6075 0.9615
-23.7395 -4.6046 2.2178
-22.9294 -5.3496 2.1591
-22.4612 -6.1398 2.1349
-22.2752 -6.9994 2.1404
-10.3628 -3.6899 1.0083
-10.4771 -4.1810 1.0338
-10.4732 -4.6434 1.0498
-20.8469 -10.1979 2.3859
-20.4503 -10.9758 2.3858
-10.3705 -6.0789 1.2355
-19.5483 -12.4699 2.3829
-19.0770 -13.2044 2.3840
-10.4754 -7.8495 1.3449
-10.4017 -8.4234 1.3750
-17.3926 -15.2028 2.3728
-16.9467 -15.9765 2.3920
-10.4919 -10.6647 1.5364
-14.7024 -16.1145 2.2399
-10.4061 -12.3050 1.6546
-10.3842 -13.2601 1.7290
-10.3832 -14.3387 1.8173
-10.3844 -15.5390 1.9183
-11.6228 -18.8939 2.2766
-11.1138 -19.6896 2.3202
-10.2884 -19.9445 2.3028
-9.5317 -20.3192 2.3028
-8.7614 -20.6650 2.3028
-7.9786 -20.9816 2.3028
-7.1843 -21.2685 2.3028
-6.3797 -21.5252 2.3028
-5.8151 -22.7252 2.4059
-4.9565 -22.9293 2.4059
-4.0908 -23.1009 2.4059
-3.2191 -23.2397 2.4059
-2.3429 -23.3455 2.4059
-1.4631 -23.4182 2.4059
-0.5813 -23.4576 2.4059
0.3015 -23.4638 2.4059
1.1839 -23.4366 2.4059
2.0646 -23.3762 2.4059
2.9425 -23.2825 2.4059
3.8162 -23.1558 2.4059
4.6845 -22.9961 2.4059
5.5463 -22.8039 2.4059
2.2078 -7.7889 0.8299
7.2448 -22.3225 2.4059
2.8505 -7.7739 0.8488
8.9023 -21.7144 2.4059
9.7126 -21.3638 2.4059
10.5091 -20.9829 2.4059
11.2906 -20.5723 2.4059
12.0561 -20.1325 2.4059
12.8043 -19.6640 2.4059
13.5344 -19.1678 2.4059
14.2452 -18.6443 2.4059
14.9356 -18.0944 2.4059
15.6049 -17.5189 2.4059
15.5554 -16.1936 2.3028
16.1523 -15.5959 2.3027
16.7262 -14.9762 2.3027
17.2763 -14.3353 2.3027
17.8018 -13.6742 2.3027
18.3019 -12.9937 2.3026
18.9248 -12.3925 2.3209
7.3491 -4.4266 0.8803
7.3500 -4.0585 0.8616
7.3509 -3.7053 0.8448
7.3518 -3.3652 0.8298
7.3541 -3.0371 0.8167
7.4293 -2.7458 0.8131
7.4301 -2.4326 0.8027
7.4309 -2.1269 0.7936
7.4316 -1.8277 0.7859
7.3566 -1.5183 0.7714
7.3574 -1.2320 0.7662
7.3581 -0.9491 0.7621
7.3588 -0.6690 0.7591
7.3595 -0.3907 0.7572
7.3603 -0.1135 0.7564
7.3610 0.1635 0.7567
7.3617 0.4410 0.7580
7.3624 0.7198 0.7604
7.3671 1.0013 0.7644
7.3639 1.2846 0.7686
7.3646 1.5722 0.7744
7.3654 1.8646 0.7814
7.3662 2.1627 0.7897
7.3752 2.4703 0.8002
7.3841 2.7864 0.8120
7.3852 3.1089 0.8245
7.3833 3.4405 0.8383
7.3704 3.7782 0.8525
7.3713 4.1360 0.8701
7.3723 4.5093 0.8897
7.3733 4.9003 0.9116
12.8836 9.2795 1.6351
11.9150 9.2820 1.5556
11.0352 9.2843 1.4855
10.2304 9.2864 1.4233
9.4894 9.2883 1.3681
8.8030 9.2901 1.3187
8.1636 9.2918 1.2746
7.5605 9.2878 1.2343
7.0108 9.3068 1.2010
6.4856 9.3194 1.1704
5.9778 9.3188 1.1414
5.9544 10.0991 1.2088
5.9568 11.0318 1.2927
5.9596 12.1052 1.3914
5.9629 13.3576 1.5086
5.9667 14.8424 1.6499
5.9714 16.6365 1.8232
5.9771 18.8549 2.0403
5.6739 20.5526 2.1995
5.1260 21.7226 2.3026
4.3050 21.8987 2.3026
3.4780 22.0439 2.3026
2.6462 22.1580 2.3026
1.8212 22.3700 2.3160
1.0164 23.2918 2.4059
0.1395 23.3126 2.4059
-0.7375 23.3005 2.4059
-1.6134 23.2556 2.4059
-2.4870 23.1778 2.4059
-2.7495 18.8927 1.9705
-2.8053 15.2309 1.5984
-3.4014 15.2272 1.6104
-4.0073 15.2234 1.6248
-4.6250 15.2196 1.6418
-7.2854 21.0879 2.3028
-8.0736 20.7990 2.3028
-8.8504 20.4809 2.3028
-9.6147 20.1338 2.3028
-10.3159 19.6639 2.2918
-10.3180 17.9886 2.1402
-10.3217 16.5222 2.0105
-10.3257 15.2226 1.8982
-10.3294 14.0591 1.8003
-10.3328 13.0083 1.7142
-10.3683 12.0898 1.6434
-10.4464 11.2920 1.5872
-10.3341 10.3600 1.5097
-10.4690 9.7339 1.4748
-17.2822 14.8968 2.3537
-10.3390 8.2549 1.3647
-15.8405 11.6995 2.0312
-18.9244 12.9060 2.3624
-19.3369 12.1476 2.3550
-19.5326 11.2688 2.3253
-6.3052 3.3280 0.7351
-6.5874 3.1660 0.7535
-6.8845 2.9955 0.7740
-20.8435 8.1511 2.3070
-21.4808 7.4816 2.3444
-10.3508 3.1738 1.1157
-22.3349 5.9393 2.3815
-22.5258 5.0912 2.3795
-22.7201 4.2438 2.3812
-22.8098 3.3781 2.3753
-10.3730 1.1394 1.0748
-10.3543 0.7445 1.0691
-22.9167 0.7831 2.3612
-22.9172 -0.0794 2.3596
-22.8902 -0.9411 2.3585
-22.8973 -1.8061 2.3643
-10.4193 -1.2177 1.0797
-10.3587 -1.6076 1.0788
-22.3233 -4.3300 2.3398
-21.8514 -5.0982 2.3086
-21.3746 -5.8428 2.2795
-21.1848 -6.6569 2.2841
-10.3627 -3.6899 1.1313
-10.4768 -4.1809 1.1600
-21.1732 -9.3877 2.3814
-18.7969 -9.1952 2.3859
-10.4909 -5.6305 1.3574
-10.3704 -6.0789 1.3703
-17.6476 -11.2576 2.3859
-17.2136 -11.9147 2.3859
-10.4755 -7.8497 1.4917
-10.4018 -8.4236 1.5251
-15.7672 -13.7822 2.3859
-10.4404 -9.8428 1.6346
-10.3759 -10.5469 1.6853
-10.3778 -11.3747 1.7537
-10.3809 -12.2752 1.8308
-10.3842 -13.2603 1.9179
-10.3831 -14.3387 2.0157
-10.3843 -15.5389 2.1278
-11.0411 -17.9483 2.3989
-9.9439 -17.6170 2.3028
-9.2749 -17.9801 2.3028
-8.5927 -18.3176 2.3028
-7.8983 -18.6293 2.3028
-7.1925 -18.9145 2.3028
-6.4764 -19.1730 2.3028
-6.0085 -20.2730 2.4059
-5.2420 -20.4859 2.4059
-4.4680 -20.6698 2.4059
-3.6876 -20.8243 2.4059
-2.9018 -20.9493 2.4059
-2.1119 -21.0446 2.4059
-1.3189 -21.1101 2.4059
-0.5240 -21.1455 2.4059
0.2718 -21.1510 2.4059
1.0672 -21.1264 2.4059
1.8611 -21.0718 2.4059
2.6524 -20.9874 2.4059
3.4400 -20.8731 2.4059
4.2228 -20.7292 2.4059
4.9995 -20.5558 2.4059
2.2078 -7.7889 0.9207
6.5306 -20.1220 2.4059
2.8503 -7.7733 0.9416
8.0247 -19.5738 2.4059
8.7551 -19.2578 2.4059
9.4731 -18.9145 2.4059
10.1776 -18.5444 2.4059
10.8676 -18.1480 2.4059
11.5422 -17.7258 2.4059
11.6776 -16.5382 2.3028
12.2908 -16.0865 2.3028
12.8865 -15.6120 2.3027
13.4638 -15.1154 2.3027
14.0220 -14.5974 2.3027
14.5602 -14.0587 2.3027
15.0777 -13.5002 2.3027
15.5736 -12.9225 2.3026
16.1747 -12.4244 2.3209
16.6295 -11.8064 2.3209
17.0605 -11.1717 2.3209
7.3491 -4.4267 0.9765
7.3500 -4.0586 0.9557
7.3509 -3.7054 0.9371
7.3518 -3.3652 0.9205
7.3541 -3.0371 0.9059
7.4293 -2.7458 0.9019
7.4301 -2.4326 0.8903
7.4309 -2.1270 0.8803
7.4316 -1.8278 0.8717
7.3566 -1.5184 0.8557
7.3574 -1.2320 0.8498
7.3581 -0.9492 0.8453
7.3588 -0.6690 0.8420
7.3595 -0.3907 0.8399
7.3603 -0.1135 0.8390
7.3610 0.1635 0.8392
7.3617 0.4410 0.8407
7.3624 0.7198 0.8434
7.3671 1.0012 0.8477
7.3639 1.2845 0.8524
7.3646 1.5722 0.8589
7.3654 1.8646 0.8666
7.3662 2.1627 0.8758
7.3771 2.4709 0.8876
7.3860 2.7870 0.9008
7.3871 3.1097 0.9146
7.3833 3.4405 0.9296
7.3704 3.7782 0.9453
7.3713 4.1359 0.9649
7.3723 4.5092 0.9866
7.3733 4.9002 1.0108
9.9345 7.1554 1.3981
11.9151 9.2820 1.7249
11.0353 9.2843 1.6472
10.2305 9.2864 1.5783
9.4895 9.2883 1.5170
8.7274 9.2103 1.4497
8.1637 9.2918 1.4133
7.5605 9.2878 1.3685
6.9991 9.2912 1.3294
6.4682 9.2944 1.2942
5.9641 9.2974 1.2626
5.9544 10.0991 1.3402
5.9568 11.0317 1.4333
5.9596 12.1051 1.5427
5.9629 13.3575 1.6726
5.9667 14.8423 1.8292
5.9714 16.6364 2.0214
5.9771 18.8548 2.2621
5.3576 19.4065 2.3026
4.6235 19.5932 2.3026
3.8830 19.7521 2.3026
3.1371 19.8832 2.3026
2.3868 19.9862 2.3026
1.7065 20.9604 2.4059
0.9168 21.0090 2.4059
0.1259 21.0279 2.4059
-0.6652 21.0171 2.4059
-1.4553 20.9766 2.4059
-2.2433 20.9065 2.4059
-2.6823 18.4314 2.1312
-2.8053 15.2309 1.7721
-3.4014 15.2272 1.7853
-4.0073 15.2235 1.8013
-4.6250 15.2197 1.8202
-6.5715 19.0214 2.3028
-7.2824 18.7609 2.3028
-7.9831 18.4739 2.3028
-8.6725 18.1608 2.3028
-9.3497 17.8221 2.3028
-10.0137 17.4582 2.3028
-10.3220 16.5227 2.2290
-10.3254 15.2221 2.1044
-10.3291 14.0587 1.9958
-10.3325 13.0079 1.9005
-10.3308 12.0460 1.8154
-10.3318 11.1681 1.7404
-10.3342 10.3601 1.6738
-10.4608 9.7262 1.6338
-15.7122 13.5434 2.3725
-10.3391 8.2549 1.5131
-15.8360 11.6962 2.2513
-17.0704 11.6415 2.3627
-17.4999 10.9935 2.3630
-10.4563 6.0324 1.3802
-6.3052 3.3280 0.8151
-6.5874 3.1660 0.8355
-6.8845 2.9955 0.8582
-19.4417 7.6029 2.3859
-19.7157 6.8668 2.3859
-10.3506 3.1738 1.2371
-20.1801 5.3662 2.3859
-20.3697 4.6038 2.3859
-20.5305 3.8347 2.3859
-20.6624 3.0600 2.3859
-10.3726 1.1393 1.1918
-10.3542 0.7445 1.1855
-20.8823 0.7135 2.3859
-20.8966 -0.0725 2.3859
-20.8815 -0.8586 2.3859
-20.8367 -1.6436 2.3859
-10.4201 -1.2178 1.1974
-10.3587 -1.6076 1.1963
-20.5213 -3.9805 2.3853
-20.2844 -4.7327 2.3765
-20.0153 -5.4714 2.3672
-19.7865 -6.2176 2.3659
-10.3627 -3.6900 1.2546
-10.4765 -4.1809 1.2864
-19.1273 -8.4806 2.3859
-17.1101 -8.3701 2.3859
-16.7849 -9.0087 2.3859
-10.3703 -6.0789 1.5054
-16.0635 -10.2471 2.3859
-15.6683 -10.8452 2.3859
-10.4266 -7.8130 1.6312
-10.3774 -8.4039 1.6716
-10.3727 -9.0669 1.7244
-10.3743 -9.7806 1.7845
-10.3761 -10.5471 1.8516
-10.3779 -11.3748 1.9268
-10.3810 -12.2754 2.0115
-10.3843 -13.2605 2.1072
-10.3830 -14.3386 2.2147
-10.0623 -15.0573 2.2654
-9.6462 -15.6809 2.3028
-9.0502 -16.0339 2.3028
-8.4413 -16.3641 2.3028
-7.8204 -16.6713 2.3028
-7.1883 -16.9548 2.3028
-6.5459 -17.2143 2.3028
-6.1580 -18.2306 2.4059
-5.4683 -18.4504 2.4059
-4.7707 -18.6441 2.4059
-4.0663 -18.8113 2.4059
-3.3560 -18.9519 2.4059
-2.6409 -19.0656 2.4059
-1.9220 -19.1522 2.4059
-1.2003 -19.2117 2.4059
-0.4768 -19.2439 2.4059
0.2474 -19.2488 2.4059
0.9712 -19.2264 2.4059
1.6937 -19.1767 2.4059
2.4139 -19.0998 2.4059
3.1307 -18.9958 2.4059
3.8430 -18.8648 2.4059
4.5499 -18.7071 2.4059
2.2078 -7.7889 1.0117
5.9433 -18.3121 2.4059
2.8500 -7.7727 1.0346
7.3029 -17.8133 2.4059
7.9677 -17.5258 2.4059
6.0919 -12.1635 1.7001
8.8653 -16.1534 2.3028
9.4664 -15.8080 2.3028
10.0539 -15.4402 2.3027
10.6271 -15.0505 2.3027
11.1852 -14.6395 2.3027
11.7274 -14.2078 2.3027
12.2529 -13.7559 2.3027
12.7609 -13.2846 2.3027
13.2508 -12.7944 2.3026
13.8306 -12.3836 2.3209
14.2858 -11.8540 2.3209
14.7207 -11.3076 2.3209
15.1346 -10.7452 2.3209
15.5270 -10.1676 2.3209
7.3491 -4.4267 1.0729
7.3500 -4.0586 1.0501
7.3509 -3.7054 1.0296
7.3518 -3.3652 1.0114
7.3541 -3.0371 0.9953
7.4293 -2.7459 0.9909
7.4301 -2.4327 0.9782
7.4309 -2.1270 0.9671
7.4316 -1.8278 0.9577
7.3566 -1.5184 0.9401
7.3574 -1.2320 0.9337
7.3581 -0.9492 0.9287
7.3588 -0.6690 0.9250
7.3595 -0.3908 0.9227
7.3603 -0.1135 0.9217
7.3610 0.1635 0.9220
7.3617 0.4409 0.9236
7.3624 0.7197 0.9265
7.3671 1.0012 0.9313
7.3639 1.2845 0.9364
7.3646 1.5722 0.9435
7.3654 1.8646 0.9520
7.3662 2.1627 0.9621
7.3790 2.4715 0.9753
7.3878 2.7877 0.9897
7.3889 3.1104 1.0050
7.3833 3.4405 1.0212
7.3704 3.7782 1.0384
7.3713 4.1359 1.0599
7.3723 4.5092 1.0838
7.3733 4.9002 1.1103
9.9346 7.1554 1.5357
9.2114 7.1758 1.4647
11.0354 9.2843 1.8093
8.7082 7.9046 1.4756
8.7140 8.5293 1.5301
8.7274 9.2102 1.5923
8.1637 9.2918 1.5523
7.5609 9.2882 1.5032
6.9991 9.2912 1.4602
6.4683 9.2944 1.4215
5.9642 9.2974 1.3868
5.9544 10.0990 1.4720
5.9568 11.0317 1.5742
5.9596 12.1050 1.6943
5.9629 13.3574 1.8370
5.9667 14.8421 2.0090
5.9714 16.6363 2.2200
5.5397 17.4749 2.3026
4.8782 17.6698 2.3026
4.2098 17.8399 2.3026
3.5356 17.9847 2.3026
2.8564 18.1041 2.3026
2.1733 18.1980 2.3026
1.5538 19.0852 2.4059
0.8348 19.1294 2.4059
0.1146 19.1467 2.4059
-0.6057 19.1369 2.4059
-1.3251 19.1001 2.4059
-2.0426 19.0363 2.4059
-2.7572 18.9457 2.4059
-2.8053 15.2310 1.9462
-3.4014 15.2273 1.9607
-4.0073 15.2235 1.9783
-4.6251 15.2197 1.9990
-6.2453 18.0770 2.4034
-6.6310 17.0827 2.3028
-7.2690 16.8213 2.3028
-7.8967 16.5362 2.3028
-8.5133 16.2278 2.3028
-9.1179 15.8964 2.3028
-9.7097 15.5426 2.3028
-10.3250 15.2216 2.3111
-10.3288 14.0582 2.1919
-10.3322 13.0075 2.0871
-10.3307 12.0459 1.9937
-10.3318 11.1680 1.9114
-10.3343 10.3602 1.8383
-10.3360 9.6102 1.7729
-10.3377 8.9107 1.7144
-10.3392 8.2549 1.6618
-10.4556 7.7222 1.6325
-15.6823 10.6948 2.3839
-16.0846 10.1044 2.3854
-16.4577 9.4947 2.3859
-6.3052 3.3280 0.8952
-6.5874 3.1660 0.9176
-6.8846 2.9955 0.9426
-17.7008 6.9220 2.3859
-10.4737 3.6478 1.3921
-10.3504 3.1737 1.3588
-10.4668 2.7832 1.3592
-18.5450 4.1913 2.3859
-18.6913 3.4911 2.3859
-18.8112 2.7858 2.3859
-10.3722 1.1392 1.3090
-10.3542 0.7445 1.3022
-19.0108 0.6495 2.3859
-19.0237 -0.0661 2.3859
-19.0097 -0.7817 2.3859
-18.9688 -1.4964 2.3859
-10.4209 -1.2179 1.3154
-10.3586 -1.6076 1.3141
-18.6854 -3.6245 2.3859
-18.5378 -4.3252 2.3859
-10.4785 -2.8644 1.3614
-10.4714 -3.2904 1.3754
-10.3627 -3.6900 1.3783
-10.4763 -4.1808 1.4132
-17.4111 -7.7198 2.3859
-15.6975 -7.6791 2.3859
-10.5559 -5.6654 1.6355
-10.3701 -6.0789 1.6408
-10.3702 -6.6154 1.6789
-10.3683 -7.1768 1.7210
-10.3690 -7.7700 1.7682
-10.3697 -8.3977 1.8208
-10.3728 -9.0671 1.8798
-10.3744 -9.7808 1.9452
-10.3762 -10.5473 2.0184
-10.3779 -11.3750 2.1003
-10.3810 -12.2756 2.1927
-10.3844 -13.2607 2.2971
-9.9036 -13.6768 2.3028
-9.3829 -14.0407 2.3028
-8.8488 -14.3847 2.3028
-8.3020 -14.7084 2.3028
-7.7435 -15.0113 2.3028
-7.1738 -15.2930 2.3028
-6.5939 -15.5530 2.3028
-6.2734 -16.4978 2.4059
-5.6488 -16.7231 2.4059
-5.0161 -16.9247 2.4059
-4.3761 -17.1022 2.4059
-3.7299 -17.2556 2.4059
-3.0784 -17.3844 2.4059
-2.4224 -17.4887 2.4059
-1.7630 -17.5681 2.4059
-1.1010 -17.6226 2.4059
-0.4374 -17.6521 2.4059
0.2269 -17.6565 2.4059
0.8909 -17.6359 2.4059
1.5536 -17.5903 2.4059
2.2142 -17.5198 2.4059
2.8717 -17.4243 2.4059
3.5251 -17.3042 2.4059
4.1735 -17.1595 2.4059
2.2078 -7.7889 1.1029
5.4516 -16.7972 2.4059
2.8498 -7.7721 1.1278
6.4117 -15.6393 2.3028
6.9952 -15.3868 2.3027
6.1081 -12.1957 1.8583
8.1317 -14.8167 2.3027
8.6831 -14.5000 2.3027
9.2220 -14.1627 2.3027
9.7478 -13.8053 2.3027
10.2598 -13.4283 2.3027
10.7571 -13.0324 2.3026
12.8170 -14.3893 2.6259
11.7981 -12.2823 2.3209
12.2512 -11.8293 2.3209
12.6868 -11.3596 2.3209
13.1044 -10.8737 2.3209
13.5034 -10.3726 2.3209
6.5568 -4.6552 1.0961
6.8944 -4.5147 1.1234
7.3491 -4.4267 1.1696
7.3500 -4.0586 1.1447
7.3509 -3.7054 1.1224
7.3518 -3.3653 1.1025
7.3541 -3.0372 1.0850
7.4293 -2.7459 1.0802
7.4301 -2.4327 1.0663
7.4309 -2.1270 1.0543
7.4316 -1.8278 1.0440
7.3566 -1.5184 1.0248
7.3574 -1.2320 1.0178
7.3581 -0.9492 1.0123
7.3588 -0.6691 1.0083
7.3595 -0.3908 1.0058
7.3603 -0.1135 1.0047
7.3610 0.1634 1.0050
7.3617 0.4409 1.0067
7.3624 0.7197 1.0099
7.3671 1.0012 1.0151
7.3639 1.2845 1.0207
7.3646 1.5721 1.0284
7.3654 1.8645 1.0377
7.3662 2.1626 1.0486
7.3809 2.4721 1.0633
7.3897 2.7883 1.0790
7.3908 3.1112 1.0956
7.3833 3.4404 1.1130
7.3704 3.7781 1.1318
7.3713 4.1359 1.1551
7.3723 4.5092 1.1812
7.3733 4.9001 1.2101
8.6901 6.2590 1.4640
9.1802 7.1514 1.5910
11.0355 9.2843 1.9718
8.7083 7.9046 1.6082
8.7021 8.5175 1.6652
8.7274 9.2102 1.7353
8.1638 9.2918 1.6917
7.5612 9.2885 1.6383
6.9992 9.2912 1.5913
6.4683 9.2944 1.5492
5.9642 9.2974 1.5113
5.9544 10.0989 1.6041
5.9568 11.0316 1.7156
5.9596 12.1050 1.8464
5.9629 13.3573 2.0019
5.9667 14.8420 2.1893
5.6835 15.8340 2.3026
5.0835 16.0357 2.3026
4.4765 16.2148 2.3026
3.8632 16.3708 2.3026
3.2445 16.5038 2.3026
2.6213 16.6135 2.3026
2.0071 16.8060 2.3173
1.4259 17.5139 2.4059
0.7661 17.5545 2.4059
0.1052 17.5704 2.4059
-0.5558 17.5614 2.4059
-1.2160 17.5277 2.4059
-1.8744 17.4692 2.4059
-2.5302 17.3861 2.4059
-2.8923 15.7037 2.1866
-3.8300 17.1463 2.4059
-4.4723 16.9900 2.4059
-5.1082 16.8097 2.4059
-5.7370 16.6057 2.4059
-6.2504 16.1021 2.3653
-6.6706 15.4366 2.3028
-7.2467 15.1750 2.3028
-7.8125 14.8919 2.3028
-8.3673 14.5878 2.3028
-8.9104 14.2630 2.3028
-9.4409 13.9181 2.3028
-9.9580 13.5536 2.3028
-10.3319 13.0071 2.2743
-10.3307 12.0458 2.1726
-10.3317 11.1679 2.0829
-10.3344 10.3602 2.0033
-10.3361 9.6102 1.9320
-10.3378 8.9107 1.8682
-10.3393 8.2550 1.8110
-10.3394 7.6363 1.7593
-10.3406 7.0519 1.7130
-10.3494 6.5014 1.6726
-10.3824 5.9897 1.6402
-6.3052 3.3280 0.9756
-6.5874 3.1660 1.0000
-6.8846 2.9955 1.0272
-16.2423 6.3516 2.3859
-16.4710 5.7366 2.3859
-10.3503 3.1736 1.4808
-16.8584 4.4828 2.3859
-17.0165 3.8458 2.3859
-17.1506 3.2033 2.3859
-17.2605 2.5561 2.3859
-10.3718 1.1392 1.4266
-10.3541 0.7444 1.4192
-17.4433 0.5959 2.3859
-17.4549 -0.0607 2.3859
-17.4419 -0.7173 2.3859
-17.4042 -1.3730 2.3859
-10.4216 -1.2181 1.4338
-10.3586 -1.6077 1.4323
-17.1438 -3.3255 2.3859
-17.0082 -3.9684 2.3859
-16.8485 -4.6058 2.3859
-16.6650 -5.2368 2.3859
-10.3627 -3.6901 1.5023
-10.4760 -4.1807 1.5403
-15.9738 -7.0826 2.3859
-10.3670 -5.0714 1.7061
-10.3685 -5.5649 1.7395
-10.3700 -6.0789 1.7767
-10.3677 -6.6139 1.8175
-10.3684 -7.1769 1.8635
-10.3691 -7.7701 1.9147
-10.3698 -8.3978 1.9716
-10.3730 -9.0672 2.0355
-10.3746 -9.7810 2.1064
-10.3763 -10.5475 2.1857
-10.3780 -11.3751 2.2744
-10.0675 -11.9048 2.3028
-9.6133 -12.2760 2.3028
-9.1454 -12.6298 2.3028
-8.6645 -12.9658 2.3028
-8.1712 -13.2834 2.3028
-7.6663 -13.5823 2.3028
-7.1505 -13.8619 2.3028
-6.6244 -14.1219 2.3028
-6.3187 -14.9039 2.3897
-5.7930 -15.2344 2.4059
-5.2161 -15.4423 2.4059
-4.6318 -15.6284 2.4059
-4.0409 -15.7923 2.4059
-3.4442 -15.9338 2.4059
-2.8426 -16.0528 2.4059
-2.2368 -16.1489 2.4059
-1.6279 -16.2222 2.4059
-1.0166 -16.2725 2.4059
-0.4038 -16.2997 2.4059
0.2095 -16.3038 2.4059
0.8227 -16.2847 2.4059
1.4346 -16.2426 2.4059
2.0446 -16.1774 2.4059
2.6517 -16.0893 2.4059
3.2550 -15.9783 2.4059
3.8537 -15.8447 2.4059
2.2078 -7.7889 1.1944
4.8180 -14.8451 2.3027
2.8496 -7.7715 1.2213
5.9203 -14.4408 2.3027
6.4591 -14.2076 2.3027
6.0316 -12.0432 1.9873
7.5086 -13.6813 2.3027
8.0176 -13.3888 2.3027
8.5153 -13.0774 2.3026
9.0009 -12.7474 2.3026
9.5487 -12.4977 2.3209
10.0117 -12.1293 2.3209
10.4605 -11.7437 2.3209
10.8944 -11.3415 2.3209
11.3128 -10.9232 2.3209
11.7151 -10.4895 2.3209
12.1007 -10.0409 2.3209
12.4692 -9.5782 2.3209
6.3895 -4.5364 1.1567
13.1525 -8.6128 2.3209
7.3491 -4.4267 1.2666
7.3500 -4.0586 1.2396
7.3509 -3.7054 1.2155
7.3518 -3.3653 1.1939
7.3541 -3.0372 1.1750
7.4293 -2.7459 1.1697
7.4301 -2.4327 1.1547
7.4309 -2.1270 1.1416
7.4316 -1.8278 1.1305
7.3566 -1.5184 1.1097
7.3574 -1.2321 1.1021
7.3581 -0.9493 1.0962
7.3588 -0.6691 1.0918
7.3595 -0.3908 1.0891
7.3603 -0.1136 1.0879
7.3610 0.1634 1.0882
7.3617 0.4409 1.0901
7.3624 0.7197 1.0935
7.3671 1.0011 1.0992
7.3639 1.2845 1.1052
7.3646 1.5721 1.1135
7.3654 1.8645 1.1235
7.3662 2.1626 1.1354
7.3828 2.4727 1.1516
7.3915 2.7890 1.1686
7.3927 3.1119 1.1866
7.3833 3.4404 1.2051
7.3704 3.7781 1.2254
7.3713 4.1358 1.2507
7.3723 4.5091 1.2789
7.3733 4.9001 1.3102
8.6902 6.2590 1.5851
9.2114 7.1756 1.7283
8.6781 7.3010 1.6788
8.7084 7.9046 1.7412
8.7140 8.5291 1.8054
8.7274 9.2101 1.8788
8.1638 9.2918 1.8316
7.5615 9.2888 1.7738
6.9992 9.2912 1.7228
6.4683 9.2944 1.6772
5.9642 9.2974 1.6362
5.9544 10.0989 1.7367
5.9568 11.0315 1.8573
5.9596 12.1049 1.9989
5.9629 13.3572 2.1673
5.7966 14.4188 2.3026
5.2498 14.6258 2.3026
4.6957 14.8122 2.3026
4.1350 14.9776 2.3026
3.5685 15.1219 2.3026
2.9970 15.2447 2.3026
2.4213 15.3461 2.3026
1.8423 15.4257 2.3026
1.3172 16.1779 2.4059
0.7077 16.2155 2.4059
0.0972 16.2302 2.4059
-0.5134 16.2219 2.4059
-1.1232 16.1908 2.4059
-1.7314 16.1368 2.4059
-2.3372 16.0600 2.4059
-2.9396 15.9605 2.4059
-3.5379 15.8385 2.4059
-4.1312 15.6942 2.4059
-4.7186 15.5276 2.4059
-5.2994 15.3392 2.4059
-5.8727 15.1291 2.4059
-6.2579 14.4814 2.3387
-6.6940 14.0175 2.3028
-7.2166 13.7560 2.3028
-7.7291 13.4751 2.3028
-8.2307 13.1751 2.3028
-8.7207 12.8565 2.3028
-9.1984 12.5197 2.3028
-9.6632 12.1652 2.3028
-10.1143 11.7935 2.3028
-10.3317 11.1678 2.2549
-10.3345 10.3603 2.1688
-10.3362 9.6103 2.0916
-10.3378 8.9108 2.0225
-10.3394 8.2550 1.9606
-10.3395 7.6364 1.9046
-10.3408 7.0520 1.8545
-10.3420 6.4967 1.8095
-10.3431 5.9670 1.7691
-6.3053 3.3279 1.0562
-6.5874 3.1660 1.0827
-6.8846 2.9955 1.1121
-10.3774 4.0581 1.6503
-10.3977 3.6213 1.6306
-10.3501 3.1735 1.6032
-15.5712 4.1405 2.3859
-15.7172 3.5521 2.3859
-15.8409 2.9586 2.3859
-15.9423 2.3608 2.3859
-10.3714 1.1391 1.5445
-10.3540 0.7444 1.5365
-16.1108 0.5503 2.3859
-16.1214 -0.0561 2.3859
-16.1093 -0.6626 2.3859
-16.0744 -1.2682 2.3859
-10.4223 -1.2182 1.5525
-10.3586 -1.6077 1.5508
-15.8335 -3.0714 2.3859
-15.7082 -3.6652 2.3859
-15.5606 -4.2538 2.3859
-10.5500 -3.3152 1.6354
-10.3626 -3.6901 1.6266
-10.3917 -4.1471 1.6544
-10.3708 -4.5983 1.6773
-10.3669 -5.0714 1.8370
-10.3684 -5.5649 1.8729
-10.3699 -6.0788 1.9130
-10.3678 -6.6140 1.9571
-10.3685 -7.1770 2.0066
-10.3692 -7.7702 2.0617
-10.3699 -8.3980 2.1230
-10.3731 -9.0674 2.1918
-10.3747 -9.7812 2.2682
-10.1527 -10.3202 2.3028
-9.7580 -10.6956 2.3028
-9.3495 -11.0559 2.3028
-8.9277 -11.4005 2.3028
-8.4931 -11.7290 2.3028
-8.0464 -12.0410 2.3028
-7.5883 -12.3359 2.3028
-7.1194 -12.6133 2.3028
-6.6403 -12.8730 2.3028
-6.3149 -13.4623 2.3639
-5.9076 -13.9343 2.4059
-5.3796 -14.1474 2.4059
-4.8439 -14.3404 2.4059
-4.3013 -14.5132 2.4059
-3.7525 -14.6653 2.4059
-3.1984 -14.7967 2.4059
-2.6397 -14.9071 2.4059
-2.0772 -14.9964 2.4059
-1.5117 -15.0644 2.4059
-0.9440 -15.1111 2.4059
-0.3750 -15.1363 2.4059
0.1946 -15.1401 2.4059
0.7640 -15.1223 2.4059
1.3322 -15.0832 2.4059
1.8986 -15.0226 2.4059
2.4624 -14.9408 2.4059
3.0226 -14.8377 2.4059
3.4251 -14.0824 2.3027
2.2078 -7.7889 1.2863
4.4739 -13.7849 2.3026
2.8494 -7.7709 1.3150
5.4975 -13.4095 2.3026
5.9979 -13.1931 2.3026
6.4898 -12.9581 2.3027
6.9725 -12.7045 2.3026
7.5042 -12.5315 2.3209
7.9701 -12.2401 2.3209
8.4246 -11.9313 2.3209
8.8672 -11.6057 2.3209
9.2971 -11.2636 2.3209
9.7139 -10.9056 2.3209
10.1168 -10.5321 2.3209
10.5054 -10.1437 2.3209
10.8790 -9.7410 2.3209
11.2372 -9.3245 2.3209
11.5794 -8.8948 2.3209
6.3894 -4.5364 1.2456
12.2140 -7.9983 2.3209
7.3491 -4.4268 1.3639
7.3500 -4.0587 1.3349
7.3509 -3.7055 1.3088
7.3518 -3.3653 1.2856
7.3541 -3.0372 1.2652
7.4293 -2.7459 1.2595
7.4301 -2.4327 1.2434
7.4309 -2.1271 1.2293
7.4316 -1.8279 1.2173
7.3566 -1.5184 1.1949
7.3574 -1.2321 1.1867
7.3581 -0.9493 1.1803
7.3588 -0.6691 1.1757
7.3595 -0.3908 1.1727
7.3603 -0.1136 1.1714
7.3610 0.1634 1.1717
7.3617 0.4409 1.1738
7.3624 0.7196 1.1775
7.3671 1.0011 1.1835
7.3639 1.2844 1.1900
7.3646 1.5721 1.1989
7.3654 1.8645 1.2097
7.3662 2.1626 1.2225
7.3847 2.4733 1.2402
7.3934 2.7897 1.2585
7.3946 3.1127 1.2779
7.3833 3.4404 1.2975
7.3704 3.7780 1.3194
7.3713 4.1358 1.3466
7.3723 4.5091 1.3769
7.3733 4.9001 1.4106
8.6571 6.2351 1.7001
9.2114 7.1756 1.8608
11.0356 9.2843 2.2985
8.7084 7.9046 1.8746
8.7140 8.5291 1.9437
8.7274 9.2101 2.0227
8.1639 9.2918 1.9719
7.5618 9.2891 1.9097
6.9994 9.2914 1.8548
6.4684 9.2944 1.8057
5.9643 9.2974 1.7615
5.9544 10.0988 1.8696
5.9568 11.0314 1.9995
5.9596 12.1048 2.1520
5.9629 13.3571 2.3332
5.3844 13.3934 2.3026
4.8765 13.5858 2.3026
4.3618 13.7589 2.3026
3.8410 13.9126 2.3026
3.3148 14.0467 2.3026
2.7840 14.1608 2.3026
2.2492 14.2550 2.3026
1.7881 14.9716 2.4059
1.2236 15.0277 2.4059
0.6574 15.0627 2.4059
0.0903 15.0764 2.4059
-0.4769 15.0687 2.4059
-1.0434 15.0399 2.4059
-1.6083 14.9897 2.4059
-2.1711 14.9184 2.4059
-2.7307 14.8260 2.4059
-3.2864 14.7127 2.4059
-3.8375 14.5786 2.4059
-4.3832 14.4239 2.4059
-4.9227 14.2488 2.4059
-5.4552 14.0537 2.4059
-5.9801 13.8386 2.4059
-6.2656 13.1206 2.3204
-6.7036 12.7782 2.3028
-7.1797 12.5172 2.3028
-7.6456 12.2385 2.3028
-8.1008 11.9425 2.3028
-8.5445 11.6297 2.3028
-8.9762 11.3003 2.3028
-9.3953 10.9550 2.3028
-9.8011 10.5942 2.3028
-10.1930 10.2184 2.3028
-10.3363 9.6103 2.2517
-10.3379 8.9108 2.1774
-10.3395 8.2550 2.1107
-10.3397 7.6365 2.0505
-10.3410 7.0521 1.9966
-10.3421 6.4968 1.9481
-10.3433 5.9670 1.9045
-6.3053 3.3279 1.1371
-6.5875 3.1660 1.1656
-6.8846 2.9955 1.1973
-10.3487 4.0468 1.7718
-10.3500 3.6046 1.7475
-10.3499 3.1734 1.7259
-10.3514 2.7525 1.7076
-10.3529 2.3397 1.6920
-10.3579 1.9345 1.6796
-10.3688 1.5354 1.6707
-10.3573 1.1375 1.6606
-10.3540 0.7443 1.6543
-10.3803 0.3545 1.6551
-10.3812 -0.0362 1.6541
-10.3800 -0.4270 1.6552
-10.3769 -0.8187 1.6583
-10.3716 -1.2123 1.6634
-10.3585 -1.6077 1.6697
-10.3607 -2.0098 1.6809
-10.3601 -2.4173 1.6942
-10.3609 -2.8324 1.7105
-10.3617 -3.2561 1.7295
-10.3626 -3.6901 1.7514
-10.3641 -4.1362 1.7765
-10.3655 -4.5959 1.8050
-10.3668 -5.0714 1.9684
-10.3683 -5.5649 2.0069
-10.3698 -6.0788 2.0498
-10.3679 -6.6141 2.0971
-10.3686 -7.1771 2.1501
-10.3692 -7.7704 2.2092
-10.3700 -8.3981 2.2749
-10.1704 -8.8903 2.3028
-9.8296 -9.2673 2.3028
-9.4747 -9.6311 2.3028
-9.1063 -9.9813 2.3028
-8.7250 -10.3175 2.3028
-8.3313 -10.6390 2.3028
-7.9258 -10.9456 2.3028
-7.5089 -11.2366 2.3028
-7.0814 -11.5118 2.3028
-6.6437 -11.7707 2.3028
-6.3126 -12.2377 2.3459
-5.9977 -12.7860 2.4059
-5.5128 -13.0032 2.4059
-5.0201 -13.2020 2.4059
-4.5201 -13.3822 2.4059
-4.0138 -13.5433 2.4059
-3.5017 -13.6852 2.4059
-2.9846 -13.8078 2.4059
-2.4632 -13.9108 2.4059
-1.9383 -13.9941 2.4059
-1.4106 -14.0575 2.4059
-0.8809 -14.1010 2.4059
-0.3499 -14.1246 2.4059
0.1816 -14.1281 2.4059
0.7129 -14.1115 2.4059
1.2432 -14.0750 2.4059
1.7717 -14.0184 2.4059
2.2978 -13.9420 2.4059
2.6997 -13.2524 2.3028
3.1962 -13.1414 2.3027
2.2078 -7.7889 1.3784
4.1750 -12.8638 2.3027
2.8491 -7.7703 1.4091
5.1300 -12.5132 2.3027
5.5970 -12.3112 2.3026
6.0560 -12.0918 2.3026
6.5579 -11.9492 2.3209
7.0026 -11.6938 2.3209
7.4373 -11.4219 2.3209
7.8615 -11.1339 2.3209
8.2745 -10.8300 2.3209
8.6757 -10.5108 2.3209
9.0646 -10.1767 2.3209
9.4407 -9.8282 2.3209
9.8033 -9.4658 2.3209
10.1520 -9.0900 2.3209
10.4863 -8.7014 2.3209
10.8057 -8.3004 2.3209
6.3894 -4.5364 1.3348
11.3979 -7.4639 2.3209
7.3491 -4.4268 1.4615
7.3500 -4.0587 1.4304
7.3509 -3.7055 1.4025
7.3518 -3.3654 1.3776
7.3541 -3.0372 1.3558
7.3571 -2.7193 1.3366
7.3590 -2.4095 1.3196
7.3608 -2.1070 1.3049
7.3623 -1.8108 1.2922
7.3566 -1.5185 1.2804
7.3574 -1.2321 1.2716
7.3581 -0.9493 1.2648
7.3588 -0.6692 1.2598
7.3654 -0.3912 1.2576
7.3662 -0.1137 1.2562
7.3669 0.1635 1.2565
7.3675 0.4412 1.2587
7.3680 0.7202 1.2626
7.3671 1.0011 1.2681
7.3639 1.2844 1.2751
7.3646 1.5721 1.2847
7.3654 1.8644 1.2962
7.3662 2.1625 1.3098
7.3866 2.4739 1.3292
7.3953 2.7904 1.3488
7.3965 3.1135 1.3695
7.3833 3.4403 1.3902
7.3704 3.7780 1.4137
7.3713 4.1358 1.4428
7.3723 4.5091 1.4753
7.3733 4.9000 1.5114
8.6903 6.2590 1.8285
9.2114 7.1756 1.9937
10.5124 8.8440 2.3459
8.7085 7.9046 2.0085
8.7140 8.5290 2.0825
8.7274 9.2100 2.1671
8.1640 9.2918 2.1127
7.5621 9.2895 2.0461
6.9997 9.2917 1.9873
6.4684 9.2944 1.9346
5.9643 9.2974 1.8872
5.9544 10.0987 2.0031
5.9568 11.0314 2.1422
5.9596 12.1047 2.3056
5.4927 12.3039 2.3026
5.0258 12.5012 2.3026
4.5517 12.6808 2.3026
4.0713 12.8425 2.3026
3.5852 12.9860 2.3026
3.0940 13.1111 2.3026
2.5986 13.2177 2.3026
2.0994 13.3057 2.3026
1.6690 13.9745 2.4059
1.1421 14.0270 2.4059
0.6136 14.0596 2.4059
0.0843 14.0724 2.4059
-0.4451 14.0654 2.4059
-0.9739 14.0384 2.4059
-1.5012 13.9916 2.4059
-2.0265 13.9250 2.4059
-2.5488 13.8388 2.4059
-3.0676 13.7331 2.4059
-3.5820 13.6079 2.4059
-4.0914 13.4635 2.4059
-4.5949 13.3001 2.4059
-5.0920 13.1179 2.4059
-5.5819 12.9172 2.4059
-6.0639 12.6982 2.4059
-6.2715 11.9545 2.3080
-6.7016 11.6837 2.3028
-7.1365 11.4235 2.3028
-7.5614 11.1472 2.3028
-7.9755 10.8552 2.3028
-8.3785 10.5478 2.3028
-8.7696 10.2254 2.3028
-9.1483 9.8887 2.3028
-9.5142 9.5379 2.3028
-9.8666 9.1736 2.3028
-10.2052 8.7963 2.3028
-10.3396 8.2551 2.2613
-10.3399 7.6366 2.1968
-10.3411 7.0521 2.1391
-10.3423 6.4968 2.0872
-10.3434 5.9671 2.0405
-6.3053 3.3279 1.2182
-6.5875 3.1660 1.2488
-6.8847 2.9954 1.2827
-10.3487 4.0468 1.8983
-10.3500 3.6046 1.8722
-10.3497 3.1733 1.8491
-10.3513 2.7524 1.8295
-10.3528 2.3396 1.8128
-10.3542 1.9338 1.7989
-10.3557 1.5334 1.7877
-10.3571 1.1374 1.7792
-10.3539 0.7443 1.7724
-10.3543 0.3536 1.7688
-10.3546 -0.0361 1.7678
-10.3550 -0.4260 1.7692
-10.3553 -0.8171 1.7731
-10.3557 -1.2105 1.7795
-10.3585 -1.6078 1.7890
-10.3593 -2.0096 1.8008
-10.3601 -2.4173 1.8153
-10.3609 -2.8324 1.8327
-10.3617 -3.2562 1.8531
-10.3626 -3.6901 1.8766
-10.3640 -4.1362 1.9035
-10.3654 -4.5959 1.9340
-10.3667 -5.0714 2.1002
-10.3681 -5.5649 2.1413
-10.3697 -6.0788 2.1872
-10.3680 -6.6142 2.2376
-10.3686 -7.1772 2.2943
-10.1296 -7.5908 2.3028
-9.8376 -7.9670 2.3028
-9.5316 -8.3320 2.3028
-9.2121 -8.6851 2.3028
-8.8794 -9.0261 2.3028
-8.5342 -9.3543 2.3028
-8.1768 -9.6693 2.3028
-7.8078 -9.9706 2.3028
-7.4277 -10.2579 2.3028
-7.0370 -10.5306 2.3028
-6.6363 -10.7884 2.3028
-6.3107 -11.1807 2.3340
-6.0671 -11.7619 2.4059
-5.6207 -11.9824 2.4059
-5.1663 -12.1860 2.4059
-4.7045 -12.3722 2.4059
-4.2360 -12.5410 2.4059
-3.7615 -12.6919 2.4059
-3.2815 -12.8249 2.4059
-2.7969 -12.9398 2.4059
-2.3083 -13.0363 2.4059
-1.8164 -13.1143 2.4059
-1.3219 -13.1737 2.4059
-0.8255 -13.2145 2.4059
-0.3279 -13.2365 2.4059
0.1702 -13.2397 2.4059
0.6681 -13.2242 2.4059
1.1650 -13.1899 2.4059
1.6603 -13.1370 2.4059
2.1533 -13.0654 2.4059
2.5299 -12.4192 2.3028
2.9953 -12.3152 2.3028
2.2078 -7.7889 1.4709
3.9125 -12.0550 2.3027
2.8489 -7.7697 1.5036
4.8075 -11.7265 2.3027
5.2450 -11.5371 2.3027
5.6752 -11.3315 2.3026
6.1456 -11.1978 2.3209
6.5623 -10.9586 2.3209
6.9697 -10.7038 2.3209
7.3672 -10.4338 2.3209
7.7542 -10.1491 2.3209
8.1303 -9.8500 2.3209
8.4947 -9.5369 2.3209
8.8471 -9.2104 2.3209
9.1870 -8.8707 2.3209
9.5138 -8.5186 2.3209
9.8271 -8.1544 2.3209
10.1264 -7.7787 2.3209
6.3894 -4.5364 1.4243
10.6815 -6.9948 2.3209
7.3491 -4.4268 1.5596
7.3500 -4.0587 1.5263
7.3509 -3.7055 1.4966
7.3518 -3.3654 1.4700
7.3527 -3.0367 1.4464
7.3535 -2.7180 1.4255
7.3543 -2.4080 1.4072
7.3551 -2.1054 1.3913
7.3565 -1.8094 1.3778
7.3566 -1.5185 1.3662
7.3574 -1.2322 1.3569
7.3581 -0.9493 1.3495
7.3588 -0.6692 1.3442
7.3615 -0.3910 1.3411
7.3622 -0.1137 1.3396
7.3629 0.1634 1.3400
7.3636 0.4409 1.3423
7.3641 0.7198 1.3465
7.3645 1.0007 1.3526
7.3639 1.2844 1.3605
7.3646 1.5720 1.3707
7.3654 1.8644 1.3830
7.3662 2.1625 1.3976
7.3878 2.4743 1.4184
7.3945 2.7900 1.4390
7.3948 3.1127 1.4609
7.3807 3.4391 1.4827
7.3704 3.7780 1.5083
7.3713 4.1357 1.5394
7.3723 4.5090 1.5740
7.3733 4.9000 1.6126
8.6904 6.2590 1.9509
9.2114 7.1755 2.1271
9.8531 8.2893 2.3459
8.7085 7.9046 2.1429
8.7140 8.5289 2.2218
8.7159 9.1977 2.3090
8.1640 9.2918 2.2540
7.5624 9.2898 2.1831
7.0000 9.2920 2.1203
6.4685 9.2944 2.0640
5.9643 9.2974 2.0135
5.9544 10.0987 2.1371
5.9568 11.0313 2.2855
5.5790 11.3314 2.3026
5.1485 11.5327 2.3026
4.7108 11.7177 2.3026
4.2665 11.8861 2.3026
3.8162 12.0376 2.3026
3.3606 12.1722 2.3026
2.9002 12.2895 2.3026
2.4358 12.3895 2.3026
1.9679 12.4719 2.3026
1.5644 13.0989 2.4059
1.0706 13.1481 2.4059
0.5752 13.1787 2.4059
0.0790 13.1907 2.4059
-0.4172 13.1841 2.4059
-0.9128 13.1589 2.4059
-1.4072 13.1150 2.4059
-1.8995 13.0526 2.4059
-2.3891 12.9718 2.4059
-2.8754 12.8727 2.4059
-3.3576 12.7554 2.4059
-3.8350 12.6200 2.4059
-4.3071 12.4669 2.4059
-4.7730 12.2961 2.4059
-5.2322 12.1079 2.4059
-5.6840 11.9026 2.4059
-6.1278 11.6805 2.4059
-6.2818 10.9516 2.3028
-6.6894 10.7078 2.3028
-7.0876 10.4488 2.3028
-7.4758 10.1750 2.3028
-7.8535 9.8869 2.3028
-8.2201 9.5847 2.3028
-8.5751 9.2690 2.3028
-8.9180 8.9402 2.3028
-9.2483 8.5987 2.3028
-9.5656 8.2450 2.3028
-9.8694 7.8797 2.3028
-10.1593 7.5032 2.3028
-10.3413 7.0522 2.2821
-10.3425 6.4969 2.2268
-10.3436 5.9671 2.1770
-6.3053 3.3279 1.2997
-6.5875 3.1659 1.3323
-6.8847 2.9954 1.3685
-10.3487 4.0467 2.0253
-10.3500 3.6046 1.9975
-10.3495 3.1732 1.9728
-10.3511 2.7523 1.9518
-10.3526 2.3396 1.9340
-10.3541 1.9337 1.9192
-10.3555 1.5334 1.9073
-10.3569 1.1374 1.8982
-10.3539 0.7442 1.8910
-10.3542 0.3535 1.8872
-10.3546 -0.0362 1.8861
-10.3549 -0.4260 1.8876
-10.3553 -0.8171 1.8918
-10.3556 -1.2105 1.8987
-10.3585 -1.6078 1.9088
-10.3593 -2.0096 1.9214
-10.3601 -2.4174 1.9369
-10.3609 -2.8325 1.9554
-10.3617 -3.2562 1.9772
-10.3625 -3.6902 2.0023
-10.3639 -4.1362 2.0310
-10.3652 -4.5959 2.0636
-10.3666 -5.0714 2.2326
-10.3680 -5.5649 2.2763
-10.2702 -6.0207 2.3028
-10.0372 -6.4032 2.3028
-9.7899 -6.7766 2.3028
-9.5287 -7.1405 2.3028
-9.2540 -7.4944 2.3028
-8.9661 -7.8377 2.3028
-8.6655 -8.1699 2.3028
-8.3526 -8.4906 2.3028
-8.0278 -8.7993 2.3028
-7.6916 -9.0955 2.3028
-7.3444 -9.3789 2.3028
-6.9869 -9.6491 2.3028
-6.6194 -9.9056 2.3028
-6.3075 -10.2539 2.3268
-6.1188 -10.8408 2.4059
-5.7070 -11.0638 2.4059
-5.2870 -11.2712 2.4059
-4.8596 -11.4626 2.4059
-4.4252 -11.6378 2.4059
-3.9845 -11.7964 2.4059
-3.5381 -11.9384 2.4059
-3.0867 -12.0635 2.4059
-2.6308 -12.1715 2.4059
-2.1713 -12.2622 2.4059
-1.7085 -12.3356 2.4059
-1.2434 -12.3915 2.4059
-0.7765 -12.4298 2.4059
-0.3084 -12.4505 2.4059
0.1601 -12.4535 2.4059
0.6284 -12.4389 2.4059
1.0958 -12.4067 2.4059
1.5617 -12.3568 2.4059
1.9386 -11.7629 2.3028
2.3797 -11.6817 2.3028
2.8174 -11.5838 2.3028
2.2078 -7.7889 1.5638
3.6801 -11.3391 2.3027
2.8487 -7.7691 1.5984
4.5220 -11.0301 2.3027
4.9336 -10.8520 2.3027
5.3382 -10.6586 2.3026
5.7352 -10.4501 2.3026
6.1726 -10.3078 2.3209
6.5558 -10.0682 2.3209
6.9297 -9.8143 2.3209
7.2938 -9.5465 2.3209
7.6475 -9.2651 2.3209
7.9903 -8.9707 2.3209
8.3218 -8.6635 2.3209
8.6415 -8.3441 2.3209
8.9489 -8.0129 2.3209
9.2436 -7.6703 2.3209
9.5252 -7.3169 2.3209
6.3893 -4.5364 1.5142
10.0474 -6.5796 2.3209
7.3491 -4.4269 1.6580
7.3500 -4.0588 1.6227
7.3509 -3.7055 1.5910
7.3518 -3.3654 1.5628
7.3527 -3.0367 1.5377
7.3535 -2.7180 1.5154
7.3543 -2.4080 1.4960
7.3551 -2.1055 1.4790
7.3559 -1.8093 1.4645
7.3566 -1.5185 1.4524
7.3574 -1.2322 1.4424
7.3581 -0.9493 1.4346
7.3588 -0.6692 1.4290
7.3595 -0.3909 1.4253
7.3603 -0.1137 1.4237
7.3610 0.1633 1.4241
7.3617 0.4408 1.4266
7.3624 0.7196 1.4310
7.3632 1.0005 1.4376
7.3639 1.2843 1.4462
7.3646 1.5720 1.4571
7.3654 1.8644 1.4702
7.3662 2.1625 1.4856
7.3878 2.4743 1.5078
7.3918 2.7890 1.5291
7.3920 3.1115 1.5524
7.3780 3.4378 1.5756
7.3704 3.7779 1.6033
7.3713 4.1357 1.6363
7.3723 4.5090 1.6731
7.3733 4.8999 1.7141
8.6904 6.2590 2.0738
9.1806 7.1514 2.2535
4.9735 4.1841 1.2587
4.8372 4.3906 1.2652
8.6558 8.4719 2.3459
8.3305 8.7910 2.3459
7.9934 9.0976 2.3459
7.5627 9.2901 2.3206
7.0003 9.2924 2.2539
6.4686 9.2945 2.1939
5.9644 9.2974 2.1402
5.9544 10.0986 2.2715
5.6462 10.4561 2.3026
5.2487 10.6605 2.3026
4.8437 10.8499 2.3026
4.4319 11.0240 2.3026
4.0140 11.1824 2.3026
3.5903 11.3250 2.3026
3.1616 11.4516 2.3026
2.7285 11.5620 2.3026
2.2916 11.6561 2.3026
1.8514 11.7337 2.3026
1.4719 12.3236 2.4059
1.0072 12.3699 2.4059
0.5412 12.3987 2.4059
0.0744 12.4100 2.4059
-0.3925 12.4038 2.4059
-0.8588 12.3801 2.4059
-1.3239 12.3388 2.4059
-1.7871 12.2802 2.4059
-2.2477 12.2041 2.4059
-2.7052 12.1109 2.4059
-3.1589 12.0005 2.4059
-3.6081 11.8732 2.4059
-4.0522 11.7290 2.4059
-4.4905 11.5684 2.4059
-4.9226 11.3913 2.4059
-5.3476 11.1982 2.4059
-5.7652 10.9892 2.4059
-6.1746 10.7648 2.4059
-6.2935 10.0741 2.3028
-6.6682 9.8304 2.3028
-7.0334 9.5728 2.3028
-7.3887 9.3017 2.3028
-7.7336 9.0174 2.3028
-8.0676 8.7204 2.3028
-8.3902 8.4110 2.3028
-8.7009 8.0897 2.3028
-8.9994 7.7569 2.3028
-9.2852 7.4132 2.3028
-9.5578 7.0590 2.3028
-9.8170 6.6947 2.3028
-10.0624 6.3210 2.3028
-10.2935 5.9383 2.3028
-6.3054 3.3279 1.3815
-6.5875 3.1659 1.4162
-6.8847 2.9954 1.4547
-10.3487 4.0467 2.1528
-10.3500 3.6046 2.1232
-10.3494 3.1731 2.0970
-10.3509 2.7522 2.0747
-10.3524 2.3395 2.0558
-10.3539 1.9336 2.0400
-10.3553 1.5333 2.0274
-10.3568 1.1373 2.0177
-10.3538 0.7442 2.0101
-10.3541 0.3535 2.0061
-10.3545 -0.0362 2.0048
-10.3548 -0.4261 2.0065
-10.3552 -0.8171 2.0109
-10.3555 -1.2105 2.0183
-10.3585 -1.6078 2.0290
-10.3592 -2.0096 2.0424
-10.3600 -2.4174 2.0589
-10.3608 -2.8325 2.0787
-10.3617 -3.2562 2.1018
-10.3625 -3.6902 2.1285
-10.3638 -4.1362 2.1590
-10.3651 -4.5959 2.1936
-10.0913 -4.9369 2.3028
-9.8991 -5.3133 2.3028
-9.6929 -5.6823 2.3028
-9.4729 -6.0432 2.3028
-9.2395 -6.3957 2.3028
-8.9929 -6.7391 2.3028
-8.7336 -7.0730 2.3028
-8.4619 -7.3970 2.3028
-8.1782 -7.7105 2.3028
-7.8828 -8.0131 2.3028
-7.5763 -8.3044 2.3028
-7.2590 -8.5840 2.3028
-6.9313 -8.8515 2.3028
-6.5938 -9.1064 2.3028
-6.3044 -9.4344 2.3240
-6.1550 -10.0060 2.4059
-5.7745 -10.2310 2.4059
-5.3859 -10.4414 2.4059
-4.9895 -10.6371 2.4059
-4.5861 -10.8177 2.4059
-4.1762 -10.9830 2.4059
-3.7603 -11.1327 2.4059
-3.3390 -11.2667 2.4059
-2.9130 -11.3847 2.4059
-2.4828 -11.4866 2.4059
-2.0490 -11.5722 2.4059
-1.6124 -11.6414 2.4059
-1.1734 -11.6941 2.4059
-0.7328 -11.7303 2.4059
-0.2910 -11.7498 2.4059
0.1511 -11.7526 2.4059
0.5931 -11.7388 2.4059
1.0342 -11.7084 2.4059
1.4739 -11.6614 2.4059
1.8295 -11.1008 2.3028
2.2458 -11.0242 2.3028
2.6588 -10.9319 2.3028
2.2078 -7.7889 1.6570
3.4730 -10.7009 2.3027
2.8084 -7.6592 1.6697
4.2675 -10.4093 2.3027
4.6559 -10.2413 2.3027
5.0377 -10.0588 2.3027
5.4124 -9.8620 2.3026
5.8252 -9.7277 2.3209
6.1869 -9.5015 2.3209
6.5397 -9.2619 2.3209
6.8833 -9.0092 2.3209
7.2171 -8.7437 2.3209
7.5407 -8.4658 2.3209
7.8535 -8.1760 2.3209
8.1552 -7.8746 2.3209
8.4454 -7.5620 2.3209
8.7235 -7.2387 2.3209
8.9893 -6.9052 2.3209
6.3893 -4.5364 1.6045
9.4821 -6.2095 2.3209
7.3491 -4.4269 1.7568
7.3500 -4.0588 1.7194
7.3509 -3.7056 1.6859
7.3518 -3.3654 1.6559
7.3527 -3.0367 1.6293
7.3535 -2.7181 1.6058
7.3543 -2.4080 1.5851
7.3551 -2.1055 1.5672
7.3559 -1.8093 1.5518
7.3566 -1.5186 1.5389
7.3574 -1.2322 1.5284
7.3581 -0.9494 1.5201
7.3588 -0.6692 1.5141
7.3595 -0.3909 1.5102
7.3603 -0.1137 1.5085
7.3610 0.1633 1.5090
7.3617 0.4407 1.5115
7.3624 0.7195 1.5163
7.3632 1.0004 1.5232
7.3639 1.2843 1.5324
7.3646 1.5720 1.5438
7.3654 1.8644 1.5577
7.3662 2.1624 1.5741
7.3878 2.4742 1.5976
7.3891 2.7879 1.6195
7.3892 3.1103 1.6441
7.3753 3.4365 1.6688
7.3704 3.7779 1.6987
7.3713 4.1357 1.7337
7.3723 4.5089 1.7727
7.3733 4.8999 1.8161
8.6905 6.2590 2.1972
9.0201 7.0264 2.3459
4.8418 4.0733 1.2983
4.6567 4.2268 1.2905
4.5929 4.4953 1.3188
7.8628 8.2974 2.3459
7.5447 8.5868 2.3459
7.2159 8.8640 2.3459
6.8770 9.1287 2.3459
6.4689 9.2948 2.3245
5.9644 9.2974 2.2675
5.6971 9.6621 2.3026
5.3294 9.8692 2.3026
4.9541 10.0622 2.3026
4.5719 10.2410 2.3026
4.1833 10.4053 2.3026
3.7887 10.5548 2.3026
3.3889 10.6895 2.3026
2.9843 10.8090 2.3026
2.5754 10.9132 2.3026
2.1630 11.0021 2.3026
1.7837 11.3043 2.3502
1.3893 11.6321 2.4059
0.9507 11.6759 2.4059
0.5108 11.7031 2.4059
0.0702 11.7138 2.4059
-0.3705 11.7079 2.4059
-0.8106 11.6855 2.4059
-1.2496 11.6466 2.4059
-1.6868 11.5912 2.4059
-2.1216 11.5195 2.4059
-2.5535 11.4314 2.4059
-2.9817 11.3272 2.4059
-3.4057 11.2070 2.4059
-3.8248 11.0710 2.4059
-4.2386 10.9194 2.4059
-4.6464 10.7523 2.4059
-5.0476 10.5700 2.4059
-5.4417 10.3727 2.4059
-5.8282 10.1608 2.4059
-6.2064 9.9345 2.4059
-6.2941 9.2788 2.3028
-6.6388 9.0357 2.3028
-6.9741 8.7798 2.3028
-7.2997 8.5114 2.3028
-7.6149 8.2310 2.3028
-7.9194 7.9390 2.3028
-8.2127 7.6357 2.3028
-8.4944 7.3216 2.3028
-8.7641 6.9972 2.3028
-9.0215 6.6628 2.3028
-9.2661 6.3190 2.3028
-9.4977 5.9662 2.3028
-9.7158 5.6049 2.3028
-6.3054 3.3279 1.4637
-6.5876 3.1659 1.5004
-6.8847 2.9954 1.5412
-10.3487 4.0467 2.2808
-10.3501 3.6045 2.2495
-10.3492 3.1730 2.2216
-10.3507 2.7521 2.1981
-10.3522 2.3394 2.1780
-10.3537 1.9336 2.1613
-10.3552 1.5332 2.1480
-10.3566 1.1373 2.1377
-10.3537 0.7442 2.1297
-10.3541 0.3535 2.1254
-10.3544 -0.0363 2.1241
-10.3548 -0.4261 2.1259
-10.3551 -0.8172 2.1306
-10.3555 -1.2106 2.1384
-10.3584 -1.6079 2.1498
-10.3592 -2.0097 2.1640
-10.3600 -2.4175 2.1815
-10.3608 -2.8325 2.2024
-10.3616 -3.2563 2.2269
-10.3625 -3.6902 2.2552
-10.3636 -4.1362 2.2876
-10.2692 -4.5535 2.3028
-9.5520 -4.6731 2.3028
-9.3700 -5.0294 2.3028
-9.1748 -5.3786 2.3028
-8.9665 -5.7202 2.3028
-8.7455 -6.0538 2.3028
-8.5121 -6.3789 2.3028
-8.2667 -6.6949 2.3028
-8.0094 -7.0015 2.3028
-7.7409 -7.2983 2.3028
-7.4613 -7.5847 2.3028
-7.1711 -7.8604 2.3028
-6.8707 -8.1250 2.3028
-6.5606 -8.3781 2.3028
-6.3017 -8.7029 2.3251
-6.1775 -9.2446 2.4059
-5.8257 -9.4709 2.4059
-5.4656 -9.6837 2.4059
-5.0978 -9.8829 2.4059
-4.7226 -10.0681 2.4059
-4.3408 -10.2390 2.4059
-3.9527 -10.3954 2.4059
-3.5591 -10.5371 2.4059
-3.1603 -10.6639 2.4059
-2.7571 -10.7756 2.4059
-2.3499 -10.8720 2.4059
-1.9394 -10.9530 2.4059
-1.5261 -11.0185 2.4059
-1.1106 -11.0684 2.4059
-0.6935 -11.1026 2.4059
-0.2754 -11.1211 2.4059
0.1430 -11.1238 2.4059
0.5613 -11.1107 2.4059
0.9788 -11.0819 2.4059
1.3950 -11.0373 2.4059
1.7540 -10.6427 2.3326
2.1256 -10.4343 2.3028
2.5166 -10.3469 2.3028
2.2078 -7.7889 1.7507
3.2872 -10.1283 2.3027
2.8070 -7.6552 1.7632
4.0391 -9.8523 2.3027
4.4068 -9.6933 2.3027
4.7682 -9.5206 2.3027
5.1228 -9.3343 2.3027
5.4701 -9.1348 2.3026
5.8558 -8.9931 2.3209
6.1898 -8.7663 2.3209
6.5150 -8.5271 2.3209
6.8309 -8.2759 2.3209
7.1372 -8.0129 2.3209
7.4333 -7.7386 2.3209
7.7189 -7.4533 2.3209
7.9935 -7.1574 2.3209
8.2568 -6.8515 2.3209
8.5083 -6.5358 2.3209
6.3893 -4.5364 1.6951
8.9749 -5.8773 2.3209
7.3491 -4.4269 1.8561
7.3500 -4.0588 1.8166
7.3509 -3.7056 1.7811
7.3518 -3.3655 1.7495
7.3527 -3.0368 1.7214
7.3535 -2.7181 1.6965
7.3543 -2.4081 1.6747
7.3551 -2.1055 1.6557
7.3559 -1.8094 1.6395
7.3566 -1.5186 1.6259
7.3574 -1.2322 1.6147
7.3581 -0.9494 1.6060
7.3588 -0.6693 1.5996
7.3595 -0.3910 1.5955
7.3603 -0.1137 1.5937
7.3610 0.1632 1.5942
7.3617 0.4407 1.5969
7.3624 0.7195 1.6019
7.3632 1.0004 1.6092
7.3639 1.2843 1.6189
7.3646 1.5720 1.6310
7.3654 1.8643 1.6457
7.3662 2.1624 1.6629
7.3861 2.4736 1.6874
7.3863 2.7868 1.7103
7.3864 3.1091 1.7363
7.3726 3.4352 1.7623
7.3704 3.7779 1.7946
7.3713 4.1356 1.8315
7.3723 4.5089 1.8727
7.3733 4.8998 1.9186
8.6571 6.2349 2.3122
8.5384 6.6511 2.3459
4.8679 4.0952 1.3789
4.6396 4.2111 1.3582
4.6383 4.5397 1.4070
7.4430 7.8543 2.3459
7.1419 8.1283 2.3459
6.8307 8.3908 2.3459
6.5099 8.6414 2.3459
6.1800 8.8797 2.3459
5.7336 8.9375 2.3026
5.3930 9.1464 2.3026
5.0449 9.3424 2.3026
4.6897 9.5251 2.3026
4.3279 9.6944 2.3026
3.9600 9.8499 2.3026
3.5866 9.9916 2.3026
3.2080 10.1190 2.3026
2.8250 10.2322 2.3026
2.4380 10.3309 2.3026
2.0476 10.4150 2.3026
1.7285 10.9545 2.4059
1.3152 11.0114 2.4059
0.9000 11.0529 2.4059
0.4836 11.0787 2.4059
0.0665 11.0888 2.4059
-0.3507 11.0833 2.4059
-0.7674 11.0621 2.4059
-1.1829 11.0252 2.4059
-1.5968 10.9728 2.4059
-2.0084 10.9049 2.4059
-2.4172 10.8215 2.4059
-2.8226 10.7229 2.4059
-3.2240 10.6091 2.4059
-3.6208 10.4804 2.4059
-4.0125 10.3368 2.4059
-4.3985 10.1786 2.4059
-4.7783 10.0060 2.4059
-5.1514 9.8193 2.4059
-5.5172 9.6187 2.4059
-5.8753 9.4045 2.4059
-6.2250 9.1770 2.4059
-6.2846 8.5536 2.3028
-6.6020 8.3113 2.3028
-6.9102 8.0573 2.3028
-7.2086 7.7918 2.3028
-7.4968 7.5154 2.3028
-7.7745 7.2282 2.3028
-8.0411 6.9309 2.3028
-8.2964 6.6237 2.3028
-8.5401 6.3072 2.3028
-8.7716 5.9817 2.3028
-8.9908 5.6477 2.3028
-9.1973 5.3058 2.3028
-6.3054 3.3279 1.5462
-6.5876 3.1659 1.5850
-6.8847 2.9954 1.6281
-9.8907 3.8675 2.3028
-10.0296 3.4929 2.3028
-10.1545 3.1133 2.3028
-10.2649 2.7293 2.3028
-10.3520 2.3393 2.3008
-10.3535 1.9335 2.2832
-10.3550 1.5332 2.2691
-10.3564 1.1372 2.2583
-10.3537 0.7441 2.2499
-10.3540 0.3534 2.2453
-10.3544 -0.0363 2.2440
-10.3547 -0.4261 2.2458
-10.3551 -0.8172 2.2508
-10.3554 -1.2106 2.2591
-10.3584 -1.6079 2.2711
-10.3592 -2.0097 2.2861
-10.3600 -2.4175 2.3046
-10.2541 -2.8035 2.3028
-10.1421 -3.1874 2.3028
-10.0156 -3.5668 2.3028
-9.8750 -3.9413 2.3028
-9.7204 -4.3102 2.3028
-9.0651 -4.4349 2.3028
-8.8924 -4.7731 2.3028
-8.7071 -5.1045 2.3028
-8.5094 -5.4287 2.3028
-8.2997 -5.7452 2.3028
-8.0782 -6.0537 2.3028
-7.8452 -6.3536 2.3028
-7.6011 -6.6446 2.3028
-7.3462 -6.9262 2.3028
-7.0808 -7.1980 2.3028
-6.8054 -7.4596 2.3028
-6.5204 -7.7107 2.3028
-6.2992 -8.0443 2.3299
-6.1880 -8.5460 2.4059
-5.8625 -8.7731 2.4059
-5.5286 -8.9878 2.4059
-5.1868 -9.1898 2.4059
-4.8377 -9.3788 2.4059
-4.4817 -9.5545 2.4059
-4.1193 -9.7167 2.4059
-3.7511 -9.8651 2.4059
-3.3775 -9.9996 2.4059
-2.9991 -10.1199 2.4059
-2.6164 -10.2259 2.4059
-2.2300 -10.3173 2.4059
-1.8404 -10.3942 2.4059
-1.4482 -10.4564 2.4059
-1.0539 -10.5037 2.4059
-0.6581 -10.5361 2.4059
-0.2614 -10.5536 2.4059
0.1358 -10.5562 2.4059
0.5327 -10.5438 2.4059
0.9289 -10.5164 2.4059
1.3238 -10.4741 2.4059
1.7169 -10.4170 2.4059
2.0171 -9.9019 2.3028
2.3881 -9.8189 2.3028
2.2078 -7.7889 1.8448
3.1195 -9.6115 2.3027
2.8055 -7.6513 1.8571
3.8330 -9.3497 2.3027
4.1819 -9.1987 2.3027
4.5249 -9.0348 2.3027
4.8614 -8.8581 2.3027
5.1911 -8.6688 2.3026
5.5133 -8.4672 2.3026
5.8739 -8.3191 2.3209
6.1825 -8.0921 2.3209
6.4824 -7.8536 2.3209
6.7730 -7.6041 2.3209
7.0541 -7.3438 2.3209
7.3251 -7.0730 2.3209
7.5857 -6.7923 2.3209
7.8356 -6.5020 2.3209
8.0743 -6.2024 2.3209
6.3892 -4.5364 1.7862
8.5171 -5.5775 2.3209
7.3491 -4.4269 1.9559
7.3500 -4.0588 1.9142
7.3509 -3.7056 1.8769
7.3518 -3.3655 1.8435
7.3527 -3.0368 1.8139
7.3535 -2.7181 1.7877
7.3543 -2.4081 1.7647
7.3551 -2.1056 1.7447
7.3559 -1.8094 1.7276
7.3566 -1.5186 1.7132
7.3574 -1.2323 1.7015
7.3581 -0.9494 1.6923
7.3588 -0.6693 1.6855
7.3595 -0.3910 1.6812
7.3603 -0.1138 1.6793
7.3610 0.1632 1.6798
7.3617 0.4407 1.6827
7.3624 0.7195 1.6879
7.3632 1.0004 1.6956
7.3639 1.2843 1.7058
7.3646 1.5719 1.7186
7.3654 1.8643 1.7340
7.3662 2.1624 1.7522
7.3834 2.4727 1.7773
7.3836 2.7858 1.8014
7.3836 3.1079 1.8288
7.3699 3.4339 1.8562
7.3704 3.7778 1.8909
7.3713 4.1356 1.9298
7.3723 4.5089 1.9732
7.3733 4.8998 2.0216
8.3358 6.0034 2.3459
8.1036 6.3124 2.3459
4.8723 4.0989 1.4542
4.6417 4.2131 1.4318
4.6366 4.5380 1.4819
7.0641 7.4544 2.3459
6.7783 7.7145 2.3459
6.4830 7.9636 2.3459
6.1785 8.2014 2.3459
5.7572 8.2722 2.3026
5.4417 8.4825 2.3026
5.1185 8.6808 2.3026
4.7882 8.8668 2.3026
4.4510 9.0403 2.3026
4.1077 9.2010 2.3026
3.7585 9.3486 2.3026
3.4040 9.4830 2.3026
3.0448 9.6040 2.3026
2.6813 9.7115 2.3026
2.3140 9.8052 2.3026
1.9435 9.8850 2.3026
1.6406 10.3970 2.4059
1.2483 10.4511 2.4059
0.8542 10.4905 2.4059
0.4590 10.5149 2.4059
0.0631 10.5246 2.4059
-0.3328 10.5193 2.4059
-0.7283 10.4992 2.4059
-1.1227 10.4643 2.4059
-1.5156 10.4145 2.4059
-1.9062 10.3500 2.4059
-2.2943 10.2710 2.4059
-2.6790 10.1773 2.4059
-3.0599 10.0694 2.4059
-3.4366 9.9471 2.4059
-3.8083 9.8109 2.4059
-4.1747 9.6607 2.4059
-4.5352 9.4969 2.4059
-4.8893 9.3197 2.4059
-5.2365 9.1293 2.4059
-5.5763 8.9260 2.4059
-5.9083 8.7100 2.4059
-6.2318 8.4818 2.4059
-6.2819 7.9083 2.3086
-6.5586 7.6473 2.3028
-6.8418 7.3953 2.3028
-7.1153 7.1329 2.3028
-7.3788 6.8604 2.3028
-7.6319 6.5782 2.3028
-7.8742 6.2866 2.3028
-8.1054 5.9862 2.3028
-8.3252 5.6772 2.3028
-8.5332 5.3603 2.3028
-8.7291 5.0357 2.3028
-6.3054 3.3279 1.6291
-6.5876 3.1659 1.6700
-6.8848 2.9954 1.7154
-9.3872 3.6706 2.3028
-9.5190 3.3150 2.3028
-9.6375 2.9548 2.3028
-9.7423 2.5903 2.3028
-9.8334 2.2221 2.3028
-9.9105 1.8507 2.3028
-9.9737 1.4767 2.3028
-10.0227 1.1005 2.3028
-10.0576 0.7228 2.3028
-10.0782 0.3440 2.3028
-10.0846 -0.0354 2.3028
-10.0767 -0.4147 2.3028
-10.0545 -0.7935 2.3028
-10.0182 -1.1712 2.3028
-9.9676 -1.5473 2.3028
-9.9030 -1.9213 2.3028
-9.8243 -2.2926 2.3028
-9.7317 -2.6607 2.3028
-9.6253 -3.0250 2.3028
-9.5052 -3.3851 2.3028
-9.3718 -3.7405 2.3028
-9.2250 -4.0906 2.3028
-8.6234 -4.2189 2.3028
-8.4591 -4.5405 2.3028
-8.2827 -4.8557 2.3028
-8.0947 -5.1641 2.3028
-7.8952 -5.4653 2.3028
-7.6844 -5.7587 2.3028
-7.4628 -6.0440 2.3028
-7.2305 -6.3207 2.3028
-6.9880 -6.5886 2.3028
-6.7356 -6.8471 2.3028
-6.4736 -7.0959 2.3028
-6.2970 -7.4466 2.3379
-6.1876 -7.9018 2.4059
-5.8863 -8.1293 2.4059
-5.5766 -8.3454 2.4059
-5.2590 -8.5496 2.4059
-4.9339 -8.7417 2.4059
-4.6018 -8.9215 2.4059
-4.2631 -9.0886 2.4059
-3.9184 -9.2429 2.4059
-3.5681 -9.3840 2.4059
-3.2127 -9.5119 2.4059
-2.8528 -9.6263 2.4059
-2.4888 -9.7271 2.4059
-2.1212 -9.8141 2.4059
-1.7506 -9.8872 2.4059
-1.3776 -9.9463 2.4059
-1.0025 -9.9913 2.4059
-0.6260 -10.0222 2.4059
-0.2486 -10.0388 2.4059
0.1291 -10.0412 2.4059
0.5067 -10.0294 2.4059
0.8836 -10.0034 2.4059
1.2592 -9.9632 2.4059
1.6331 -9.9088 2.4059
1.9187 -9.4188 2.3028
2.2717 -9.3400 2.3028
2.2078 -7.7889 1.9395
2.9673 -9.1427 2.3027
2.8040 -7.6472 1.9513
3.6461 -8.8936 2.3027
3.9779 -8.7500 2.3027
4.3042 -8.5941 2.3027
4.6243 -8.4260 2.3027
4.9378 -8.2459 2.3027
5.2444 -8.0542 2.3026
5.5435 -7.8511 2.3026
5.8810 -7.6974 2.3209
6.1662 -7.4706 2.3209
6.4427 -7.2332 2.3209
6.7100 -6.9856 2.3209
6.9678 -6.7281 2.3209
7.2157 -6.4610 2.3209
7.4534 -6.1849 2.3209
7.6805 -5.9000 2.3209
6.3892 -4.5364 1.8778
8.1017 -5.3055 2.3209
7.3491 -4.4270 2.0562
7.3500 -4.0588 2.0123
7.3509 -3.7056 1.9731
7.3518 -3.3655 1.9380
7.3527 -3.0368 1.9069
7.3535 -2.7181 1.8793
7.3543 -2.4081 1.8551
7.3551 -2.1056 1.8341
7.3559 -1.8094 1.8161
7.3566 -1.5186 1.8010
7.3574 -1.2323 1.7887
7.3581 -0.9495 1.7790
7.3588 -0.6693 1.7719
7.3595 -0.3910 1.7674
7.3603 -0.1138 1.7654
7.3610 0.1632 1.7659
7.3617 0.4407 1.7689
7.3624 0.7195 1.7744
7.3632 1.0004 1.7825
7.3639 1.2842 1.7932
7.3646 1.5719 1.8066
7.3654 1.8643 1.8228
7.3662 2.1623 1.8419
7.3807 2.4717 1.8676
7.3808 2.7847 1.8929
7.3808 3.1066 1.9217
7.3695 3.4337 1.9511
7.3704 3.7778 1.9877
7.3713 4.1355 2.0286
