ply
format ascii 1.0
element vertex 1983
property float32 x
property float32 y
property float32 z
end_header
-13.7931 -26.7451 -4.5650
-11.7866 -25.1319 -4.2101
-10.9995 -25.9496 -4.2740
-10.9015 -28.6743 -4.6511
-9.5837 -28.3774 -4.5406
-12.7714 -43.0991 -6.8136
-11.5354 -45.0877 -7.0537
-9.5796 -44.3231 -6.8722
-10.6724 -60.2747 -9.2760
10.0203 -30.8855 -4.9245
11.3220 -30.8889 -4.9904
12.6397 -30.8417 -5.0571
13.9614 -30.7207 -5.1209
15.3824 -30.7244 -5.2156
38.0307 -46.0920 -9.0868
40.8311 -45.8578 -9.3402
53.6586 -48.0655 -10.9707
57.9044 -41.1309 -10.8297
59.5554 -39.0191 -10.8609
7.3494 -4.4293 -1.3095
7.3500 -4.0609 -1.2821
7.3510 -3.7077 -1.2576
7.3518 -3.3675 -1.2357
7.3527 -3.0388 -1.2164
7.3535 -2.7200 -1.1993
7.3543 -2.4100 -1.1844
7.3551 -2.1074 -1.1715
7.3559 -1.8112 -1.1605
7.3566 -1.5204 -1.1513
7.3574 -1.2340 -1.1439
7.3581 -0.9512 -1.1382
7.3588 -0.6710 -1.1342
7.3596 -0.3927 -1.1318
7.3610 0.1615 -1.1318
7.3603 -0.1155 -1.1310
7.3617 0.4390 -1.1342
7.3654 1.8626 -1.1713
7.3624 0.7178 -1.1382
7.3662 2.1607 -1.1841
7.3632 0.9987 -1.1439
7.3670 2.4655 -1.1988
7.3639 1.2826 -1.1513
7.3678 2.7781 -1.2157
7.3646 1.5702 -1.1604
7.3686 3.0998 -1.2347
7.3704 3.7761 -1.2802
7.3695 3.4320 -1.2562
7.3767 4.1369 -1.3080
11.0449 9.2888 -2.2363
7.3981 4.5229 -1.3416
10.2392 9.2909 -2.1432
9.4974 9.2928 -2.0604
7.3883 4.9080 -1.3729
8.8102 9.2946 -1.9865
12.8955 9.2840 -2.4604
8.1702 9.2963 -1.9204
11.9257 9.2865 -2.3413
7.7725 9.5454 -1.9106
7.7745 10.3176 -2.0057
7.7332 17.3193 -2.9488
7.7767 11.1715 -2.1139
7.7792 12.1238 -2.2376
9.4987 23.6231 -3.9590
7.7820 13.1954 -2.3802
8.4701 23.5931 -3.8984
7.7852 14.4142 -2.5459
8.2039 25.8743 -4.2218
7.7802 15.7993 -2.7374
-1.0586 33.4082 -5.2006
-11.6220 13.5462 -2.7671
-11.4904 15.6334 -3.0098
-11.1635 14.0486 -2.7828
-11.9974 12.9632 -2.7373
-15.9502 11.7747 -3.0665
-13.3465 13.3744 -2.9271
-13.8557 9.4444 -2.5926
-13.5041 12.5504 -2.8550
-13.8502 8.6961 -2.5274
-17.8501 15.3793 -3.6474
-13.7001 7.8993 -2.4429
-17.5787 14.0285 -3.4801
-18.0167 9.5037 -3.1452
-16.5961 7.2160 -2.7918
-18.6320 8.9491 -3.1901
-16.8385 6.5798 -2.7876
-15.9280 2.9706 -2.4923
-25.3535 8.8229 -4.1373
-15.6580 2.3146 -2.4335
-15.2921 1.6756 -2.3640
-25.4964 7.8105 -4.1078
-15.8896 1.1382 -2.4468
-26.9786 7.1664 -4.2980
-16.9238 0.5737 -2.5995
-26.6609 6.0182 -4.2062
-17.5342 -0.0655 -2.6904
-21.0624 -0.8716 -3.2329
-20.3244 -1.6086 -3.1252
-13.1714 -1.5428 -2.0318
-13.2880 -2.0658 -2.0593
-13.4087 -2.6044 -2.0907
-13.5340 -3.1613 -2.1262
-16.6038 -4.5432 -2.6323
-15.3680 -4.8332 -2.4623
-15.2381 -5.4302 -2.4713
-14.5919 -5.8273 -2.3993
-14.9749 -6.6437 -2.5005
-14.8279 -7.2574 -2.3317
-21.4595 -11.5231 -3.4387
-19.0399 -11.1661 -3.1147
-17.8846 -11.4135 -2.9925
-17.7865 -12.3162 -3.0502
-15.3394 -11.4986 -2.7017
-14.9287 -12.0937 -2.7065
-13.7846 -12.0532 -2.5785
-13.2189 -12.4663 -2.5576
-13.1937 -13.4151 -2.6476
-12.1496 -13.3204 -2.5360
-12.0349 -14.2349 -2.6211
-12.3663 -15.7953 -2.8199
-12.2231 -16.8840 -2.9291
-11.8964 -17.8060 -3.0084
-13.5112 -21.9689 -3.6223
-14.8114 -26.2464 -4.2317
-13.7826 -26.7242 -4.2211
-11.7238 -24.9973 -3.8751
-11.1720 -26.3560 -4.0170
-10.9009 -28.6720 -4.3036
-10.1002 -29.9063 -4.4280
-12.7766 -43.1159 -6.3074
-10.6511 -41.6307 -6.0265
-9.5744 -44.2981 -6.3554
-10.6838 -60.3379 -8.5922
7.6069 -46.1756 -6.5636
9.4239 -46.2791 -6.6249
11.2823 -46.4048 -6.7000
9.8253 -34.6751 -5.0571
10.0206 -30.8855 -4.5570
11.3223 -30.8889 -4.6181
12.6608 -30.8924 -4.6875
14.0415 -30.8960 -4.7660
15.4706 -30.8997 -4.8543
16.9549 -30.9035 -4.9530
18.4798 -30.8699 -5.0570
38.1032 -49.8878 -8.8320
38.4403 -46.5870 -8.5008
41.1121 -46.1718 -8.7045
53.6396 -51.8120 -10.5087
55.1699 -49.4176 -10.4411
56.1158 -39.8587 -9.7159
59.5320 -39.0021 -10.0508
7.3491 -4.4289 -1.2123
7.3500 -4.0607 -1.1870
7.3510 -3.7075 -1.1644
7.3518 -3.3673 -1.1442
7.3527 -3.0386 -1.1263
7.3535 -2.7198 -1.1105
7.3543 -2.4098 -1.0967
7.3551 -2.1072 -1.0848
7.3559 -1.8110 -1.0747
7.3566 -1.5202 -1.0663
7.3574 -1.2339 -1.0594
7.3581 -0.9510 -1.0542
7.3588 -0.6708 -1.0505
7.3596 -0.3925 -1.0483
7.3603 -0.1153 -1.0476
7.3610 0.1617 -1.0484
7.3617 0.4392 -1.0507
7.3624 0.7180 -1.0545
7.3632 0.9989 -1.0598
7.3639 1.2827 -1.0666
7.3646 1.5704 -1.0751
7.3654 1.8628 -1.0852
7.3662 2.1609 -1.0971
7.3670 2.4656 -1.1108
7.3678 2.7783 -1.1265
7.3686 3.1000 -1.1442
7.3695 3.4322 -1.1641
7.3704 3.7763 -1.1864
7.3713 4.1340 -1.2113
7.3723 4.5073 -1.2390
7.3733 4.8982 -1.2699
12.8950 9.2840 -2.2804
11.9253 9.2865 -2.1701
11.0445 9.2888 -2.0728
10.2388 9.2909 -1.9866
9.4971 9.2928 -1.9099
8.8100 9.2946 -1.8414
8.1700 9.2963 -1.7801
7.7725 9.5456 -1.7712
7.7745 10.3179 -1.8594
7.7767 11.1718 -1.9597
7.7792 12.1240 -2.0744
7.7820 13.1957 -2.2066
7.7852 14.4145 -2.3603
7.7888 15.8172 -2.5407
7.7330 17.3193 -2.7339
9.3761 23.3187 -3.6232
8.3815 23.3469 -3.5766
8.2660 26.0705 -3.9439
-11.1405 14.0202 -2.5742
-11.5982 13.5189 -2.5597
-11.9762 12.9408 -2.5328
-13.4250 13.4534 -2.7291
-13.4785 12.5271 -2.6412
-17.8516 15.3812 -3.3808
-19.2892 15.3942 -3.5393
-15.9453 11.7716 -2.8411
-13.9688 9.5219 -2.4223
-13.8203 8.6777 -2.3371
-17.1692 9.9001 -2.8371
-18.4480 9.7317 -2.9843
-18.5381 8.9045 -2.9411
-17.6480 7.6739 -2.7508
-18.3258 7.1614 -2.8110
-25.3059 8.8070 -3.8261
-25.4489 7.7966 -3.7987
-25.6275 6.8081 -3.7825
-26.5942 6.0037 -3.8870
-15.8909 2.9641 -2.3034
-15.6224 2.3097 -2.2491
-15.2556 1.6719 -2.1845
-15.8761 1.1376 -2.2644
-16.7286 0.5675 -2.3800
-17.3249 -0.0643 -2.4621
-21.0671 -0.8713 -2.9949
-20.3280 -1.6084 -2.8948
-13.1450 -1.5394 -1.8779
-13.2611 -2.0613 -1.9032
-13.3811 -2.5988 -1.9320
-13.5056 -3.1544 -1.9648
-16.7319 -4.5779 -2.4562
-15.5574 -4.8924 -2.3080
-15.2252 -5.4253 -2.2862
-14.4893 -5.7859 -2.2058
-14.9621 -6.6376 -2.3130
-14.8152 -7.2508 -2.1436
-21.4951 -11.5417 -3.1690
-19.0195 -11.1536 -2.8625
-17.8949 -11.4196 -2.7547
-17.7679 -12.3028 -2.8031
-15.3223 -11.4854 -2.4826
-15.0524 -12.1935 -2.5103
-13.8210 -12.0846 -2.3781
-13.5342 -12.7632 -2.4087
-13.1728 -13.3935 -2.4314
-12.1171 -13.2844 -2.3263
-12.1226 -14.3382 -2.4283
-13.9854 -17.8630 -2.9331
-13.3075 -18.3815 -2.9329
-12.9730 -19.4170 -3.0172
-13.5322 -22.0026 -3.3365
-14.7694 -26.1714 -3.8806
-13.2659 -25.7217 -3.7363
-11.6618 -24.8646 -3.5447
-11.3281 -26.7237 -3.7455
-10.8772 -28.6090 -3.9489
-13.8198 -40.9191 -5.5713
-11.9048 -40.1729 -5.4041
-10.6138 -41.4841 -5.5222
-9.3151 -43.0977 -5.6857
-10.4086 -58.7827 -7.6972
7.4300 -45.1004 -5.8951
9.2028 -45.1919 -5.9490
11.0147 -45.3027 -6.0148
9.8987 -34.9335 -4.6851
10.0208 -30.8855 -4.1907
11.3453 -30.9507 -4.2554
12.6611 -30.8924 -4.3109
14.0419 -30.8960 -4.3832
15.4360 -30.8297 -4.4543
16.9554 -30.9035 -4.5553
18.5028 -30.9076 -4.6567
39.0863 -47.3684 -7.9506
54.2823 -48.6208 -9.4506
56.9448 -47.2690 -9.6021
58.1172 -44.6598 -9.5142
55.7246 -39.5793 -8.8767
56.5019 -37.0153 -8.7768
7.3491 -4.4287 -1.1155
7.3500 -4.0605 -1.0922
7.3510 -3.7073 -1.0714
7.3518 -3.3671 -1.0529
7.3527 -3.0384 -1.0365
7.3535 -2.7197 -1.0220
7.3543 -2.4096 -1.0094
7.3551 -2.1071 -0.9985
7.3559 -1.8109 -0.9892
7.3566 -1.5201 -0.9815
7.3574 -1.2337 -0.9752
7.3581 -0.9508 -0.9705
7.3588 -0.6707 -0.9671
7.3596 -0.3924 -0.9651
7.3603 -0.1151 -0.9645
7.3610 0.1618 -0.9653
7.3617 0.4393 -0.9674
7.3624 0.7181 -0.9710
7.3632 0.9991 -0.9759
7.3639 1.2829 -0.9823
7.3646 1.5706 -0.9901
7.3654 1.8630 -0.9995
7.3662 2.1610 -1.0105
7.3670 2.4658 -1.0231
7.3678 2.7785 -1.0376
7.3686 3.1002 -1.0539
7.3695 3.4323 -1.0723
7.3704 3.7764 -1.0929
7.3713 4.1342 -1.1159
7.3723 4.5074 -1.1415
7.3733 4.8984 -1.1699
12.8945 9.2840 -2.1009
11.9248 9.2865 -1.9993
11.0441 9.2888 -1.9098
10.2385 9.2909 -1.8304
9.4968 9.2928 -1.7598
8.8097 9.2946 -1.6968
8.1697 9.2963 -1.6403
7.7725 9.5459 -1.6322
7.7745 10.3182 -1.7135
7.7767 11.1721 -1.8060
7.7792 12.1243 -1.9118
7.7820 13.1960 -2.0337
7.7852 14.4148 -2.1753
7.7888 15.8175 -2.3416
7.7930 17.4541 -2.5392
9.2571 23.0231 -3.2970
8.2950 23.1065 -3.2625
8.3287 26.2690 -3.6627
-11.1177 13.9919 -2.3672
-11.5746 13.4919 -2.3538
-11.9552 12.9185 -2.3296
-13.7212 13.7507 -2.5700
-17.1834 15.9709 -3.1023
-17.8531 15.3830 -3.1150
-19.1379 15.2741 -3.2351
-15.9405 11.7685 -2.6166
-13.9493 9.5090 -2.2283
-13.7907 8.6595 -2.1483
-17.5676 10.1303 -2.6740
-18.4614 9.7392 -2.7508
-18.4455 8.8605 -2.6954
-18.1743 7.9031 -2.6091
-26.5943 10.3933 -3.7569
-25.2586 8.7911 -3.5171
-25.4017 7.7827 -3.4918
-25.8950 6.8798 -3.5195
-26.2359 5.9234 -3.5310
-15.8541 2.9576 -2.1161
-15.5870 2.3048 -2.0662
-15.2193 1.6683 -2.0065
-15.8625 1.1370 -2.0830
-18.3295 0.6222 -2.4008
-17.1211 -0.0632 -2.2399
-21.0717 -0.8711 -2.7575
-20.3315 -1.6083 -2.6651
-13.1189 -1.5361 -1.7250
-13.2343 -2.0568 -1.7481
-13.3537 -2.5932 -1.7745
-13.4775 -3.1475 -1.8044
-18.8054 -5.1448 -2.5405
-15.6871 -4.9329 -2.1416
-14.7674 -5.2618 -2.0405
-14.3884 -5.7453 -2.0155
-14.9493 -6.6316 -2.1264
-17.5176 -8.5729 -2.3151
-24.4861 -13.1471 -3.2972
-18.9992 -11.1412 -2.6116
-17.9052 -11.4257 -2.5172
-17.7493 -12.2894 -2.5572
-15.5640 -11.6661 -2.3028
-14.5728 -11.8046 -2.2193
-13.8241 -12.0869 -2.1720
-13.4532 -12.6864 -2.1862
-13.0781 -13.2968 -2.2040
-12.0850 -13.2488 -2.1183
-12.3636 -14.6229 -2.2611
-14.0757 -17.9778 -2.6950
-13.1248 -18.1286 -2.6408
-12.9540 -19.3881 -2.7504
-16.8085 -27.3290 -3.7832
-14.8123 -26.2469 -3.5527
-13.6170 -26.4019 -3.5009
-12.8880 -27.4786 -3.5759
-10.9705 -25.8796 -3.3110
-10.8536 -28.5465 -3.5966
-14.2804 -42.2819 -5.2548
-12.0586 -40.6914 -4.9964
-10.2646 -40.1183 -4.8745
-9.4671 -43.8001 -5.2742
-10.3090 -58.2196 -6.9583
7.4905 -45.4662 -5.4245
9.0456 -44.4185 -5.3372
10.5141 -43.2425 -5.2406
9.8987 -34.9326 -4.2765
10.0211 -30.8855 -3.8254
11.3456 -30.9507 -3.8845
12.6615 -30.8924 -3.9353
14.0422 -30.8960 -4.0014
15.5024 -30.9615 -4.0838
16.9559 -30.9035 -4.1587
18.5034 -30.9076 -4.2515
24.0044 -34.0055 -4.9163
24.1972 -31.6791 -4.7102
25.5028 -30.9057 -4.7366
27.3691 -30.7355 -4.8671
55.0114 -49.2721 -8.7464
55.5841 -46.1378 -8.5596
55.3416 -39.3056 -8.0517
54.9419 -35.9918 -7.7953
7.3491 -4.4285 -1.0189
7.3500 -4.0603 -0.9977
7.3510 -3.7071 -0.9788
7.3518 -3.3669 -0.9619
7.3527 -3.0382 -0.9469
7.3535 -2.7195 -0.9338
7.3543 -2.4094 -0.9223
7.3551 -2.1069 -0.9123
7.3559 -1.8107 -0.9039
7.3566 -1.5199 -0.8969
7.3574 -1.2335 -0.8913
7.3581 -0.9507 -0.8870
7.3588 -0.6705 -0.8839
7.3596 -0.3922 -0.8822
7.3603 -0.1150 -0.8817
7.3610 0.1620 -0.8824
7.3617 0.4395 -0.8844
7.3624 0.7183 -0.8877
7.3632 0.9992 -0.8923
7.3639 1.2831 -0.8981
7.3646 1.5707 -0.9053
7.3654 1.8631 -0.9139
7.3662 2.1612 -0.9240
7.3670 2.4660 -0.9357
7.3678 2.7786 -0.9489
7.3686 3.1004 -0.9639
7.3695 3.4325 -0.9808
7.3704 3.7766 -0.9997
7.3713 4.1344 -1.0208
7.3723 4.5076 -1.0442
7.3733 4.8986 -1.0703
12.8940 9.2840 -1.9219
11.9244 9.2865 -1.8291
11.0438 9.2888 -1.7472
10.2382 9.2909 -1.6747
9.4965 9.2928 -1.6102
8.8095 9.2946 -1.5525
8.1695 9.2963 -1.5010
7.5502 9.2731 -1.4509
6.9880 9.2745 -1.4094
6.4567 9.2759 -1.3722
5.9778 9.3170 -1.3444
5.7163 9.6934 -1.3671
7.7852 14.4151 -1.9909
7.7888 15.8179 -2.1431
7.7930 17.4545 -2.3240
9.0146 22.4204 -2.9386
8.2146 22.8828 -2.9571
8.3923 26.4699 -3.3780
-11.0951 13.9639 -2.1616
-11.5512 13.4650 -2.1493
-11.9344 12.8964 -2.1278
-13.8470 13.8773 -2.3729
-17.1848 15.9728 -2.8384
-17.8545 15.3848 -2.8500
-15.3795 12.2749 -2.3782
-15.9357 11.7654 -2.3928
-14.0796 9.5982 -2.0573
-13.7612 8.6413 -1.9608
-17.9244 10.3365 -2.4954
-18.4424 9.7297 -2.5133
-18.3540 8.8170 -2.4529
-19.8552 8.6346 -2.6067
-26.5355 10.3710 -3.4279
-25.2117 8.7754 -3.2100
-25.3548 7.7690 -3.1868
-26.1673 6.9527 -3.2517
-26.4623 5.9752 -3.2561
-15.8176 2.9512 -1.9301
-15.5520 2.3000 -1.8846
-15.1833 1.6647 -1.8298
-15.8491 1.1364 -1.9024
-17.7230 0.6020 -2.1217
-17.2071 -0.0631 -2.0575
-21.0763 -0.8708 -2.5207
-20.3351 -1.6081 -2.4360
-20.1251 -2.3560 -2.4182
-15.9354 -2.4763 -1.9234
-18.4391 -3.5803 -2.2389
-16.7352 -3.9079 -2.0472
-18.8083 -5.1451 -2.3214
-15.8186 -4.9739 -1.9729
-14.8705 -5.2982 -1.8771
-14.2893 -5.7054 -1.8285
-14.9367 -6.6256 -1.9407
-18.3461 -8.9780 -2.1953
-24.4360 -13.1196 -2.9792
-18.9790 -11.1289 -2.3619
-18.3485 -11.7082 -2.3352
-17.7307 -12.2761 -2.3125
-15.6783 -11.7514 -2.0998
-15.2793 -12.3765 -2.1062
-13.8605 -12.1184 -1.9710
-14.1957 -13.3862 -2.0878
-13.5259 -13.7516 -2.0630
-12.0531 -13.2135 -1.9120
-12.3287 -14.5812 -2.0404
-14.1669 -18.0938 -2.4546
-12.9475 -17.8833 -2.3573
-12.9352 -19.3594 -2.4850
-16.1419 -26.2444 -3.2874
-14.8554 -26.3226 -3.2238
-13.9862 -27.1171 -3.2534
-12.9687 -27.6499 -3.2555
-11.3650 -26.8097 -3.1033
-11.9475 -31.4230 -3.5819
-12.1765 -36.0519 -4.0536
-12.2161 -41.2221 -4.5792
-10.3953 -40.6286 -4.4659
-9.3760 -43.3782 -4.7255
-10.2686 -57.9904 -6.2701
7.4906 -45.4655 -4.9074
9.1517 -44.9384 -4.8851
10.5759 -43.4956 -4.7690
9.8987 -34.9316 -3.8690
10.0214 -30.8855 -3.4610
11.3459 -30.9507 -3.5146
12.6618 -30.8924 -3.5606
14.0426 -30.8960 -3.6206
15.5028 -30.9615 -3.6953
16.9564 -30.9035 -3.7632
18.5039 -30.9076 -3.8473
24.1830 -37.1482 -4.7360
24.1905 -34.2682 -4.4836
24.1972 -31.6781 -4.2628
25.5036 -30.9057 -4.2870
27.5262 -30.9110 -4.4305
29.6898 -30.9166 -4.5905
32.0166 -30.9226 -4.7695
54.1922 -48.5367 -7.7995
37.8209 -31.3923 -5.2725
55.7464 -42.8347 -7.5457
53.8103 -38.2165 -7.0881
53.4696 -35.0258 -6.8689
7.3491 -4.4283 -0.9226
7.3500 -4.0602 -0.9035
7.3510 -3.7069 -0.8864
7.3518 -3.3668 -0.8711
7.3527 -3.0380 -0.8576
7.3535 -2.7193 -0.8458
7.3543 -2.4093 -0.8354
7.3551 -2.1067 -0.8265
7.3559 -1.8105 -0.8189
7.3566 -1.5197 -0.8126
7.3574 -1.2333 -0.8075
7.3581 -0.9505 -0.8037
7.3588 -0.6703 -0.8010
7.3596 -0.3920 -0.7994
7.3603 -0.1148 -0.7990
7.3610 0.1622 -0.7998
7.3617 0.4397 -0.8016
7.3624 0.7185 -0.8047
7.3632 0.9994 -0.8088
7.3639 1.2832 -0.8142
7.3646 1.5709 -0.8208
7.3654 1.8633 -0.8287
7.3662 2.1614 -0.8379
7.3670 2.4662 -0.8485
7.3678 2.7788 -0.8605
7.3686 3.1005 -0.8742
7.3695 3.4327 -0.8895
7.3704 3.7768 -0.9067
7.3713 4.1345 -0.9259
7.3723 4.5078 -0.9472
7.3733 4.8988 -0.9709
12.8935 9.2840 -1.7435
11.9240 9.2865 -1.6594
11.0434 9.2888 -1.5852
10.2379 9.2909 -1.5194
9.4962 9.2928 -1.4609
8.8092 9.2946 -1.4087
8.1693 9.2963 -1.3620
7.6544 9.4013 -1.3348
7.4066 9.8304 -1.3557
7.0289 10.0983 -1.3557
5.9778 9.3172 -1.2201
6.2455 10.5911 -1.3557
5.8408 10.8153 -1.3557
5.7213 11.6194 -1.4288
7.7930 17.4549 -2.1094
9.1483 22.7536 -2.7068
8.4995 23.6769 -2.7772
8.4566 26.6734 -3.0897
-20.8889 93.4871 -10.5760
-24.6815 93.7377 -10.6997
-33.3999 63.6497 -7.9209
-11.0726 13.9360 -1.9574
-11.5279 13.4383 -1.9462
-11.9136 12.8744 -1.9271
-14.6979 14.7305 -2.2850
-17.1862 15.9747 -2.5752
-17.8560 15.3866 -2.5856
-25.9961 20.7491 -3.6465
-15.9309 11.7623 -2.1698
-14.0400 9.5716 -1.8608
-14.9208 9.3699 -1.9282
-15.8989 9.1689 -2.0074
-18.4173 9.7169 -2.2761
-18.2636 8.7741 -2.2133
-19.8341 8.6259 -2.3611
-26.4771 10.3488 -3.1013
-30.6390 10.6652 -3.5369
-31.8550 9.7614 -3.6298
-26.4447 7.0271 -2.9790
-26.3971 5.9611 -2.9443
-27.7125 5.1710 -3.0650
-27.9368 4.1322 -3.0683
-18.1654 1.9920 -1.9841
-18.5634 1.3315 -2.0193
-18.4907 0.6285 -2.0059
-16.9177 -0.0617 -1.8330
-23.0577 -0.9522 -2.4986
-24.2766 -1.9193 -2.6348
-20.3938 -2.3870 -2.2200
-15.9319 -2.4753 -1.7420
-24.4020 -4.7376 -2.6839
-24.2359 -5.6589 -2.6854
-18.8112 -5.1455 -2.1029
-15.9520 -5.0155 -1.8019
-14.9747 -5.3349 -1.7118
-15.0563 -6.0113 -1.7447
-14.9240 -6.6197 -1.7559
-27.6691 -13.5397 -2.9660
-26.5152 -14.2353 -2.8957
-23.9313 -14.0323 -2.6675
-24.6268 -15.7138 -2.8072
-18.6548 -12.9155 -2.1789
-15.7940 -11.8377 -1.8943
-15.3924 -12.4677 -1.9000
-14.9860 -13.1020 -1.9082
-14.3142 -13.4975 -1.8850
-13.5352 -13.7607 -1.8483
-12.0214 -13.1784 -1.7072
-12.2942 -14.5400 -1.8215
-14.2590 -18.2110 -2.2116
-13.3185 -18.3953 -2.1706
-12.9164 -19.3308 -2.2211
-16.2484 -26.4170 -2.9618
-14.8987 -26.3987 -2.8938
-14.1312 -27.3976 -2.9419
-13.0109 -27.7394 -2.9231
-12.7300 -30.0291 -3.1108
-11.9591 -31.4529 -3.2086
-12.1855 -36.0779 -3.6302
-12.4661 -42.0649 -4.1816
-10.5291 -41.1509 -4.0478
-9.4367 -43.6582 -4.2559
-9.8727 -55.7537 -5.3944
6.3369 -50.1569 -4.8175
7.5423 -45.7776 -4.4217
9.1774 -45.0630 -4.3838
10.5762 -43.4956 -4.2679
2.2057 -7.7836 -0.7715
10.0217 -30.8855 -3.0975
11.3462 -30.9507 -3.1456
12.6622 -30.8924 -3.1869
14.0430 -30.8960 -3.2406
15.5032 -30.9615 -3.3076
16.9568 -30.9035 -3.3686
18.5044 -30.9076 -3.4440
24.1830 -37.1471 -4.2396
24.1905 -34.2671 -4.0139
24.1972 -31.6772 -3.8164
25.5554 -30.9676 -3.8461
27.5650 -30.9536 -3.9726
29.6980 -30.9241 -4.1117
32.0176 -30.9226 -4.2712
38.0012 -34.0342 -4.8980
38.0076 -31.5461 -4.7454
39.8684 -30.6330 -4.8335
43.0277 -30.5574 -5.0768
52.5659 -34.4323 -6.0491
7.3491 -4.4281 -0.8265
7.3500 -4.0600 -0.8094
7.3510 -3.7067 -0.7942
7.3518 -3.3666 -0.7806
7.3527 -3.0378 -0.7686
7.3535 -2.7191 -0.7580
7.3543 -2.4091 -0.7487
7.3551 -2.1065 -0.7408
7.3559 -1.8104 -0.7340
7.3566 -1.5196 -0.7285
7.3574 -1.2332 -0.7240
7.3581 -0.9503 -0.7206
7.3588 -0.6702 -0.7182
7.3596 -0.3919 -0.7169
7.3603 -0.1146 -0.7166
7.3610 0.1623 -0.7173
7.3617 0.4398 -0.7191
7.3624 0.7186 -0.7218
7.3632 0.9996 -0.7256
7.3639 1.2834 -0.7305
7.3647 1.5711 -0.7365
7.3654 1.8635 -0.7436
7.3662 2.1615 -0.7519
7.3670 2.4663 -0.7614
7.3678 2.7790 -0.7723
7.3686 3.1007 -0.7847
7.3695 3.4329 -0.7985
7.3704 3.7770 -0.8140
7.3713 4.1347 -0.8312
7.3723 4.5080 -0.8504
7.3733 4.8990 -0.8717
12.8931 9.2840 -1.5655
11.9236 9.2865 -1.4900
11.0430 9.2888 -1.4235
10.2376 9.2909 -1.3645
9.4959 9.2928 -1.3121
8.8089 9.2946 -1.2652
8.1691 9.2963 -1.2233
7.6544 9.4016 -1.1990
7.7745 10.3190 -1.2783
7.7767 11.1730 -1.3474
5.9778 9.3174 -1.0961
6.9518 11.7890 -1.3557
6.5011 12.0381 -1.3557
6.0417 12.2704 -1.3557
5.7244 12.8218 -1.3922
9.1482 22.7536 -2.4321
8.4998 23.6781 -2.4955
8.5073 26.8337 -2.7929
-20.8884 93.4877 -9.5028
-23.6532 89.8346 -9.2134
-33.4259 69.9803 -7.6801
-33.2927 63.4471 -7.0929
-40.1587 69.9978 -7.9854
-39.8033 63.7000 -7.4294
-11.2845 14.2030 -1.7917
-11.5048 13.4117 -1.7443
-11.8930 12.8525 -1.7277
-14.6766 14.7097 -2.0490
-17.4437 16.2146 -2.3471
-17.8575 15.3884 -2.3218
-25.7828 20.5796 -3.2471
-15.9261 11.7592 -1.9474
-14.2481 9.7139 -1.6952
-15.0273 9.4372 -1.7432
-15.8549 9.1439 -1.7968
-18.0261 9.5110 -1.9995
-18.1744 8.7317 -1.9767
-24.9560 10.8540 -2.6660
-26.4191 10.3268 -2.7768
-30.9680 10.7805 -3.2076
-31.8969 9.7750 -3.2610
-26.6393 7.0794 -2.6923
-26.3324 5.9471 -2.6348
-31.2171 5.8257 -3.0970
-29.1654 4.3146 -2.8731
-18.6478 2.0454 -1.8267
-18.5742 1.3326 -1.8119
-18.5013 0.6293 -1.7998
-16.6386 -0.0603 -1.6164
-24.6280 -1.0165 -2.3927
-24.9480 -1.9718 -2.4274
-24.8909 -2.9128 -2.4289
-15.9284 -2.4745 -1.5611
-31.4575 -6.1067 -3.1011
-25.6744 -5.9942 -2.5495
-18.8140 -5.1459 -1.8848
-16.0873 -5.0576 -1.6283
-15.0802 -5.3722 -1.5446
-15.0437 -6.0059 -1.5618
-14.9115 -6.6138 -1.5717
-27.7359 -13.5717 -2.6281
-26.4926 -14.2224 -2.5572
-25.4080 -14.8975 -2.5030
-25.2049 -16.0820 -2.5390
-28.2415 -19.5520 -2.9149
-15.9112 -11.9251 -1.6862
-15.5071 -12.5602 -1.6911
-15.0981 -13.1996 -1.6984
-14.4344 -13.6105 -1.6791
-13.5444 -13.7697 -1.6338
-13.0057 -14.2570 -1.6314
-12.2598 -14.4990 -1.6043
-14.3522 -18.3295 -1.9659
-13.2997 -18.3689 -1.9142
-17.2276 -25.7825 -2.6160
-16.3561 -26.5915 -2.6327
-14.8516 -26.3146 -2.5470
-13.9854 -27.1143 -2.5707
-12.8490 -27.3934 -2.5486
-13.5115 -31.8718 -2.9150
-12.6062 -33.1540 -2.9859
-13.6516 -40.4177 -3.5903
-12.1240 -40.9095 -3.5902
-10.5650 -41.2901 -3.5855
-11.9902 -55.4701 -4.7735
-9.9943 -56.4396 -4.8205
5.1053 -57.8243 -4.8824
6.3369 -50.1556 -4.2527
7.5426 -45.7779 -3.9035
9.1777 -45.0631 -3.8701
10.5765 -43.4956 -3.7679
2.1609 -7.6251 -0.6673
10.0219 -30.8855 -2.7348
2.8530 -7.7823 -0.6983
12.6625 -30.8924 -2.8140
14.0434 -30.8960 -2.8615
15.4377 -30.8297 -2.9084
16.9046 -30.8074 -2.9656
18.5049 -30.9076 -3.0416
24.1830 -37.1460 -3.7444
24.1905 -34.2661 -3.5453
24.1972 -31.6762 -3.3711
25.5562 -30.9676 -3.3976
27.5659 -30.9536 -3.5096
29.7511 -30.9785 -3.6391
32.0187 -30.9226 -3.7740
38.0012 -34.0330 -4.3280
38.0076 -31.5449 -4.1935
39.9094 -30.6633 -4.2761
43.0492 -30.5714 -4.4894
46.7951 -30.6510 -4.7600
7.3491 -4.4279 -0.7306
7.3500 -4.0598 -0.7156
7.3510 -3.7065 -0.7022
7.3518 -3.3664 -0.6902
7.3527 -3.0377 -0.6797
7.3535 -2.7189 -0.6704
7.3543 -2.4089 -0.6623
7.3551 -2.1063 -0.6553
7.3559 -1.8102 -0.6494
7.3566 -1.5194 -0.6445
7.3574 -1.2330 -0.6406
7.3581 -0.9502 -0.6377
7.3588 -0.6700 -0.6357
7.3596 -0.3917 -0.6346
7.3603 -0.1145 -0.6344
7.3610 0.1625 -0.6350
7.3617 0.4400 -0.6366
7.3624 0.7188 -0.6391
7.3632 0.9997 -0.6426
7.3639 1.2836 -0.6469
7.3647 1.5712 -0.6523
7.3654 1.8636 -0.6587
7.3662 2.1617 -0.6661
7.3670 2.4665 -0.6746
7.3678 2.7792 -0.6843
7.3686 3.1009 -0.6953
7.3695 3.4330 -0.7076
7.3704 3.7772 -0.7214
7.3713 4.1349 -0.7368
7.3723 4.5082 -0.7538
7.3733 4.8992 -0.7728
12.8926 9.2840 -1.3879
11.9232 9.2865 -1.3211
11.0427 9.2888 -1.2622
10.2372 9.2909 -1.2100
9.4956 9.2928 -1.1635
8.8087 9.2946 -1.1221
8.1688 9.2963 -1.0850
7.6544 9.4018 -1.0635
7.7745 10.3192 -1.1339
7.7767 11.1732 -1.1953
5.9778 9.3176 -0.9724
7.7820 13.1973 -1.3463
7.3277 13.5690 -1.3557
6.8096 13.8302 -1.3557
6.0710 13.5984 -1.3100
5.7470 14.2943 -1.3557
8.4998 23.6786 -2.2143
8.5073 26.8342 -2.4782
-20.7191 92.7326 -8.3639
-23.6721 89.9091 -8.1817
-27.7786 91.3919 -8.4035
-31.6888 91.7047 -8.5333
-33.4058 69.9403 -6.8092
-33.4592 63.7663 -6.3236
-37.4755 65.3226 -6.6101
-39.8540 63.7829 -6.5983
-12.7334 16.0272 -1.7930
-13.5585 15.8063 -1.8230
-14.2394 15.3887 -1.8342
-14.6554 14.6889 -1.8141
-26.3258 24.4716 -3.1405
-31.6947 27.3134 -3.6532
-26.0231 20.7722 -2.9053
-15.9213 11.7561 -1.7256
-19.5904 13.3566 -2.0658
-19.7126 12.3801 -2.0266
-18.2347 10.5169 -1.8313
-18.1235 9.5629 -1.7813
-19.0758 9.1652 -1.8382
-24.9037 10.8319 -2.3569
-32.2779 12.6177 -3.0053
-31.0080 10.7951 -2.8448
-28.7827 8.8214 -2.6062
-26.5729 7.0624 -2.3783
-26.2682 5.9332 -2.3274
-31.0560 5.7963 -2.7280
-29.1723 4.3163 -2.5442
-18.6587 2.0470 -1.6180
-18.5849 1.3338 -1.6047
-18.5120 0.6300 -1.5938
-26.3323 -0.0949 -2.2639
-24.6056 -1.0150 -2.1154
-24.9250 -1.9694 -2.1458
-24.9534 -2.9196 -2.1543
-15.9250 -2.4736 -1.3807
-28.0411 -5.4428 -2.4451
-25.6155 -5.9799 -2.2497
-18.8169 -5.1462 -1.6671
-16.2247 -5.1004 -1.4522
-14.8864 -5.3028 -1.3482
-25.2166 -10.0667 -2.3146
-35.4644 -15.7289 -3.3046
-29.7435 -14.5534 -2.4490
-27.5174 -14.7720 -2.3079
-25.3733 -14.8765 -2.1716
-25.4595 -16.2438 -2.2278
-28.2639 -19.5668 -2.5338
-20.1715 -15.1176 -1.8566
-15.6232 -12.6538 -1.4796
-15.2854 -13.3629 -1.4931
-14.8279 -13.9810 -1.4976
-15.9258 -16.1902 -1.6677
-17.3390 -19.0067 -1.8881
-25.8848 -30.6116 -2.9401
-24.4390 -31.2108 -2.9055
-23.3863 -32.2991 -2.9212
-20.8925 -31.2665 -2.7532
-16.4651 -26.7680 -2.2997
-14.9857 -26.5516 -2.2300
-14.3181 -27.7588 -2.2836
-12.6913 -27.0568 -2.1841
-13.6099 -32.1032 -2.5474
-12.5784 -33.0803 -2.5847
-13.9340 -41.2530 -3.1791
-12.2224 -41.2408 -3.1396
-10.4503 -40.8415 -3.0764
-12.2396 -56.6233 -4.2268
-9.8105 -55.4008 -4.1045
6.4525 -51.0689 -3.7562
7.5428 -45.7783 -3.3862
9.1781 -45.0641 -3.3574
10.5768 -43.4956 -3.2688
2.1602 -7.6223 -0.5787
10.0222 -30.8855 -2.3728
2.8528 -7.7816 -0.6059
12.6629 -30.8924 -2.4417
14.0438 -30.8960 -2.4831
15.4731 -30.8997 -2.5297
16.9578 -30.9035 -2.5818
18.5055 -30.9076 -2.6399
24.1830 -37.1450 -3.2501
24.1905 -34.2651 -3.0775
24.1972 -31.6753 -2.9265
25.5570 -30.9676 -2.9499
27.5668 -30.9536 -3.0475
29.7521 -30.9785 -3.1602
32.0198 -30.9226 -3.2777
38.0012 -34.0318 -3.7591
38.0076 -31.5438 -3.6427
39.9094 -30.6622 -3.7148
43.2369 -30.7035 -3.9175
46.7970 -30.6510 -4.1363
7.3491 -4.4277 -0.6350
7.3500 -4.0596 -0.6220
7.3510 -3.7063 -0.6104
7.3518 -3.3662 -0.6001
7.3527 -3.0375 -0.5909
7.3535 -2.7188 -0.5829
7.3543 -2.4087 -0.5760
7.3551 -2.1062 -0.5700
7.3559 -1.8100 -0.5649
7.3566 -1.5192 -0.5607
7.3574 -1.2328 -0.5574
7.3581 -0.9500 -0.5549
7.3588 -0.6698 -0.5532
7.3596 -0.3915 -0.5524
7.3603 -0.1143 -0.5522
7.3610 0.1627 -0.5529
7.3617 0.4402 -0.5544
7.3624 0.7190 -0.5566
7.3632 0.9999 -0.5597
7.3639 1.2837 -0.5636
7.3647 1.5714 -0.5683
7.3654 1.8638 -0.5739
7.3662 2.1619 -0.5805
7.3670 2.4667 -0.5880
7.3678 2.7793 -0.5965
7.3686 3.1011 -0.6061
7.3695 3.4332 -0.6170
7.3704 3.7773 -0.6290
7.3713 4.1351 -0.6425
7.3723 4.5084 -0.6574
7.3733 4.8994 -0.6740
12.8921 9.2840 -1.2106
11.9228 9.2865 -1.1524
11.0423 9.2888 -1.1012
10.2369 9.2909 -1.0557
9.4106 9.2099 -1.0062
8.8084 9.2946 -0.9792
8.1686 9.2963 -0.9469
7.6544 9.4021 -0.9282
7.7754 10.3206 -0.9899
7.7767 11.1735 -1.0434
5.9778 9.3179 -0.8489
7.7820 13.1976 -1.1754
7.7852 14.4165 -1.2575
7.7888 15.8193 -1.3539
6.0708 13.5984 -1.1439
6.5813 16.3699 -1.3557
5.9591 16.6010 -1.3557
8.5073 26.8347 -2.1642
15.2449 55.2184 -4.4050
12.7101 53.8601 -4.2562
10.7825 54.8477 -4.2998
8.5323 54.0788 -4.2118
6.6083 55.3373 -4.2878
4.5047 55.3381 -4.2719
2.3640 54.1906 -4.1735
0.3245 54.3905 -4.1849
-1.7092 53.9644 -4.1538
-3.8433 55.3760 -4.2701
-5.9417 55.3582 -4.2823
-8.0626 55.3870 -4.3042
-9.9339 53.9234 -4.2157
-12.1946 54.5812 -4.2989
-14.2369 54.0747 -4.2969
-16.7964 55.2620 -4.4370
-19.0661 55.1773 -4.4830
-20.9066 53.8498 -4.4342
-33.0800 69.2601 -5.8867
-33.4583 63.7663 -5.5202
-37.2019 64.8478 -5.7280
-39.8529 63.7829 -5.7592
-43.3364 63.8777 -5.9074
-42.5275 57.8733 -5.4929
-12.8914 16.2265 -1.5840
-13.5645 15.8138 -1.5914
-14.2458 15.3961 -1.6011
-14.6343 14.6682 -1.5804
-27.0184 25.1163 -2.8116
-31.7129 27.3301 -3.1884
-26.2674 20.9680 -2.5577
-15.9165 11.7531 -1.5044
-19.5951 13.3604 -1.8018
-19.7172 12.3836 -1.7674
-18.3401 10.5781 -1.6057
-18.0109 9.5039 -1.5431
-19.0561 9.1562 -1.6005
-24.8518 10.8099 -2.0497
-35.4169 13.8456 -2.8734
-31.0480 10.8098 -2.4818
-31.9808 9.8023 -2.5227
-26.5070 7.0455 -2.0665
-30.5058 6.8910 -2.3540
-30.8969 5.7673 -2.3634
-34.8826 5.1619 -2.6489
-33.9307 3.7231 -2.5616
-18.5957 1.3350 -1.3977
-18.5226 0.6308 -1.3881
-26.8878 -0.0963 -2.0117
-24.5833 -1.0135 -1.8390
-24.9021 -1.9671 -1.8652
-24.9421 -2.9177 -1.8732
-15.9215 -2.4727 -1.2007
-29.7116 -5.7664 -2.2532
-25.5570 -5.9656 -1.9519
-18.8198 -5.1466 -1.4497
-16.3528 -5.1403 -1.2725
-15.0052 -5.3448 -1.1813
-35.3766 -14.1218 -2.8223
-35.3830 -15.6920 -2.8653
-36.2766 -17.7491 -2.5373
-27.4259 -14.7222 -1.9536
-25.3387 -14.8556 -1.8416
-25.4947 -16.2656 -1.8942
-28.2863 -19.5816 -2.1528
-21.5241 -16.1307 -1.6816
-15.7408 -12.7487 -1.2652
-15.2824 -13.3599 -1.2668
-14.8250 -13.9779 -1.2705
-15.9353 -16.1994 -1.4157
-17.4163 -19.0908 -1.6088
-26.1073 -30.8739 -2.5152
-24.3207 -31.0590 -2.4523
-24.0055 -33.1535 -2.5428
-20.6665 -30.9274 -2.3093
-16.5753 -26.9466 -1.9629
-15.8053 -28.0032 -1.9940
-14.3168 -27.7556 -1.9356
-12.8846 -27.4683 -1.8796
-13.4418 -31.7061 -2.1325
-12.5509 -33.0072 -2.1858
-13.8741 -41.0750 -2.6827
-12.2073 -41.1892 -2.6575
-11.8433 -46.2846 -2.9546
-11.9523 -55.2935 -3.4978
-9.9232 -56.0362 -3.5181
6.4525 -51.0673 -3.1831
7.4912 -45.4633 -2.8500
9.1528 -44.9384 -2.8375
10.5141 -43.2365 -2.7540
2.1216 -7.4859 -0.4818
10.0225 -30.8855 -2.0113
2.8526 -7.7809 -0.5136
12.6632 -30.8924 -2.0700
14.0442 -30.8960 -2.1053
15.4736 -30.8997 -2.1450
16.9583 -30.9035 -2.1894
18.5060 -30.9076 -2.2389
24.1830 -37.1439 -2.7566
24.1905 -34.2641 -2.6105
24.1972 -31.6743 -2.4827
25.5067 -30.9057 -2.4980
27.5297 -30.9110 -2.5825
29.6264 -30.8466 -2.6707
32.0209 -30.9226 -2.7822
38.0012 -34.0306 -3.1911
38.0076 -31.5426 -3.0928
39.9094 -30.6610 -3.1545
43.2387 -30.7035 -3.3272
46.7990 -30.6510 -3.5136
7.3491 -4.4275 -0.5394
7.3500 -4.0594 -0.5285
7.3510 -3.7062 -0.5187
7.3518 -3.3660 -0.5100
7.3527 -3.0373 -0.5024
7.3535 -2.7186 -0.4956
7.3543 -2.4086 -0.4898
7.3551 -2.1060 -0.4848
7.3559 -1.8098 -0.4806
7.3566 -1.5190 -0.4771
7.3574 -1.2327 -0.4743
7.3581 -0.9498 -0.4723
7.3588 -0.6697 -0.4710
7.3603 -0.3914 -0.4703
7.3610 -0.1141 -0.4703
7.3617 0.1628 -0.4710
7.3623 0.4404 -0.4723
7.3630 0.7192 -0.4743
7.3636 1.0001 -0.4770
7.3639 1.2839 -0.4803
7.3647 1.5716 -0.4844
7.3654 1.8640 -0.4893
7.3662 2.1620 -0.4950
7.3670 2.4668 -0.5015
7.3678 2.7795 -0.5088
7.3686 3.1012 -0.5171
7.3695 3.4334 -0.5264
7.3704 3.7775 -0.5368
7.3713 4.1353 -0.5484
7.3723 4.5086 -0.5612
7.3733 4.8995 -0.5755
12.7766 9.2012 -1.0244
11.9224 9.2865 -0.9841
11.0420 9.2888 -0.9405
10.2366 9.2909 -0.9018
9.5463 9.3430 -0.8720
8.8082 9.2946 -0.8366
8.1684 9.2963 -0.8091
7.6544 9.4023 -0.7932
7.7777 10.3239 -0.8462
7.7767 11.1738 -0.8918
5.9778 9.3181 -0.7256
7.7555 13.1530 -1.0014
7.7150 14.2868 -1.0654
7.7888 15.8196 -1.1575
6.0707 13.5984 -0.9780
7.6847 19.1148 -1.3535
6.8712 19.1425 -1.3367
6.0028 18.9350 -1.3059
15.2948 55.4002 -3.7793
12.7311 53.9500 -3.6459
11.4469 58.2284 -3.9039
8.5413 54.1366 -3.6059
6.6184 55.4227 -3.6727
4.5121 55.4282 -3.6594
2.3676 54.2726 -3.5747
0.3251 54.4688 -3.5842
-1.7109 54.0204 -3.5561
-3.8483 55.4499 -3.6567
-5.9519 55.4554 -3.6687
-8.0731 55.4609 -3.6858
-9.9437 53.9781 -3.6086
-12.2325 54.7522 -3.6875
-14.2699 54.2016 -3.6827
-16.8633 55.4837 -3.8089
-19.1735 55.4897 -3.8545
-20.9888 54.0630 -3.8058
-27.1950 62.9234 -4.4963
-29.7718 62.3353 -4.5287
-33.3281 63.5199 -4.6999
-36.9131 64.3460 -4.8574
-39.6977 63.5364 -4.9025
-43.3368 63.8802 -5.0479
-42.5264 57.8735 -4.6931
-45.5164 57.2938 -4.7780
-13.5705 15.8214 -1.3600
-14.2521 15.4034 -1.3681
-14.6133 14.6476 -1.3477
-26.9311 25.0360 -2.3931
-59.9072 51.6295 -5.1423
-26.5159 21.1672 -2.2041
-15.9118 11.7500 -1.2837
-19.5999 13.3642 -1.5381
-19.7219 12.3870 -1.5085
-18.4465 10.6400 -1.3779
-18.1114 9.5574 -1.3237
-19.0365 9.1473 -1.3637
-27.5011 11.9630 -1.9343
-38.6789 15.1218 -2.6756
-31.0881 10.8245 -2.1185
-32.5860 9.9886 -2.1909
-26.9757 7.1707 -1.7922
-30.6340 6.9207 -2.0142
-32.1438 6.0008 -2.0947
-35.5562 5.2624 -2.2999
-33.8631 3.7165 -2.1772
-34.7364 2.4945 -2.2231
-18.5333 0.6316 -1.1824
-27.4558 -0.0977 -1.7485
-24.5611 -1.0121 -1.5637
-24.8792 -1.9647 -1.5856
-24.9307 -2.9158 -1.5929
-15.9180 -2.4718 -1.0211
-31.8223 -6.1754 -2.0524
-29.9339 -6.9866 -1.9439
-18.8226 -5.1469 -1.2327
-16.4763 -5.1788 -1.0898
-38.5894 -13.7445 -2.5819
-36.0577 -14.3929 -2.4444
-35.3022 -15.6553 -2.4288
-73.9595 -36.1845 -4.2575
-28.8578 -15.4901 -1.6914
-25.3043 -14.8348 -1.5130
-25.4764 -16.2533 -1.5569
-28.3087 -19.5963 -1.7717
-29.3094 -21.9645 -1.8826
-15.8601 -12.8448 -1.0479
-15.2795 -13.3569 -1.0409
-14.8222 -13.9748 -1.0438
-15.9448 -16.2086 -1.1638
-17.4941 -19.1756 -1.3274
-26.3334 -31.1405 -2.0836
-25.0164 -31.9465 -2.0713
-26.3247 -36.3555 -2.2894
-20.4455 -30.5961 -1.8755
-16.6868 -27.1273 -1.6220
-15.7904 -27.9761 -1.6350
-17.1678 -33.2819 -1.9047
-20.6116 -43.9402 -2.4672
-13.4980 -31.8380 -1.7569
-15.5440 -40.8778 -2.2209
-13.8647 -41.0463 -2.1992
-12.2761 -41.4206 -2.1922
-14.2083 -55.5259 -2.9074
-12.1671 -56.2860 -2.9204
6.4525 -51.0657 -2.6108
7.4913 -45.4627 -2.3378
9.1531 -44.9384 -2.3277
10.5141 -43.2353 -2.2593
2.1208 -7.4831 -0.3951
9.8855 -30.4626 -1.6277
2.8525 -7.7802 -0.4214
11.8196 -28.8336 -1.5857
13.1086 -28.8369 -1.6129
15.4740 -30.8997 -1.7609
16.9587 -30.9035 -1.7975
18.5065 -30.9076 -1.8385
24.1830 -37.1428 -2.2638
24.1905 -34.2631 -2.1442
24.1972 -31.6734 -2.0396
25.5075 -30.9057 -2.0525
27.5305 -30.9110 -2.1223
29.6946 -30.9166 -2.2002
32.0219 -30.9227 -2.2873
38.0012 -34.0294 -2.6240
38.0076 -31.5415 -2.5436
39.8745 -30.6330 -2.5926
43.1531 -30.6415 -2.7322
46.6538 -30.5546 -2.8826
7.3491 -4.4273 -0.4440
7.3500 -4.0592 -0.4351
7.3510 -3.7060 -0.4272
7.3518 -3.3658 -0.4201
7.3538 -3.0376 -0.4140
7.3578 -2.7200 -0.4087
7.3591 -2.4099 -0.4040
7.3603 -2.1073 -0.4000
7.3614 -1.8110 -0.3966
7.3566 -1.5189 -0.3936
7.3574 -1.2325 -0.3914
7.3581 -0.9497 -0.3898
7.3588 -0.6695 -0.3888
7.3641 -0.3915 -0.3886
7.3649 -0.1140 -0.3887
7.3655 0.1631 -0.3893
7.3662 0.4408 -0.3905
7.3668 0.7197 -0.3922
7.3674 1.0008 -0.3945
7.3639 1.2841 -0.3972
7.3647 1.5717 -0.4007
7.3654 1.8641 -0.4048
7.3662 2.1622 -0.4096
7.3670 2.4670 -0.4151
7.3678 2.7797 -0.4213
7.3686 3.1014 -0.4282
7.3695 3.4336 -0.4360
7.3704 3.7777 -0.4447
7.3713 4.1354 -0.4544
7.3723 4.5087 -0.4651
7.3733 4.8997 -0.4770
12.9608 9.3342 -0.8616
11.9220 9.2865 -0.8160
11.0416 9.2888 -0.7800
10.2363 9.2909 -0.7480
9.5461 9.3430 -0.7234
8.8079 9.2946 -0.6942
8.1682 9.2963 -0.6714
7.6544 9.4026 -0.6584
7.7799 10.3272 -0.7027
7.7768 11.1741 -0.7404
5.9778 9.3183 -0.6025
7.7554 13.1530 -0.8315
7.8472 14.5320 -0.9000
7.7786 15.7993 -0.9602
6.0706 13.5984 -0.8124
7.8129 19.4341 -1.1432
6.9843 19.4581 -1.1288
6.0028 18.9354 -1.0850
15.2945 55.4002 -3.1401
12.7498 54.0304 -3.0340
11.4167 58.0753 -3.2353
8.5412 54.1367 -2.9964
6.6121 55.3710 -3.0491
4.5157 55.4733 -3.0434
2.3642 54.1962 -2.9664
0.3260 54.6101 -2.9861
-1.7092 53.9682 -2.9522
-3.8481 55.4499 -3.0385
-5.9517 55.4554 -3.0484
-8.0728 55.4609 -3.0624
-9.9639 54.0892 -3.0044
-12.2622 54.8868 -3.0711
-14.2695 54.2014 -3.0594
-16.8883 55.5672 -3.1687
-19.1730 55.4897 -3.2016
-20.9690 54.0136 -3.1580
-27.3234 63.2221 -3.7516
-32.2242 67.4720 -4.0703
-33.4565 63.7663 -3.9172
-37.0550 64.5952 -4.0480
-39.8506 63.7829 -4.0851
-43.3372 63.8826 -4.1895
-42.5253 57.8737 -3.8943
-45.7650 57.6084 -3.9860
-48.9387 57.0573 -4.0686
-14.2585 15.4108 -1.1353
-14.5923 14.6272 -1.1161
-26.8444 24.9562 -1.9778
-59.9059 51.6303 -4.2628
-33.0324 26.3701 -2.2757
-15.9070 11.7470 -1.0634
-19.6046 13.3679 -1.2746
-32.8474 20.6319 -2.0811
-18.5540 10.7025 -1.1477
-26.3994 13.9316 -1.5975
-27.4000 13.1667 -1.6248
-27.4532 11.9428 -1.5980
-40.4822 15.8278 -2.3170
-33.1271 11.5353 -1.8674
-32.5751 9.9860 -1.8113
-31.1043 8.2689 -1.7086
-30.5711 6.9072 -1.6616
-32.0956 5.9925 -1.7285
-36.7919 5.4462 -1.9662
-33.7959 3.7098 -1.7948
-34.6897 2.4919 -1.8334
-18.5439 0.6324 -0.9767
-27.5034 -0.0973 -1.4458
-28.2281 -1.1625 -1.4830
-27.7815 -2.1933 -1.4607
-67.5524 -7.8992 -3.5599
-15.9146 -2.4709 -0.8418
-30.0980 -7.0243 -1.6109
-29.2161 -7.9883 -1.5766
-42.5972 -13.3881 -2.3210
-40.5217 -14.4318 -2.2329
-35.9752 -14.3591 -2.0081
-38.4172 -17.0358 -2.1758
-73.9621 -36.1840 -3.3432
-28.9197 -15.5226 -1.3306
-28.2688 -16.5721 -1.3263
-38.3464 -24.4630 -1.8382
-28.3311 -19.6111 -1.3904
-29.4490 -22.0683 -1.4829
-34.9318 -28.2897 -1.8088
-43.4641 -37.9938 -2.3198
-38.7563 -36.5395 -2.1376
-15.9544 -16.2178 -0.9118
-27.3208 -29.9459 -1.6228
-26.8368 -31.7349 -1.6619
-25.3042 -32.3132 -1.6393
-26.4991 -36.5954 -1.8028
-21.1202 -31.6050 -1.5152
-19.6805 -31.9933 -1.4959
-15.7754 -27.9490 -1.2770
-17.2317 -33.4052 -1.4944
-20.9518 -44.6646 -1.9600
-19.6140 -46.2629 -1.9950
-15.6770 -41.2268 -1.7501
-18.9955 -56.2346 -2.3539
-12.7449 -43.0016 -1.7778
-14.1820 -55.4222 -2.2667
-12.2236 -56.5465 -2.2915
4.8775 -55.2358 -2.1962
6.3369 -50.1490 -2.0026
7.4914 -45.4621 -1.8261
9.1533 -44.9384 -1.8184
10.5141 -43.2342 -1.7652
2.1227 -7.4895 -0.3090
9.9848 -30.7677 -1.2848
2.8523 -7.7795 -0.3294
12.6639 -30.8924 -1.3281
14.0449 -30.8960 -1.3512
15.4744 -30.8997 -1.3771
16.9592 -30.9035 -1.4061
18.5070 -30.9076 -1.4384
19.8483 -30.4842 -1.4540
24.1905 -34.2622 -1.6784
24.1972 -31.6725 -1.5969
25.5083 -30.9057 -1.6075
27.5314 -30.9110 -1.6627
29.6956 -30.9166 -1.7242
32.0230 -30.9227 -1.7930
38.0012 -34.0282 -2.0575
38.0076 -31.5404 -1.9951
39.8760 -30.6330 -2.0343
43.1548 -30.6416 -2.1445
46.8029 -30.6510 -2.2705
7.3491 -4.4271 -0.3487
7.3500 -4.0590 -0.3419
7.3510 -3.7058 -0.3357
7.3518 -3.3656 -0.3303
7.3538 -3.0374 -0.3256
7.4293 -2.7462 -0.3247
7.4301 -2.4330 -0.3211
7.4309 -2.1273 -0.3180
7.4317 -1.8281 -0.3154
7.3566 -1.5187 -0.3101
7.3574 -1.2323 -0.3086
7.3581 -0.9495 -0.3074
7.3588 -0.6694 -0.3067
7.3596 -0.3911 -0.3065
7.3603 -0.1138 -0.3067
7.3610 0.1632 -0.3073
7.3617 0.4407 -0.3084
7.3624 0.7194 -0.3098
7.3674 1.0009 -0.3120
7.3639 1.2842 -0.3142
7.3647 1.5719 -0.3171
7.3654 1.8643 -0.3204
7.3662 2.1624 -0.3243
7.3670 2.4672 -0.3288
7.3678 2.7798 -0.3338
7.3686 3.1016 -0.3394
7.3695 3.4338 -0.3457
7.3704 3.7779 -0.3527
7.3713 4.1356 -0.3605
7.3723 4.5089 -0.3691
7.3733 4.8999 -0.3787
12.9604 9.3342 -0.6841
11.9216 9.2865 -0.6482
11.0412 9.2888 -0.6197
10.2360 9.2909 -0.5944
9.5458 9.3430 -0.5751
8.8077 9.2946 -0.5519
8.1680 9.2963 -0.5340
7.6544 9.4028 -0.5237
7.7822 10.3304 -0.5592
7.7768 11.1744 -0.5892
5.9778 9.3185 -0.4796
7.7552 13.1530 -0.6619
7.8472 14.5323 -0.7165
7.7785 15.7993 -0.7646
6.0705 13.5984 -0.6470
9.1472 22.7536 -1.0660
7.1011 19.7839 -0.9142
6.0028 18.9357 -0.8643
7.5044 27.1832 -1.2275
12.7534 54.0464 -2.4180
11.4165 58.0753 -2.5779
8.5411 54.1368 -2.3876
6.6120 55.3710 -2.4296
4.5157 55.4735 -2.4252
2.3642 54.1962 -2.3638
0.3260 54.6102 -2.3795
-1.7091 53.9683 -2.3524
-3.8480 55.4499 -2.4211
-5.9515 55.4554 -2.4288
-8.0726 55.4609 -2.4399
-9.9637 54.0896 -2.3934
-12.2619 54.8872 -2.4463
-14.2690 54.2011 -2.4368
-16.8878 55.5672 -2.5235
-19.1725 55.4897 -2.5494
-20.9685 54.0137 -2.5143
-27.3230 63.2230 -2.9866
-32.2242 67.4739 -3.2398
-33.4555 63.7663 -3.1173
-37.0539 64.5952 -3.2208
-39.8495 63.7829 -3.2496
-43.3376 63.8850 -3.3322
-42.5242 57.8739 -3.0966
-45.7638 57.6087 -3.1687
-48.9374 57.0575 -3.2336
-14.2648 15.4182 -0.9025
-26.9160 26.9811 -1.6353
-26.8579 24.9697 -1.5715
-59.9046 51.6310 -3.3843
-29.5216 23.5683 -1.6143
-15.9023 11.7439 -0.8436
-31.3567 21.3823 -1.6171
-32.8250 20.6187 -1.6491
-34.8498 20.1033 -1.7089
-36.6175 19.3250 -1.7559
-27.4065 13.1706 -1.2874
-27.4056 11.9228 -1.2633
-41.0731 16.0598 -1.8611
-36.8592 12.8357 -1.6443
-32.5642 9.9834 -1.4324
-31.2386 8.3053 -1.3570
-30.6975 6.9365 -1.3189
-60.6850 11.3318 -2.5826
-36.8424 5.4545 -1.5553
-36.8965 4.0510 -1.5473
-42.2873 3.0386 -1.7641
-41.1569 1.4043 -1.7104
-40.7701 -0.1433 -1.6903
-28.2784 -1.1640 -1.1713
-27.7860 -2.1930 -1.1514
-67.5526 -7.8978 -2.8046
-15.9111 -2.4700 -0.6628
-30.2636 -7.0622 -1.2747
-29.3736 -8.0307 -1.2469
-42.5886 -13.3844 -1.8248
-40.6719 -14.4844 -1.7617
-37.0331 -14.7805 -1.6243
-79.4050 -35.2097 -3.5326
-73.9648 -36.1835 -2.4297
-28.9818 -15.5552 -0.9685
-39.5256 -23.1702 -1.3461
-38.3108 -24.4394 -1.3323
-28.3536 -19.6259 -1.0089
-39.5612 -29.6451 -1.4436
-61.6311 -49.9106 -2.3113
-59.9123 -52.3702 -2.3148
-40.1104 -37.8150 -1.6007
-15.9639 -16.2270 -0.6598
-31.3258 -34.3349 -1.3450
-26.8289 -31.7247 -1.2004
-40.7557 -52.0433 -1.9069
-38.0494 -52.5451 -1.8688
-39.3028 -58.8126 -2.0349
-27.6180 -44.8957 -1.5144
-18.3155 -32.4485 -1.0692
-17.2961 -33.5293 -1.0814
-20.9513 -44.6625 -1.4126
-15.7454 -41.4059 -1.2662
-19.8757 -58.8394 -1.7739
-17.9451 -60.5459 -1.8025
-14.6560 -57.2737 -1.6866
-13.1883 -61.0082 -1.7798
-11.7901 -85.1091 -2.4486
-9.2535 -92.1978 -2.6402
6.3369 -50.1475 -1.4418
7.4916 -45.4616 -1.3149
9.1536 -44.9384 -1.3096
10.5141 -43.2329 -1.2715
2.1289 -7.5112 -0.2233
9.9851 -30.7677 -0.9260
2.8521 -7.7788 -0.2374
12.6642 -30.8924 -0.9577
14.0453 -30.8960 -0.9747
15.5058 -30.9615 -0.9957
16.9597 -30.9035 -1.0150
18.5076 -30.9076 -1.0388
24.1831 -37.1407 -1.2799
20.4995 -29.0336 -1.0280
24.1973 -31.6715 -1.1547
25.5090 -30.9057 -1.1630
27.5322 -30.9110 -1.2035
29.6965 -30.9166 -1.2486
30.9529 -29.8883 -1.2557
32.2380 -28.8666 -1.2653
38.0076 -31.5392 -1.4471
39.8775 -30.6330 -1.4764
43.1103 -30.6087 -1.5557
44.1348 -28.9025 -1.5557
7.3491 -4.4269 -0.2536
7.3500 -4.0588 -0.2487
7.3510 -3.7056 -0.2444
7.3518 -3.3655 -0.2406
7.3538 -3.0372 -0.2373
7.4293 -2.7461 -0.2368
7.4301 -2.4329 -0.2343
7.4309 -2.1272 -0.2322
7.4317 -1.8280 -0.2305
7.3566 -1.5185 -0.2268
7.3574 -1.2322 -0.2258
7.3581 -0.9494 -0.2251
7.3588 -0.6692 -0.2247
7.3596 -0.3909 -0.2247
7.3603 -0.1137 -0.2250
7.3610 0.1633 -0.2256
7.3617 0.4408 -0.2265
7.3624 0.7196 -0.2278
7.3674 1.0011 -0.2295
7.3639 1.2844 -0.2312
7.3647 1.5721 -0.2335
7.3654 1.8645 -0.2361
7.3662 2.1625 -0.2392
7.3670 2.4673 -0.2426
7.3678 2.7800 -0.2464
7.3686 3.1018 -0.2507
7.3695 3.4339 -0.2555
7.3704 3.7780 -0.2608
7.3713 4.1358 -0.2667
7.3723 4.5091 -0.2732
7.3733 4.9001 -0.2804
12.9599 9.3342 -0.5069
11.9212 9.2865 -0.4805
11.0409 9.2888 -0.4596
10.2356 9.2909 -0.4410
9.5455 9.3430 -0.4268
8.8074 9.2946 -0.4098
8.1677 9.2963 -0.3966
7.6544 9.4031 -0.3892
7.7844 10.3337 -0.4158
7.7768 11.1746 -0.4381
5.9778 9.3188 -0.3567
7.7550 13.1530 -0.4925
7.8472 14.5326 -0.5333
7.7783 15.7993 -0.5691
6.0703 13.5984 -0.4817
9.1470 22.7536 -0.7939
7.2218 20.1205 -0.6925
6.0028 18.9361 -0.6439
7.5983 27.5239 -0.9260
7.5218 31.8767 -1.0627
11.3945 57.9642 -1.9174
8.5324 54.0828 -1.7776
6.6113 55.3658 -1.8106
4.5072 55.3701 -1.8041
2.3643 54.1961 -1.7617
0.3248 54.3954 -1.7665
-1.7089 53.9681 -1.7531
-3.8440 55.3960 -1.8025
-5.9448 55.3948 -1.8079
-8.0643 55.4062 -1.8161
-9.9335 53.9271 -1.7777
-12.2141 54.6744 -1.8152
-14.2508 54.1334 -1.8125
-16.8356 55.3969 -1.8733
-19.1420 55.4028 -1.8949
-20.9527 53.9745 -1.8700
-27.3226 63.2239 -2.2223
-32.2242 67.4757 -2.4101
-33.4546 63.7663 -2.3182
-36.8713 64.2786 -2.3827
-39.8483 63.7829 -2.4150
-43.3381 63.8876 -2.4755
-42.5231 57.8740 -2.2996
-45.7625 57.6089 -2.3522
-48.9360 57.0578 -2.3994
-51.9767 56.1808 -2.4390
-26.9401 27.0061 -1.2135
-57.4265 53.3910 -2.4900
-59.9033 51.6317 -2.5067
-61.7837 49.3262 -2.5012
-15.8975 11.7409 -0.6240
-31.2442 21.3064 -1.1917
-60.2083 37.8208 -2.2359
-60.7093 35.0221 -2.1993
-36.6821 19.3600 -1.2988
-27.4130 13.1744 -0.9503
-41.9235 18.2398 -1.4253
-60.5016 23.6578 -2.0205
-41.0119 14.2828 -1.3476
-59.3440 18.1948 -1.9216
-31.3739 8.3420 -1.0027
-60.2752 13.6212 -1.9040
-60.6848 11.3331 -1.8976
-36.8930 5.4628 -1.1436
-36.9911 4.0623 -1.1383
-59.8198 4.2998 -1.8300
-41.3457 1.4117 -1.2592
-40.9419 -0.1430 -1.2432
-28.3289 -1.1654 -0.8588
-61.4460 -4.8483 -1.8623
-67.5529 -7.8963 -2.0500
-15.9077 -2.4691 -0.4840
-42.5801 -13.3808 -1.3292
-40.8231 -14.5373 -1.2875
-39.9102 -15.9279 -1.2737
-79.4081 -35.2091 -2.5689
-73.9674 -36.1831 -1.5168
-69.0559 -37.0623 -1.4386
-64.5902 -37.8616 -1.3695
-60.5012 -38.5936 -1.3083
-28.3760 -19.6407 -0.6271
-60.8189 -45.5729 -1.3765
-61.5890 -49.8749 -1.4310
-59.8561 -52.3194 -1.4311
-40.1917 -37.8904 -0.9914
-15.9734 -16.2362 -0.4077
-40.0745 -43.9227 -1.0613
-28.5385 -33.7453 -0.7869
-59.7838 -76.3394 -1.7221
-38.7081 -53.4535 -1.1694
-39.2722 -58.7652 -1.2496
-18.0298 -60.8304 -1.1075
-11.6508 -84.1027 -1.4782
-8.4441 -84.1323 -1.4717
4.8772 -55.2287 -0.9661
6.1546 -48.7036 -0.8560
7.5433 -45.7742 -0.8096
9.1793 -45.0633 -0.8034
10.5786 -43.4971 -0.7829
2.1216 -7.4851 -0.1362
9.9854 -30.7677 -0.5673
2.8519 -7.7781 -0.1455
10.2843 -25.0862 -0.4771
14.0457 -30.8960 -0.5984
15.5062 -30.9615 -0.6118
16.9602 -30.9035 -0.6242
18.5081 -30.9076 -0.6393
24.1831 -37.1397 -0.7884
21.0695 -29.8400 -0.6515
24.1973 -31.6706 -0.7128
25.5128 -30.9093 -0.7187
27.5331 -30.9110 -0.7445
29.7569 -30.9785 -0.7749
32.0252 -30.9227 -0.8055
38.0012 -34.0259 -0.9259
34.7961 -28.8732 -0.8235
39.8790 -30.6330 -0.9189
43.2456 -30.7035 -0.9724
46.8069 -30.6510 -1.0295
7.3491 -4.4267 -0.1584
7.3500 -4.0586 -0.1556
7.3510 -3.7054 -0.1531
7.3518 -3.3653 -0.1510
7.3538 -3.0371 -0.1491
7.4293 -2.7459 -0.1490
7.4301 -2.4327 -0.1476
7.4309 -2.1270 -0.1465
7.4317 -1.8278 -0.1456
7.3566 -1.5184 -0.1435
7.3574 -1.2320 -0.1431
7.3581 -0.9492 -0.1428
7.3588 -0.6690 -0.1428
7.3596 -0.3907 -0.1430
7.3603 -0.1135 -0.1434
7.3610 0.1635 -0.1440
7.3617 0.4410 -0.1447
7.3624 0.7198 -0.1457
7.3673 1.0013 -0.1470
7.3639 1.2846 -0.1484
7.3647 1.5722 -0.1500
7.3654 1.8646 -0.1519
7.3662 2.1627 -0.1540
7.3670 2.4675 -0.1564
7.3678 2.7802 -0.1591
7.3686 3.1019 -0.1621
7.3695 3.4341 -0.1653
7.3704 3.7782 -0.1690
7.3713 4.1360 -0.1730
7.3723 4.5093 -0.1774
7.3733 4.9003 -0.1823
12.9594 9.3342 -0.3298
11.9207 9.2865 -0.3129
11.0405 9.2888 -0.2995
10.2353 9.2909 -0.2877
9.5452 9.3430 -0.2787
8.8072 9.2946 -0.2678
8.1675 9.2963 -0.2594
7.6544 9.4033 -0.2547
7.7867 10.3369 -0.2724
7.7770 11.1752 -0.2872
5.9778 9.3190 -0.2339
7.7548 13.1530 -0.3232
7.8472 14.5330 -0.3501
7.7781 15.7993 -0.3738
6.0702 13.5984 -0.3166
9.1469 22.7536 -0.5219
7.3465 20.4684 -0.4633
6.0028 18.9365 -0.4236
7.5982 27.5240 -0.6094
12.7327 53.9608 -1.1840
11.4580 58.2886 -1.2693
8.5426 54.1482 -1.1718
6.6181 55.4227 -1.1935
4.5119 55.4282 -1.1893
2.3683 54.2888 -1.1622
0.3254 54.4839 -1.1651
-1.7108 54.0315 -1.1557
-3.8476 55.4499 -1.1879
-5.9511 55.4554 -1.1913
-8.0720 55.4609 -1.1964
-9.9446 53.9890 -1.1710
-6.6814 29.9089 -0.6531
-14.2718 54.2149 -1.1935
-16.8480 55.4391 -1.2321
-19.1549 55.4419 -1.2458
-20.9907 54.0737 -1.2302
-27.3213 63.2225 -1.4584
-31.9912 66.9896 -1.5694
-33.3245 63.5200 -1.5138
-36.9089 64.3460 -1.5625
-39.6933 63.5365 -1.5749
-43.3385 63.8901 -1.6195
-42.5220 57.8742 -1.5032
-45.7614 57.6091 -1.5363
-48.9347 57.0580 -1.5658
-51.9756 56.1814 -1.5903
-54.7760 54.9121 -1.6073
-57.4253 53.3917 -1.6205
-59.9020 51.6325 -1.6297
-61.7829 49.3275 -1.6245
-15.8928 11.7379 -0.4047
-59.6497 40.6787 -1.4745
-60.1658 37.7956 -1.4465
-60.6664 34.9989 -1.4212
-61.1536 32.2771 -1.3985
-59.6687 28.6775 -1.3343
-60.1197 26.1580 -1.3169
-60.5627 23.6832 -1.3015
-60.9991 21.2450 -1.2882
-59.4163 18.2184 -1.2349
-59.8190 15.9066 -1.2254
-60.2297 13.6123 -1.2179
-60.6390 11.3260 -1.2121
-61.0480 9.0408 -1.2081
-61.4764 6.7525 -1.2060
-59.7731 4.2978 -1.1641
-60.1744 2.0559 -1.1651
-60.5801 -0.2102 -1.1677
-60.9914 -2.5078 -1.1721
-61.4095 -4.8441 -1.1782
-67.5532 -7.8949 -1.2958
-15.9043 -2.4682 -0.3055
-47.1589 -18.8197 -0.9421
-79.4110 -35.2086 -1.6058
-73.9701 -36.1826 -0.6042
-69.0582 -37.0618 -0.5700
-64.5923 -37.8613 -0.5397
-60.5031 -38.5933 -0.5129
-28.4002 -19.6567 -0.2448
-60.7015 -45.4833 -0.5332
-61.5887 -49.8729 -0.5526
-59.7815 -52.2526 -0.5493
-60.6764 -57.2006 -0.5725
-15.9829 -16.2455 -0.1553
-60.2165 -65.9971 -0.6046
-28.5436 -33.7505 -0.2971
-59.7235 -76.2605 -0.6467
-14.7333 -83.1934 -0.5352
-11.5315 -83.2403 -0.5317
-8.3579 -83.2721 -0.5291
4.8772 -55.2267 -0.3516
6.1548 -48.7036 -0.3119
7.5435 -45.7742 -0.2954
9.1796 -45.0634 -0.2937
10.5786 -43.4959 -0.2868
2.1217 -7.4855 -0.0500
9.9856 -30.7677 -0.2088
2.8518 -7.7774 -0.0537
10.2846 -25.0862 -0.1766
14.0461 -30.8960 -0.2222
15.5066 -30.9615 -0.2280
16.9606 -30.9035 -0.2335
18.5086 -30.9076 -0.2401
24.1831 -37.1386 -0.2972
21.6718 -30.6921 -0.2537
24.1973 -31.6696 -0.2710
25.5193 -30.9163 -0.2746
27.5340 -30.9110 -0.2857
29.7579 -30.9785 -0.2988
32.0262 -30.9227 -0.3121
38.0012 -34.0247 -0.3606
35.4266 -29.3953 -0.3281
39.8840 -30.6357 -0.3616
43.2473 -30.7035 -0.3847
46.8088 -30.6510 -0.4094
7.3491 -4.4265 -0.0633
7.3500 -4.0585 -0.0625
7.3510 -3.7052 -0.0619
7.3518 -3.3651 -0.0613
7.3538 -3.0369 -0.0609
7.4293 -2.7457 -0.0612
7.4301 -2.4325 -0.0610
7.4309 -2.1268 -0.0608
7.4317 -1.8276 -0.0608
7.3566 -1.5182 -0.0602
7.3574 -1.2318 -0.0604
7.3581 -0.9490 -0.0606
7.3588 -0.6689 -0.0609
7.3596 -0.3906 -0.0613
7.3603 -0.1133 -0.0618
7.3610 0.1636 -0.0623
7.3617 0.4411 -0.0630
7.3624 0.7199 -0.0637
7.3673 1.0014 -0.0646
7.3639 1.2847 -0.0655
7.3647 1.5724 -0.0665
7.3654 1.8648 -0.0677
7.3662 2.1629 -0.0689
7.3172 2.4510 -0.0698
7.3678 2.7804 -0.0718
7.3686 3.1021 -0.0734
7.3695 3.4343 -0.0752
7.3704 3.7784 -0.0772
7.3713 4.1362 -0.0793
7.3723 4.5095 -0.0816
7.3733 4.9005 -0.0842
12.9589 9.3342 -0.1527
11.9203 9.2865 -0.1454
11.0402 9.2888 -0.1396
10.2350 9.2909 -0.1345
9.5449 9.3430 -0.1307
8.8069 9.2946 -0.1259
8.1673 9.2963 -0.1222
7.6544 9.4036 -0.1203
7.7889 10.3402 -0.1290
7.7789 11.1783 -0.1363
5.9778 9.3192 -0.1112
7.7547 13.1530 -0.1539
7.8472 14.5333 -0.1670
7.7780 15.7993 -0.1786
6.0701 13.5984 -0.1515
9.1467 22.7536 -0.2501
7.4756 20.8285 -0.2262
6.0028 18.9368 -0.2034
5.7528 20.8396 -0.2218
12.7552 54.0569 -0.5705
11.4159 58.0753 -0.6086
8.5425 54.1483 -0.5642
6.6247 55.4791 -0.5754
4.5165 55.4846 -0.5735
2.3650 54.2124 -0.5590
0.3262 54.6103 -0.5625
-1.7091 53.9793 -0.5560
-3.8475 55.4499 -0.5718
-5.9509 55.4554 -0.5731
-8.0718 55.4609 -0.5751
-9.9628 54.0896 -0.5635
-6.6173 29.6228 -0.3104
-14.2714 54.2146 -0.5721
-16.8782 55.5401 -0.5910
-19.1709 55.4897 -0.5961
-20.9709 54.0244 -0.5867
-27.3280 63.2397 -0.6952
-32.1754 67.3771 -0.7509
-33.4170 63.6982 -0.7207
-37.0240 64.5485 -0.7426
-39.8035 63.7148 -0.7466
-43.3389 63.8926 -0.7638
-42.5209 57.8744 -0.7072
-45.7601 57.6093 -0.7209
-48.9334 57.0582 -0.7327
-51.9745 56.1821 -0.7420
-54.7749 54.9128 -0.7476
-57.4241 53.3923 -0.7514
-59.9008 51.6332 -0.7532
-61.7822 49.3287 -0.7482
-15.8881 11.7348 -0.1857
-59.6494 40.6801 -0.6742
-60.1655 37.7971 -0.6589
-60.6661 35.0003 -0.6449
-38.7712 20.4646 -0.4007
