ply
format ascii 1.0
element vertex 2100
property float32 x
property float32 y
property float32 z
end_header
-13.3934 -15.8429 1.6041
-9.8734 -12.6120 1.2369
-18.1127 -25.0213 2.3826
-17.2002 -25.7464 2.3857
-16.2371 -26.4031 2.3857
-15.2481 -27.0222 2.3857
-14.2345 -27.6023 2.3857
-8.4102 -17.9335 1.5202
-9.2940 -21.9272 1.8264
-9.2073 -24.2192 1.9856
-9.1049 -26.9612 2.1793
-8.5471 -28.8452 2.3026
-7.4602 -29.1613 2.3026
-6.3612 -29.4341 2.3026
-5.2518 -29.6634 2.3026
-4.3189 -31.1849 2.4057
-3.1439 -31.3320 2.4057
-1.9638 -31.4324 2.4057
-0.7805 -31.4860 2.4057
0.4041 -31.4926 2.4057
1.5878 -31.4523 2.4057
2.7689 -31.3651 2.4057
3.7761 -29.8908 2.3024
4.8959 -29.7181 2.3024
6.0075 -29.5015 2.3024
7.1502 -29.4092 2.3157
8.2466 -29.1037 2.3157
6.9162 -21.3172 1.7167
10.3970 -28.3647 2.3157
11.2208 -27.3792 2.2698
11.0561 -24.3277 2.0516
12.5903 -25.1474 2.1610
6.1771 -11.2592 0.9878
2.4411 -4.0779 0.3659
16.2729 -25.0001 2.2993
17.2053 -24.3759 2.3024
3.2009 -4.1910 0.4074
18.9415 -22.9567 2.3024
19.7652 -22.1988 2.3024
17.5514 -18.2792 1.9657
18.3742 -17.7491 1.9845
22.7627 -20.3904 2.3774
23.7562 -19.7215 2.4057
24.4426 -18.7845 2.4057
25.0911 -17.8231 2.4057
25.7011 -16.8390 2.4057
26.2717 -15.8337 2.4057
26.8022 -14.8089 2.4057
27.2921 -13.7661 2.4057
26.5521 -12.1626 2.3026
26.9417 -11.1351 2.3026
20.9981 -7.7675 1.7716
20.9622 -6.8696 1.7488
20.9273 -5.9965 1.7291
19.4095 -4.7795 1.5907
19.3785 -4.0054 1.5777
20.8272 -3.4937 1.6870
20.7950 -2.6886 1.6782
7.5227 -0.6861 0.6058
7.5113 -0.4010 0.6044
7.4999 -0.1178 0.6038
7.4887 0.1641 0.6042
7.4774 0.4457 0.6054
7.4698 0.7281 0.6077
7.5303 1.0212 0.6165
7.5188 1.3093 0.6203
7.5071 1.6004 0.6250
7.4954 1.8952 0.6307
7.4084 2.1728 0.6310
7.3963 2.4750 0.6386
7.3839 2.7839 0.6473
7.3713 3.1007 0.6571
7.3582 3.4265 0.6681
7.3448 3.7627 0.6804
7.3309 4.1108 0.6941
7.3164 4.4726 0.7093
7.3013 4.8499 0.7262
7.2855 5.2449 0.7449
7.2689 5.6600 0.7655
7.2514 6.0981 0.7885
7.2487 6.5770 0.8156
7.2294 7.0733 0.8440
7.1919 7.5868 0.8734
7.1691 8.1567 0.9085
10.7213 13.1659 1.4221
9.8965 13.1329 1.3788
9.1210 13.1019 1.3400
8.3886 13.0726 1.3051
7.6937 13.0448 1.2737
7.0289 13.0131 1.2450
6.3972 12.9900 1.2199
5.7906 12.9679 1.1974
5.5135 13.7111 1.2468
5.4543 15.1918 1.3627
5.3830 16.9762 1.5044
5.2951 19.1753 1.6812
5.1837 21.9617 1.9079
5.0138 25.4986 2.1980
4.2420 26.8803 2.3024
3.2268 27.0148 2.3024
2.2076 27.1127 2.3024
1.1858 27.1741 2.3024
0.1697 28.4186 2.4057
-0.8998 28.4062 2.4057
-1.9682 28.3555 2.4057
-3.0344 28.2666 2.4057
-4.0969 28.1396 2.4057
-4.2964 23.3177 2.0052
-5.1993 23.2673 2.0155
-7.2497 27.5311 2.4057
-7.9298 26.0852 2.3026
-8.9110 25.7836 2.3026
-9.8813 25.4468 2.3026
-10.8397 25.0751 2.3026
-11.1860 23.4155 2.1856
-11.0893 21.1302 2.0081
-11.0107 19.1891 1.8600
-10.9454 17.5139 1.7347
-10.8875 16.0447 1.6269
-15.7626 21.4456 2.2307
-10.7819 13.5682 1.4509
-10.8625 12.6607 1.3949
-18.9783 20.5056 2.3334
-6.4557 6.4690 0.7622
-6.7563 6.2790 0.7682
-7.0630 6.0852 0.7754
-10.5960 8.4558 1.1259
-22.6898 16.7494 2.3388
-22.5430 15.3652 2.2589
-10.6195 6.6673 1.0366
-10.5027 6.0555 1.0006
-22.7028 11.9750 2.1149
-24.0247 11.5387 2.1923
-25.5480 11.1076 2.2876
-10.4033 4.0649 0.9155
-10.4475 3.6354 0.9051
-27.1935 8.3297 2.3229
-27.5415 7.3152 2.3232
-27.7546 6.2643 2.3153
-28.2064 5.2599 2.3304
-10.2928 1.5212 0.8435
-28.5160 3.1237 2.3211
-10.3780 0.7432 0.8402
-15.8576 0.5372 1.2789
-29.0081 -0.1092 2.3336
-29.1041 -1.2052 2.3388
-10.2003 -0.8076 0.8200
-25.2447 -2.9577 2.0329
-24.1213 -3.7506 1.9487
-24.4027 -4.7406 1.9806
-28.5319 -6.6654 2.3300
-28.5108 -7.8021 2.3462
-10.1074 -3.1790 0.8394
-27.9740 -9.9696 2.3484
-27.0689 -10.8108 2.3007
-26.4456 -11.7336 2.2795
-23.1692 -11.3424 2.3168
-10.1039 -5.4266 1.0284
-9.9937 -5.8620 1.0374
-10.0699 -6.4276 1.0681
-21.5593 -14.9311 2.3413
-20.2356 -15.1713 2.2548
-9.9063 -8.0264 1.1351
-15.4828 -13.5401 1.8287
-17.8479 -16.8341 2.1786
-10.0500 -10.2201 1.2712
-13.3406 -14.6282 1.7537
-9.8779 -11.6852 1.3538
-9.8729 -12.6121 1.4156
-15.8433 -21.8876 2.3857
-15.0239 -22.4901 2.3857
-14.1808 -23.0606 2.3857
-13.3154 -23.5983 2.3857
-9.4352 -18.2970 1.8111
-8.4101 -17.9341 1.7413
-9.2938 -21.9278 2.0921
-9.2073 -24.2205 2.2747
-8.3964 -24.8646 2.3026
-7.4594 -25.1756 2.3026
-6.5104 -25.4498 2.3026
-5.5510 -25.6864 2.3026
-4.7879 -27.0443 2.4057
-3.7685 -27.2120 2.4057
-2.7432 -27.3396 2.4057
-1.7134 -27.4268 2.4057
-0.6810 -27.4733 2.4057
0.3525 -27.4792 2.4057
1.3854 -27.4443 2.4057
2.4160 -27.3687 2.4057
3.2967 -26.0973 2.3037
4.2722 -25.9336 2.3024
5.2425 -25.7457 2.3024
6.2043 -25.5199 2.3024
7.1561 -25.2566 2.3024
6.9164 -21.3191 1.9669
9.0236 -24.6193 2.3024
9.9364 -24.2465 2.3024
10.8333 -23.8385 2.3024
11.7128 -23.3960 2.3024
6.1781 -11.2616 1.1313
13.4146 -22.4105 2.3024
14.2342 -21.8693 2.3024
15.0314 -21.2971 2.3024
3.2006 -4.1909 0.4663
17.0186 -20.6275 2.3671
18.0508 -20.2745 2.4057
18.6189 -19.3922 2.3853
18.4322 -17.8063 2.2768
20.1430 -18.0450 2.4057
20.7795 -17.2516 2.4057
21.3841 -16.4353 2.4057
21.9559 -15.5973 2.4057
22.4942 -14.7392 2.4057
22.9984 -13.8622 2.4057
23.4679 -12.9678 2.4057
22.8778 -11.5407 2.3026
23.2591 -10.6554 2.3026
23.6057 -9.7575 2.3026
20.9981 -7.7685 2.0215
20.9622 -6.8706 1.9950
20.9273 -5.9975 1.9721
19.4095 -4.7804 1.8138
19.3785 -4.0063 1.7986
20.8272 -3.4947 1.9227
20.7950 -2.6896 1.9123
7.5227 -0.6865 0.6901
7.5113 -0.4013 0.6883
7.5000 -0.1182 0.6876
7.4887 0.1638 0.6878
7.4774 0.4454 0.6890
7.4697 0.7277 0.6915
7.5303 1.0208 0.7013
7.5188 1.3090 0.7055
7.5072 1.6001 0.7107
7.4954 1.8949 0.7170
7.4084 2.1725 0.7172
7.3963 2.4747 0.7257
7.3839 2.7836 0.7354
7.3713 3.1003 0.7464
7.3583 3.4261 0.7587
7.3448 3.7623 0.7725
7.3309 4.1105 0.7879
7.3164 4.4722 0.8051
7.3013 4.8495 0.8241
7.2856 5.2444 0.8451
7.2690 5.6596 0.8684
7.2514 6.0977 0.8943
7.2509 6.5785 0.9252
7.2317 7.0750 0.9572
7.1919 7.5864 0.9902
7.1691 8.1563 1.0297
8.9304 10.9660 1.3425
9.8971 13.1329 1.5626
9.1215 13.1019 1.5184
8.3205 12.9658 1.4666
7.6941 13.0448 1.4429
7.0293 13.0132 1.4102
6.3975 12.9901 1.3817
5.7909 12.9679 1.3561
5.5136 13.7105 1.4119
5.4544 15.1911 1.5430
5.3830 16.9755 1.7033
5.2951 19.1745 1.9034
5.1837 21.9608 2.1599
4.6394 23.5934 2.3024
3.7473 23.7450 2.3024
2.8506 23.8643 2.3024
1.9503 23.9513 2.3024
1.0475 24.0058 2.3024
0.1499 25.1053 2.4057
-0.7949 25.0942 2.4057
-1.7388 25.0491 2.4057
-2.6806 24.9700 2.4057
-3.6191 24.8571 2.4057
-4.3471 23.5918 2.2968
-5.4818 24.5300 2.4057
-6.4035 24.3162 2.4057
-7.1067 23.3764 2.3364
-7.8698 22.7699 2.3026
-8.7261 22.4707 2.3026
-9.5716 22.1406 2.3026
-10.4051 21.7799 2.3026
-11.0889 21.1283 2.2745
-11.0111 19.1887 2.1072
-10.9450 17.5123 1.9652
-10.8872 16.0432 1.8434
-10.8302 14.7340 1.7369
-10.7819 13.5673 1.6444
-16.2846 18.9793 2.3705
-16.9847 18.3504 2.3675
-6.4559 6.4688 0.8643
-6.7566 6.2788 0.8712
-7.0633 6.0850 0.8795
-10.5962 8.4553 1.2773
-20.0738 14.8172 2.3477
-20.2546 13.8044 2.3033
-10.6196 6.6668 1.1766
-10.5030 6.0551 1.1360
-21.2388 11.2017 2.2466
-21.9117 10.5227 2.2709
-22.7796 9.9028 2.3170
-10.4031 4.0643 1.0402
-10.4484 3.6352 1.0287
-24.3241 7.4496 2.3618
-24.4885 6.5031 2.3485
-24.7372 5.5821 2.3467
-24.8774 4.6379 2.3379
-10.2928 1.5207 0.9596
-25.0009 2.7375 2.3158
-10.3808 0.7429 0.9566
-15.8535 0.5363 1.4556
-24.9883 -0.0952 2.2892
-24.7421 -1.0257 2.2647
-10.2003 -0.8080 0.9342
-23.3116 -2.7323 2.1393
-22.5550 -3.5081 2.0769
-22.4841 -4.3689 2.0806
-22.7354 -5.3123 2.1173
-24.8859 -6.8114 2.3359
-10.1073 -3.1795 0.9577
-24.5366 -8.7458 2.3506
-24.1014 -9.6269 2.3382
-23.6232 -10.4825 2.3247
-20.9802 -10.2719 2.3592
-10.1031 -5.4267 1.1566
-9.9938 -5.8626 1.1670
-10.0694 -6.4278 1.2016
-19.2237 -13.3147 2.3492
-18.6467 -13.9811 2.3383
-9.9063 -8.0270 1.2777
-15.4917 -13.5488 2.0600
-9.9616 -9.3965 1.3691
-10.0496 -10.2204 1.4315
-12.7267 -13.9559 1.8843
-12.2237 -14.4610 1.8871
-9.8724 -12.6123 1.5947
-11.8495 -16.3710 2.0103
-13.1784 -19.7285 2.3579
-12.4230 -20.2032 2.3552
-11.7378 -20.8035 2.3701
-9.4355 -18.2984 2.0413
-8.4105 -17.9358 1.9628
-9.0737 -21.4096 2.3026
-6.1649 -16.2180 1.7171
-7.4473 -22.0548 2.3026
-6.6158 -22.3295 2.3026
-5.7738 -22.5715 2.3026
-5.1431 -23.8003 2.4057
-4.2458 -23.9837 2.4057
-3.3418 -24.1318 2.4057
-2.4325 -24.2444 2.4057
-1.5194 -24.3214 2.4057
-0.6038 -24.3625 2.4057
0.3126 -24.3677 2.4057
1.2285 -24.3370 2.4057
2.1424 -24.2704 2.4057
3.0529 -24.1681 2.4057
3.9335 -23.8791 2.3905
4.6695 -22.9328 2.3125
5.5024 -22.6340 2.3024
6.3469 -22.4017 2.3024
6.9737 -21.4967 2.2359
8.0043 -21.8393 2.3024
8.8146 -21.5102 2.3024
9.6125 -21.1533 2.3028
10.4642 -20.9030 2.3184
6.1791 -11.2640 1.2751
2.4754 -4.1357 0.4788
13.1996 -20.2809 2.4057
13.9404 -19.7525 2.4057
3.2003 -4.1907 0.5252
15.3557 -18.6130 2.4057
16.0281 -18.0038 2.4057
16.6759 -17.3696 2.4057
17.2979 -16.7116 2.4057
17.8934 -16.0308 2.4057
18.4616 -15.3283 2.4057
19.0016 -14.6052 2.4057
19.5127 -13.8628 2.4057
19.9944 -13.1023 2.4057
19.5697 -11.7966 2.3026
19.9725 -11.0374 2.3026
20.3455 -10.2643 2.3026
20.6881 -9.4786 2.3026
21.0001 -8.6815 2.3026
20.9982 -7.7695 2.2720
20.9623 -6.8717 2.2418
20.9273 -5.9986 2.2156
20.2514 -4.9888 2.1258
19.3863 -4.0088 2.0208
20.8273 -3.4957 2.1590
20.7951 -2.6906 2.1469
7.5227 -0.6868 0.7746
7.5113 -0.4017 0.7725
7.5000 -0.1185 0.7715
7.4887 0.1634 0.7716
7.4774 0.4450 0.7728
7.4697 0.7274 0.7754
7.5303 1.0205 0.7863
7.5188 1.3086 0.7909
7.5072 1.5997 0.7966
7.4954 1.8945 0.8035
7.4084 2.1721 0.8036
7.3963 2.4743 0.8129
7.3840 2.7832 0.8237
7.3713 3.1000 0.8358
7.3583 3.4258 0.8495
7.3448 3.7620 0.8649
7.3309 4.1101 0.8820
7.3164 4.4718 0.9010
7.3014 4.8491 0.9221
7.2856 5.2441 0.9455
7.2690 5.6592 0.9715
7.2532 6.0988 1.0005
7.2531 6.5801 1.0351
7.2339 7.0768 1.0707
7.1919 7.5860 1.1072
7.1692 8.1558 1.1512
8.3816 10.2916 1.4085
9.8976 13.1329 1.7467
9.1221 13.1019 1.6971
8.3125 12.9527 1.6374
7.6945 13.0449 1.6125
7.0298 13.0135 1.5759
6.3979 12.9901 1.5438
5.7912 12.9679 1.5151
5.5136 13.7099 1.5773
5.4544 15.1905 1.7236
5.3831 16.9748 1.9026
5.2951 19.1737 2.1260
4.9473 20.9584 2.3024
4.1539 21.1236 2.3024
3.3553 21.2599 2.3024
2.5524 21.3672 2.3024
1.7463 21.4454 2.3024
0.9800 22.4583 2.4057
0.1342 22.4789 2.4057
-0.7118 22.4689 2.4057
-1.5570 22.4282 2.4057
-2.4002 22.3570 2.4057
-3.2405 22.2554 2.4057
-4.0767 22.1234 2.4057
-4.9079 21.9611 2.4057
-5.7329 21.7688 2.4057
-6.5508 21.5466 2.4057
-7.0450 20.3823 2.3026
-7.8110 20.1133 2.3026
-8.5673 19.8165 2.3026
-9.3127 19.4922 2.3026
-10.0464 19.1409 2.3026
-10.7673 18.7628 2.3026
-10.9446 17.5107 2.1962
-10.8868 16.0417 2.0603
-10.8301 14.7330 1.9415
-10.7818 13.5664 1.8383
-10.7408 12.5174 1.7480
-10.7167 11.5777 1.6703
-6.4562 6.4686 0.9666
-6.7569 6.2786 0.9745
-7.0636 6.0848 0.9839
-10.5964 8.4548 1.4290
-10.6722 7.8769 1.3965
-10.6477 7.2562 1.3550
-10.6197 6.6663 1.3169
-10.5034 6.0547 1.2717
-20.1009 10.6005 2.3805
-20.5386 9.8622 2.3835
-20.9427 9.1032 2.3857
-10.4029 4.0637 1.1651
-10.4494 3.6350 1.1526
-21.9275 6.7146 2.3857
-22.1967 5.8935 2.3857
-22.4081 5.0555 2.3827
-22.5461 4.2022 2.3754
-10.2927 1.5203 1.0760
-22.7482 2.4898 2.3631
-10.3653 0.7413 1.0715
-15.8495 0.5354 1.6327
-23.0208 -0.0888 2.3665
-23.0697 -0.9574 2.3699
-10.2002 -0.8085 1.0486
-10.2962 -1.2072 1.0608
-21.5481 -3.3525 2.2282
-21.3664 -4.1527 2.2206
-21.3042 -4.9789 2.2287
-21.6025 -5.9137 2.2782
-10.1072 -3.1799 1.0762
-10.1850 -3.6308 1.0966
-21.7177 -8.6758 2.3685
-21.3824 -9.4892 2.3658
-19.0963 -9.3505 2.3857
-10.1024 -5.4268 1.2851
-9.9939 -5.8632 1.2969
-10.0694 -6.4283 1.3355
-10.0624 -6.9700 1.3668
-16.9816 -12.7337 2.3675
-9.9063 -8.0276 1.4206
-15.5006 -13.5575 2.2919
-14.2812 -13.4718 2.1828
-10.0492 -10.2206 1.5921
-9.9116 -10.8696 1.6323
-9.7664 -11.5546 1.6773
-9.7269 -12.4271 1.7480
-11.2474 -15.5400 2.1231
-11.2019 -16.7705 2.2303
-10.7523 -17.4870 2.2685
-10.1083 -17.9163 2.2716
-9.4358 -18.2999 2.2721
-8.8636 -18.9031 2.3026
-8.1512 -19.2338 2.3026
-6.1575 -16.1993 1.9092
-6.6894 -19.8112 2.3026
-5.9422 -20.0570 2.3026
-5.3229 -20.8096 2.3635
-4.6192 -21.3765 2.4057
-3.8132 -21.5405 2.4057
-3.0012 -21.6731 2.4057
-2.1846 -21.7739 2.4057
-1.3645 -21.8427 2.4057
-0.5423 -21.8796 2.4057
0.2807 -21.8842 2.4057
1.1032 -21.8569 2.4057
1.9240 -21.7974 2.4057
2.7417 -21.7059 2.4057
3.5551 -21.5827 2.4057
4.3628 -21.4279 2.4057
5.1637 -21.2417 2.4057
5.9564 -21.0246 2.4057
6.7398 -20.7768 2.4057
7.5126 -20.4988 2.4057
8.2736 -20.1912 2.4057
9.0217 -19.8543 2.4057
9.7557 -19.4888 2.4057
6.1801 -11.2664 1.4194
11.1771 -18.6745 2.4057
11.8623 -18.2271 2.4057
12.5291 -17.7539 2.4057
3.2000 -4.1905 0.5842
13.8038 -16.7330 2.4057
14.4098 -16.1870 2.4057
14.9937 -15.6185 2.4057
15.5548 -15.0286 2.4057
16.0921 -14.4180 2.4057
16.6050 -13.7879 2.4057
16.3604 -12.5761 2.3026
16.8024 -11.9383 2.3026
17.2192 -11.2847 2.3025
17.6101 -10.6163 2.3025
17.9748 -9.9344 2.3025
18.3127 -9.2397 2.3024
18.6235 -8.5336 2.3024
19.0568 -7.8791 2.3207
19.3145 -7.1475 2.3207
19.5439 -6.4076 2.3207
19.7448 -5.6605 2.3207
19.9169 -4.9073 2.3207
20.0603 -4.1491 2.3207
20.1747 -3.3871 2.3207
20.2601 -2.6223 2.3207
7.5227 -0.6872 0.8593
7.5113 -0.4020 0.8568
7.5000 -0.1189 0.8556
7.4887 0.1631 0.8556
7.4775 0.4447 0.8568
7.4697 0.7270 0.8596
7.5303 1.0201 0.8715
7.5188 1.3083 0.8765
7.5072 1.5994 0.8827
7.4954 1.8942 0.8902
7.4084 2.1718 0.8901
7.3963 2.4740 0.9004
7.3840 2.7829 0.9122
7.3713 3.0996 0.9255
7.3583 3.4254 0.9406
7.3448 3.7616 0.9574
7.3309 4.1097 0.9762
7.3165 4.4715 0.9972
7.3014 4.8487 1.0204
7.2856 5.2437 1.0462
7.2690 5.6588 1.0748
7.2555 6.1003 1.1071
7.2554 6.5817 1.1453
7.2362 7.0786 1.1846
7.1920 7.5855 1.2244
7.1692 8.1553 1.2730
8.3816 10.2910 1.5574
9.8982 13.1330 1.9312
9.1226 13.1020 1.8763
8.3205 12.9645 1.8118
7.6949 13.0449 1.7824
7.0304 13.0139 1.7419
6.3982 12.9901 1.7063
5.7915 12.9679 1.6744
5.5136 13.7093 1.7430
5.4544 15.1899 1.9047
5.3831 16.9741 2.1023
5.2873 19.1444 2.3457
4.4776 18.9676 2.3024
3.7596 19.1176 2.3024
3.0369 19.2414 2.3024
2.3102 19.3389 2.3024
1.5806 19.4099 2.3024
0.8871 20.3268 2.4057
0.1215 20.3454 2.4057
-0.6443 20.3363 2.4057
-1.4093 20.2993 2.4057
-2.1725 20.2346 2.4057
-2.9330 20.1422 2.4057
-3.6897 20.0222 2.4057
-4.4419 19.8748 2.4057
-5.1884 19.7001 2.4057
-5.9283 19.4982 2.4057
-6.6607 19.2696 2.4057
-7.0897 18.2548 2.3096
-7.7521 17.9299 2.3026
-8.4260 17.6355 2.3026
-9.0893 17.3165 2.3026
-9.7409 16.9733 2.3026
-10.3799 16.6063 2.3026
-10.8864 16.0402 2.2776
-10.8300 14.7320 2.1466
-10.7817 13.5654 2.0326
-10.7409 12.5167 1.9330
-10.7025 11.5616 1.8448
-6.4564 6.4685 1.0692
-6.7571 6.2785 1.0780
-7.0639 6.0846 1.0885
-10.5966 8.4544 1.5810
-16.4757 12.1594 2.3857
-16.9403 11.5436 2.3857
-10.6198 6.6658 1.4575
-10.5037 6.0543 1.4077
-10.5704 5.5739 1.3858
-10.5613 5.0708 1.3570
-18.9126 8.2199 2.3857
-10.4027 4.0631 1.2904
-10.4504 3.6349 1.2767
-19.7939 6.0603 2.3857
-20.0342 5.3183 2.3857
-20.2469 4.5669 2.3857
-20.4317 3.8072 2.3857
-10.2926 1.5198 1.1926
-20.7161 2.2664 2.3857
-10.3655 0.7408 1.1880
-10.3716 0.3499 1.1847
-20.9253 -0.0816 2.3857
-20.9362 -0.8699 2.3857
-10.2002 -0.8090 1.1633
-10.2954 -1.2076 1.1769
-20.3502 -3.1671 2.3352
-20.2024 -3.9275 2.3304
-20.1700 -4.7148 2.3423
-20.1150 -5.5075 2.3551
-10.1071 -3.1804 1.1949
-10.1851 -3.6314 1.2179
-19.6952 -7.8688 2.3857
-19.4100 -8.6149 2.3857
-10.1523 -4.9716 1.3953
-10.1016 -5.4269 1.4138
-9.9940 -5.8638 1.4271
-10.0698 -6.4291 1.4698
-15.9569 -11.0539 2.3857
-15.5664 -11.6734 2.3888
-9.9064 -8.0282 1.5639
-10.0227 -8.7670 1.6316
-9.8739 -9.3149 1.6617
-9.8292 -9.9976 1.7147
-9.7968 -10.7443 1.7768
-9.7632 -11.5515 1.8467
-9.7268 -12.4276 1.9253
-10.8256 -14.9580 2.2509
-10.6456 -15.9385 2.3349
-10.1523 -16.5121 2.3597
-9.2998 -16.4843 2.3026
-8.6787 -16.8323 2.3026
-8.0441 -17.1562 2.3026
-7.3972 -17.4555 2.3026
-6.1501 -16.1805 2.1014
-6.0700 -17.9779 2.3026
-5.4227 -18.3043 2.3157
-4.9160 -19.2197 2.4057
-4.1911 -19.3964 2.4057
-3.4597 -19.5448 2.4057
-2.7230 -19.6647 2.4057
-1.9820 -19.7558 2.4057
-1.2380 -19.8181 2.4057
-0.4920 -19.8515 2.4057
0.2547 -19.8558 2.4057
1.0009 -19.8310 2.4057
1.7456 -19.7772 2.4057
2.4875 -19.6946 2.4057
3.2256 -19.5831 2.4057
3.9585 -19.4432 2.4057
4.6853 -19.2748 2.4057
5.4048 -19.0785 2.4057
6.1159 -18.8544 2.4057
6.8175 -18.6030 2.4057
7.5084 -18.3247 2.4057
8.1878 -18.0199 2.4057
8.8544 -17.6893 2.4057
6.1810 -11.2687 1.5640
10.1458 -16.9524 2.4057
10.7685 -16.5474 2.4057
11.3747 -16.1189 2.4057
3.1997 -4.1904 0.6434
12.5339 -15.1945 2.4057
13.0852 -14.7000 2.4057
13.6167 -14.1850 2.4057
14.1275 -13.6505 2.4057
13.9905 -12.5359 2.3026
14.4377 -11.9891 2.3026
14.8632 -11.4261 2.3025
15.2664 -10.8478 2.3025
15.6467 -10.2550 2.3025
16.0037 -9.6487 2.3025
16.3369 -9.0300 2.3024
16.7779 -8.4662 2.3207
17.0647 -7.8202 2.3207
17.3265 -7.1646 2.3207
17.5628 -6.5002 2.3207
17.7735 -5.8281 2.3207
17.9584 -5.1492 2.3207
18.1171 -4.4647 2.3207
18.2497 -3.7755 2.3207
18.3560 -3.0826 2.3207
18.4360 -2.3871 2.3207
7.5227 -0.6875 0.9442
7.5113 -0.4024 0.9414
7.5000 -0.1192 0.9399
7.4887 0.1627 0.9398
7.4775 0.4443 0.9410
7.4697 0.7267 0.9439
7.5304 1.0198 0.9570
7.5188 1.3079 0.9623
7.5072 1.5990 0.9690
7.4954 1.8938 0.9771
7.4084 2.1714 0.9769
7.3963 2.4736 0.9881
7.3840 2.7825 1.0009
7.3713 3.0992 1.0154
7.3583 3.4250 1.0318
7.3449 3.7612 1.0502
7.3309 4.1093 1.0707
7.3165 4.4711 1.0936
7.3014 4.8483 1.1190
7.2856 5.2433 1.1471
7.2690 5.6584 1.1784
7.2579 6.1018 1.2141
7.2576 6.5833 1.2558
7.2378 7.0796 1.2987
7.1920 7.5850 1.3419
7.1692 8.1548 1.3951
8.3703 10.2765 1.7043
9.8988 13.1330 2.1163
9.1231 13.1020 2.0559
8.3205 12.9638 1.9850
7.6953 13.0449 1.9529
7.0310 13.0143 1.9084
6.3985 12.9901 1.8692
5.7918 12.9679 1.8343
5.5136 13.7087 1.9092
5.4545 15.1892 2.0862
5.3831 16.9734 2.3026
4.7386 17.1570 2.3024
4.0884 17.3182 2.3024
3.4329 17.4556 2.3024
2.7730 17.5689 2.3024
2.1095 17.6582 2.3024
1.4433 17.7232 2.3024
0.8100 18.5605 2.4057
0.1109 18.5776 2.4057
-0.5883 18.5692 2.4057
-1.2869 18.5353 2.4057
-1.9838 18.4760 2.4057
-2.6782 18.3913 2.4057
-3.3691 18.2814 2.4057
-4.0558 18.1464 2.4057
-4.7373 17.9863 2.4057
-5.4127 17.8014 2.4057
-6.0811 17.5920 2.4057
-6.7418 17.3582 2.4057
-7.0770 16.3675 2.3026
-7.6919 16.0980 2.3026
-8.2969 15.8060 2.3026
-8.8911 15.4918 2.3026
-9.4739 15.1560 2.3026
-10.0443 14.7987 2.3026
-10.6017 14.4206 2.3026
-10.7816 13.5645 2.2274
-10.7410 12.5160 2.1185
-10.7025 11.5609 2.0220
-6.4567 6.4683 1.1720
-6.7574 6.2783 1.1817
-7.0642 6.0844 1.1934
-10.5754 8.4368 1.7300
-10.5541 7.7885 1.6757
-10.5730 7.2041 1.6328
-10.6199 6.6652 1.5985
-10.5040 6.0540 1.5440
-16.5882 8.7463 2.3857
-16.9243 8.1250 2.3857
-17.2375 7.4909 2.3857
-10.4025 4.0625 1.4159
-10.4513 3.6347 1.4013
-10.4722 3.2057 1.3853
-10.4555 2.7750 1.3666
-10.4496 2.3565 1.3517
-18.6093 3.4667 2.3857
-10.2925 1.5193 1.3096
-18.8638 2.0629 2.3857
-10.3656 0.7404 1.3048
-10.3706 0.3494 1.3012
-19.0474 -0.0752 2.3857
-19.0550 -0.7926 2.3857
-10.2001 -0.8094 1.2783
-10.2945 -1.2080 1.2933
-18.9119 -2.9441 2.3853
-18.7959 -3.6549 2.3833
-18.6381 -4.3576 2.3795
-18.5315 -5.0748 2.3857
-10.1069 -3.1808 1.3140
-10.1853 -3.6319 1.3394
-10.1830 -4.0689 1.3567
-10.1547 -4.5076 1.3729
-15.9057 -7.7898 2.3857
-10.1009 -5.4271 1.5429
-9.9941 -5.8643 1.5577
-10.0702 -6.4299 1.6045
-10.0144 -6.9379 1.6345
-9.9473 -7.4602 1.6666
-9.9064 -8.0288 1.7076
-9.8823 -8.6448 1.7567
-9.8566 -9.2993 1.8115
-9.8293 -9.9983 1.8727
-9.7966 -10.7448 1.9406
-9.7631 -11.5520 2.0171
-9.7266 -12.4282 2.1031
-10.2846 -14.2114 2.3361
-9.6096 -14.3882 2.3026
-9.0675 -14.7486 2.3026
-8.5116 -15.0879 2.3026
-7.9427 -15.4057 2.3026
-7.3616 -15.7014 2.3026
-6.7693 -15.9746 2.3026
-6.1426 -16.1617 2.2936
-5.5544 -16.4514 2.3026
-5.1546 -17.3999 2.4057
-4.4981 -17.5867 2.4057
-3.8348 -17.7480 2.4057
-3.1655 -17.8834 2.4057
-2.4914 -17.9928 2.4057
-1.8134 -18.0760 2.4057
-1.1327 -18.1329 2.4057
-0.4502 -18.1633 2.4057
0.2330 -18.1672 2.4057
0.9158 -18.1447 2.4057
1.5971 -18.0957 2.4057
2.2759 -18.0203 2.4057
2.9512 -17.9186 2.4057
3.6220 -17.7909 2.4057
4.2871 -17.6374 2.4057
4.9455 -17.4582 2.4057
5.5964 -17.2537 2.4057
6.2386 -17.0243 2.4057
6.8712 -16.7703 2.4057
7.4932 -16.4921 2.4057
8.1037 -16.1903 2.4057
6.1820 -11.2712 1.7091
9.2865 -15.5175 2.4057
9.8571 -15.1477 2.4057
10.4126 -14.7564 2.4057
3.1993 -4.1902 0.7027
11.4752 -13.9120 2.4057
11.9809 -13.4602 2.4057
11.9341 -12.4330 2.3026
12.3826 -11.9653 2.3026
12.8125 -11.4811 2.3025
13.2231 -10.9813 2.3025
13.6139 -10.4665 2.3025
13.9844 -9.9376 2.3025
14.3340 -9.3955 2.3024
14.6624 -8.8409 2.3024
15.0878 -8.3404 2.3207
15.3748 -7.7590 2.3207
15.6392 -7.1677 2.3207
15.8806 -6.5675 2.3207
16.0988 -5.9591 2.3207
16.2935 -5.3436 2.3207
16.4646 -4.7217 2.3207
16.6118 -4.0946 2.3207
16.7350 -3.4630 2.3207
16.8342 -2.8278 2.3207
16.9093 -2.1902 2.3207
7.5227 -0.6879 1.0293
7.5113 -0.4027 1.0262
7.5000 -0.1196 1.0245
7.4887 0.1624 1.0242
7.4775 0.4440 1.0254
7.4697 0.7263 1.0285
7.5304 1.0194 1.0426
7.5188 1.3076 1.0483
7.5072 1.5986 1.0555
7.4954 1.8935 1.0643
7.4084 2.1711 1.0640
7.3964 2.4733 1.0760
7.3840 2.7822 1.0898
7.3713 3.0989 1.1056
7.3583 3.4246 1.1233
7.3449 3.7608 1.1432
7.3310 4.1090 1.1655
7.3165 4.4707 1.1903
7.3014 4.8479 1.2178
7.2856 5.2429 1.2484
7.2690 5.6579 1.2823
7.2602 6.1033 1.3215
7.2598 6.5848 1.3667
7.2373 7.0787 1.4128
7.1920 7.5846 1.4598
7.1692 8.1544 1.5176
8.3817 10.2899 1.8563
9.8994 13.1330 2.3019
9.1236 13.1020 2.2361
4.9639 7.7335 1.2878
4.5670 7.7414 1.2603
4.4082 8.1592 1.3011
6.3990 12.9904 2.0327
5.7921 12.9679 1.9945
5.5137 13.7081 2.0758
5.4545 15.1886 2.2682
4.9509 15.6099 2.3024
4.3586 15.7804 2.3024
3.7606 15.9290 2.3024
3.1578 16.0557 2.3024
2.5508 16.1602 2.3024
1.9405 16.2426 2.3024
1.3277 16.3025 2.3024
0.7451 17.0727 2.4057
0.1020 17.0885 2.4057
-0.5412 17.0807 2.4057
-1.1838 17.0494 2.4057
-1.8248 16.9947 2.4057
-2.4635 16.9166 2.4057
-3.0991 16.8152 2.4057
-3.7306 16.6906 2.4057
-4.3573 16.5430 2.4057
-4.9785 16.3726 2.4057
-5.5931 16.1794 2.4057
-6.2005 15.9639 2.4057
-6.7968 15.7189 2.4046
-7.0738 14.8037 2.3026
-7.6298 14.5344 2.3026
-8.1760 14.2449 2.3026
-8.7114 13.9354 2.3026
-9.2354 13.6061 2.3026
-9.7473 13.2577 2.3026
-10.2465 12.8905 2.3026
-10.7411 12.5153 2.3045
-10.7026 11.5603 2.1996
-6.4570 6.4681 1.2751
-6.7577 6.2781 1.2858
-7.0645 6.0843 1.2985
-10.5753 8.4361 1.8825
-10.5496 7.7845 1.8228
-10.5253 7.1710 1.7690
-10.5023 6.5909 1.7206
-10.4792 6.0391 1.6767
-10.4981 5.5347 1.6436
-10.6478 5.1112 1.6341
-15.8314 6.8791 2.3857
-10.4023 4.0619 1.5418
-10.4523 3.6345 1.5261
-16.5589 5.0682 2.3857
-16.7563 4.4466 2.3857
-16.9306 3.8173 2.3857
-17.0815 3.1813 2.3857
-10.2924 1.5188 1.4269
-17.3116 1.8924 2.3857
-10.3658 0.7399 1.4220
-10.3696 0.3489 1.4181
-17.4748 -0.0698 2.3857
-17.4799 -0.7279 2.3857
-10.2001 -0.8099 1.3937
-10.2936 -1.2084 1.4100
-17.3464 -2.7012 2.3857
-17.2522 -3.3555 2.3857
-17.1332 -4.0065 2.3857
-16.9894 -4.6533 2.3857
-10.1068 -3.1813 1.4334
-10.1855 -3.6325 1.4613
-16.4113 -6.5584 2.3857
-16.1703 -7.1786 2.3857
-10.0728 -4.9337 1.6376
-10.0301 -5.3896 1.6608
-9.9942 -5.8649 1.6886
-9.9738 -6.3690 1.7229
-9.9526 -6.8956 1.7612
-9.9303 -7.4480 1.8040
-9.9064 -8.0294 1.8517
-9.8823 -8.6454 1.9051
-9.8567 -9.3000 1.9646
-9.8293 -9.9989 2.0312
-9.7965 -10.7454 2.1049
-9.7630 -11.5526 2.1880
-9.7265 -12.4288 2.2814
-9.3441 -12.9125 2.3026
-8.8575 -13.2628 2.3026
-8.3574 -13.5943 2.3026
-7.8447 -13.9064 2.3026
-7.3201 -14.1987 2.3026
-6.7843 -14.4707 2.3026
-6.2382 -14.7219 2.3026
-5.6826 -14.9519 2.3026
-5.3474 -15.8391 2.4057
-4.7497 -16.0341 2.4057
-4.1447 -16.2058 2.4057
-3.5334 -16.3540 2.4057
-2.9167 -16.4786 2.4057
-2.2955 -16.5792 2.4057
-1.6708 -16.6556 2.4057
-1.0436 -16.7079 2.4057
-0.4148 -16.7359 2.4057
0.2147 -16.7396 2.4057
0.8437 -16.7188 2.4057
1.4715 -16.6738 2.4057
2.0970 -16.6045 2.4057
2.7193 -16.5111 2.4057
3.3373 -16.3937 2.4057
3.9503 -16.2526 2.4057
4.5571 -16.0879 2.4057
5.1570 -15.8999 2.4057
5.7490 -15.6890 2.4057
6.3321 -15.4554 2.4057
6.9056 -15.1997 2.4057
7.4685 -14.9221 2.4057
6.2084 -11.3199 1.8623
8.5594 -14.3033 2.4057
9.0857 -13.9632 2.4057
9.5983 -13.6032 2.4057
3.1990 -4.1900 0.7622
10.1256 -12.2765 2.3026
10.5723 -11.8785 2.3025
11.0031 -11.4639 2.3025
11.4174 -11.0334 2.3025
11.8146 -10.5877 2.3025
12.1941 -10.1275 2.3025
12.5554 -9.6534 2.3025
12.8980 -9.1664 2.3024
15.0778 -9.8838 2.6257
13.6328 -8.2208 2.3207
13.9191 -7.6951 2.3207
14.1850 -7.1593 2.3207
14.4300 -6.6143 2.3207
14.6540 -6.0610 2.3207
14.8566 -5.5000 2.3207
15.0375 -4.9324 2.3207
15.1967 -4.3589 2.3207
15.3339 -3.7803 2.3207
15.4490 -3.1976 2.3207
15.5419 -2.6115 2.3207
15.6125 -2.0229 2.3207
7.5228 -0.6882 1.1147
7.5114 -0.4031 1.1112
7.5000 -0.1199 1.1093
7.4888 0.1621 1.1089
7.4775 0.4437 1.1101
7.4697 0.7260 1.1134
7.5304 1.0191 1.1285
7.5189 1.3072 1.1346
7.5072 1.5983 1.1423
7.4954 1.8931 1.1517
7.4085 2.1707 1.1513
7.3964 2.4729 1.1642
7.3840 2.7818 1.1791
7.3714 3.0985 1.1960
7.3583 3.4243 1.2151
7.3449 3.7605 1.2366
7.3365 4.1117 1.2615
7.3208 4.4729 1.2880
7.3014 4.8475 1.3169
7.2856 5.2425 1.3499
7.2690 5.6575 1.3864
7.2615 6.1040 1.4290
7.2577 6.5824 1.4771
7.2343 7.0753 1.5267
7.1920 7.5841 1.5780
7.1692 8.1539 1.6404
8.3817 10.2893 2.0064
9.3335 12.3816 2.3457
8.8556 12.7164 2.3457
8.3093 12.9448 2.3298
4.5464 7.7062 1.3559
7.0322 13.0152 2.2429
6.3995 12.9908 2.1966
5.7924 12.9679 2.1553
5.5137 13.7075 2.2430
5.1244 14.2687 2.3024
4.5822 14.4468 2.3024
4.0341 14.6049 2.3024
3.4807 14.7428 2.3024
2.9228 14.8603 2.3024
2.3610 14.9573 2.3024
1.7961 15.0336 2.3024
1.2636 15.5156 2.3675
0.6897 15.8021 2.4057
0.0944 15.8167 2.4057
-0.5010 15.8095 2.4057
-1.0957 15.7805 2.4057
-1.6891 15.7297 2.4057
-2.2802 15.6572 2.4057
-2.8684 15.5631 2.4057
-3.4530 15.4476 2.4057
-4.0329 15.3106 2.4057
-4.6077 15.1525 2.4057
-5.1765 14.9733 2.4057
-5.7385 14.7734 2.4057
-6.2930 14.5529 2.4057
-6.7316 14.0868 2.3678
-7.0605 13.4492 2.3026
-7.5655 13.1807 2.3026
-8.0606 12.8937 2.3026
-8.5452 12.5885 2.3026
-9.0184 12.2655 2.3026
-9.4797 11.9251 2.3026
-9.9285 11.5678 2.3026
-10.3641 11.1939 2.3026
-6.4572 6.4680 1.3785
-6.7580 6.2779 1.3902
-7.0648 6.0841 1.4040
-10.5753 8.4355 2.0355
-10.5495 7.7839 1.9711
-10.5253 7.1704 1.9131
-10.5023 6.5903 1.8608
-10.4790 6.0384 1.8135
-10.4585 5.5132 1.7711
-10.4390 5.0104 1.7330
-10.4202 4.5273 1.6987
-10.4021 4.0613 1.6680
-10.4156 3.6213 1.6455
-10.4679 3.2034 1.6319
-10.5896 2.8096 1.6316
-15.6438 3.5264 2.3857
-15.7818 2.9385 2.3857
-10.2924 1.5183 1.5445
-15.9918 1.7474 2.3857
-10.3660 0.7394 1.5395
-10.3686 0.3484 1.5352
-16.1383 -0.0652 2.3857
-16.1417 -0.6729 2.3857
-10.2000 -0.8104 1.5093
-10.2927 -1.2087 1.5271
-16.0142 -2.4945 2.3857
-15.9259 -3.0983 2.3857
-15.8146 -3.6990 2.3857
-15.6806 -4.2956 2.3857
-10.1067 -3.1817 1.5531
-10.1857 -3.6331 1.5836
-15.1433 -6.0524 2.3857
-10.2018 -4.5295 1.6313
-10.0316 -4.9140 1.7575
-10.0122 -5.3805 1.7868
-9.9942 -5.8655 1.8201
-9.9739 -6.3696 1.8571
-9.9527 -6.8962 1.8985
-9.9304 -7.4486 1.9448
-9.9065 -8.0301 1.9963
-9.8823 -8.6460 2.0540
-9.8567 -9.3006 2.1183
-9.8293 -9.9996 2.1901
-9.7964 -10.7459 2.2697
-9.5277 -11.2749 2.3026
-9.1028 -11.6324 2.3026
-8.6642 -11.9736 2.3026
-8.2126 -12.2979 2.3026
-7.7486 -12.6047 2.3026
-7.2730 -12.8936 2.3026
-6.7863 -13.1641 2.3026
-6.2894 -13.4158 2.3026
-5.7829 -13.6483 2.3026
-5.5036 -14.4817 2.4057
-4.9569 -14.6832 2.4057
-4.4028 -14.8635 2.4057
-3.8419 -15.0224 2.4057
-3.2752 -15.1596 2.4057
-2.7035 -15.2748 2.4057
-2.1277 -15.3678 2.4057
-1.5487 -15.4386 2.4057
-0.9673 -15.4870 2.4057
-0.3845 -15.5129 2.4057
0.1989 -15.5163 2.4057
0.7820 -15.4972 2.4057
1.3639 -15.4555 2.4057
1.9437 -15.3914 2.4057
2.5205 -15.3050 2.4057
3.0935 -15.1965 2.4057
3.6617 -15.0659 2.4057
4.2243 -14.9135 2.4057
4.7804 -14.7396 2.4057
5.3293 -14.5445 2.4057
5.8701 -14.3284 2.4057
6.4019 -14.0918 2.4057
6.9240 -13.8349 2.4057
6.1876 -11.2826 2.0019
7.5959 -12.6940 2.3026
8.0633 -12.3925 2.3026
8.5185 -12.0735 2.3026
3.1987 -4.1899 0.8219
9.3897 -11.3850 2.3025
9.8045 -11.0164 2.3025
10.2045 -10.6325 2.3025
10.5893 -10.2339 2.3025
10.9583 -9.8210 2.3025
11.3110 -9.3947 2.3024
11.6468 -8.9556 2.3024
12.0603 -8.5717 2.3207
12.3637 -8.1053 2.3207
12.6488 -7.6281 2.3207
12.9154 -7.1408 2.3207
13.1630 -6.6442 2.3207
13.3913 -6.1389 2.3207
13.6001 -5.6257 2.3207
13.7891 -5.1055 2.3207
13.9580 -4.5790 2.3207
14.1068 -4.0469 2.3207
14.2352 -3.5101 2.3207
14.3431 -2.9693 2.3207
6.7879 -1.1409 1.0916
6.8147 -0.8833 1.0909
7.5228 -0.6886 1.2004
7.5114 -0.4034 1.1965
7.5000 -0.1203 1.1943
7.4888 0.1617 1.1939
7.4775 0.4433 1.1951
7.4697 0.7256 1.1985
7.5304 1.0187 1.2148
7.5189 1.3069 1.2212
7.5072 1.5979 1.2294
7.4955 1.8928 1.2394
7.4085 2.1704 1.2388
7.3964 2.4726 1.2527
7.3840 2.7815 1.2686
7.3714 3.0982 1.2867
7.3618 3.4255 1.3078
7.3473 3.7613 1.3306
7.3322 4.1089 1.3561
7.3165 4.4699 1.3845
7.3014 4.8471 1.4164
7.2857 5.2421 1.4517
7.2691 5.6571 1.4910
7.2615 6.1036 1.5366
7.2545 6.5791 1.5876
7.2314 7.0720 1.6408
7.1920 7.5836 1.6966
7.1693 8.1534 1.7636
8.3817 10.2887 2.1570
8.6822 11.5169 2.3457
8.2380 11.8289 2.3457
7.7828 12.1241 2.3457
4.5497 7.7114 1.4585
6.8422 12.6629 2.3457
6.3580 12.9058 2.3457
5.7927 12.9679 2.3166
5.2661 13.0913 2.3024
4.7680 13.2758 2.3024
4.2637 13.4419 2.3024
3.7538 13.5892 2.3024
3.2389 13.7178 2.3024
2.7197 13.8273 2.3024
2.1970 13.9177 2.3024
1.6714 13.9888 2.3024
1.1948 14.6702 2.4057
0.6418 14.7041 2.4057
0.0879 14.7177 2.4057
-0.4662 14.7110 2.4057
-1.0196 14.6839 2.4057
-1.5718 14.6365 2.4057
-2.1219 14.5689 2.4057
-2.6692 14.4812 2.4057
-3.2130 14.3735 2.4057
-3.7526 14.2458 2.4057
-4.2874 14.0984 2.4057
-4.8165 13.9313 2.4057
-5.3393 13.7450 2.4057
-5.8550 13.5394 2.4057
-6.3631 13.3150 2.4057
-6.6796 12.7230 2.3415
-7.0383 12.2615 2.3026
-7.4987 11.9941 2.3026
-7.9491 11.7097 2.3026
-8.3889 11.4088 2.3026
-8.8177 11.0917 2.3026
-9.2347 10.7588 2.3026
-9.6394 10.4105 2.3026
-6.4575 6.4678 1.4823
-6.7582 6.2778 1.4949
-7.0650 6.0839 1.5099
-10.5753 8.4348 2.1890
-10.5495 7.7832 2.1198
-10.5252 7.1698 2.0576
-10.5023 6.5897 2.0015
-10.4787 6.0377 1.9506
-10.4583 5.5126 1.9052
-10.4388 5.0098 1.8643
-10.4200 4.5266 1.8276
-10.4019 4.0607 1.7946
-10.3793 3.6081 1.7644
-10.3611 3.1702 1.7382
-10.3433 2.7438 1.7150
-10.3260 2.3272 1.6948
-10.3107 1.9193 1.6776
-10.2923 1.5178 1.6625
-10.3055 1.1256 1.6550
-10.2986 0.7341 1.6466
-10.2897 0.3452 1.6403
-10.2788 -0.0420 1.6360
-10.2757 -0.4288 1.6353
-10.2000 -0.8108 1.6254
-10.2317 -1.2021 1.6348
-10.2131 -1.5913 1.6387
-10.1924 -1.9833 1.6445
-10.1694 -2.3790 1.6525
-10.1441 -2.7793 1.6626
-10.1066 -3.1822 1.6733
-10.0861 -3.5980 1.6895
-10.0684 -4.0246 1.7091
-10.0503 -4.4627 1.7317
-10.0316 -4.9146 1.8846
-10.0123 -5.3811 1.9161
-9.9943 -5.8661 1.9519
-9.9740 -6.3702 1.9918
-9.9528 -6.8968 2.0363
-9.9305 -7.4493 2.0861
-9.9065 -8.0307 2.1414
-9.8824 -8.6467 2.2034
-9.8567 -9.3013 2.2725
-9.6324 -9.7998 2.3026
-9.2631 -10.1615 2.3026
-8.8800 -10.5091 2.3026
-8.4836 -10.8418 2.3026
-8.0746 -11.1594 2.3026
-7.6534 -11.4612 2.3026
-7.2208 -11.7467 2.3026
-6.7773 -12.0155 2.3026
-6.3236 -12.2672 2.3026
-5.8677 -12.5170 2.3055
-5.6254 -13.2770 2.4039
-5.1279 -13.4938 2.4057
-4.6185 -13.6813 2.4057
-4.1021 -13.8491 2.4057
-3.5795 -13.9969 2.4057
-3.0514 -14.1244 2.4057
-2.5188 -14.2316 2.4057
-1.9823 -14.3182 2.4057
-1.4428 -14.3840 2.4057
-0.9012 -14.4290 2.4057
-0.3582 -14.4531 2.4057
0.1853 -14.4563 2.4057
0.7286 -14.4385 2.4057
1.2707 -14.3998 2.4057
1.8109 -14.3402 2.4057
2.3483 -14.2598 2.4057
2.8821 -14.1589 2.4057
3.4115 -14.0374 2.4057
3.9358 -13.8958 2.4057
4.4541 -13.7340 2.4057
4.9656 -13.5525 2.4057
5.4696 -13.3515 2.4057
5.9653 -13.1314 2.4057
6.1755 -12.3399 2.3026
6.1431 -11.2021 2.1328
7.0784 -11.8298 2.3025
7.5142 -11.5494 2.3025
7.9387 -11.2525 2.3025
3.1984 -4.1897 0.8818
8.7514 -10.6117 2.3025
9.1384 -10.2687 2.3025
9.5117 -9.9113 2.3025
9.8709 -9.5402 2.3024
10.2153 -9.1558 2.3024
10.6282 -8.8283 2.3207
10.9445 -8.4161 2.3207
11.2445 -7.9925 2.3207
11.5280 -7.5582 2.3207
11.7946 -7.1136 2.3207
12.0438 -6.6596 2.3207
12.2754 -6.1968 2.3207
12.4891 -5.7259 2.3207
12.6846 -5.2477 2.3207
12.8616 -4.7628 2.3207
13.0200 -4.2719 2.3207
13.1596 -3.7759 2.3207
13.2802 -3.2753 2.3207
13.3818 -2.7710 2.3207
6.5083 -1.0942 1.1218
6.5231 -0.8458 1.1191
7.5228 -0.6889 1.2864
7.5114 -0.4038 1.2822
7.5001 -0.1206 1.2797
7.4888 0.1614 1.2791
7.4775 0.4429 1.2803
7.4697 0.7253 1.2840
7.4618 1.0091 1.2894
7.4498 1.2945 1.2960
7.4376 1.5828 1.3045
7.4252 1.8747 1.3150
7.4085 2.1700 1.3267
7.3964 2.4722 1.3415
7.3840 2.7811 1.3584
7.3714 3.0978 1.3778
7.3584 3.4236 1.3996
7.3449 3.7597 1.4241
7.3310 4.1078 1.4516
7.3165 4.4695 1.4822
7.3015 4.8468 1.5162
7.2857 5.2417 1.5539
7.2691 5.6567 1.5959
7.2615 6.1031 1.6446
7.2512 6.5757 1.6984
7.2284 7.0686 1.7553
7.1920 7.5832 1.8157
7.1693 8.1529 1.8873
8.3817 10.2881 2.3081
8.1140 10.7626 2.3457
7.6991 11.0545 2.3457
7.2740 11.3308 2.3457
4.5531 7.7166 1.5616
6.3952 11.8351 2.3457
5.9428 12.0625 2.3457
5.3814 12.0467 2.3024
4.9225 12.2365 2.3024
4.4570 12.4092 2.3024
3.9856 12.5647 2.3024
3.5090 12.7026 2.3024
3.0277 12.8230 2.3024
2.5425 12.9255 2.3024
2.0538 13.0101 2.3024
1.5697 13.1371 2.3130
1.1170 13.7138 2.4057
0.6000 13.7455 2.4057
0.0821 13.7582 2.4057
-0.4358 13.7519 2.4057
-0.9532 13.7265 2.4057
-1.4694 13.6822 2.4057
-1.9836 13.6189 2.4057
-2.4952 13.5368 2.4057
-3.0036 13.4358 2.4057
-3.5080 13.3163 2.4057
-4.0078 13.1782 2.4057
-4.5023 13.0218 2.4057
-4.9908 12.8473 2.4057
-5.4728 12.6549 2.4057
-5.9476 12.4448 2.4057
-6.4145 12.2172 2.4057
-6.6375 11.5625 2.3233
-7.0083 11.2091 2.3026
-7.4290 10.9430 2.3026
-7.8398 10.6614 2.3026
-8.2402 10.3646 2.3026
-8.6295 10.0531 2.3026
-9.0073 9.7272 2.3026
-6.4578 6.4676 1.5864
-6.7585 6.2776 1.6000
-7.0653 6.0837 1.6161
-10.3927 8.2886 2.3026
-10.5495 7.7826 2.2691
-10.5252 7.1692 2.2026
-10.5023 6.5891 2.1427
-10.4785 6.0370 2.0883
-10.4581 5.5119 2.0398
-10.4386 5.0091 1.9961
-10.4198 4.5260 1.9569
-10.4016 4.0601 1.9217
-10.3793 3.6076 1.8895
-10.3610 3.1697 1.8615
-10.3433 2.7433 1.8368
-10.3259 2.3267 1.8153
-10.3089 1.9185 1.7967
-10.2922 1.5173 1.7809
-10.2785 1.1221 1.7683
-10.2626 0.7311 1.7580
-10.2468 0.3433 1.7502
-10.2312 -0.0423 1.7449
-10.2155 -0.4268 1.7421
-10.1999 -0.8113 1.7418
-10.1850 -1.1970 1.7441
-10.1696 -1.5850 1.7488
-10.1542 -1.9763 1.7561
-10.1385 -2.3723 1.7660
-10.1226 -2.7739 1.7785
-10.1064 -3.1826 1.7938
-10.0862 -3.5986 1.8114
-10.0685 -4.0252 1.8325
-10.0503 -4.4632 1.8569
-10.0317 -4.9151 2.0123
-10.0123 -5.3816 2.0459
-9.9944 -5.8667 2.0843
-9.9741 -6.3708 2.1270
-9.9529 -6.8975 2.1746
-9.9306 -7.4499 2.2279
-9.9065 -8.0313 2.2870
-9.6693 -8.4608 2.3026
-9.3505 -8.8241 2.3026
-9.0178 -9.1751 2.3026
-8.6717 -9.5134 2.3026
-8.3128 -9.8384 2.3026
-7.9414 -10.1495 2.3026
-7.5582 -10.4464 2.3026
-7.1638 -10.7285 2.3026
-6.7586 -10.9954 2.3026
-6.3433 -11.2467 2.3026
-5.9185 -11.4820 2.3026
-5.6724 -12.1009 2.3813
-5.2687 -12.4358 2.4057
-4.7991 -12.6292 2.4057
-4.3222 -12.8044 2.4057
-3.8389 -12.9612 2.4057
-3.3498 -13.0993 2.4057
-2.8556 -13.2185 2.4057
-2.3571 -13.3186 2.4057
-1.8550 -13.3995 2.4057
-1.3502 -13.4611 2.4057
-0.8433 -13.5031 2.4057
-0.3352 -13.5257 2.4057
0.1734 -13.5286 2.4057
0.6818 -13.5120 2.4057
1.1891 -13.4758 2.4057
1.6946 -13.4202 2.4057
2.1975 -13.3451 2.4057
2.6971 -13.2508 2.4057
3.1926 -13.1373 2.4057
3.6833 -13.0049 2.4057
4.1684 -12.8538 2.4057
4.6472 -12.6842 2.4057
5.1190 -12.4964 2.4057
5.3437 -11.7638 2.3025
5.7799 -11.5501 2.3026
6.0769 -11.0819 2.2542
6.6254 -11.0733 2.3025
7.0335 -10.8111 2.3025
7.4311 -10.5336 2.3025
3.1981 -4.1896 0.9419
8.1924 -9.9344 2.3025
8.5550 -9.6137 2.3024
8.9048 -9.2796 2.3024
9.2415 -8.9325 2.3024
9.6403 -8.6410 2.3207
9.9515 -8.2668 2.3207
10.2481 -7.8813 2.3207
10.5296 -7.4850 2.3207
10.7956 -7.0786 2.3207
11.0457 -6.6626 2.3207
11.2797 -6.2377 2.3207
11.4972 -5.8046 2.3207
11.6980 -5.3638 2.3207
11.8817 -4.9161 2.3207
12.0482 -4.4622 2.3207
12.1973 -4.0026 2.3207
12.3287 -3.5380 2.3207
12.4424 -3.0693 2.3207
12.5382 -2.5969 2.3207
6.5222 -1.0969 1.1997
6.5231 -0.8461 1.1942
7.5228 -0.6893 1.3727
7.5114 -0.4041 1.3681
7.5001 -0.1210 1.3654
7.4888 0.1610 1.3647
7.4775 0.4426 1.3659
7.4677 0.7248 1.3694
7.4560 1.0080 1.3744
7.4440 1.2932 1.3814
7.4320 1.5812 1.3904
7.4204 1.8731 1.4016
7.4085 2.1697 1.4150
7.3964 2.4719 1.4306
7.3841 2.7807 1.4486
7.3714 3.0974 1.4692
7.3584 3.4232 1.4924
7.3449 3.7593 1.5185
7.3310 4.1074 1.5476
7.3166 4.4691 1.5802
7.3015 4.8464 1.6163
7.2857 5.2412 1.6565
7.2691 5.6563 1.7012
7.2614 6.1026 1.7531
7.2480 6.5723 1.8095
7.2255 7.0653 1.8701
7.1921 7.5827 1.9352
7.1693 8.1525 2.0114
7.9927 9.8099 2.3457
7.6138 10.0985 2.3457
7.2248 10.3728 2.3457
6.8260 10.6324 2.3457
4.5564 7.7218 1.6652
6.0017 11.1062 2.3457
5.5772 11.3199 2.3457
5.0505 11.3054 2.3024
4.6199 11.4837 2.3024
4.1831 11.6460 2.3024
3.7408 11.7921 2.3024
3.2935 11.9218 2.3024
2.8418 12.0349 2.3024
2.3863 12.1313 2.3024
1.9277 12.2108 2.3024
1.4665 12.2734 2.3024
1.0484 12.8714 2.4057
0.5631 12.9012 2.4057
0.0771 12.9132 2.4057
-0.4091 12.9072 2.4057
-0.8947 12.8833 2.4057
-1.3792 12.8416 2.4057
-1.8618 12.7821 2.4057
-2.3420 12.7049 2.4057
-2.8191 12.6100 2.4057
-3.2925 12.4977 2.4057
-3.7615 12.3679 2.4057
-4.2256 12.2209 2.4057
-4.6840 12.0569 2.4057
-5.1363 11.8760 2.4057
-5.5817 11.6786 2.4057
-6.0197 11.4647 2.4057
-6.4497 11.2348 2.4057
-6.6001 10.5556 2.3108
-6.9712 10.2681 2.3026
-7.3565 10.0035 2.3026
-7.7319 9.7247 2.3026
-8.0969 9.4321 2.3026
-8.4511 9.1260 2.3026
-6.4580 6.4675 1.6910
-6.7588 6.2774 1.7055
-7.0656 6.0835 1.7228
-9.7493 7.7749 2.3026
-10.0420 7.4077 2.3026
-10.3210 7.0295 2.3026
-10.5022 6.5885 2.2844
-10.4783 6.0363 2.2265
-10.4579 5.5112 2.1748
-10.4383 5.0085 2.1284
-10.4196 4.5254 2.0867
-10.4014 4.0595 2.0493
-10.3792 3.6070 2.0151
-10.3609 3.1691 1.9853
-10.3432 2.7427 1.9591
-10.3258 2.3261 1.9362
-10.3088 1.9180 1.9165
-10.2921 1.5168 1.8998
-10.2784 1.1216 1.8865
-10.2625 0.7306 1.8755
-10.2468 0.3428 1.8673
-10.2311 -0.0427 1.8618
-10.2155 -0.4273 1.8589
-10.1999 -0.8118 1.8587
-10.1848 -1.1975 1.8612
-10.1695 -1.5855 1.8664
-10.1540 -1.9768 1.8743
-10.1384 -2.3727 1.8849
-10.1225 -2.7744 1.8984
-10.1063 -3.1831 1.9148
-10.0862 -3.5991 1.9337
-10.0685 -4.0257 1.9564
-10.0504 -4.4638 1.9825
-10.0317 -4.9157 2.1404
-10.0124 -5.3822 2.1763
-9.9945 -5.8673 2.2172
-9.9742 -6.3714 2.2627
-9.9059 -6.8654 2.3026
-9.6472 -7.2379 2.3026
-9.3744 -7.6004 2.3026
-9.0879 -7.9525 2.3026
-8.7879 -8.2937 2.3026
-8.4749 -8.6233 2.3026
-8.1493 -8.9409 2.3026
-7.8118 -9.2460 2.3026
-7.4626 -9.5381 2.3026
-7.1023 -9.8167 2.3026
-6.7314 -10.0816 2.3026
-6.3505 -10.3321 2.3026
-5.9602 -10.5679 2.3026
-5.7130 -11.0839 2.3656
-5.3840 -11.4863 2.4057
-4.9501 -11.6845 2.4057
-4.5088 -11.8659 2.4057
-4.0607 -12.0303 2.4057
-3.6066 -12.1773 2.4057
-3.1470 -12.3069 2.4057
-2.6827 -12.4188 2.4057
-2.2144 -12.5128 2.4057
-1.7427 -12.5887 2.4057
-1.2684 -12.6464 2.4057
-0.7923 -12.6859 2.4057
-0.3149 -12.7070 2.4057
0.1629 -12.7098 2.4057
0.6405 -12.6942 2.4057
1.1171 -12.6603 2.4057
1.5920 -12.6081 2.4057
2.0645 -12.5377 2.4057
2.5338 -12.4492 2.4057
2.9994 -12.3428 2.4057
3.4604 -12.2186 2.4057
3.9162 -12.0768 2.4057
4.3661 -11.9176 2.4057
4.6031 -11.2377 2.3025
5.0206 -11.0530 2.3025
5.4305 -10.8524 2.3025
5.8322 -10.6364 2.3025
6.2253 -10.4052 2.3025
6.6090 -10.1592 2.3025
6.9828 -9.8987 2.3025
3.1978 -4.1894 1.0022
7.6986 -9.3363 2.3024
8.0396 -9.0352 2.3024
8.4351 -8.7906 2.3207
8.7543 -8.4622 2.3207
9.0607 -8.1220 2.3207
9.3536 -7.7707 2.3207
9.6327 -7.4086 2.3207
9.8977 -7.0364 2.3207
10.1482 -6.6546 2.3207
10.3838 -6.2639 2.3207
10.6042 -5.8648 2.3207
10.8092 -5.4578 2.3207
10.9985 -5.0437 2.3207
11.1718 -4.6230 2.3207
11.3288 -4.1963 2.3207
11.4696 -3.7643 2.3207
11.5937 -3.3277 2.3207
11.7012 -2.8870 2.3207
11.7919 -2.4429 2.3207
6.5222 -1.0972 1.2756
6.5228 -0.8464 1.2696
7.5228 -0.6897 1.4594
7.5114 -0.4045 1.4544
7.5001 -0.1213 1.4515
7.4888 0.1607 1.4507
7.4776 0.4422 1.4519
7.4663 0.7242 1.4552
7.4550 1.0075 1.4605
7.4436 1.2927 1.4680
7.4320 1.5809 1.4776
7.4204 1.8727 1.4894
7.4085 2.1693 1.5035
7.3964 2.4715 1.5201
7.3841 2.7804 1.5392
7.3714 3.0971 1.5609
7.3584 3.4228 1.5855
7.3449 3.7590 1.6131
7.3310 4.1071 1.6441
7.3166 4.4688 1.6786
7.3015 4.8460 1.7169
7.2857 5.2408 1.7596
7.2691 5.6559 1.8069
7.2614 6.1022 1.8619
7.2448 6.5689 1.9209
7.2225 7.0619 1.9853
7.1921 7.5823 2.0551
7.1693 8.1520 2.1360
7.5266 9.2373 2.3457
7.1700 9.5094 2.3457
6.8038 9.7679 2.3457
6.4285 10.0126 2.3457
4.5597 7.7271 1.7695
5.6525 10.4594 2.3457
5.1560 10.4643 2.3024
4.7568 10.6474 2.3024
4.3513 10.8156 2.3024
3.9400 10.9687 2.3024
3.5234 11.1064 2.3024
3.1021 11.2287 2.3024
2.6767 11.3354 2.3024
2.2478 11.4263 2.3024
1.8158 11.5013 2.3024
1.4116 11.8135 2.3528
0.9875 12.1236 2.4057
0.5304 12.1517 2.4057
0.0726 12.1630 2.4057
-0.3853 12.1573 2.4057
-0.8428 12.1348 2.4057
-1.2991 12.0955 2.4057
-1.7537 12.0394 2.4057
-2.2060 11.9665 2.4057
-2.6554 11.8770 2.4057
-3.1012 11.7711 2.4057
-3.5430 11.6487 2.4057
-3.9800 11.5100 2.4057
-4.4117 11.3553 2.4057
-4.8376 11.1848 2.4057
-5.2570 10.9986 2.4057
-5.6694 10.7969 2.4057
-6.0742 10.5801 2.4057
-6.4709 10.3484 2.4057
-6.5665 9.6714 2.3031
-6.9276 9.4198 2.3026
-7.2809 9.1570 2.3026
-7.6244 8.8811 2.3026
-7.9577 8.5926 2.3026
-6.4583 6.4673 1.7959
-6.7591 6.2772 1.8115
-8.8912 7.6547 2.3026
-9.1788 7.3193 2.3026
-9.4539 6.9733 2.3026
-9.7162 6.6171 2.3026
-9.9652 6.2511 2.3026
-10.2006 5.8758 2.3026
-10.4577 5.5105 2.3104
-10.4381 5.0078 2.2612
-10.4193 4.5247 2.2170
-10.4012 4.0589 2.1774
-10.3791 3.6065 2.1412
-10.3608 3.1686 2.1096
-10.3431 2.7422 2.0819
-10.3257 2.3256 2.0576
-10.3087 1.9175 2.0368
-10.2920 1.5163 2.0191
-10.2784 1.1212 2.0051
-10.2625 0.7301 1.9935
-10.2467 0.3423 1.9849
-10.2311 -0.0432 1.9792
-10.2154 -0.4277 1.9762
-10.1998 -0.8123 1.9761
-10.1847 -1.1980 1.9788
-10.1694 -1.5859 1.9844
-10.1539 -1.9773 1.9929
-10.1383 -2.3732 2.0043
-10.1224 -2.7748 2.0187
-10.1062 -3.1835 2.0363
-10.0863 -3.5996 2.0566
-10.0686 -4.0262 2.0808
-10.0504 -4.4643 2.1086
-10.0318 -4.9162 2.2691
-10.0125 -5.3827 2.3072
-9.7899 -5.7477 2.3026
-9.5733 -6.1158 2.3026
-9.3427 -6.4757 2.3026
-9.0984 -6.8267 2.3026
-8.8408 -7.1683 2.3026
-8.5703 -7.5002 2.3026
-8.2871 -7.8216 2.3026
-7.9917 -8.1322 2.3026
-7.6845 -8.4314 2.3026
-7.3659 -8.7188 2.3026
-7.0364 -8.9940 2.3026
-6.6965 -9.2565 2.3026
-6.3467 -9.5059 2.3026
-5.9874 -9.7419 2.3026
-5.7486 -10.1934 2.3556
-5.4774 -10.6273 2.4057
-5.0759 -10.8294 2.4057
-4.6667 -11.0160 2.4057
-4.2506 -11.1869 2.4057
-3.8281 -11.3417 2.4057
-3.3999 -11.4802 2.4057
-2.9667 -11.6022 2.4057
-2.5289 -11.7076 2.4057
-2.0874 -11.7960 2.4057
-1.6428 -11.8675 2.4057
-1.1957 -11.9219 2.4057
-0.7468 -11.9590 2.4057
-0.2969 -11.9790 2.4057
0.1536 -11.9816 2.4057
0.6038 -11.9669 2.4057
1.0530 -11.9350 2.4057
1.5007 -11.8858 2.4057
1.9461 -11.8196 2.4057
2.3886 -11.7363 2.4057
2.8275 -11.6360 2.4057
3.2621 -11.5191 2.4057
3.6919 -11.3856 2.4057
3.9395 -10.7536 2.3024
4.3395 -10.5947 2.3024
4.7331 -10.4207 2.3024
5.1196 -10.2318 2.3024
5.4985 -10.0283 2.3024
5.8692 -9.8106 2.3024
6.2312 -9.5789 2.3024
6.5838 -9.3337 2.3024
3.1974 -4.1892 1.0628
7.2593 -8.8040 2.3024
7.6412 -8.5879 2.3207
7.9542 -8.2900 2.3207
8.2556 -7.9806 2.3207
8.5447 -7.6601 2.3207
8.8213 -7.3290 2.3207
9.0849 -6.9878 2.3207
9.3351 -6.6370 2.3207
9.5717 -6.2772 2.3207
9.7944 -5.9089 2.3207
10.0027 -5.5326 2.3207
10.1965 -5.1489 2.3207
10.3754 -4.7585 2.3207
10.5393 -4.3618 2.3207
10.6880 -3.9595 2.3207
10.8212 -3.5521 2.3207
10.9388 -3.1403 2.3207
11.0407 -2.7246 2.3207
11.1268 -2.3056 2.3207
6.5222 -1.0975 1.3518
6.5226 -0.8467 1.3454
7.5228 -0.6900 1.5464
7.5114 -0.4049 1.5411
7.5001 -0.1217 1.5379
7.4888 0.1603 1.5370
7.4776 0.4419 1.5382
7.4663 0.7239 1.5416
7.4550 1.0071 1.5472
7.4436 1.2924 1.5550
7.4320 1.5805 1.5651
7.4204 1.8724 1.5776
7.4085 2.1689 1.5925
7.3964 2.4711 1.6100
7.3841 2.7800 1.6301
7.3714 3.0967 1.6531
7.3584 3.4224 1.6790
7.3450 3.7586 1.7083
7.3310 4.1067 1.7409
7.3166 4.4684 1.7774
7.3015 4.8456 1.8179
7.2857 5.2404 1.8630
7.2691 5.6554 1.9130
7.2614 6.1017 1.9713
7.2415 6.5655 2.0327
7.2195 7.0585 2.1009
7.1921 7.5818 2.1756
7.1693 8.1515 2.2612
7.1102 8.7257 2.3457
6.7735 8.9830 2.3457
6.4277 9.2275 2.3457
6.0733 9.4589 2.3457
4.5631 7.7324 1.8743
5.2419 9.6992 2.3024
4.8714 9.8862 2.3024
4.4943 10.0594 2.3024
4.1113 10.2185 2.3024
3.7227 10.3633 2.3024
3.3291 10.4936 2.3024
2.9311 10.6092 2.3024
2.5292 10.7101 2.3024
2.1239 10.7961 2.3024
1.7157 10.8670 2.3024
1.3638 11.4127 2.4057
0.9331 11.4552 2.4057
0.5012 11.4817 2.4057
0.0686 11.4924 2.4057
-0.3641 11.4870 2.4057
-0.7963 11.4657 2.4057
-1.2275 11.4285 2.4057
-1.6571 11.3754 2.4057
-2.0844 11.3065 2.4057
-2.5090 11.2219 2.4057
-2.9303 11.1216 2.4057
-3.3476 11.0058 2.4057
-3.7605 10.8747 2.4057
-4.1683 10.7284 2.4057
-4.5706 10.5670 2.4057
-4.9668 10.3909 2.4057
-5.3563 10.2002 2.4057
-5.7387 9.9952 2.4057
-6.1133 9.7760 2.4057
-6.4798 9.5431 2.4057
-6.5445 8.8982 2.3026
-6.8781 8.6497 2.3026
-7.2024 8.3889 2.3026
-7.5169 8.1162 2.3026
-7.8214 7.8317 2.3026
-6.7847 6.3005 1.9251
-8.3979 7.2296 2.3026
-8.6693 6.9125 2.3026
-8.9289 6.5855 2.3026
-9.1762 6.2488 2.3026
-9.4111 5.9029 2.3026
-9.6330 5.5483 2.3026
-9.8417 5.1855 2.3026
-10.0369 4.8148 2.3026
-10.2182 4.4369 2.3026
-10.4010 4.0583 2.3060
-10.3790 3.6059 2.2678
-10.3608 3.1681 2.2345
-10.3430 2.7417 2.2052
-10.3256 2.3251 2.1796
-10.3086 1.9170 2.1576
-10.2919 1.5158 2.1390
-10.2783 1.1207 2.1242
-10.2624 0.7296 2.1121
-10.2467 0.3419 2.1030
-10.2310 -0.0437 2.0970
-10.2154 -0.4282 2.0940
-10.1998 -0.8128 2.0940
-10.1846 -1.1984 2.0970
-10.1693 -1.5864 2.1030
-10.1538 -1.9777 2.1120
-10.1381 -2.3736 2.1242
-10.1222 -2.7753 2.1396
-10.1061 -3.1840 2.1584
-10.0863 -3.6001 2.1799
-10.0686 -4.0268 2.2057
-10.0505 -4.4649 2.2353
-9.6314 -4.7205 2.3026
-9.4534 -5.0827 2.3026
-9.2616 -5.4380 2.3026
-9.0564 -5.7861 2.3026
-8.8380 -6.1263 2.3026
-8.6066 -6.4581 2.3026
-8.3627 -6.7811 2.3026
-8.1065 -7.0948 2.3026
-7.8384 -7.3986 2.3026
-7.5587 -7.6921 2.3026
-7.2680 -7.9749 2.3026
-6.9665 -8.2465 2.3026
-6.6547 -8.5066 2.3026
-6.3331 -8.7546 2.3026
-6.0093 -9.0010 2.3053
-5.7807 -9.4060 2.3508
-5.5519 -9.8450 2.4057
-5.1797 -10.0502 2.4057
-4.7999 -10.2411 2.4057
-4.4129 -10.4174 2.4057
-4.0194 -10.5788 2.4057
-3.6198 -10.7251 2.4057
-3.2149 -10.8559 2.4057
-2.8052 -10.9712 2.4057
-2.3913 -11.0707 2.4057
-1.9738 -11.1543 2.4057
-1.5533 -11.2218 2.4057
-1.1306 -11.2731 2.4057
-0.7062 -11.3083 2.4057
-0.2807 -11.3271 2.4057
0.1452 -11.3296 2.4057
0.5709 -11.3157 2.4057
0.9957 -11.2856 2.4057
1.4190 -11.2391 2.4057
1.8401 -11.1765 2.4057
2.2586 -11.0979 2.4057
2.6736 -11.0032 2.4057
3.0846 -10.8927 2.4057
3.4910 -10.7666 2.4057
3.7252 -10.1694 2.3025
4.1036 -10.0193 2.3025
4.4759 -9.8549 2.3025
4.8415 -9.6764 2.3025
5.1998 -9.4841 2.3024
5.5505 -9.2783 2.3024
5.8929 -9.0594 2.3024
6.2265 -8.8277 2.3024
3.1971 -4.1891 1.1237
6.9201 -8.3932 2.3207
7.2271 -8.1230 2.3207
7.5234 -7.8415 2.3207
7.8086 -7.5491 2.3207
8.0824 -7.2462 2.3207
8.3442 -6.9332 2.3207
8.5939 -6.6106 2.3207
8.8309 -6.2790 2.3207
9.0550 -5.9388 2.3207
9.2660 -5.5906 2.3207
9.4634 -5.2348 2.3207
9.6471 -4.8720 2.3207
9.8167 -4.5028 2.3207
9.9722 -4.1276 2.3207
10.1132 -3.7471 2.3207
10.2397 -3.3617 2.3207
10.3514 -2.9721 2.3207
10.4482 -2.5789 2.3207
10.5301 -2.1825 2.3207
6.5222 -1.0978 1.4283
6.5223 -0.8470 1.4214
7.5228 -0.6904 1.6339
7.5114 -0.4052 1.6281
7.5001 -0.1220 1.6247
7.4888 0.1600 1.6237
7.4776 0.4415 1.6249
7.4663 0.7235 1.6284
7.4550 1.0068 1.6343
7.4436 1.2920 1.6425
7.4321 1.5802 1.6531
7.4204 1.8720 1.6662
7.4085 2.1686 1.6819
7.3965 2.4708 1.7003
7.3841 2.7796 1.7215
7.3714 3.0963 1.7456
7.3584 3.4221 1.7730
7.3450 3.7582 1.8038
7.3311 4.1063 1.8382
7.3166 4.4680 1.8767
7.3015 4.8452 1.9194
7.2857 5.2400 1.9669
7.2691 5.6550 2.0197
7.2587 6.0990 2.0803
7.2382 6.5621 2.1450
7.2164 7.0550 2.2168
7.1921 7.5813 2.2967
7.0455 8.0102 2.3457
6.7358 8.2658 2.3457
6.4171 8.5097 2.3457
6.0896 8.7415 2.3457
5.7539 8.9610 2.3457
4.5665 7.7377 1.9798
4.9664 9.1890 2.3024
4.6155 9.3664 2.3024
4.2583 9.5306 2.3024
3.8954 9.6815 2.3024
3.5273 9.8188 2.3024
3.1544 9.9424 2.3024
2.7773 10.0521 2.3024
