ply
format ascii 1.0
element vertex 2030
property float32 x
property float32 y
property float32 z
end_header
20.7321 0.4675 -1.0882
15.4029 0.9279 -0.8064
7.5244 0.7382 -0.3935
7.5114 1.0234 -0.3929
7.4983 1.3106 -0.3929
7.4851 1.6005 -0.3934
7.4718 1.8941 -0.3946
7.4632 2.1938 -0.3966
7.4494 2.4977 -0.3989
7.4352 2.8083 -0.4019
7.4206 3.1265 -0.4056
7.4039 3.4529 -0.4099
7.3855 3.7888 -0.4149
7.3697 4.1379 -0.4208
7.3532 4.5004 -0.4277
7.3383 4.8799 -0.4356
7.3198 5.2752 -0.4444
7.3005 5.6903 -0.4543
7.2800 6.1281 -0.4654
7.2580 6.5915 -0.4780
7.2355 7.0855 -0.4921
7.2114 7.6140 -0.5080
7.1856 8.1822 -0.5260
7.1576 8.7967 -0.5462
7.1272 9.4653 -0.5691
10.0900 14.5046 -0.8465
9.3102 14.5195 -0.8243
8.5061 14.4325 -0.7988
7.7721 14.3991 -0.7785
7.2730 14.7783 -0.7820
7.2125 16.1628 -0.8388
7.1372 17.7605 -0.9055
7.1060 19.8047 -0.9938
6.8637 21.6593 -1.0717
6.7402 24.4235 -1.1936
5.7556 24.3998 -1.1797
4.7898 24.3738 -1.1679
9.3699 59.4091 -2.8256
7.0501 59.0567 -2.7926
4.9186 60.4393 -2.8461
2.6316 60.3352 -2.8339
0.3600 60.2318 -2.8263
-1.8615 58.8202 -2.7617
-4.0730 58.7218 -2.7632
-6.4280 59.9229 -2.8304
-8.7031 59.8194 -2.8408
-10.9952 59.7150 -2.8558
-12.9846 58.1466 -2.8050
-15.3351 58.2752 -2.8403
-18.0434 59.3943 -2.9297
-20.4748 59.2836 -2.9645
-7.7896 20.0741 -1.0194
-25.2185 58.3784 -3.0161
-31.2966 65.5599 -3.4523
-35.1534 67.0319 -3.6044
-38.7154 67.5218 -3.7148
-41.9741 67.2142 -3.7912
-47.0366 69.3703 -4.0199
-14.5122 19.7600 -1.1790
-15.2762 19.2396 -1.1847
-26.7511 31.2057 -1.9879
-28.1088 30.3973 -2.0084
-57.0033 57.1722 -3.9288
-16.6718 15.5084 -1.1117
-27.9369 24.0926 -1.8071
-21.3513 17.0561 -1.3433
-18.8427 13.9244 -1.1557
-61.6252 42.0511 -3.6934
-27.3026 17.1622 -1.6024
-28.2883 16.3308 -1.6292
-27.5669 14.5604 -1.5609
-39.2438 18.8758 -2.1888
-29.1426 12.6906 -1.6040
-33.0397 12.9323 -1.7975
-31.2403 10.8917 -1.6829
-31.0095 9.5192 -1.6567
-60.6765 16.1559 -3.2201
-18.5375 4.1961 -0.9787
-34.2995 6.4182 -1.8043
-42.3260 6.2828 -2.2217
-15.9025 1.7522 -0.8341
-28.2618 2.0417 -1.4835
-27.3887 0.9451 -1.4407
-60.7920 -0.1902 -3.2091
-61.0906 -2.4910 -3.2407
-31.7265 -2.4918 -1.6937
-29.9641 -3.4915 -1.6120
-29.0048 -4.4913 -1.5747
-36.0771 -6.9852 -1.9793
-40.8851 -9.5246 -2.2701
-41.7138 -11.3878 -2.3473
-35.5335 -11.1528 -2.0294
-34.6299 -12.3184 -2.0104
-27.6342 -11.0177 -1.6332
-28.1929 -12.4893 -1.6989
-27.2594 -13.3261 -1.3406
-31.3183 -16.7985 -1.5770
-14.6870 -8.6045 -0.7585
-28.8371 -18.3855 -1.5303
-27.7369 -19.1888 -1.5152
-33.6198 -25.1802 -1.8943
-15.1457 -12.2595 -0.8821
-37.4911 -32.7563 -2.2618
-30.5528 -28.7916 -1.9139
-25.8990 -26.3147 -1.6889
-25.4663 -27.9011 -1.7335
-24.0070 -28.3766 -1.7109
-22.4934 -28.7121 -1.6838
-24.5978 -33.9562 -1.9410
-18.4071 -27.5343 -1.5372
-14.6445 -23.7976 -1.3001
-13.8102 -24.4582 -1.3099
-15.3337 -29.7150 -1.5627
-19.2589 -41.0412 -2.1230
-17.5805 -41.4523 -2.1124
-13.9834 -36.7608 -1.8482
-12.9641 -38.3667 -1.9059
-11.3626 -38.3252 -1.8838
-10.9781 -42.8883 -2.0887
-11.1462 -51.5467 -2.4906
-9.4001 -53.0652 -2.5472
7.2050 -43.7067 -2.0930
8.8872 -43.6151 -2.1012
9.7136 -39.9274 -1.9377
11.2646 -39.7300 -1.9450
12.5922 -38.7876 -1.9180
11.6330 -31.7166 -1.5864
11.4615 -27.9486 -1.4160
11.6612 -25.6423 -1.3180
12.8202 -25.5896 -1.3364
14.0187 -25.5350 -1.3571
15.2623 -25.4784 -1.3804
16.5575 -25.4195 -1.4064
17.9113 -25.3579 -1.4354
19.3320 -25.2932 -1.4678
2.4830 -3.0071 -0.1793
2.3935 -2.6861 -0.1649
2.5465 -2.6500 -0.1679
25.8767 -24.9753 -1.6370
3.2140 -2.8766 -0.1956
29.8920 -24.7926 -1.7551
32.1569 -24.6895 -1.8252
34.6335 -24.5768 -1.9045
39.4950 -25.8493 -2.1082
39.9099 -24.0264 -2.0720
43.2605 -23.8739 -2.1884
47.0498 -23.7014 -2.3231
54.2809 -24.8298 -2.6204
57.7674 -23.8395 -2.7310
72.0431 -26.6055 -3.3405
21.0670 -6.8912 -0.9596
21.0270 -6.0125 -0.9422
20.9880 -5.1558 -0.9266
20.9499 -4.3179 -0.9125
20.9125 -3.4959 -0.9000
20.8757 -2.6870 -0.8889
20.8393 -1.8888 -0.8792
20.8034 -1.0987 -0.8708
20.7677 -0.3145 -0.8637
20.7322 0.4662 -0.8579
15.4703 0.9310 -0.6378
7.5244 0.7377 -0.3095
7.5114 1.0229 -0.3087
7.4984 1.3101 -0.3083
7.4852 1.6000 -0.3084
7.4718 1.8936 -0.3090
7.5331 2.2139 -0.3131
7.5192 2.5206 -0.3146
7.5049 2.8341 -0.3166
7.4903 3.1553 -0.3192
7.4040 3.4524 -0.3192
7.3856 3.7882 -0.3227
7.3697 4.1373 -0.3270
7.3532 4.4999 -0.3319
7.3360 4.8778 -0.3376
7.3180 5.2732 -0.3441
7.3052 5.6934 -0.3517
7.2806 6.1280 -0.3598
7.2580 6.5909 -0.3691
7.2355 7.0849 -0.3797
7.2115 7.6133 -0.3916
7.1856 8.1815 -0.4051
7.1576 8.7960 -0.4203
7.1272 9.4646 -0.4376
10.0908 14.5047 -0.6503
9.3109 14.5195 -0.6328
8.5067 14.4326 -0.6128
7.7727 14.3992 -0.5968
7.2730 14.7774 -0.5992
7.2149 16.1671 -0.6425
7.1373 17.7594 -0.6930
7.1060 19.8036 -0.7602
6.8701 21.6781 -0.8202
7.6916 27.8692 -1.0410
5.8515 24.8047 -0.9164
4.8689 24.7746 -0.9068
9.3704 59.4087 -2.1579
7.0505 59.0567 -2.1324
4.9189 60.4393 -2.1730
2.6317 60.3352 -2.1635
0.3600 60.2318 -2.1577
-1.8617 58.8203 -2.1085
-4.0733 58.7217 -2.1098
-6.4285 59.9229 -2.1614
-8.7037 59.8193 -2.1698
-10.9960 59.7150 -2.1818
-12.9856 58.1467 -2.1436
-15.3360 58.2747 -2.1713
-18.0446 59.3942 -2.2406
-20.4762 59.2836 -2.2683
-7.7893 20.0718 -0.7803
-25.2710 58.4957 -2.3148
-31.2986 65.5593 -2.6458
-35.1531 67.0264 -2.7640
-38.7183 67.5217 -2.8508
-41.9772 67.2141 -2.9116
-47.0348 69.3621 -3.0892
-45.3229 61.7073 -2.8320
-15.2841 19.2478 -0.9124
-51.0103 59.4996 -2.9204
-28.1356 30.4236 -1.5502
-57.0065 57.1701 -3.0325
-16.6660 15.5016 -0.8585
-33.6440 29.0115 -1.6829
-32.3648 25.8514 -1.5762
-32.2857 23.8560 -1.5345
-61.5573 41.9999 -2.8618
-36.3600 22.8528 -1.6571
-28.2967 16.3335 -1.2668
-60.7327 32.0738 -2.6762
-39.2729 18.8870 -1.7065
-29.1254 12.6811 -1.2502
-33.0281 12.9255 -1.4030
-31.3865 10.9405 -1.3217
-31.7527 9.7452 -1.3276
-60.7870 16.1813 -2.5274
-37.0918 8.3935 -1.5360
-37.0469 6.9299 -1.5303
-42.2310 6.2659 -1.7426
-15.8982 1.7507 -0.6563
-28.3088 2.0433 -1.1707
-27.3912 0.9435 -1.1364
-60.7925 -0.1941 -2.5339
-61.0911 -2.4949 -2.5617
-67.3709 -5.2955 -2.8460
-30.1482 -3.5149 -1.2848
-29.1754 -4.5196 -1.2560
-37.5223 -7.2674 -1.6341
-42.1951 -9.8325 -1.8616
-41.7043 -11.3880 -1.8666
-35.4137 -11.1176 -1.6103
-38.9081 -13.8429 -1.8001
-27.6846 -11.0397 -1.3051
-28.3184 -12.5469 -1.3625
-71.6725 -35.0431 -2.6396
-38.4824 -20.6440 -1.4532
-27.3527 -16.0267 -1.0609
-37.6140 -23.9841 -1.5010
-38.4012 -26.5695 -1.5796
-37.1095 -27.7967 -1.5764
-15.1542 -12.2676 -0.6662
-39.2354 -34.2836 -1.7888
-30.8189 -29.0450 -1.4606
-40.0247 -40.6707 -1.9768
-25.4582 -27.8946 -1.3138
-57.5586 -68.0406 -3.1130
-38.3668 -48.9779 -2.1816
-31.4820 -43.4630 -1.8887
-29.9561 -44.8133 -1.9035
-25.3927 -41.2666 -1.7166
-16.3539 -28.9653 -1.1820
-15.3892 -29.8246 -1.1959
-19.2563 -41.0386 -1.6196
-17.5962 -41.4922 -1.6141
-14.0991 -37.0674 -1.4234
-12.9557 -38.3444 -1.4555
-16.7168 -56.3882 -2.1187
-10.9549 -42.8001 -1.5940
-11.3106 -52.3102 -1.9334
-9.1691 -51.7644 -1.9012
7.2052 -43.7108 -1.6014
8.8866 -43.6151 -1.6071
9.7133 -39.9290 -1.4816
11.2638 -39.7300 -1.4865
12.5924 -38.7907 -1.4654
11.6331 -31.7191 -1.2114
11.4318 -27.8781 -1.0780
11.6604 -25.6424 -1.0053
12.8209 -25.5928 -1.0188
14.0176 -25.5351 -1.0337
15.2194 -25.4086 -1.0478
6.0054 -9.2204 -0.3880
17.8483 -25.2708 -1.0870
19.3305 -25.2933 -1.1144
2.4830 -3.0073 -0.1360
2.3933 -2.6861 -0.1249
2.5398 -2.6432 -0.1267
25.7578 -24.8629 -1.2322
3.2137 -2.8765 -0.1478
28.3566 -23.5215 -1.2561
29.6226 -22.7461 -1.2669
31.9039 -22.6423 -1.3202
39.4952 -25.8524 -1.5844
39.9052 -24.0266 -1.5549
41.0449 -22.6542 -1.5561
43.2959 -21.8135 -1.5998
54.2811 -24.8337 -1.9580
57.7587 -23.8399 -2.0372
72.0313 -26.6060 -2.4879
21.0671 -6.8926 -0.7136
21.0271 -6.0140 -0.6995
20.9881 -5.1572 -0.6868
20.9500 -4.3193 -0.6752
20.9125 -3.4973 -0.6647
20.8757 -2.6884 -0.6554
20.8394 -1.8901 -0.6470
20.8034 -1.1000 -0.6397
20.7677 -0.3158 -0.6333
20.7322 0.4649 -0.6278
15.5377 0.9340 -0.4678
7.5244 0.7372 -0.2256
7.5114 1.0224 -0.2246
7.4984 1.3096 -0.2239
7.4852 1.5996 -0.2235
7.4718 1.8932 -0.2235
7.5332 2.2134 -0.2260
7.5192 2.5201 -0.2266
7.5049 2.8336 -0.2276
7.4903 3.1548 -0.2290
7.4040 3.4519 -0.2286
7.3856 3.7877 -0.2306
7.3697 4.1368 -0.2332
7.3532 4.4994 -0.2363
7.3360 4.8773 -0.2399
7.3180 5.2727 -0.2440
7.2991 5.6880 -0.2488
7.2807 6.1274 -0.2542
7.2580 6.5903 -0.2603
7.2356 7.0843 -0.2673
7.2115 7.6127 -0.2753
7.1856 8.1809 -0.2843
7.1577 8.7953 -0.2945
7.1273 9.4639 -0.3061
10.0916 14.5047 -0.4544
9.3116 14.5196 -0.4415
8.5073 14.4326 -0.4270
7.7733 14.3992 -0.4153
7.2730 14.7765 -0.4164
7.2172 16.1713 -0.4462
7.1373 17.7584 -0.4807
7.1061 19.8024 -0.5268
6.8705 21.6782 -0.5679
7.6921 27.8693 -0.7204
5.9506 25.2229 -0.6444
4.9505 25.1884 -0.6372
6.0010 38.0445 -0.9547
7.0509 59.0567 -1.4727
4.9148 60.3857 -1.4991
2.6295 60.2805 -1.4923
0.3596 60.1784 -1.4883
-1.8600 58.7625 -1.4543
-4.0696 58.6640 -1.4555
-6.4232 59.8697 -1.4916
-8.6965 59.7649 -1.4979
-10.9870 59.6619 -1.5070
-12.9865 58.1467 -1.4828
-15.3233 58.2222 -1.5016
-18.0298 59.3414 -1.5507
-20.4588 59.2291 -1.5712
-7.7889 20.0694 -0.5414
-25.0581 57.9988 -1.5944
-31.2779 65.5112 -1.8387
-35.1529 67.0210 -1.9244
-38.6321 67.3663 -1.9829
-41.9804 67.2140 -2.0326
-47.0330 69.3540 -2.1594
-45.3213 61.7002 -1.9825
-47.8261 60.2244 -2.0018
-51.0139 59.4987 -2.0511
-54.1107 58.5060 -2.0972
-57.0097 57.1681 -2.1370
-16.6602 15.4947 -0.6058
-62.1817 53.6145 -2.1996
-32.5300 25.9806 -1.1223
-32.9392 24.3362 -1.1112
-61.5584 41.9959 -2.0351
-62.0463 38.9923 -2.0147
-37.6368 21.7221 -1.2028
-60.7333 32.0697 -1.9142
-39.3020 18.8982 -1.2239
-29.1084 12.6717 -0.8973
-42.5579 16.6520 -1.3008
-62.1832 21.6713 -1.8879
-60.4786 18.5574 -1.8267
-60.7875 16.1774 -1.8295
-37.1400 8.4019 -1.1155
-61.3860 11.4787 -1.8428
-42.6354 6.3232 -1.2811
-15.8938 1.7492 -0.4787
-41.0364 2.9593 -1.2406
-60.4946 2.0798 -1.8382
-60.7930 -0.1980 -1.8594
-61.0916 -2.4988 -1.8833
-67.3700 -5.2997 -2.0961
-66.8122 -7.7938 -2.1009
-38.2554 -5.9287 -1.2174
-41.6949 -11.3882 -1.3866
-39.4909 -12.4002 -1.3364
-46.2073 -16.4429 -1.5935
-83.8883 -33.4577 -2.9526
-28.4069 -12.5880 -1.0219
-71.6643 -35.0441 -1.7547
-66.5533 -35.7074 -1.6757
-27.3749 -16.0418 -0.7099
-37.5668 -23.9568 -1.0050
-38.5553 -26.6790 -1.0660
-58.6065 -43.9037 -1.6776
-15.1627 -12.2757 -0.4502
-57.2467 -50.0266 -1.7669
-37.5974 -35.4366 -1.2089
-40.0163 -40.6658 -1.3437
-32.4951 -35.6080 -1.1424
-57.5594 -68.0472 -2.1247
-57.1793 -72.9991 -2.2230
-36.4652 -50.3464 -1.4982
-36.9321 -55.2533 -1.6098
-28.5052 -46.3282 -1.3238
-24.5275 -43.4451 -1.2195
-16.1620 -42.4936 -1.1275
-13.7585 -40.7229 -1.0690
-13.2811 -51.8915 -1.3384
-17.1517 -96.8367 -2.4657
-13.6674 -98.6463 -2.4999
-8.0743 -80.4376 -2.0312
-5.0198 -80.3199 -2.0232
7.2050 -43.7127 -1.1100
8.8860 -43.6151 -1.1134
9.7909 -40.2507 -1.0341
11.2980 -39.8534 -1.0317
12.5925 -38.7939 -1.0131
11.6332 -31.7217 -0.8368
11.4310 -27.8781 -0.7438
11.6596 -25.6424 -0.6928
12.8224 -25.5977 -0.7014
14.0166 -25.5351 -0.7106
15.2182 -25.4087 -0.7193
5.9187 -9.0879 -0.2621
17.8484 -25.2729 -0.7440
19.3289 -25.2934 -0.7613
2.4830 -3.0076 -0.0927
2.3931 -2.6861 -0.0850
2.5379 -2.6415 -0.0860
25.7555 -24.8630 -0.8351
3.2133 -2.8764 -0.0999
29.8863 -24.7929 -0.8932
29.9426 -22.9943 -0.8620
34.4990 -24.4868 -0.9585
35.8325 -23.4577 -0.9626
39.9006 -24.0268 -1.0382
43.2498 -23.8743 -1.0919
47.0374 -23.7020 -1.1540
49.7390 -22.7592 -1.1877
57.7500 -23.8403 -1.3441
59.9109 -22.1333 -1.3611
21.0672 -6.8941 -0.4678
21.0272 -6.0154 -0.4570
20.9882 -5.1586 -0.4471
20.9500 -4.3207 -0.4380
20.9126 -3.4986 -0.4296
20.8758 -2.6897 -0.4220
20.8395 -1.8915 -0.4150
20.8035 -1.1013 -0.4087
20.7678 -0.3171 -0.4029
20.7323 0.4635 -0.3978
15.6059 0.9371 -0.2965
7.5245 0.7367 -0.1418
7.5115 1.0220 -0.1405
7.4984 1.3091 -0.1395
7.4852 1.5991 -0.1386
7.4718 1.8927 -0.1380
7.5332 2.2129 -0.1389
7.5192 2.5197 -0.1387
7.5049 2.8331 -0.1387
7.4903 3.1543 -0.1389
7.4041 3.4514 -0.1380
7.3856 3.7872 -0.1386
7.3697 4.1363 -0.1395
7.3532 4.4988 -0.1407
7.3360 4.8768 -0.1422
7.3180 5.2721 -0.1440
7.2991 5.6875 -0.1462
7.2807 6.1269 -0.1487
7.2581 6.5897 -0.1516
7.2356 7.0837 -0.1551
7.2115 7.6121 -0.1590
7.1857 8.1802 -0.1635
7.1577 8.7946 -0.1688
7.1273 9.4632 -0.1748
10.0924 14.5047 -0.2585
9.3124 14.5196 -0.2503
8.5080 14.4326 -0.2413
7.7738 14.3992 -0.2339
7.2731 14.7756 -0.2339
7.2196 16.1755 -0.2500
7.1374 17.7573 -0.2685
7.1061 19.8013 -0.2936
6.8710 21.6782 -0.3159
7.6926 27.8693 -0.3999
6.0529 25.6553 -0.3632
5.0348 25.6160 -0.3586
6.1116 38.7432 -0.5374
7.0527 59.0684 -0.8136
4.9194 60.4393 -0.8282
2.6320 60.3352 -0.8242
0.3599 60.2318 -0.8219
-1.8624 58.8326 -0.8035
-4.0747 58.7334 -0.8045
-6.4294 59.9228 -0.8249
-8.7050 59.8193 -0.8292
-10.9975 59.7149 -0.8352
-12.9899 58.1582 -0.8225
-15.3407 58.2845 -0.8351
-16.2877 53.6038 -0.7797
-20.4646 59.2417 -0.8767
-7.7886 20.0671 -0.3028
-25.2948 58.5424 -0.9024
-31.3074 65.5681 -1.0348
-35.1526 67.0156 -1.0853
-38.6349 67.3662 -1.1220
-41.9835 67.2138 -1.1540
-47.0312 69.3460 -1.2303
-45.3197 61.6930 -1.1337
-47.8287 60.2227 -1.1493
-51.0176 59.4979 -1.1822
-54.1147 58.5051 -1.2138
-57.0129 57.1661 -1.2419
-16.6544 15.4879 -0.3534
-62.1741 53.6026 -1.2891
-64.0494 51.1489 -1.3010
-65.4786 48.3717 -1.3062
-61.6189 42.0324 -1.2101
-62.0165 38.9689 -1.2016
-62.4005 36.0098 -1.1954
-60.8053 32.1033 -1.1540
-39.3311 18.9094 -0.7409
-29.0913 12.6622 -0.5450
-61.8215 24.1852 -1.1536
-62.1498 21.6554 -1.1571
-60.4342 18.5397 -1.1244
-60.7429 16.1615 -1.1312
-61.0485 13.8066 -1.1396
-61.3519 11.4684 -1.1497
-61.6541 9.1398 -1.1614
-15.8895 1.7477 -0.3013
-60.1693 4.3353 -1.1501
-60.4627 2.0748 -1.1665
-60.7581 -0.2017 -1.1846
-61.0566 -2.5013 -1.2046
-67.3690 -5.3040 -1.3468
-66.8113 -7.7979 -1.3550
-39.6261 -12.4453 -0.8804
-46.2201 -16.4506 -1.0500
-83.8775 -33.4591 -1.9508
-77.3927 -34.3007 -1.8455
-71.6562 -35.0452 -0.8704
-66.5461 -35.7083 -0.8385
-27.3971 -16.0568 -0.3585
-37.5196 -23.9295 -0.5105
-58.0155 -40.1494 -0.8220
-58.6072 -43.9088 -0.8659
-15.1712 -12.2838 -0.2341
-57.2474 -50.0320 -0.9243
-57.6517 -54.3434 -0.9757
-58.4657 -59.4199 -1.0393
-32.4950 -35.6109 -0.6081
-57.2734 -67.7146 -1.1311
-57.1752 -72.9996 -1.1950
-56.4805 -77.9871 -1.2533
-13.7567 -40.7202 -0.5925
-24.5963 -96.1088 -1.3791
-21.0510 -97.3703 -1.3895
-16.9468 -95.6854 -1.3591
-13.4388 -97.0021 -1.3727
-7.9786 -79.4886 -1.1216
-4.9605 -79.3759 -1.1177
-2.3918 -96.4802 -1.3570
7.2051 -43.7169 -0.6190
8.8853 -43.6152 -0.6199
9.7907 -40.2525 -0.5749
11.2973 -39.8535 -0.5725
12.5926 -38.7970 -0.5610
11.6333 -31.7242 -0.4623
11.4302 -27.8782 -0.4097
11.6587 -25.6424 -0.3806
12.8239 -25.6026 -0.3841
14.0156 -25.5352 -0.3877
15.2171 -25.4087 -0.3909
5.8851 -9.0370 -0.1411
17.8485 -25.2751 -0.4011
19.3274 -25.2934 -0.4084
2.4830 -3.0079 -0.0495
2.3929 -2.6862 -0.0451
2.5408 -2.6447 -0.0455
25.7532 -24.8631 -0.4383
3.2129 -2.8764 -0.0521
29.8834 -24.7930 -0.4628
29.9396 -22.9945 -0.4434
34.6227 -24.5773 -0.4913
36.5614 -23.9376 -0.4978
39.8960 -24.0270 -0.5219
43.2445 -23.8746 -0.5442
47.0313 -23.7022 -0.5701
50.6642 -23.1861 -0.5922
57.7412 -23.8407 -0.6515
58.7583 -21.7115 -0.6406
21.0672 -6.8955 -0.2221
21.0272 -6.0168 -0.2146
20.9882 -5.1600 -0.2076
20.9501 -4.3221 -0.2009
20.9127 -3.5000 -0.1946
20.8759 -2.6911 -0.1887
20.8395 -1.8928 -0.1831
20.8036 -1.1027 -0.1778
20.7679 -0.3184 -0.1727
20.7323 0.4622 -0.1680
15.6748 0.9403 -0.1238
7.5245 0.7363 -0.0580
7.5115 1.0215 -0.0565
7.4984 1.3086 -0.0551
7.4852 1.5986 -0.0538
7.4719 1.8922 -0.0526
7.5332 2.2124 -0.0519
7.5192 2.5192 -0.0508
7.5050 2.8326 -0.0498
7.4904 3.1538 -0.0488
7.4042 3.4509 -0.0474
7.3856 3.7867 -0.0466
7.3697 4.1358 -0.0459
7.3532 4.4983 -0.0452
7.3360 4.8762 -0.0446
7.3181 5.2716 -0.0441
7.2992 5.6869 -0.0436
7.2808 6.1263 -0.0433
7.2581 6.5891 -0.0430
7.2356 7.0831 -0.0428
7.1640 7.5613 -0.0425
7.1383 8.1257 -0.0426
7.1577 8.7940 -0.0431
7.1273 9.4625 -0.0435
10.0932 14.5048 -0.0627
9.3131 14.5196 -0.0591
8.5086 14.4327 -0.0556
7.7744 14.3992 -0.0526
7.2731 14.7746 -0.0513
7.2220 16.1798 -0.0537
7.1374 17.7563 -0.0564
7.1062 19.8002 -0.0604
6.8714 21.6782 -0.0638
7.6930 27.8693 -0.0795
6.1589 26.1026 -0.0724
5.0781 25.8346 -0.0699
6.1119 38.7432 -0.1028
7.0531 59.0684 -0.1543
4.9197 60.4394 -0.1562
2.6321 60.3352 -0.1549
0.3599 60.2318 -0.1544
-1.8626 58.8327 -0.1512
-4.0750 58.7332 -0.1520
-6.4299 59.9228 -0.1570
-8.7056 59.8192 -0.1593
-10.9983 59.7149 -0.1623
-12.9909 58.1583 -0.1621
-15.3417 58.2840 -0.1672
-16.2886 53.6029 -0.1588
-20.4660 59.2416 -0.1821
-7.7882 20.0648 -0.0642
-25.2988 58.5473 -0.1956
-31.3094 65.5676 -0.2296
-35.1524 67.0101 -0.2466
-38.7007 67.4759 -0.2618
-41.9867 67.2137 -0.2758
-47.0294 69.3378 -0.3017
-45.3181 61.6859 -0.2853
-47.8243 60.2121 -0.2969
-51.0212 59.4971 -0.3137
-22.7665 24.6114 -0.1391
-20.1964 20.2488 -0.1230
-16.6486 15.4810 -0.1013
-62.1666 53.5909 -0.3793
-64.0443 51.1395 -0.3925
-65.4805 48.3680 -0.4040
-61.5253 41.9638 -0.3828
-61.9680 38.9337 -0.3896
-39.9299 23.0396 -0.2540
-60.8057 32.0990 -0.3920
-39.3602 18.9206 -0.2575
-29.0743 12.6528 -0.1932
-61.7255 24.1434 -0.4172
-62.1504 21.6514 -0.4277
-60.3371 18.5059 -0.4231
-60.6451 16.1315 -0.4339
-60.9974 13.7911 -0.4455
-61.3524 11.4645 -0.4579
-61.6546 9.1359 -0.4706
-15.8852 1.7462 -0.1241
-60.0686 4.3242 -0.4807
-60.4103 2.0692 -0.4955
-60.6556 -0.2052 -0.5103
-61.0571 -2.5052 -0.5273
-67.3681 -5.3082 -0.5977
-66.8104 -7.8021 -0.6094
-46.2227 -16.4546 -0.5062
-83.8667 -33.4605 -0.9498
-77.3834 -34.3019 -0.9071
-71.6480 -35.0462 0.0136
-63.2407 -33.9392 -0.0015
-27.4194 -16.0718 -0.0066
-37.4726 -23.9024 -0.0174
-58.0176 -40.1553 -0.0401
-58.6078 -43.9139 -0.0544
-15.1797 -12.2919 -0.0178
-57.2287 -50.0205 -0.0817
-57.7688 -54.4588 -0.0979
-58.3483 -59.3058 -0.1152
-32.4948 -35.6138 -0.0738
-57.3871 -67.8546 -0.1486
-57.1711 -73.0002 -0.1675
-56.5072 -78.0300 -0.1863
-13.7549 -40.7175 -0.1161
-24.4762 -95.6454 -0.2783
-20.2071 -93.4731 -0.2740
-16.9458 -95.6854 -0.2822
-10.9650 -79.1502 -0.2345
-7.9336 -79.0445 -0.2349
-4.9331 -78.9416 -0.2350
-2.1847 -88.1277 -0.2625
7.2053 -43.7211 -0.1280
8.8835 -43.6091 -0.1266
9.7904 -40.2543 -0.1158
11.2966 -39.8538 -0.1134
12.5928 -38.8002 -0.1090
11.6335 -31.7268 -0.0878
11.4294 -27.8782 -0.0758
11.6579 -25.6425 -0.0684
12.8254 -25.6075 -0.0668
14.0146 -25.5352 -0.0649
15.2160 -25.4088 -0.0627
5.8679 -9.0114 -0.0215
17.8486 -25.2772 -0.0581
19.3259 -25.2935 -0.0556
2.4831 -3.0081 -0.0063
2.3927 -2.6862 -0.0053
2.5554 -2.6601 -0.0049
25.7510 -24.8632 -0.0416
3.2125 -2.8763 -0.0043
29.8806 -24.7931 -0.0325
29.9366 -22.9946 -0.0251
34.6190 -24.5775 -0.0208
37.2004 -24.3589 -0.0138
37.2418 -22.4313 -0.0054
43.2392 -23.8748 0.0032
47.0252 -23.7025 0.0135
51.1028 -23.3905 0.0255
57.7325 -23.8411 0.0408
58.8877 -21.7633 0.0537
21.0673 -6.8970 0.0235
21.0273 -6.0182 0.0277
20.9883 -5.1614 0.0319
20.9501 -4.3235 0.0361
20.9127 -3.5014 0.0403
20.8759 -2.6924 0.0446
20.8396 -1.8941 0.0488
20.8036 -1.1040 0.0531
20.7679 -0.3197 0.0574
20.7324 0.4609 0.0618
15.7441 0.9434 0.0504
7.5245 0.7358 0.0258
7.5115 1.0210 0.0275
7.4984 1.3082 0.0292
7.4852 1.5981 0.0310
7.4719 1.8917 0.0328
7.5332 2.2119 0.0351
7.5193 2.5187 0.0371
7.5050 2.8321 0.0391
7.4904 3.1533 0.0413
7.4042 3.4504 0.0431
7.3857 3.7862 0.0454
7.3698 4.1353 0.0478
7.3533 4.4978 0.0503
7.3361 4.8757 0.0530
7.3181 5.2711 0.0559
7.2992 5.6864 0.0589
7.2808 6.1257 0.0622
7.2581 6.5885 0.0656
7.2356 7.0825 0.0694
7.2120 7.6113 0.0734
7.1868 8.1801 0.0778
7.1578 8.7933 0.0825
7.1273 9.4618 0.0878
10.0940 14.5048 0.1332
9.3138 14.5197 0.1320
8.5092 14.4327 0.1301
7.7749 14.3993 0.1287
7.2732 14.7737 0.1311
7.2244 16.1841 0.1427
7.1375 17.7552 0.1557
7.1063 19.7990 0.1727
6.8719 21.6782 0.1882
7.6935 27.8693 0.2409
7.2409 30.6865 0.2643
5.0784 25.8346 0.2219
6.1123 38.7432 0.3319
7.0535 59.0685 0.5049
4.9199 60.4390 0.5158
2.5876 59.3147 0.5056
0.3598 60.2316 0.5131
-1.8628 58.8327 0.5011
-3.7803 54.4813 0.4642
-6.4303 59.9225 0.5109
-8.5589 58.8074 0.5020
-10.9990 59.7145 0.5106
-12.9918 58.1584 0.4983
-15.3426 58.2835 0.5007
-13.4716 44.3299 0.3821
-20.1635 58.3620 0.5049
-7.7881 20.0631 0.1743
-15.4627 35.7818 0.3124
-15.0938 31.6069 0.2775
-16.0089 30.5152 0.2695
-38.7036 67.4757 0.6002
-14.2323 22.7818 0.2042
-15.0766 22.2264 0.2009
-20.1377 27.4087 0.2501
-47.8276 60.2113 0.5552
-51.0249 59.4963 0.5549
-22.1199 23.9102 0.2258
-19.5733 19.6224 0.1880
-16.6428 15.4742 0.1505
-33.7725 29.1108 0.2881
-40.5548 32.3798 0.3265
-37.9804 28.0516 0.2889
-61.5264 41.9597 0.4424
-61.9685 38.9293 0.4214
-39.9314 23.0375 0.2568
-60.8060 32.0948 0.3699
-39.3894 18.9318 0.2266
-29.0573 12.6433 0.1581
-61.8334 24.1813 0.3178
-62.1509 21.6473 0.3016
-60.4461 18.5353 0.2767
-60.7548 16.1567 0.2620
-60.9979 13.7872 0.2475
-61.3529 11.4606 0.2337
-61.6551 9.1320 0.2201
-15.8809 1.7447 0.0530
-60.1815 4.3285 0.1871
-60.4108 2.0653 0.1743
-60.6564 -0.2091 0.1618
-61.0576 -2.5091 0.1498
-67.3672 -5.3124 0.1511
-66.8094 -7.8063 0.1360
-83.8559 -33.4619 0.0509
-77.3740 -34.3031 0.0309
-71.6398 -35.0473 0.8974
-42.3563 -22.7343 0.5317
-27.4417 -16.0869 0.3459
-37.4257 -23.8753 0.4746
-58.0205 -40.1617 0.7418
-58.3332 -43.7127 0.7537
-15.1881 -12.3000 0.1988
-57.0856 -49.9001 0.7587
-41.7424 -39.3543 0.5650
-41.5185 -42.2035 0.5741
-32.4947 -35.6166 0.4604
-41.4272 -48.9877 0.6037
-57.1670 -73.0007 0.8600
-40.8965 -56.4778 0.6379
-50.2462 -81.6808 0.8547
-32.9983 -58.4615 0.5911
-13.7531 -40.7148 0.3601
-24.4748 -95.6454 0.8158
-20.2058 -93.4724 0.7857
-17.0331 -96.1837 0.7988
-10.9644 -79.1502 0.6510
-7.9332 -79.0445 0.6454
-4.9329 -78.9416 0.6415
-2.1847 -88.1284 0.7144
7.4278 -84.1125 0.6868
7.2055 -43.7254 0.3631
8.8829 -43.6092 0.3665
9.6680 -39.7537 0.3390
11.2260 -39.6077 0.3435
12.5929 -38.8034 0.3431
11.6336 -31.7293 0.2867
11.4620 -27.9598 0.2588
11.3831 -25.0399 0.2381
12.8267 -25.6121 0.2506
13.0683 -23.8128 0.2405
15.2567 -25.4787 0.2662
5.8623 -9.0034 0.0976
17.9044 -25.3582 0.2857
19.3244 -25.2936 0.2971
2.4831 -3.0084 0.0369
2.3925 -2.6862 0.0346
2.5723 -2.6780 0.0363
25.7487 -24.8633 0.3551
3.2121 -2.8762 0.0435
27.8323 -23.0959 0.3705
29.9336 -22.9947 0.3932
32.2456 -22.8950 0.4189
34.7843 -22.7795 0.4479
39.8867 -24.0274 0.5102
43.2339 -23.8751 0.5505
41.4886 -20.9149 0.5268
51.0957 -23.3908 0.6483
57.7238 -23.8415 0.7329
58.8871 -21.7671 0.7494
21.0673 -6.8984 0.2692
21.0273 -6.0196 0.2701
20.9884 -5.1628 0.2715
20.9502 -4.3248 0.2732
20.9128 -3.5027 0.2753
20.8760 -2.6938 0.2778
20.8396 -1.8955 0.2807
20.8037 -1.1053 0.2840
20.7680 -0.3211 0.2876
20.7325 0.4596 0.2916
15.8140 0.9466 0.2262
7.5245 0.7353 0.1096
7.5115 1.0205 0.1115
7.4985 1.3077 0.1136
7.4853 1.5976 0.1158
7.4719 1.8912 0.1183
7.5332 2.2114 0.1221
7.5193 2.5182 0.1250
7.5050 2.8316 0.1280
7.4904 3.1528 0.1313
7.4043 3.4499 0.1336
7.3857 3.7857 0.1373
7.3698 4.1347 0.1414
7.3533 4.4973 0.1459
7.3361 4.8751 0.1507
7.3181 5.2705 0.1558
7.2992 5.6858 0.1615
7.2809 6.1252 0.1676
7.2581 6.5879 0.1743
7.2357 7.0819 0.1816
7.2145 7.6133 0.1897
7.1892 8.1822 0.1985
7.1578 8.7926 0.2082
7.1274 9.4611 0.2191
10.0947 14.5048 0.3290
9.2262 14.3821 0.3202
8.5099 14.4327 0.3158
7.7755 14.3993 0.3101
7.0853 14.3912 0.3055
6.4108 14.3605 0.3010
5.7613 14.3309 0.2968
5.4625 15.2183 0.3119
5.3824 16.9784 0.3448
5.3266 19.2941 0.3886
5.1809 21.9550 0.4392
5.0787 25.8346 0.5137
6.1127 38.7433 0.7666
7.0603 59.1228 1.1653
4.9201 60.4390 1.1879
2.5548 58.5598 1.1489
0.3598 60.2316 1.1807
-1.8629 58.8328 1.1535
-3.7680 54.2997 1.0659
-6.4308 59.9225 1.1789
-8.4511 58.0621 1.1459
-10.9998 59.7145 1.1836
-13.0047 58.2120 1.1599
-15.3435 58.2830 1.1687
-12.4995 41.1280 0.8309
-11.7383 33.9730 0.6923
-7.7882 20.0618 0.4128
-10.3226 23.8855 0.4969
-11.4571 23.9897 0.5053
-21.5020 40.9825 0.8749
-38.1390 66.4865 1.4409
-30.6560 49.0677 1.0811
-33.1323 48.8410 1.0956
-45.3149 61.6715 1.4110
-47.8310 60.2106 1.4075
-6.5849 7.6775 0.1837
-6.9106 7.4692 0.1833
-7.2406 7.2581 0.1831
-16.6374 15.4676 0.4022
-62.3591 53.7462 1.4443
-64.0481 51.1320 1.4240
-65.4845 48.3604 1.4003
-44.8671 30.5949 0.9245
-44.7881 28.1330 0.8907
-39.9330 23.0355 0.7678
-44.5840 23.5292 0.8299
-39.4187 18.9431 0.7115
-29.0403 12.6339 0.5089
-61.6437 24.1029 1.0504
-62.0129 21.5951 1.0287
-60.4466 18.5314 0.9774
-60.7553 16.1528 0.9587
-43.9601 9.9333 0.6778
-61.3534 11.4567 0.9254
-61.6556 9.1281 0.9108
-15.8766 1.7432 0.2300
-43.6680 3.1379 0.6209
-60.4113 2.0615 0.8442
-60.6587 -0.2130 0.8341
-43.4510 -1.7883 0.5886
-67.3662 -5.3166 0.9000
-65.6129 -7.6707 0.8656
-43.1349 -8.3685 0.5570
-83.8450 -33.4634 1.0513
-77.3647 -34.3043 0.9687
-48.6150 -23.7866 1.2089
-42.3947 -22.7579 1.0656
-27.4641 -16.1021 0.6991
-37.3789 -23.8482 0.9655
-42.2819 -29.2707 1.1106
-46.9639 -35.1967 1.2573
-15.1967 -12.3081 0.4157
-57.2495 -50.0482 1.6038
-41.7788 -39.3921 1.2020
-41.5565 -42.2459 1.2315
-32.4946 -35.6195 0.9949
-41.4562 -49.0259 1.3158
-41.2652 -52.6987 1.3627
-40.9187 -56.5128 1.4116
-48.7229 -72.9151 1.7636
-50.6021 -82.2655 1.9313
-32.9954 -58.4606 1.3352
-30.1793 -58.5085 1.3028
-28.2661 -60.2604 1.3110
-26.9439 -63.5555 1.3538
-24.1512 -63.5158 1.3274
-8.8889 -26.3165 0.5406
-16.1479 -63.1088 1.2603
-12.5147 -57.8966 1.1432
-8.0787 -45.6218 0.8924
-7.6482 -55.2145 1.0719
-7.9327 -79.0444 1.5259
-4.9327 -78.9416 1.5181
-2.1847 -88.1293 1.6915
1.0046 -78.2671 1.5020
2.2252 -44.0665 0.8471
9.8087 -77.6265 1.5060
7.2057 -43.7296 0.8544
8.8823 -43.6093 0.8598
9.7120 -39.9374 0.7961
11.2599 -39.7300 0.8023
12.5931 -38.8065 0.7953
11.6337 -31.7319 0.6613
11.4621 -27.9620 0.5938
11.3832 -25.0418 0.5429
12.8212 -25.6029 0.5679
13.0673 -23.8129 0.5416
15.2555 -25.4787 0.5953
5.8610 -9.0022 0.2166
17.9030 -25.3583 0.6298
19.3228 -25.2936 0.6499
2.4831 -3.0087 0.0802
2.3923 -2.6862 0.0745
2.4544 -2.5554 0.0739
17.6598 -17.0541 0.5156
3.2117 -2.8762 0.0912
19.6412 -16.3004 0.5444
21.1471 -16.2467 0.5734
34.6118 -24.5778 0.9202
25.3244 -16.5864 0.6617
26.7230 -16.0997 0.6877
40.1818 -22.1925 1.0205
41.3785 -20.8623 1.0391
47.7213 -21.8494 1.1872
57.7150 -23.8419 1.4250
58.8865 -21.7709 1.4454
21.0674 -6.8999 0.5149
21.0274 -6.0211 0.5126
20.9884 -5.1642 0.5111
20.9503 -4.3262 0.5103
20.9129 -3.5041 0.5104
20.8760 -2.6951 0.5112
20.8397 -1.8968 0.5127
20.8037 -1.1067 0.5149
20.7680 -0.3224 0.5179
20.7325 0.4583 0.5215
15.8848 0.9498 0.4036
7.5245 0.7348 0.1934
7.5116 1.0200 0.1955
7.4985 1.3072 0.1980
7.4853 1.5972 0.2007
7.4719 1.8907 0.2037
7.5333 2.2109 0.2091
7.5193 2.5177 0.2129
7.5050 2.8311 0.2169
7.4904 3.1523 0.2214
7.4043 3.4494 0.2242
7.3857 3.7852 0.2294
7.3698 4.1342 0.2351
7.3533 4.4967 0.2414
7.3361 4.8746 0.2483
7.3181 5.2699 0.2558
7.2992 5.6852 0.2640
7.2809 6.1246 0.2731
7.2582 6.5873 0.2829
7.2357 7.0813 0.2938
7.2171 7.6153 0.3061
7.1916 8.1842 0.3194
7.1578 8.7920 0.3339
7.1274 9.4604 0.3504
10.0955 14.5049 0.5250
9.2819 14.4679 0.5127
8.5105 14.4327 0.5016
7.7761 14.3993 0.4916
7.2733 14.7718 0.4962
7.2279 16.1896 0.5359
7.1376 17.7531 0.5799
7.0515 19.6439 0.6341
5.4274 17.1194 0.5468
5.3269 19.2941 0.6106
5.1811 21.9548 0.6893
5.0790 25.8346 0.8056
6.1130 38.7433 1.2015
7.0543 59.0687 1.8239
4.9204 60.4390 1.8603
2.5427 58.2782 1.7902
0.3598 60.2315 1.8486
-1.8631 58.8329 1.8062
-3.7683 54.2998 1.6695
-6.4313 59.9225 1.8471
-8.4158 57.8156 1.7889
-11.0005 59.7145 1.8568
-12.9936 58.1586 1.8196
-15.3445 58.2824 1.8370
-12.2344 40.2529 1.2797
-11.7388 33.9721 1.0908
-7.7882 20.0605 0.6514
-10.2350 23.6812 0.7788
-11.4748 24.0251 0.8012
-11.3504 21.6321 0.7327
-11.0692 19.2950 0.6648
-30.6584 49.0676 1.7226
-33.1349 48.8410 1.7501
-10.8142 14.7164 0.5392
-47.8343 60.2098 2.2601
-6.5853 7.6773 0.2959
-6.9110 7.4690 0.2962
-7.2410 7.2578 0.2968
-16.6336 15.4626 0.6539
-41.6692 35.9104 1.5749
-45.0984 36.0000 1.6424
-40.0715 29.5897 1.4091
-44.8661 30.5907 1.5265
-44.7897 28.1306 1.4771
-39.9346 23.0334 1.2789
-44.5848 23.5264 1.3888
-39.4479 18.9544 1.1972
-29.0233 12.6245 0.8595
-44.4479 17.3762 1.2864
-62.1519 21.6393 1.7606
-60.4362 18.5242 1.6780
-60.7449 16.1460 1.6553
-43.9597 9.9304 1.1774
-61.3539 11.4528 1.6173
-61.6561 9.1242 1.6018
-15.8723 1.7417 0.4069
-43.6666 3.1350 1.1062
-60.4118 2.0577 1.5143
-60.7601 -0.2172 1.5090
-43.4504 -1.7910 1.0706
-67.3653 -5.3209 1.6491
-43.4791 -5.0859 1.0589
-96.8831 -15.0457 2.3506
-43.1614 -8.3764 1.0447
-43.2712 -10.1002 1.0465
-71.4653 -19.5429 1.7294
-71.5579 -22.4930 1.7354
-55.3459 -19.7136 1.3472
-83.8342 -33.4648 2.0517
-77.3554 -34.3055 1.9067
-48.6036 -23.7845 1.8088
-42.3946 -22.7609 1.5992
-27.4865 -16.1172 1.0530
-37.3322 -23.8212 1.4554
-42.1200 -29.1619 1.6745
-42.0187 -31.4939 1.7073
-15.2052 -12.3163 0.6329
-41.8004 -36.5459 1.7868
-41.6814 -39.3039 1.8346
-41.5569 -42.2500 1.8887
-32.4944 -35.6224 1.5296
-41.2728 -48.8130 2.0189
-41.1147 -52.5106 2.0974
-40.9185 -56.5169 2.1854
-39.2205 -58.6989 2.2026
-36.0283 -58.5765 2.1377
-9.3176 -16.5100 0.5873
-30.0949 -58.3490 2.0272
-28.2726 -60.2784 2.0497
-26.8893 -63.4310 2.1151
-9.0395 -23.7744 0.7789
-13.7495 -40.7095 1.3128
-17.1640 -57.9189 1.8418
-14.7965 -57.8308 1.8168
-12.4805 -57.7422 1.7952
-8.0782 -45.6213 1.4061
-7.6481 -55.2168 1.6901
-7.6646 -76.3770 2.3256
-2.1793 -34.8785 1.0583
-1.8389 -74.1821 2.2466
0.9505 -74.0611 2.2426
2.0456 -40.5137 1.2286
6.5148 -73.7846 2.2448
9.6109 -76.0666 2.3256
7.2059 -43.7339 1.3459
8.8823 -43.6124 1.3534
9.7118 -39.9394 1.2519
11.2592 -39.7301 1.2602
12.5932 -38.8096 1.2478
11.6338 -31.7345 1.0362
11.4622 -27.9642 0.9289
11.3833 -25.0439 0.8480
12.8157 -25.5938 0.8851
13.0664 -23.8129 0.8427
15.2544 -25.4788 0.9246
5.8608 -9.0025 0.3357
16.6770 -23.6236 0.9073
17.9996 -23.5634 0.9343
2.4831 -3.0089 0.1235
2.3921 -2.6862 0.1143
2.5431 -2.6481 0.1173
17.6599 -17.0558 0.7879
3.2113 -2.8761 0.1390
19.6393 -16.3005 0.8274
21.1449 -16.2468 0.8690
32.1979 -22.8662 1.2940
25.3243 -16.5883 0.9974
26.7198 -16.0998 1.0336
40.1769 -22.1928 1.5294
41.3790 -20.8656 1.5531
47.7146 -21.8497 1.7691
44.2979 -18.3024 1.6253
58.5666 -21.6566 2.1301
21.0675 -6.9013 0.7608
21.0275 -6.0225 0.7552
20.9885 -5.1656 0.7508
20.9503 -4.3276 0.7476
20.1876 -3.3839 0.7197
20.1548 -2.6033 0.7189
20.8398 -1.8982 0.7448
20.8038 -1.1080 0.7460
20.7681 -0.3237 0.7482
20.7326 0.4569 0.7515
15.9558 0.9531 0.5827
7.5246 0.7343 0.2773
7.5116 1.0196 0.2796
7.4985 1.3067 0.2824
7.4853 1.5967 0.2856
7.4719 1.8903 0.2892
7.5333 2.2104 0.2962
7.5193 2.5172 0.3008
7.5051 2.8306 0.3059
7.4904 3.1518 0.3116
7.4044 3.4489 0.3148
7.3857 3.7847 0.3214
7.3698 4.1337 0.3289
7.3533 4.4962 0.3370
7.3361 4.8741 0.3460
7.3182 5.2694 0.3559
7.2993 5.6847 0.3667
7.2810 6.1241 0.3787
7.2582 6.5867 0.3917
7.2357 7.0807 0.4061
7.2196 7.6173 0.4226
7.1940 8.1863 0.4404
7.1579 8.7913 0.4597
7.1274 9.4597 0.4818
10.0963 14.5049 0.7211
9.2826 14.4679 0.7034
8.5111 14.4328 0.6875
7.7766 14.3993 0.6732
7.2733 14.7709 0.6789
7.2231 16.1778 0.7321
7.1376 17.7520 0.7922
7.0516 19.6428 0.8656
5.4278 17.1194 0.7461
5.3273 19.2941 0.8327
5.1815 21.9548 0.9396
5.0793 25.8346 1.0978
4.7192 29.9079 1.2635
6.5391 54.7518 2.3025
4.4725 54.9347 2.3025
2.4019 55.0504 2.3025
0.3291 55.0988 2.3025
-1.7444 55.0799 2.3025
-3.7810 54.4792 2.2809
-5.8862 54.8403 2.3025
-7.9511 54.6197 2.3025
-4.5312 24.5952 1.0423
-5.4823 24.5369 1.0467
-14.1006 53.5543 2.3025
-12.0048 39.4946 1.7137
-11.7393 33.9712 1.4896
-7.7883 20.0593 0.8901
-10.2355 23.6805 1.0650
-11.4755 24.0247 1.0966
-11.3511 21.6318 1.0038
-11.0694 19.2940 0.9116
-25.3535 40.5742 1.9553
-16.3737 24.1330 1.1883
-10.8532 14.7683 0.7445
-32.0141 40.2932 2.0835
-6.5857 7.6771 0.4081
-6.9113 7.4688 0.4091
-7.2414 7.2576 0.4106
-10.5915 9.8449 0.5768
-35.1325 30.2742 1.8423
-45.0991 35.9968 2.2826
-10.4980 7.7510 0.5139
-10.8400 7.3901 0.5143
-44.7521 28.1036 2.0621
-39.9361 23.0314 1.7903
-44.5540 23.5069 1.9467
-39.4773 18.9657 1.6839
-29.0064 12.6151 1.2099
-44.2823 17.3084 1.8090
-44.1976 15.3852 1.7711
-44.1185 13.5197 1.7368
-44.0373 11.7022 1.7055
-43.9591 9.9273 1.6773
-43.8845 8.1890 1.6520
-43.8079 6.4801 1.6293
-15.8680 1.7402 0.5839
-43.6650 3.1321 1.5917
-43.6138 1.4828 1.5773
-43.5532 -0.1585 1.5648
-43.4498 -1.7938 1.5529
-43.5019 -3.4387 1.5489
-43.4745 -5.0881 1.5442
-61.8807 -9.6139 2.1959
-43.1609 -8.3791 1.5324
-43.2589 -10.1002 1.5389
-65.8470 -18.0108 2.3506
-65.5165 -20.5984 2.3506
-46.0976 -16.4225 1.6649
-64.5478 -25.7704 2.3506
-63.9077 -28.3462 2.3506
-42.4771 -20.7894 2.1057
-42.3949 -22.7641 2.1333
-27.5089 -16.1324 1.4078
-37.2899 -23.7970 1.9448
-9.8221 -6.8011 0.5231
-42.0177 -31.4965 2.2901
-15.2137 -12.3244 0.8506
-41.4972 -36.2842 2.3856
-9.7148 -9.1615 0.5758
-38.9322 -39.5850 2.3856
-32.4404 -35.5662 2.0613
-9.6215 -11.3802 0.6360
-31.3228 -40.0079 2.1617
-30.0229 -41.4710 2.1716
-28.9276 -43.2973 2.2024
-27.3548 -44.4781 2.2026
-9.3512 -16.5706 0.8005
-24.5487 -47.5991 2.2480
-22.6963 -48.3929 2.2386
-21.3977 -50.4798 2.2915
-9.0390 -23.7747 1.0611
-13.7477 -40.7068 1.7894
-16.2985 -55.0017 2.3856
-14.2373 -55.6487 2.3856
-8.4036 -38.8827 1.6503
-8.0776 -45.6207 1.9202
-7.6267 -55.0659 2.3023
-5.5538 -55.3462 2.3024
-2.1790 -34.8763 1.4459
-1.4409 -58.1277 2.4056
0.7460 -58.1384 2.4056
2.0456 -40.5157 1.6788
4.8906 -55.3942 2.3023
6.9659 -55.1361 2.3023
7.2061 -43.7382 1.8379
8.8823 -43.6153 1.8474
9.7107 -39.9377 1.7079
11.2570 -39.7253 1.7182
12.1340 -37.3972 1.6386
11.6339 -31.7371 1.4113
11.4623 -27.9665 1.2644
11.3193 -24.9049 1.1468
11.9212 -23.8091 1.1188
13.0355 -23.7583 1.1415
14.1918 -23.7057 1.1668
5.8606 -9.0029 0.4549
16.6545 -23.5936 1.2266
17.9753 -23.5335 1.2617
2.4831 -3.0092 0.1668
2.3919 -2.6862 0.1542
2.5379 -2.6429 0.1577
17.6600 -17.0575 1.0604
3.2110 -2.8760 0.1869
19.6374 -16.3006 1.1106
21.1428 -16.2468 1.1649
23.9033 -16.9775 1.2860
24.6317 -16.1365 1.2970
26.7147 -16.0987 1.3795
40.1719 -22.1930 2.0386
41.4097 -20.8840 2.0690
46.7149 -21.3952 2.3023
44.2212 -18.2738 2.1536
48.1706 -17.8157 2.3220
21.0675 -6.9027 1.0069
21.0275 -6.0239 0.9980
20.9885 -5.1670 0.9907
20.9504 -4.3290 0.9851
19.5265 -3.2743 0.9159
19.4994 -2.5199 0.9138
20.8398 -1.8995 0.9771
20.8039 -1.1093 0.9772
20.7682 -0.3251 0.9788
20.7326 0.4556 0.9817
16.0280 0.9563 0.7636
7.5246 0.7339 0.3612
7.5116 1.0191 0.3638
7.4985 1.3062 0.3669
7.4853 1.5962 0.3705
7.4720 1.8898 0.3748
7.5333 2.2099 0.3834
7.5193 2.5167 0.3888
7.5051 2.8301 0.3950
7.4905 3.1513 0.4018
7.4044 3.4484 0.4055
7.3858 3.7841 0.4135
7.3699 4.1332 0.4227
7.3534 4.4957 0.4327
7.3362 4.8735 0.4438
7.3182 5.2688 0.4560
7.2993 5.6841 0.4694
7.2810 6.1235 0.4843
7.2582 6.5862 0.5005
7.2357 7.0800 0.5185
7.2219 7.6191 0.5393
7.1964 8.1884 0.5616
7.1579 8.7906 0.5855
7.1275 9.4590 0.6133
10.0971 14.5050 0.9174
9.2833 14.4679 0.8943
8.5118 14.4328 0.8736
7.7772 14.3994 0.8549
7.2733 14.7700 0.8617
7.2178 16.1650 0.9281
7.1377 17.7510 1.0046
7.0516 19.6417 1.0974
5.4281 17.1194 0.9455
5.3276 19.2941 1.0550
5.1863 21.9741 1.1912
5.0797 25.8346 1.3902
4.6826 29.6742 1.5873
5.1653 43.2466 2.3024
3.5332 43.3949 2.3024
1.8975 43.4884 2.3024
0.2716 45.4783 2.4056
-1.4399 45.4615 2.4056
-3.1503 45.3871 2.4056
-4.8578 45.2554 2.4056
-6.5609 45.0664 2.4056
-4.5314 24.5943 1.3200
-5.4825 24.5360 1.3259
-11.1280 42.2613 2.3023
-12.0045 39.4909 2.1719
-11.7398 33.9703 1.8887
-7.7883 20.0580 1.1291
-10.2359 23.6797 1.3515
-11.3774 23.8177 1.3804
-11.3517 21.6315 1.2751
-11.0696 19.2929 1.1586
-13.8511 22.1648 1.3584
-15.3428 22.6118 1.4169
-10.8531 14.7670 0.9479
-26.1968 32.9689 2.1725
-6.5860 7.6769 0.5204
-6.9117 7.4685 0.5221
-7.2419 7.2573 0.5244
-10.6277 9.8776 0.7399
-32.8322 28.2891 2.2029
-32.8302 26.2015 2.1279
-33.8326 24.9773 2.1231
-10.6566 7.2642 0.6488
-40.3057 25.3083 2.3856
-34.7214 20.0214 2.0015
-35.1656 18.5510 1.9778
-10.3687 4.9806 0.5700
-28.9894 12.6057 1.5601
-49.7534 19.4434 2.6256
-44.1977 15.3822 2.2906
-44.1185 13.5168 2.2490
-10.2608 2.7260 0.5152
-43.9586 9.9243 2.1775
-43.8841 8.1861 2.1475
-43.8083 6.4773 2.1209
-15.8637 1.7387 0.7609
-43.6639 3.1292 2.0776
-43.5925 1.4792 2.0607
-43.5178 -0.1611 2.0466
-43.4497 -1.7966 2.0357
-43.3772 -3.4317 2.0275
-43.3066 -5.0712 2.0223
-43.2354 -6.7199 2.0199
-43.1608 -8.3819 2.0204
-43.0868 -10.0628 2.0239
-43.0113 -11.7675 2.0303
-50.6297 -15.9213 2.4056
-46.0747 -16.4175 2.2069
-49.7354 -19.8601 2.4056
-42.5617 -18.8811 2.0822
-34.5138 -16.8944 2.1378
-34.8014 -18.6893 2.1901
-27.5314 -16.1476 1.7636
-36.3864 -23.2231 2.3772
-9.8577 -6.8265 0.6582
-31.1695 -23.3671 2.1316
-15.2223 -12.3326 1.0687
-27.5095 -24.0560 1.9875
-9.7502 -9.1957 0.7268
-28.7617 -29.2466 2.2181
-29.0299 -31.8297 2.3232
-9.6459 -11.4100 0.8036
-26.6964 -34.1015 2.3236
-25.2290 -34.8517 2.3028
-23.7110 -35.4921 2.2794
-22.3005 -36.2625 2.2685
-9.3514 -16.5722 1.0120
-20.2767 -39.3187 2.3482
-18.9468 -40.4010 2.3645
-17.1628 -40.4918 2.3266
-9.0385 -23.7751 1.3436
-14.3360 -42.4513 2.3637
-8.8194 -29.7643 1.6357
-8.6029 -33.6279 1.8271
-8.3781 -38.7670 2.0858
-7.6383 -43.1428 2.3025
-6.0141 -43.4247 2.3025
-4.3788 -43.6390 2.3025
-2.1600 -34.5728 1.8180
-1.1359 -45.8259 2.4056
0.5881 -45.8346 2.4056
2.0455 -40.5177 2.1294
3.6516 -41.3635 2.1803
5.4929 -43.4800 2.3023
7.1193 -43.2145 2.3023
8.7825 -43.1285 2.3156
9.7106 -39.9401 2.1645
11.2552 -39.7218 2.1765
6.6052 -20.3587 1.1298
11.6340 -31.7396 1.7869
11.4624 -27.9687 1.6002
11.3194 -24.9069 1.4508
11.9203 -23.8091 1.4145
13.0345 -23.7584 1.4424
14.1907 -23.7058 1.4737
5.8604 -9.0033 0.5743
16.6532 -23.5937 1.5474
17.9739 -23.5336 1.5905
2.4831 -3.0095 0.2101
2.3917 -2.6862 0.1942
2.5367 -2.6419 0.1983
17.6601 -17.0592 1.3332
3.2106 -2.8760 0.2347
19.6355 -16.3006 1.3940
21.1406 -16.2469 1.4610
23.9032 -16.9793 1.6118
24.4451 -16.0161 1.6118
26.5505 -16.0017 1.7155
36.2911 -20.0517 2.3023
36.8912 -18.6079 2.3023
39.1115 -17.9157 2.4056
39.6158 -16.3734 2.4056
40.0586 -14.8183 2.4056
21.0676 -6.9042 1.2532
21.0276 -6.0253 1.2410
20.9886 -5.1684 1.2309
20.9505 -4.3304 1.2228
19.4322 -3.2598 1.1304
19.3980 -2.5081 1.1264
20.8399 -1.9008 1.2096
20.8039 -1.1107 1.2088
20.7682 -0.3264 1.2096
20.7327 0.4543 1.2122
16.1007 0.9597 0.9463
7.5246 0.7334 0.4452
7.5116 1.0186 0.4480
7.4985 1.3058 0.4515
7.4854 1.5957 0.4556
7.4720 1.8893 0.4604
7.5333 2.2094 0.4706
7.5194 2.5162 0.4770
7.5051 2.8296 0.4841
7.4905 3.1508 0.4921
7.4045 3.4480 0.4962
7.3858 3.7836 0.5058
7.3699 4.1327 0.5166
7.3534 4.4951 0.5285
7.3362 4.8730 0.5417
7.3182 5.2683 0.5562
7.2993 5.6835 0.5722
7.2811 6.1230 0.5900
7.2583 6.5855 0.6094
7.2358 7.0794 0.6310
7.2243 7.6209 0.6562
7.1988 8.1904 0.6830
7.1579 8.7899 0.7115
7.1275 9.4583 0.7449
10.0979 14.5050 1.1139
9.2840 14.4679 1.0855
8.5124 14.4328 1.0599
7.7778 14.3994 1.0369
7.2734 14.7690 1.0447
7.2126 16.1522 1.1241
7.0480 17.5268 1.2020
6.3411 17.6615 1.1954
5.3826 16.9746 1.1356
5.2576 19.0393 1.2607
5.1342 21.7517 1.4276
5.0010 25.4331 1.6568
4.6827 29.6728 1.9212
4.2678 35.7298 2.3023
2.9195 35.8556 2.3024
1.5680 35.9350 2.3024
0.2244 37.5784 2.4056
-1.1899 37.5638 2.4056
-2.6031 37.5006 2.4056
-4.0137 37.3891 2.4056
-5.4203 37.2292 2.4056
-4.5315 24.5935 1.5980
-5.4827 24.5351 1.6054
-9.1892 34.8959 2.3023
-10.5060 34.5592 2.3023
-11.7403 33.9694 2.2883
-7.7884 20.0567 1.3682
-10.2363 23.6790 1.6383
-11.2839 23.6201 1.6600
-11.3524 21.6312 1.5467
-11.0699 19.2918 1.4059
-13.8754 22.2020 1.6518
-16.0119 23.5960 1.7957
-10.8530 14.7656 1.1516
-22.2105 27.9497 2.2387
-6.5864 7.6766 0.6329
-6.9121 7.4683 0.6352
-7.2423 7.2571 0.6384
-10.6279 9.8768 0.9011
-25.8573 22.2772 2.1142
-27.3778 21.8477 2.1638
-28.0527 20.7080 2.1480
-10.6641 7.2685 0.7927
-29.7443 18.6744 2.1508
-32.0873 18.5001 2.2613
-28.8084 15.1953 1.9823
-10.4048 4.9972 0.7002
-28.9725 12.5963 1.9103
-35.8689 14.0150 2.3208
-35.1601 12.2345 2.2359
-37.4353 11.4667 2.3434
-10.2616 2.7255 0.6333
-39.1541 8.8371 2.3856
-39.6009 7.3845 2.3856
-39.9954 5.9110 2.3856
-15.8594 1.7372 0.9379
-40.6240 2.9088 2.3856
-10.1530 0.3439 0.5928
-41.0317 -0.1545 2.3856
-41.1504 -1.7041 2.3856
-37.1759 -2.9435 2.1520
-36.9119 -4.3248 2.1366
-41.1561 -6.3994 2.3856
-10.0514 -1.9526 0.5843
-40.7576 -9.5215 2.3795
-40.3830 -11.0511 2.3714
-39.6754 -12.4792 2.3472
-38.8792 -13.8561 2.3208
-38.2940 -15.2939 2.3103
-9.9307 -4.4061 0.6065
-31.4610 -15.4022 2.3384
-31.1688 -16.7407 2.3550
-27.5540 -16.1629 2.1204
-30.3784 -19.3909 2.3856
-9.8578 -6.8273 0.7916
-25.4331 -19.0686 2.0929
-15.2309 -12.3408 1.2873
-24.7814 -21.6725 2.1566
-9.7501 -9.1965 0.8759
-23.5103 -23.9087 2.1861
-21.7266 -23.8241 2.0974
-9.6458 -11.4108 0.9698
-21.4020 -27.3407 2.2490
-21.0326 -29.0571 2.3188
-19.8312 -29.6867 2.3035
-18.9514 -30.8190 2.3303
-9.3516 -16.5738 1.2237
-8.3805 -16.2519 1.1739
-15.7994 -33.6919 2.3856
-14.5408 -34.3080 2.3856
-9.0380 -23.7754 1.6264
-8.9204 -26.4166 1.7809
-8.7799 -29.6330 1.9722
-8.6033 -33.6315 2.2133
-7.6338 -35.3249 2.3025
-6.3040 -35.6087 2.3025
-4.9630 -35.8378 2.3025
-3.7751 -37.6242 2.4056
-2.2679 -36.3028 2.3135
-0.9373 -37.8139 2.4056
0.4852 -37.8214 2.4056
1.9067 -37.7705 2.4056
3.3245 -37.6613 2.4056
4.5330 -35.8849 2.3023
5.8760 -35.6698 2.3023
7.2082 -35.4001 2.3023
8.5766 -35.2783 2.3156
9.8880 -34.8990 2.3156
6.5852 -20.2985 1.3637
11.6342 -31.7421 2.1629
11.4625 -27.9710 1.9364
11.3200 -24.9100 1.7552
11.9194 -23.8091 1.7106
13.0336 -23.7584 1.7438
14.1897 -23.7058 1.7809
5.8602 -9.0036 0.6937
16.6520 -23.5938 1.8685
17.9724 -23.5337 1.9198
2.4831 -3.0098 0.2535
2.3915 -2.6862 0.2342
2.5396 -2.6451 0.2393
17.6602 -17.0609 1.6064
3.2102 -2.8759 0.2826
19.6336 -16.3007 1.6777
21.1385 -16.2470 1.7574
23.9031 -16.9811 1.9379
24.2390 -15.8830 1.9206
26.4650 -15.9522 2.0537
31.5898 -17.4565 2.4056
32.1307 -16.2090 2.4056
32.6213 -14.9450 2.4056
33.0615 -13.6668 2.4056
33.4509 -12.3763 2.4056
21.0677 -6.9056 1.4999
21.0277 -6.0267 1.4844
20.9887 -5.1698 1.4714
20.9505 -4.3317 1.4608
19.4323 -3.2611 1.3497
19.3981 -2.5094 1.3440
20.8399 -1.9022 1.4424
20.8040 -1.1120 1.4406
20.7683 -0.3277 1.4407
20.7328 0.4530 1.4429
16.1740 0.9630 1.1309
7.5246 0.7329 0.5293
7.5116 1.0181 0.5324
7.4986 1.3053 0.5362
7.4854 1.5952 0.5408
7.4720 1.8888 0.5462
7.5334 2.2089 0.5580
7.5194 2.5157 0.5652
7.5051 2.8291 0.5734
7.4905 3.1503 0.5825
7.4045 3.4475 0.5871
7.3858 3.7831 0.5981
7.3699 4.1321 0.6106
7.3534 4.4946 0.6244
7.3362 4.8724 0.6397
7.3182 5.2677 0.6566
7.2993 5.6830 0.6752
7.2811 6.1224 0.6959
7.2583 6.5850 0.7185
7.2358 7.0788 0.7437
7.2266 7.6227 0.7733
7.2013 8.1925 0.8046
7.1580 8.7892 0.8377
7.1275 9.4576 0.8768
10.0987 14.5050 1.3107
9.2848 14.4680 1.2769
8.5130 14.4329 1.2465
7.7783 14.3994 1.2192
7.1443 14.5059 1.2061
6.5552 14.6788 1.2006
5.7633 14.3310 1.1548
5.4352 15.1373 1.2036
5.3555 16.8882 1.3271
5.2576 19.0383 1.4806
5.1342 21.7506 1.6764
5.0549 25.7056 1.9663
4.5630 28.9125 2.1979
3.6354 30.4338 2.3024
2.4870 30.5421 2.3024
1.3358 30.6104 2.3024
0.1911 32.0102 2.4056
-1.0136 31.9973 2.4056
-2.2174 31.9425 2.4056
-3.4189 31.8458 2.4056
-4.6167 31.7075 2.4056
-4.5317 24.5926 1.8764
-5.4829 24.5342 1.8852
-7.8243 29.7106 2.3023
-8.9442 29.4196 2.3023
-10.0544 29.0894 2.3023
-7.7885 20.0555 1.6077
-10.2367 23.6782 1.9255
-11.2606 23.5696 1.9473
-11.1525 21.2487 1.7866
-11.0640 19.2802 1.6525
-16.5221 26.4349 2.3138
-17.5487 25.8587 2.3158
-10.8528 14.7642 1.3555
-19.7483 24.8493 2.3438
-6.5868 7.6764 0.7455
-6.9125 7.4680 0.7485
-7.2427 7.2568 0.7526
-10.6280 9.8760 1.0626
-24.1206 20.7789 2.3265
-25.0905 20.0203 2.3403
-26.1054 19.2685 2.3599
-10.6656 7.2687 0.9365
-27.0226 16.9636 2.3091
-26.4067 15.2230 2.2002
-26.3722 13.9084 2.1464
-10.4047 4.9964 0.8287
-27.9168 12.1354 2.1794
-29.8337 11.6548 2.2867
-30.8373 10.7282 2.3244
-31.4799 9.6404 2.3370
-10.2979 2.7344 0.7541
-32.2044 7.2664 2.3295
-32.4562 6.0501 2.3225
-32.0192 4.7301 2.2699
-15.8551 1.7357 1.1152
-31.5314 2.2557 2.2033
-10.1897 0.3445 0.7084
-32.0813 -0.1229 2.2221
-33.1542 -1.3751 2.2912
-32.9373 -2.6100 2.2742
-32.4409 -3.8030 2.2412
-32.3215 -5.0278 2.2374
-10.0869 -1.9601 0.7007
-33.4885 -7.8255 2.3377
-32.6262 -8.9305 2.2923
-32.2244 -10.1378 2.2822
-32.3378 -11.5270 2.3123
-32.5827 -13.0152 2.3560
-9.9664 -4.4227 0.7300
-26.7936 -13.1191 2.3239
-26.4661 -14.2168 2.3344
-25.9068 -15.1985 2.3282
-25.5477 -16.3093 2.3439
-9.8578 -6.8282 0.9252
-22.8264 -17.1160 2.1962
-15.2395 -12.3490 1.5066
-21.9041 -19.1580 2.2303
-9.7500 -9.1972 1.0252
-9.8184 -9.9857 1.0690
-20.6181 -22.6106 2.3312
-9.6457 -11.4116 1.1363
-18.9786 -24.2467 2.3373
-18.3520 -25.3557 2.3719
-17.5136 -26.2194 2.3856
-16.5405 -26.9002 2.3856
-9.3519 -16.5754 1.4357
-8.3621 -16.2172 1.3746
-9.2548 -19.7371 1.6402
-9.1341 -21.5529 1.7593
-9.0376 -23.7756 1.9097
-8.9205 -26.4186 2.0915
-8.7271 -29.4563 2.3025
-7.6189 -29.7854 2.3025
-6.4977 -30.0696 2.3025
-5.3654 -30.3084 2.3025
-4.4129 -31.8669 2.4056
-3.2126 -32.0199 2.4056
-2.0068 -32.1244 2.4056
-0.7976 -32.1798 2.4056
0.4129 -32.1862 2.4056
1.6225 -32.1437 2.4056
2.8292 -32.0522 2.4056
3.8579 -30.5422 2.3023
5.0012 -30.3615 2.3023
6.1357 -30.1350 2.3023
7.2595 -29.8629 2.3023
8.4189 -29.7160 2.3156
6.5849 -20.2989 1.6014
10.6082 -28.9451 2.3156
11.4626 -27.9732 2.2732
11.3209 -24.9137 2.0602
11.9186 -23.8092 2.0071
13.0326 -23.7585 2.0455
14.1886 -23.7059 2.0885
5.8599 -9.0040 0.8134
16.6507 -23.5938 2.1900
17.9710 -23.5337 2.2495
2.4831 -3.0100 0.2970
2.3913 -2.6862 0.2742
2.5589 -2.6655 0.2823
17.6603 -17.0625 1.8799
3.2098 -2.8758 0.3306
19.6317 -16.3008 1.9619
21.0569 -16.1859 2.0465
25.3908 -18.0400 2.4056
24.3101 -15.9314 2.2501
26.5485 -16.0046 2.4056
27.0654 -14.9583 2.4056
27.5401 -13.8952 2.4056
27.9724 -12.8172 2.4056
28.3619 -11.7261 2.4056
27.4779 -10.1682 2.3025
21.0677 -6.9071 1.7469
21.0277 -6.0282 1.7281
20.9887 -5.1712 1.7123
20.9506 -4.3331 1.6992
19.4324 -3.2623 1.5692
19.3981 -2.5106 1.5620
20.8400 -1.9035 1.6756
20.8040 -1.1134 1.6727
20.7683 -0.3290 1.6722
20.7328 0.4517 1.6740
16.2483 0.9664 1.3175
7.5246 0.7324 0.6136
7.5117 1.0176 0.6168
7.4986 1.3048 0.6210
7.4854 1.5947 0.6261
7.4720 1.8883 0.6321
7.5334 2.2084 0.6455
7.5194 2.5152 0.6536
7.5052 2.8286 0.6628
7.4905 3.1498 0.6731
7.4046 3.4470 0.6782
7.3858 3.7826 0.6906
7.3699 4.1316 0.7048
7.3534 4.4941 0.7205
7.3362 4.8719 0.7379
7.3183 5.2672 0.7571
7.2994 5.6824 0.7783
7.2812 6.1219 0.8020
7.2583 6.5844 0.8277
7.2358 7.0782 0.8565
7.2290 7.6246 0.8907
7.2037 8.1946 0.9265
7.1580 8.7886 0.9641
7.1276 9.4569 1.0088
10.0995 14.5051 1.5079
9.2855 14.4680 1.4687
8.2593 14.0016 1.3905
7.7789 14.3994 1.4017
7.0738 14.3619 1.3727
6.4014 14.3336 1.3474
5.7537 14.3063 1.3248
5.4352 15.1364 1.3829
5.3555 16.8872 1.5246
5.2577 19.0373 1.7008
5.1343 21.7494 1.9256
5.0217 25.5353 2.2435
4.1618 26.3689 2.3023
3.1655 26.4986 2.3023
2.1656 26.5932 2.3023
1.1631 26.6526 2.3023
0.1664 27.8732 2.4056
-0.8827 27.8616 2.4056
-1.9309 27.8133 2.4056
-2.9770 27.7281 2.4056
-4.0198 27.6061 2.4056
-4.5318 24.5918 2.1553
-5.4831 24.5334 2.1656
-7.1165 27.0211 2.4056
-7.7857 25.6070 2.3025
-8.7509 25.3165 2.3025
-7.7565 19.9717 1.8400
-10.6505 24.6335 2.3025
-11.2601 23.5669 2.2384
-11.1529 21.2479 2.0541
-11.0635 19.2779 1.9002
-10.9872 17.5777 1.7698
-10.9363 16.1137 1.6603
-10.8527 14.7629 1.5598
-17.2194 21.6654 2.3521
-6.5871 7.6762 0.8583
-6.9129 7.4678 0.8620
-7.2431 7.2566 0.8669
-10.6282 9.8752 1.2244
-21.0212 18.1070 2.3368
-21.5272 17.1753 2.3149
-21.4569 15.8357 2.2370
-10.6670 7.2688 1.0805
-21.4917 13.4899 2.1193
-22.2561 12.8286 2.1407
-23.3494 12.3125 2.1946
-10.4046 4.9956 0.9573
-25.4115 11.0446 2.2927
-26.0730 10.1839 2.3105
-26.6483 9.2690 2.3231
-27.0374 8.2781 2.3223
-10.2978 2.7337 0.8728
-27.7082 6.2501 2.3208
-27.9822 5.2143 2.3196
-28.2286 4.1683 2.3192
-15.8507 1.7342 1.2926
-28.7585 2.0555 2.3309
-10.1896 0.3438 0.8220
-29.0848 -0.1133 2.3387
-26.5536 -1.1030 2.1312
-24.8594 -1.9715 1.9943
-24.2214 -2.8410 1.9451
-29.0854 -4.5263 2.3414
-10.0868 -1.9608 0.8151
-28.9034 -6.7560 2.3484
-28.5890 -7.8274 2.3389
-28.3247 -8.9128 2.3369
-27.6258 -9.8493 2.3021
-26.9256 -10.7573 2.2700
-9.9665 -4.4234 0.8515
-23.3872 -11.4529 2.3191
-23.2523 -12.4921 2.3455
-21.3933 -12.5522 2.1995
-22.4225 -14.3159 2.3541
-9.8578 -6.8289 1.0590
-19.8111 -14.8566 2.1824
-15.2481 -12.3572 1.7265
-19.0401 -16.6546 2.2210
-9.7499 -9.1980 1.1747
-9.8186 -9.9867 1.2253
-12.9777 -14.2329 1.6822
-9.6456 -11.4124 1.3030
-16.8878 -21.5773 2.3856
-16.0883 -22.2298 2.3856
