ply
format ascii 1.0
element vertex 2123
property float32 x
property float32 y
property float32 z
end_header
-4.5364 -20.9887 2.4058
-3.7444 -21.1470 2.4058
-2.9467 -21.2747 2.4058
-2.1447 -21.3719 2.4058
-1.3395 -21.4383 2.4058
-0.5324 -21.4738 2.4058
0.2756 -21.4783 2.4058
1.0830 -21.4519 2.4058
1.8889 -21.3945 2.4058
2.6919 -21.3064 2.4058
3.4908 -21.1876 2.4058
4.2845 -21.0383 2.4058
5.0718 -20.8588 2.4058
5.8515 -20.6493 2.4058
6.6225 -20.4102 2.4058
7.3835 -20.1418 2.4058
8.1336 -19.8445 2.4058
2.4286 -5.3433 0.6586
5.7196 -11.4229 1.4339
10.3068 -18.7846 2.4058
3.1457 -5.2543 0.6879
11.6808 -17.9434 2.4058
12.3424 -17.4843 2.4058
12.9857 -17.0006 2.4058
13.6097 -16.4928 2.4058
14.2138 -15.9619 2.4058
14.7969 -15.4085 2.4058
15.3582 -14.8337 2.4058
15.2157 -13.6281 2.3027
15.7090 -13.0391 2.3027
16.1791 -12.4321 2.3026
16.6256 -11.8079 2.3026
17.0479 -11.1677 2.3026
17.4453 -10.5122 2.3026
17.8172 -9.8425 2.3025
18.3075 -9.2324 2.3208
18.6301 -8.5319 2.3208
18.9257 -7.8201 2.3208
19.1940 -7.0982 2.3208
19.4346 -6.3670 2.3208
19.6473 -5.6278 2.3208
19.4202 -4.7803 2.2726
7.5031 -1.5501 0.8712
7.4930 -1.2562 0.8645
7.4831 -0.9668 0.8591
7.4733 -0.6809 0.8550
7.4636 -0.3977 0.8522
7.5299 -0.1176 0.8592
7.5202 0.1655 0.8588
7.5105 0.4484 0.8596
7.5008 0.7318 0.8616
7.4207 1.0071 0.8568
7.4057 1.2904 0.8606
7.3959 1.5774 0.8663
7.3859 1.8683 0.8734
7.3784 2.1648 0.8821
7.3655 2.4655 0.8916
7.3549 2.7738 0.9029
7.3441 3.0901 0.9157
7.3329 3.4155 0.9303
7.3214 3.7515 0.9466
7.3095 4.0997 0.9649
7.2971 4.4616 0.9853
7.2841 4.8393 1.0080
7.2911 5.2497 1.0362
7.2773 5.6674 1.0644
7.2546 6.1018 1.0944
7.2253 6.5567 1.1270
7.2082 7.0536 1.1655
7.1900 7.5859 1.2084
8.4253 9.5873 1.4763
8.4125 10.3321 1.5418
8.4090 11.1604 1.6177
8.3500 11.9958 1.6927
7.6819 11.9729 1.6481
7.0450 11.9465 1.6073
6.4418 11.9276 1.5715
5.8645 11.9097 1.5394
5.5878 12.5152 1.5898
5.5442 13.7889 1.7243
5.4924 15.2995 1.8864
5.4298 17.1257 2.0853
5.3524 19.3850 2.3346
4.5550 19.3005 2.3025
3.8252 19.4558 2.3025
3.0902 19.5839 2.3025
2.3510 19.6849 2.3025
1.6086 19.7584 2.3025
0.9028 20.6925 2.4058
0.1236 20.7118 2.4058
-0.6557 20.7023 2.4058
-1.4342 20.6641 2.4058
-2.2109 20.5971 2.4058
-2.9845 20.5014 2.4058
-3.7542 20.3771 2.4058
-4.5189 20.2245 2.4058
-5.2776 20.0437 2.4058
-6.0292 19.8349 2.4058
-6.7727 19.5984 2.4058
-7.1854 18.5061 2.3027
-7.6537 17.7070 2.2369
-8.5614 17.9235 2.3027
-9.2326 17.5943 2.3027
-9.8914 17.2404 2.3027
-10.5368 16.8621 2.3027
-10.8334 15.9669 2.2337
-10.7868 14.6777 2.1078
-10.7457 13.5243 1.9980
-10.7085 12.4829 1.9015
-10.6774 11.5383 1.8167
-10.6474 10.6709 1.7412
-10.6184 9.8696 1.6737
-6.3883 5.5047 0.9731
-6.6738 5.3267 0.9848
-6.9669 5.1438 0.9982
-17.0847 11.6470 2.3820
-17.5352 11.0114 2.3840
-10.6024 6.1142 1.4083
-10.4696 5.5236 1.3613
-10.5342 5.0606 1.3431
-10.5495 4.5878 1.3213
-19.3593 7.5664 2.3858
-19.6429 6.8372 2.3858
-19.8991 6.0974 2.3858
-10.3715 2.7558 1.2294
-20.3282 4.5902 2.3858
-20.5002 3.8249 2.3858
-20.6436 3.0531 2.3858
-20.7580 2.2760 2.3858
-10.2990 0.7385 1.1789
-10.2874 0.3495 1.1744
-20.9251 -0.0767 2.3858
-15.7602 -0.6511 1.7972
-20.8887 -1.6518 2.3858
-20.8001 -2.4349 2.3828
-10.3623 -1.6102 1.1924
-10.2068 -1.9818 1.1814
-20.0808 -4.6891 2.3415
-19.9854 -5.4671 2.3512
-19.8618 -6.2452 2.3611
-19.7860 -7.0495 2.3804
-10.1394 -4.0484 1.2365
-10.1590 -4.5064 1.2579
-10.2034 -4.9938 1.4126
-16.9124 -9.0810 2.3858
-16.5679 -9.7159 2.3858
-10.0665 -6.4240 1.4826
-15.8072 -10.9452 2.3858
-15.3921 -11.5378 2.3858
-14.9546 -12.1144 2.3858
-10.0072 -8.7500 1.6471
-9.9477 -9.3811 1.6934
-9.9240 -10.0903 1.7520
-9.8985 -10.8522 1.8176
-9.8678 -11.6714 1.8905
-9.8358 -12.5630 1.9728
-9.8009 -13.5379 2.0657
-10.5898 -15.8501 2.3552
-10.3292 -16.7949 2.4353
-9.1653 -16.2410 2.3027
-8.5505 -16.5790 2.3027
-7.9230 -16.8933 2.3027
-7.2839 -17.1835 2.3027
-6.5206 -17.1508 2.2633
-5.9743 -17.6898 2.3027
-5.5434 -18.7067 2.4058
-4.8367 -18.9048 2.4058
-4.1229 -19.0758 2.4058
-3.4030 -19.2194 2.4058
-2.6780 -19.3354 2.4058
-1.9492 -19.4236 2.4058
-1.2174 -19.4838 2.4058
-0.4838 -19.5160 2.4058
0.2504 -19.5202 2.4058
0.9843 -19.4963 2.4058
1.7166 -19.4443 2.4058
2.4464 -19.3643 2.4058
3.1726 -19.2566 2.4058
3.8940 -19.1212 2.4058
4.6096 -18.9583 2.4058
5.3183 -18.7682 2.4058
6.0191 -18.5512 2.4058
6.7110 -18.3077 2.4058
7.3930 -18.0379 2.4058
2.4286 -5.3434 0.7245
5.7195 -11.4230 1.5774
9.3690 -17.0760 2.4058
3.1454 -5.2541 0.7566
10.6188 -16.3124 2.4058
11.2206 -15.8956 2.4058
11.8058 -15.4564 2.4058
12.3737 -14.9954 2.4058
12.9235 -14.5133 2.4058
12.8776 -13.4104 2.3027
13.3666 -12.9106 2.3027
13.8360 -12.3928 2.3026
14.2852 -11.8577 2.3026
14.7135 -11.3063 2.3026
15.1203 -10.7393 2.3026
15.5051 -10.1575 2.3026
15.9933 -9.6377 2.3208
16.3354 -9.0243 2.3208
16.6538 -8.3989 2.3208
16.9482 -7.7621 2.3208
17.2181 -7.1150 2.3208
17.4632 -6.4585 2.3208
17.6832 -5.7937 2.3208
17.8778 -5.1214 2.3208
18.0467 -4.4426 2.3208
7.5031 -1.5503 0.9573
7.4930 -1.2564 0.9499
7.4831 -0.9670 0.9439
7.4733 -0.6811 0.9394
7.4636 -0.3979 0.9362
7.5299 -0.1177 0.9439
7.5202 0.1654 0.9434
7.5105 0.4482 0.9442
7.5008 0.7317 0.9464
7.4208 1.0069 0.9410
7.4057 1.2902 0.9451
7.3959 1.5773 0.9513
7.3859 1.8682 0.9590
7.3784 2.1646 0.9685
7.3655 2.4653 0.9789
7.3549 2.7736 0.9912
7.3441 3.0899 1.0053
7.3329 3.4153 1.0212
7.3214 3.7513 1.0391
7.3095 4.0995 1.0591
7.2971 4.4615 1.0815
7.2841 4.8391 1.1064
7.2931 5.2510 1.1375
7.2794 5.6688 1.1684
7.2546 6.1016 1.2010
7.2253 6.5565 1.2367
7.2082 7.0534 1.2789
7.1900 7.5857 1.3260
8.4253 9.5870 1.6199
8.4010 10.3178 1.6893
8.4092 11.1604 1.7748
8.3502 11.9958 1.8570
7.6822 11.9729 1.8080
7.0454 11.9468 1.7633
6.4419 11.9276 1.7240
5.8646 11.9098 1.6887
5.5878 12.5149 1.7439
5.5442 13.7886 1.8914
5.4924 15.2992 2.0692
5.4298 17.1254 2.2873
4.8127 17.4299 2.3025
4.1529 17.5962 2.3025
3.4875 17.7379 2.3025
2.8174 17.8550 2.3025
2.1435 17.9471 2.3025
1.4666 18.0142 2.3025
0.8231 18.8659 2.4058
0.1127 18.8835 2.4058
-0.5979 18.8749 2.4058
-1.3077 18.8399 2.4058
-2.0157 18.7787 2.4058
-2.7211 18.6912 2.4058
-3.4228 18.5777 2.4058
-4.1200 18.4384 2.4058
-4.8115 18.2732 2.4058
-5.4966 18.0826 2.4058
-6.1744 17.8666 2.4058
-6.8120 17.5440 2.3946
-7.1824 16.6161 2.3027
-7.8045 16.3386 2.3027
-8.4162 16.0380 2.3027
-9.0164 15.7149 2.3027
-9.6044 15.3696 2.3027
-10.1795 15.0026 2.3027
-10.7868 14.6771 2.3126
-10.7456 13.5238 2.1922
-10.7084 12.4824 2.0864
-10.6775 11.5380 1.9935
-10.6475 10.6706 1.9107
-10.6186 9.8694 1.8367
-6.3885 5.5047 1.0679
-6.6739 5.3265 1.0808
-6.9670 5.1437 1.0956
-10.6654 7.2705 1.6321
-15.9876 10.0391 2.3858
-10.6024 6.1139 1.5459
-10.4696 5.5233 1.4943
-10.5351 5.0607 1.4746
-10.5475 4.5866 1.4503
-17.6325 6.8911 2.3858
-17.8897 6.2266 2.3858
-10.5045 3.2185 1.3829
-10.3715 2.7555 1.3500
-18.5107 4.1794 2.3858
-18.6662 3.4823 2.3858
-18.7956 2.7794 2.3858
-18.8986 2.0717 2.3858
-10.2989 0.7383 1.2949
-10.2873 0.3492 1.2901
-19.0473 -0.0702 2.3858
-15.7564 -0.6513 1.9740
-19.0118 -1.5038 2.3858
-18.9536 -2.2192 2.3858
-10.3588 -1.6099 1.3098
-10.2067 -1.9820 1.2983
-18.6125 -4.3467 2.3852
-18.4194 -5.0392 2.3816
-18.2598 -5.7419 2.3858
-10.2714 -3.6597 1.3583
-10.1390 -4.0485 1.3591
-10.1593 -4.5068 1.3828
-10.2034 -4.9940 1.5407
-15.5063 -8.3264 2.3858
-15.1898 -8.9081 2.3858
-10.0664 -6.4242 1.6171
-10.0575 -6.9644 1.6559
-10.0126 -7.5057 1.6930
-9.9923 -8.0948 1.7390
-9.9707 -8.7184 1.7903
-9.9477 -9.3815 1.8475
-9.9240 -10.0907 1.9115
-9.8985 -10.8526 1.9831
-9.8677 -11.6717 2.0627
-9.8358 -12.5632 2.1526
-9.8008 -13.5382 2.2541
-9.4881 -14.2015 2.3027
-8.9500 -14.5527 2.3027
-8.3988 -14.8832 2.3027
-7.8352 -15.1925 2.3027
-7.2601 -15.4802 2.3027
-6.6743 -15.7458 2.3027
-6.0787 -15.9889 2.3027
-5.6238 -16.6524 2.3657
-5.0792 -17.1407 2.4058
-4.4317 -17.3220 2.4058
-3.7776 -17.4785 2.4058
-3.1180 -17.6099 2.4058
-2.4537 -17.7160 2.4058
-1.7859 -17.7968 2.4058
-1.1154 -17.8519 2.4058
-0.4433 -17.8814 2.4058
0.2294 -17.8852 2.4058
0.9018 -17.8634 2.4058
1.5728 -17.8158 2.4058
2.2415 -17.7427 2.4058
2.9068 -17.6441 2.4058
3.5679 -17.5202 2.4058
4.2236 -17.3712 2.4058
4.8730 -17.1973 2.4058
5.5153 -16.9987 2.4058
6.1494 -16.7759 2.4058
6.7744 -16.5291 2.4058
2.4285 -5.3434 0.7907
5.7195 -11.4234 1.7214
8.5857 -15.6487 2.4058
3.1452 -5.2538 0.8256
9.7315 -14.9498 2.4058
10.2833 -14.5683 2.4058
10.3564 -13.5592 2.3027
10.8548 -13.1551 2.3027
11.3374 -12.7325 2.3027
11.8033 -12.2921 2.3026
12.2520 -11.8344 2.3026
12.6828 -11.3602 2.3026
13.0950 -10.8702 2.3026
13.4882 -10.3652 2.3026
13.8618 -9.8458 2.3025
14.3280 -9.3867 2.3208
14.6636 -8.8368 2.3208
14.9779 -8.2749 2.3208
15.2706 -7.7017 2.3208
15.5413 -7.1181 2.3208
15.7895 -6.5251 2.3208
16.0151 -5.9234 2.3208
16.2176 -5.3139 2.3208
16.3969 -4.6976 2.3208
16.5527 -4.0752 2.3208
7.5031 -1.5505 1.0437
7.4930 -1.2566 1.0355
7.4831 -0.9671 1.0290
7.4733 -0.6812 1.0240
7.4636 -0.3981 1.0205
7.5299 -0.1179 1.0288
7.5202 0.1652 1.0282
7.5105 0.4481 1.0290
7.5008 0.7315 1.0313
7.4208 1.0067 1.0254
7.4058 1.2901 1.0299
7.3959 1.5771 1.0366
7.3859 1.8680 1.0449
7.3784 2.1644 1.0552
7.3655 2.4652 1.0664
7.3549 2.7734 1.0798
7.3441 3.0897 1.0951
7.3329 3.4151 1.1124
7.3214 3.7512 1.1319
7.3095 4.0993 1.1536
7.2971 4.4613 1.1779
7.2841 4.8389 1.2049
7.2952 5.2523 1.2392
7.2815 5.6703 1.2728
7.2547 6.1014 1.3079
7.2253 6.5563 1.3467
7.2082 7.0532 1.3926
7.1900 7.5855 1.4438
8.4253 9.5868 1.7637
8.4125 10.3315 1.8418
8.4094 11.1604 1.9324
8.3504 11.9958 2.0219
7.6824 11.9729 1.9685
7.0458 11.9472 1.9198
6.4421 11.9276 1.8769
5.8648 11.9098 1.8385
5.5879 12.5146 1.8984
5.5442 13.7883 2.0590
5.4924 15.2989 2.2525
5.0213 15.8364 2.3025
4.4212 16.0118 2.3025
3.8151 16.1647 2.3025
3.2039 16.2951 2.3025
2.5883 16.4027 2.3025
1.9692 16.4875 2.3025
1.3474 16.5492 2.3025
0.7562 17.3317 2.4058
0.1035 17.3478 2.4058
-0.5493 17.3399 2.4058
-1.2013 17.3076 2.4058
-1.8518 17.2513 2.4058
-2.4998 17.1709 2.4058
-3.1444 17.0665 2.4058
-3.7849 16.9382 2.4058
-4.4201 16.7863 2.4058
-5.0494 16.6109 2.4058
-5.6719 16.4123 2.4058
-6.2867 16.1906 2.4058
-6.7456 15.6052 2.3543
-7.1690 15.0077 2.3027
-7.7306 14.7312 2.3027
-8.2818 14.4341 2.3027
-8.8217 14.1166 2.3027
-9.3496 13.7791 2.3027
-9.8647 13.4221 2.3027
-10.3664 13.0461 2.3027
-10.7084 12.4819 2.2718
-10.6776 11.5377 2.1707
-10.6476 10.6703 2.0807
-10.6187 9.8692 2.0001
-6.3886 5.5046 1.1630
-6.6741 5.3265 1.1771
-6.9672 5.1436 1.1932
-10.5256 7.1749 1.7543
-10.5060 6.5967 1.7076
-10.4991 6.0540 1.6675
-10.4696 5.5230 1.6278
-10.5360 5.0608 1.6065
-10.5455 4.5855 1.5797
-16.1848 6.3249 2.3858
-16.4202 5.7147 2.3858
-16.6326 5.0957 2.3858
-10.3714 2.7553 1.4709
-16.9876 3.8351 2.3858
-17.1295 3.1952 2.3858
-17.2474 2.5500 2.3858
-17.3410 1.9005 2.3858
-10.2988 0.7380 1.4113
-10.2873 0.3490 1.4061
-17.4748 -0.0648 2.3858
-15.7526 -0.6515 2.1513
-17.4405 -1.3799 2.3858
-17.3862 -2.0361 2.3858
-10.3553 -1.6096 1.4275
-10.2066 -1.9822 1.4155
-17.0752 -3.9881 2.3858
-16.9225 -4.6300 2.3858
-16.7456 -5.2661 2.3858
-16.5447 -5.8954 2.3858
-10.1386 -4.0485 1.4821
-10.1595 -4.5071 1.5081
-10.1256 -4.9562 1.6564
-10.0846 -5.4154 1.6810
-10.0671 -5.9042 1.7131
-10.0489 -6.4133 1.7491
-10.0321 -6.9470 1.7896
-10.0127 -7.5061 1.8345
-9.9924 -8.0952 1.8844
-9.9708 -8.7188 1.9401
-9.9478 -9.3818 2.0021
-9.9241 -10.0911 2.0715
-9.8986 -10.8530 2.1492
-9.8677 -11.6719 2.2355
-9.7083 -12.4008 2.3027
-9.2189 -12.7347 2.2979
-8.7542 -13.1034 2.3027
-8.2575 -13.4271 2.3027
-7.7488 -13.7317 2.3027
-7.2287 -14.0168 2.3027
-6.6980 -14.2820 2.3027
-6.1575 -14.5267 2.3027
-5.6852 -14.9540 2.3344
-5.2762 -15.6232 2.4058
-4.6857 -15.8130 2.4058
-4.0883 -15.9800 2.4058
-3.4848 -16.1243 2.4058
-2.8763 -16.2454 2.4058
-2.2635 -16.3432 2.4058
-1.6474 -16.4176 2.4058
-1.0289 -16.4684 2.4058
-0.4089 -16.4956 2.4058
0.2116 -16.4991 2.4058
0.8319 -16.4790 2.4058
1.4509 -16.4352 2.4058
2.0678 -16.3679 2.4058
2.6815 -16.2771 2.4058
3.2914 -16.1629 2.4058
3.8963 -16.0256 2.4058
4.4955 -15.8654 2.4058
5.0881 -15.6824 2.4058
5.6731 -15.4771 2.4058
6.2498 -15.2496 2.4058
2.4285 -5.3435 0.8570
5.7253 -11.4352 1.8677
7.5820 -13.8196 2.3027
3.1449 -5.2535 0.8947
6.3147 -9.7011 1.6919
9.0816 -12.8663 2.3027
9.5559 -12.5114 2.3026
10.0161 -12.1390 2.3026
10.4616 -11.7494 2.3026
10.8919 -11.3433 2.3026
11.3063 -10.9213 2.3026
11.7042 -10.4841 2.3026
12.0851 -10.0323 2.3025
12.5472 -9.6423 2.3208
12.8952 -9.1596 2.3208
13.2246 -8.6642 2.3208
13.5349 -8.1570 2.3208
13.8256 -7.6386 2.3208
14.0963 -7.1098 2.3208
14.3467 -6.5714 2.3208
14.5765 -6.0241 2.3208
14.7853 -5.4689 2.3208
14.9729 -4.9064 2.3208
15.1390 -4.3376 2.3208
15.2835 -3.7631 2.3208
7.5031 -1.5506 1.1303
7.4930 -1.2567 1.1214
7.4831 -0.9673 1.1143
7.4733 -0.6814 1.1088
7.4636 -0.3982 1.1050
7.5299 -0.1181 1.1139
7.5202 0.1650 1.1132
7.5105 0.4479 1.1141
7.5008 0.7313 1.1165
7.4208 1.0066 1.1100
7.4058 1.2899 1.1149
7.3959 1.5769 1.1221
7.3860 1.8678 1.1310
7.3784 2.1643 1.1421
7.3655 2.4650 1.1543
7.3549 2.7733 1.1687
7.3441 3.0895 1.1852
7.3329 3.4149 1.2039
7.3214 3.7510 1.2249
7.3095 4.0991 1.2484
7.2971 4.4611 1.2746
7.2841 4.8388 1.3038
7.2973 5.2536 1.3412
7.2836 5.6717 1.3775
7.2541 6.1007 1.4150
7.2253 6.5561 1.4570
7.2082 7.0530 1.5066
7.1900 7.5852 1.5620
8.4253 9.5865 1.9081
8.4125 10.3312 1.9925
8.4097 11.1604 2.0905
4.8065 6.9047 1.2589
4.5532 7.0960 1.2620
7.0462 11.9476 2.0768
6.4424 11.9279 2.0303
5.8649 11.9098 1.9886
5.5879 12.5144 2.0534
5.5442 13.7880 2.2270
5.1909 14.4586 2.3025
4.6424 14.6414 2.3025
4.0877 14.8037 2.3025
3.5274 14.9452 2.3025
2.9623 15.0659 2.3025
2.3931 15.1655 2.3025
1.8207 15.2439 2.3025
1.2948 15.9036 2.3932
0.6992 16.0245 2.4058
0.0957 16.0395 2.4058
-0.5079 16.0320 2.4058
-1.1108 16.0022 2.4058
-1.7122 15.9500 2.4058
-2.3113 15.8756 2.4058
-2.9073 15.7789 2.4058
-3.4994 15.6602 2.4058
-4.0867 15.5196 2.4058
-4.6684 15.3572 2.4058
-5.2439 15.1733 2.4058
-5.8122 14.9682 2.4058
-6.3726 14.7420 2.4058
-6.6972 14.0197 2.3269
-7.1467 13.6182 2.3027
-7.6561 13.3432 2.3027
-8.1550 13.0494 2.3027
-8.6428 12.7371 2.3027
-9.1188 12.4068 2.3027
-9.5823 12.0590 2.3027
-10.0327 11.6940 2.3027
-10.4693 11.3123 2.3027
-10.6477 10.6701 2.2511
-10.6189 9.8691 2.1641
-6.3887 5.5045 1.2584
-6.6742 5.3264 1.2737
-6.9673 5.1435 1.2912
-10.5256 7.1746 1.8984
-10.5060 6.5964 1.8479
-10.4874 6.0470 1.8025
-10.4696 5.5227 1.7616
-10.4513 5.0199 1.7247
-10.4353 4.5373 1.6918
-10.4376 4.0786 1.6653
-10.4460 3.6352 1.6428
-10.5323 3.2265 1.6353
-10.3713 2.7550 1.5923
-15.6925 3.5423 2.3858
-15.8229 2.9511 2.3858
-15.9311 2.3550 2.3858
-16.0169 1.7550 2.3858
-10.2988 0.7378 1.5280
-10.2873 0.3488 1.5225
-16.1384 -0.0603 2.3858
-15.7487 -0.6517 2.3289
-16.1053 -1.2747 2.3858
-16.0545 -1.8805 2.3858
-10.3518 -1.6093 1.5454
-10.2065 -1.9824 1.5330
-15.7653 -3.6825 2.3858
-15.6237 -4.2751 2.3858
-15.4597 -4.8621 2.3858
-15.2736 -5.4429 2.3858
-10.1382 -4.0486 1.6055
-10.1582 -4.5068 1.6336
-10.1015 -4.9446 1.7800
-10.0847 -5.4157 1.8108
-10.0672 -5.9045 1.8455
-10.0490 -6.4137 1.8843
-10.0322 -6.9474 1.9280
-10.0129 -7.5064 1.9764
-9.9925 -8.0956 2.0303
-9.9709 -8.7192 2.0903
-9.9478 -9.3822 2.1572
-9.9241 -10.0915 2.2320
-9.8428 -10.7921 2.3027
-9.4331 -11.1582 2.3027
-9.0095 -11.5086 2.3027
-8.5729 -11.8427 2.3027
-8.1237 -12.1601 2.3027
-7.6627 -12.4602 2.3027
-7.1905 -12.7426 2.3027
-6.7077 -13.0070 2.3027
-6.2152 -13.2528 2.3027
-5.7402 -13.5427 2.3135
-5.4365 -14.3002 2.4058
-4.8957 -14.4968 2.4058
-4.3477 -14.6727 2.4058
-3.7933 -14.8276 2.4058
-3.2334 -14.9613 2.4058
-2.6688 -15.0736 2.4058
-2.1002 -15.1643 2.4058
-1.5286 -15.2332 2.4058
-0.9547 -15.2804 2.4058
-0.3794 -15.3056 2.4058
0.1964 -15.3089 2.4058
0.7719 -15.2902 2.4058
1.3462 -15.2497 2.4058
1.9186 -15.1873 2.4058
2.4881 -15.1031 2.4058
3.0539 -14.9973 2.4058
3.6153 -14.8701 2.4058
4.1713 -14.7215 2.4058
4.7212 -14.5520 2.4058
5.2641 -14.3616 2.4058
5.7993 -14.1507 2.4058
2.4285 -5.3436 0.9235
5.7472 -11.4793 2.0204
7.0357 -12.8243 2.3027
3.1447 -5.2533 0.9641
6.2549 -9.6095 1.8059
8.4278 -11.9404 2.3026
8.8681 -11.6113 2.3026
9.2954 -11.2659 2.3026
9.7092 -10.9047 2.3026
10.1088 -10.5281 2.3026
10.4937 -10.1367 2.3025
10.9495 -9.8083 2.3208
11.3062 -9.3860 2.3208
11.6465 -8.9506 2.3208
11.9700 -8.5028 2.3208
12.2762 -8.0432 2.3208
12.5646 -7.5726 2.3208
12.8348 -7.0915 2.3208
13.0866 -6.6009 2.3208
13.3196 -6.1012 2.3208
13.5333 -5.5934 2.3208
13.7277 -5.0780 2.3208
6.6312 -2.1731 1.1070
6.6722 -1.9118 1.1016
14.1918 -3.4947 2.3208
7.5031 -1.5508 1.2172
7.4930 -1.2569 1.2076
7.4831 -0.9675 1.1999
7.4733 -0.6816 1.1939
7.4636 -0.3984 1.1897
7.5299 -0.1183 1.1993
7.5202 0.1649 1.1985
7.5105 0.4477 1.1994
7.5008 0.7311 1.2020
7.4208 1.0064 1.1950
7.4058 1.2897 1.2001
7.3959 1.5767 1.2079
7.3860 1.8676 1.2175
7.3784 2.1641 1.2293
7.3655 2.4648 1.2424
7.3606 2.7752 1.2589
7.3490 3.0914 1.2764
7.3369 3.4166 1.2963
7.3214 3.7508 1.3182
7.3095 4.0989 1.3435
7.2971 4.4609 1.3717
7.2841 4.8386 1.4030
7.2965 5.2528 1.4431
7.2811 5.6696 1.4818
7.2512 6.0981 1.5219
7.2253 6.5559 1.5677
7.2083 7.0527 1.6211
7.1900 7.5850 1.6806
8.4253 9.5862 2.0529
8.4125 10.3310 2.1437
8.4099 11.1604 2.2491
4.6181 6.6338 1.3013
4.4322 6.9072 1.3216
7.0466 11.9480 2.2343
6.4428 11.9282 2.1842
5.8651 11.9098 2.1393
5.5879 12.5141 2.2089
5.3287 13.2518 2.3025
4.8256 13.4408 2.3025
4.3158 13.6108 2.3025
3.8001 13.7618 2.3025
3.2792 13.8936 2.3025
2.7539 14.0058 2.3025
2.2248 14.0985 2.3025
1.6926 14.1714 2.3025
1.2101 14.8625 2.4058
0.6500 14.8972 2.4058
0.0890 14.9111 2.4058
-0.4722 14.9042 2.4058
-1.0327 14.8764 2.4058
-1.5918 14.8278 2.4058
-2.1487 14.7585 2.4058
-2.7028 14.6686 2.4058
-3.2532 14.5581 2.4058
-3.7991 14.4272 2.4058
-4.3399 14.2762 2.4058
-4.8748 14.1050 2.4058
-5.4030 13.9141 2.4058
-5.9239 13.7037 2.4058
-6.4367 13.4740 2.4058
-6.6560 12.6827 2.3071
-7.1167 12.4028 2.3027
-7.5803 12.1294 2.3027
-8.0336 11.8389 2.3027
-8.4758 11.5317 2.3027
-8.9064 11.2080 2.3027
-9.3248 10.8685 2.3027
-9.7304 10.5135 2.3027
-10.1226 10.1435 2.3027
-10.5009 9.7591 2.3027
-6.3889 5.5044 1.3541
-6.6743 5.3263 1.3706
-6.9675 5.1434 1.3895
-10.5256 7.1743 2.0429
-10.5060 6.5961 1.9886
-10.4874 6.0467 1.9398
-10.4696 5.5224 1.8959
-10.4511 5.0195 1.8562
-10.4351 4.5369 1.8209
-10.4196 4.0713 1.7893
-10.4046 3.6205 1.7613
-10.3901 3.1827 1.7365
-10.3712 2.7547 1.7140
-10.3562 2.3375 1.6949
-10.3431 1.9288 1.6789
-10.3401 1.5283 1.6671
-10.3351 1.1322 1.6574
-10.2987 0.7375 1.6451
-10.2872 0.3485 1.6392
-10.3142 -0.0387 1.6418
-10.3025 -0.4266 1.6405
-10.2888 -0.8146 1.6412
-10.2731 -1.2035 1.6440
-10.2552 -1.5945 1.6487
-10.2064 -1.9826 1.6509
-10.2107 -2.3852 1.6641
-10.1866 -2.7875 1.6753
-10.1653 -3.1972 1.6896
-10.1510 -3.6176 1.7078
-10.1365 -4.0482 1.7290
-10.1178 -4.4891 1.7526
-10.1016 -4.9449 1.9080
-10.0847 -5.4160 1.9411
-10.0673 -5.9049 1.9783
-10.0491 -6.4140 2.0200
-10.0323 -6.9477 2.0669
-10.0130 -7.5068 2.1188
-9.9926 -8.0960 2.1767
-9.9710 -8.7196 2.2411
-9.9044 -9.3414 2.3027
-9.5492 -9.7105 2.3027
-9.1801 -10.0658 2.3027
-8.7978 -10.4071 2.3027
-8.4026 -10.7336 2.3027
-7.9952 -11.0450 2.3027
-7.5762 -11.3408 2.3027
-7.1461 -11.6205 2.3027
-6.7056 -11.8837 2.3027
-6.2553 -12.1300 2.3027
-5.7959 -12.3591 2.3027
-5.5666 -13.1334 2.4058
-5.0696 -13.3356 2.4058
-4.5653 -13.5188 2.4058
-4.0542 -13.6827 2.4058
-3.5373 -13.8270 2.4058
-3.0151 -13.9516 2.4058
-2.4886 -14.0562 2.4058
-1.9584 -14.1407 2.4058
-1.4254 -14.2050 2.4058
-0.8902 -14.2489 2.4058
-0.3538 -14.2724 2.4058
0.1831 -14.2755 2.4058
0.7197 -14.2581 2.4058
1.2553 -14.2203 2.4058
1.7890 -14.1622 2.4058
2.3201 -14.0838 2.4058
2.8478 -13.9852 2.4058
3.3712 -13.8667 2.4058
3.8898 -13.7283 2.4058
4.4026 -13.5703 2.4058
4.9089 -13.3930 2.4058
5.1762 -12.6307 2.3026
2.4284 -5.3437 0.9903
5.7743 -11.5338 2.1767
6.5613 -11.9599 2.3026
3.1444 -5.2530 1.0337
6.2827 -9.6525 1.9450
7.8600 -11.1362 2.3026
8.2707 -10.8295 2.3026
8.6695 -10.5076 2.3026
9.0556 -10.1709 2.3025
9.5033 -9.8977 2.3208
9.8654 -9.5301 2.3208
10.2132 -9.1491 2.3208
10.5462 -8.7554 2.3208
10.8640 -8.3495 2.3208
11.1660 -7.9320 2.3208
11.4519 -7.5035 2.3208
11.7213 -7.0647 2.3208
11.9738 -6.6161 2.3208
12.2090 -6.1585 2.3208
12.4267 -5.6926 2.3208
12.6266 -5.2189 2.3208
12.8083 -4.7382 2.3208
6.5064 -2.1324 1.1641
6.6426 -1.9035 1.1753
13.2425 -3.2612 2.3208
7.5031 -1.5510 1.3044
7.4931 -1.2571 1.2941
7.4831 -0.9677 1.2858
7.4733 -0.6818 1.2794
7.4636 -0.3986 1.2748
7.4620 -0.1174 1.2735
7.4524 0.1632 1.2726
7.4426 0.4435 1.2734
7.4327 0.7243 1.2761
7.4208 1.0062 1.2802
7.4058 1.2895 1.2857
7.3959 1.5766 1.2940
7.3860 1.8675 1.3042
7.3784 2.1639 1.3169
7.3678 2.4654 1.3312
7.3565 2.7735 1.3477
7.3448 3.0895 1.3664
7.3329 3.4146 1.3877
7.3214 3.7506 1.4119
7.3095 4.0987 1.4389
7.2971 4.4607 1.4690
7.2841 4.8384 1.5026
7.2935 5.2505 1.5448
7.2781 5.6670 1.5862
7.2484 6.0954 1.6291
7.2253 6.5556 1.6788
7.2083 7.0525 1.7359
7.1900 7.5848 1.7996
8.4253 9.5859 2.1981
8.4125 10.3307 2.2954
8.1918 10.8706 2.3458
4.6364 6.6599 1.3989
4.4744 6.9728 1.4285
6.9098 11.7156 2.3458
6.4431 11.9286 2.3387
5.8652 11.9098 2.2905
5.4403 12.1833 2.3025
4.9772 12.3772 2.3025
4.5072 12.5539 2.3025
4.0311 12.7128 2.3025
3.5495 12.8540 2.3025
3.0630 12.9771 2.3025
2.5723 13.0820 2.3025
2.0781 13.1687 2.3025
1.5923 13.3315 2.3190
1.1303 13.8823 2.4058
0.6071 13.9148 2.4058
0.0831 13.9278 2.4058
-0.4410 13.9213 2.4058
-0.9646 13.8953 2.4058
-1.4868 13.8499 2.4058
-2.0071 13.7851 2.4058
-2.5246 13.7010 2.4058
-3.0387 13.5977 2.4058
-3.5486 13.4754 2.4058
-4.0536 13.3341 2.4058
-4.5532 13.1742 2.4058
-5.0465 12.9957 2.4058
-5.5330 12.7990 2.4058
-6.0119 12.5843 2.4058
-6.4825 12.3518 2.4058
-6.6467 11.5834 2.3027
-7.0796 11.3279 2.3027
-7.5028 11.0564 2.3027
-7.9156 10.7692 2.3027
-8.3176 10.4668 2.3027
-8.7082 10.1495 2.3027
-9.0868 9.8178 2.3027
-9.4528 9.4721 2.3027
-9.8058 9.1128 2.3027
-6.3890 5.5043 1.4501
-6.6745 5.3262 1.4678
-6.9676 5.1433 1.4881
-10.5256 7.1740 2.1879
-10.5060 6.5958 2.1299
-10.4874 6.0464 2.0776
-10.4696 5.5222 2.0307
-10.4509 5.0192 1.9881
-10.4349 4.5366 1.9504
-10.4194 4.0710 1.9167
-10.4044 3.6202 1.8867
-10.3899 3.1823 1.8602
-10.3712 2.7545 1.8361
-10.3562 2.3372 1.8158
-10.3415 1.9283 1.7984
-10.3270 1.5261 1.7838
-10.3127 1.1295 1.7719
-10.2986 0.7373 1.7627
-10.2872 0.3483 1.7564
-10.2737 -0.0388 1.7523
-10.2602 -0.4250 1.7506
-10.2467 -0.8115 1.7515
-10.2331 -1.1991 1.7548
-10.2195 -1.5892 1.7607
-10.2063 -1.9828 1.7692
-10.1928 -2.3813 1.7803
-10.1791 -2.7857 1.7942
-10.1652 -3.1974 1.8108
-10.1509 -3.6178 1.8305
-10.1364 -4.0484 1.8532
-10.1178 -4.4894 1.8786
-10.1016 -4.9452 2.0365
-10.0848 -5.4163 2.0719
-10.0673 -5.9052 2.1117
-10.0492 -6.4143 2.1562
-10.0324 -6.9481 2.2063
-10.0131 -7.5071 2.2618
-9.9028 -8.0235 2.3027
-9.5972 -8.3930 2.3027
-9.2778 -8.7507 2.3027
-8.9449 -9.0962 2.3027
-8.5990 -9.4289 2.3027
-8.2407 -9.7484 2.3027
-7.8704 -10.0541 2.3027
-7.4887 -10.3456 2.3027
-7.0961 -10.6224 2.3027
-6.6932 -10.8842 2.3027
-6.2805 -11.1306 2.3027
-5.8587 -11.3612 2.3027
-5.6714 -12.0938 2.4058
-5.2135 -12.3006 2.4058
-4.7480 -12.4899 2.4058
-4.2756 -12.6614 2.4058
-3.7970 -12.8147 2.4058
-3.3128 -12.9498 2.4058
-2.8238 -13.0664 2.4058
-2.3306 -13.1643 2.4058
-1.8341 -13.2434 2.4058
-1.3349 -13.3036 2.4058
-0.8337 -13.3447 2.4058
-0.3314 -13.3667 2.4058
0.1715 -13.3696 2.4058
0.6740 -13.3534 2.4058
1.1756 -13.3180 2.4058
1.6754 -13.2636 2.4058
2.1728 -13.1903 2.4058
2.6670 -13.0980 2.4058
3.1573 -12.9871 2.4058
3.6430 -12.8576 2.4058
4.1233 -12.7097 2.4058
4.4003 -12.0055 2.3026
4.8478 -11.8296 2.3026
2.4284 -5.3437 1.0574
5.7209 -11.4275 2.3026
6.1453 -11.2019 2.3026
3.1442 -5.2527 1.1035
6.3185 -9.7077 2.0884
7.3620 -10.4310 2.3026
7.7469 -10.1440 2.3025
8.1849 -9.9207 2.3208
8.5497 -9.6030 2.3208
8.9020 -9.2718 2.3208
9.2414 -8.9277 2.3208
9.5675 -8.5710 2.3208
9.8796 -8.2023 2.3208
10.1776 -7.8222 2.3208
10.4608 -7.4313 2.3208
10.7289 -7.0300 2.3208
10.9815 -6.6190 2.3208
11.2183 -6.1990 2.3208
11.4390 -5.7704 2.3208
11.6433 -5.3340 2.3208
11.8308 -4.8903 2.3208
12.0014 -4.4401 2.3208
6.5064 -2.1325 1.2423
6.6421 -1.9036 1.2542
12.4094 -3.0563 2.3208
7.5031 -1.5512 1.3919
7.4931 -1.2573 1.3809
7.4831 -0.9679 1.3720
7.4733 -0.6820 1.3651
7.4636 -0.3988 1.3602
7.4562 -0.1175 1.3577
7.4466 0.1629 1.3567
7.4369 0.4430 1.3576
7.4270 0.7236 1.3604
7.4169 1.0055 1.3651
7.4058 1.2894 1.3716
7.3959 1.5764 1.3804
7.3860 1.8673 1.3912
7.3758 2.1630 1.4043
7.3655 2.4644 1.4195
7.3549 2.7727 1.4372
7.3441 3.0890 1.4574
7.3330 3.4144 1.4802
7.3214 3.7504 1.5059
7.3095 4.0985 1.5346
7.2971 4.4605 1.5668
7.2842 4.8382 1.6025
7.2905 5.2481 1.6468
7.2750 5.6644 1.6909
7.2455 6.0928 1.7367
7.2253 6.5554 1.7903
7.2083 7.0523 1.8511
7.1900 7.5845 1.9190
8.4138 9.5726 2.3408
8.0625 9.9005 2.3458
7.6823 10.1942 2.3458
4.6398 6.6647 1.4927
4.4781 6.9784 1.5245
6.4803 10.9872 2.3458
6.0611 11.2210 2.3458
5.6335 11.4389 2.3458
5.1023 11.4262 2.3025
4.6680 11.6082 2.3025
4.2273 11.7740 2.3025
3.7808 11.9232 2.3025
3.3291 12.0556 2.3025
2.8728 12.1712 2.3025
2.4126 12.2697 2.3025
1.9491 12.3510 2.3025
1.4829 12.4149 2.3025
1.0601 13.0204 2.4058
0.5694 13.0508 2.4058
0.0779 13.0630 2.4058
-0.4137 13.0569 2.4058
-0.9047 13.0325 2.4058
-1.3946 12.9899 2.4058
-1.8825 12.9291 2.4058
-2.3678 12.8501 2.4058
-2.8500 12.7531 2.4058
-3.3282 12.6383 2.4058
-3.8019 12.5058 2.4058
-4.2704 12.3556 2.4058
-4.7331 12.1881 2.4058
-5.1892 12.0035 2.4058
-5.6383 11.8020 2.4058
-6.0796 11.5838 2.4058
-6.5126 11.3493 2.4058
-6.6394 10.6232 2.3027
-7.0362 10.3684 2.3027
-7.4232 10.0990 2.3027
-7.8001 9.8152 2.3027
-8.1662 9.5175 2.3027
-8.5210 9.2062 2.3027
-8.8641 8.8818 2.3027
-9.1949 8.5448 2.3027
-6.3891 5.5042 1.5465
-6.6746 5.3261 1.5654
-6.9678 5.1432 1.5871
-10.3867 7.0791 2.3027
-10.5060 6.5956 2.2716
-10.4874 6.0461 2.2160
-10.4696 5.5219 2.1659
-10.4507 5.0188 2.1206
-10.4347 4.5362 2.0804
-10.4192 4.0707 2.0445
-10.4043 3.6199 2.0125
-10.3897 3.1820 1.9843
-10.3711 2.7542 1.9587
-10.3561 2.3370 1.9371
-10.3414 1.9280 1.9186
-10.3269 1.5258 1.9031
-10.3127 1.1293 1.8904
-10.2986 0.7370 1.8806
-10.2871 0.3480 1.8740
-10.2736 -0.0391 1.8696
-10.2601 -0.4253 1.8680
-10.2466 -0.8117 1.8689
-10.2331 -1.1994 1.8725
-10.2195 -1.5894 1.8789
-10.2062 -1.9831 1.8880
-10.1927 -2.3815 1.8999
-10.1790 -2.7859 1.9147
-10.1651 -3.1976 1.9326
-10.1508 -3.6180 1.9536
-10.1362 -4.0486 1.9779
-10.1179 -4.4897 2.0051
-10.1017 -4.9455 2.1655
-10.0849 -5.4166 2.2032
-10.0674 -5.9055 2.2456
-10.0492 -6.4146 2.2929
-9.8459 -6.8192 2.3027
-9.5857 -7.1870 2.3027
-9.3117 -7.5448 2.3027
-9.0242 -7.8921 2.3027
-8.7236 -8.2283 2.3027
-8.4105 -8.5530 2.3027
-8.0851 -8.8657 2.3027
-7.7481 -9.1659 2.3027
-7.3998 -9.4532 2.3027
-7.0408 -9.7272 2.3027
-6.6716 -9.9873 2.3027
-6.2927 -10.2333 2.3027
-5.9047 -10.4648 2.3027
-5.7546 -11.1597 2.4058
-5.3319 -11.3702 2.4058
-4.9014 -11.5644 2.4058
-4.4637 -11.7423 2.4058
-4.0196 -11.9034 2.4058
-3.5696 -12.0475 2.4058
-3.1144 -12.1744 2.4058
-2.6546 -12.2840 2.4058
-2.1910 -12.3760 2.4058
-1.7242 -12.4503 2.4058
-1.2549 -12.5068 2.4058
-0.7838 -12.5454 2.4058
-0.3115 -12.5661 2.4058
0.1612 -12.5688 2.4058
0.6336 -12.5536 2.4058
1.1052 -12.5204 2.4058
1.5751 -12.4693 2.4058
2.0427 -12.4004 2.4058
2.5073 -12.3137 2.4058
2.9682 -12.2095 2.4058
3.4248 -12.0879 2.4058
3.7101 -11.4364 2.3026
4.1368 -11.2871 2.3026
4.5576 -11.1217 2.3026
2.4284 -5.3438 1.1247
5.3785 -10.7437 2.3025
5.7775 -10.5318 2.3025
3.1439 -5.2525 1.1736
6.2943 -9.6709 2.2128
6.9218 -9.8075 2.3025
7.3416 -9.6134 2.3208
7.6958 -9.3281 2.3208
8.0389 -9.0295 2.3208
8.3703 -8.7183 2.3208
8.6896 -8.3949 2.3208
8.9964 -8.0596 2.3208
9.2901 -7.7131 2.3208
9.5704 -7.3559 2.3208
9.8369 -6.9884 2.3208
10.0892 -6.6112 2.3208
10.3271 -6.2249 2.3208
10.5500 -5.8300 2.3208
10.7578 -5.4270 2.3208
10.9501 -5.0167 2.3208
11.1268 -4.5996 2.3208
11.2875 -4.1762 2.3208
6.5064 -2.1327 1.3208
6.6416 -1.9036 1.3333
11.6720 -2.8750 2.3208
7.5031 -1.5514 1.4798
7.4931 -1.2575 1.4681
7.4831 -0.9680 1.4585
7.4733 -0.6821 1.4512
7.4636 -0.3989 1.4460
7.4540 -0.1176 1.4428
7.4444 0.1627 1.4417
7.4348 0.4427 1.4427
7.4252 0.7232 1.4457
7.4155 1.0051 1.4507
7.4058 1.2892 1.4579
7.3959 1.5762 1.4671
7.3860 1.8671 1.4787
7.3758 2.1628 1.4925
7.3655 2.4643 1.5087
7.3549 2.7725 1.5274
7.3441 3.0888 1.5488
7.3330 3.4142 1.5730
7.3214 3.7502 1.6003
7.3095 4.0984 1.6308
7.2971 4.4603 1.6649
7.2842 4.8380 1.7029
7.2875 5.2457 1.7492
7.2719 5.6617 1.7959
7.2426 6.0902 1.8446
7.2253 6.5552 1.9023
7.2083 7.0521 1.9669
7.1900 7.5843 2.0389
7.9358 9.0284 2.3458
7.5885 9.3182 2.3458
7.2307 9.5948 2.3458
4.6433 6.6694 1.5871
4.4819 6.9841 1.6210
6.0997 10.3415 2.3458
5.7051 10.5617 2.3458
5.2049 10.5685 2.3025
4.8028 10.7551 2.3025
4.3940 10.9265 2.3025
3.9792 11.0826 2.3025
3.5589 11.2232 2.3025
3.1338 11.3479 2.3025
2.7043 11.4568 2.3025
2.2711 11.5495 2.3025
1.8347 11.6261 2.3025
1.4297 11.9692 2.3583
0.9979 12.2563 2.4058
0.5360 12.2850 2.4058
0.0734 12.2964 2.4058
-0.3894 12.2907 2.4058
-0.8517 12.2677 2.4058
-1.3128 12.2275 2.4058
-1.7721 12.1702 2.4058
-2.2289 12.0959 2.4058
-2.6828 12.0045 2.4058
-3.1329 11.8963 2.4058
-3.5788 11.7715 2.4058
-4.0198 11.6300 2.4058
-4.4552 11.4723 2.4058
-4.8845 11.2984 2.4058
-5.3072 11.1086 2.4058
-5.7225 10.9031 2.4058
-6.1300 10.6822 2.4058
-6.5290 10.4463 2.4058
-6.6226 9.7587 2.3027
-6.9868 9.5050 2.3027
-7.3414 9.2377 2.3027
-7.6858 8.9574 2.3027
-8.0197 8.6643 2.3027
-8.3424 8.3588 2.3027
-8.6536 8.0415 2.3027
-6.3893 5.5042 1.6433
-6.6748 5.3260 1.6635
-6.9679 5.1431 1.6865
-9.7745 6.6615 2.3027
-10.0217 6.2913 2.3027
-10.2550 5.9119 2.3027
-10.4696 5.5216 2.3017
-10.4505 5.0184 2.2535
-10.4345 4.5359 2.2109
-10.4190 4.0703 2.1728
-10.4041 3.6196 2.1389
-10.3895 3.1817 2.1089
-10.3710 2.7539 2.0818
-10.3560 2.3367 2.0589
-10.3413 1.9277 2.0392
-10.3269 1.5256 2.0228
-10.3126 1.1290 2.0094
-10.2985 0.7368 1.9991
-10.2871 0.3478 1.9921
-10.2736 -0.0393 1.9875
-10.2601 -0.4255 1.9858
-10.2466 -0.8119 1.9868
-10.2331 -1.1996 1.9907
-10.2195 -1.5897 1.9975
-10.2060 -1.9833 2.0072
-10.1926 -2.3817 2.0199
-10.1789 -2.7861 2.0358
-10.1649 -3.1978 2.0548
-10.1507 -3.6182 2.0771
-10.1361 -4.0488 2.1030
-10.1180 -4.4900 2.1320
-10.1018 -4.9458 2.2951
-9.9449 -5.3417 2.3027
-9.7403 -5.7139 2.3027
-9.5217 -6.0781 2.3027
-9.2894 -6.4340 2.3027
-9.0437 -6.7809 2.3027
-8.7850 -7.1183 2.3027
-8.5136 -7.4459 2.3027
-8.2299 -7.7630 2.3027
-7.9344 -8.0692 2.3027
-7.6274 -8.3640 2.3027
-7.3093 -8.6471 2.3027
-6.9807 -8.9180 2.3027
-6.6419 -9.1763 2.3027
-6.2936 -9.4216 2.3027
-5.9361 -9.6535 2.3027
-5.8193 -10.3138 2.4058
-5.4283 -10.5272 2.4058
-5.0295 -10.7256 2.4058
-4.6234 -10.9088 2.4058
-4.2105 -11.0764 2.4058
-3.7915 -11.2283 2.4058
-3.3670 -11.3642 2.4058
-2.9376 -11.4838 2.4058
-2.5040 -11.5871 2.4058
-2.0667 -11.6738 2.4058
-1.6264 -11.7439 2.4058
-1.1837 -11.7972 2.4058
-0.7393 -11.8336 2.4058
-0.2939 -11.8531 2.4058
0.1520 -11.8557 2.4058
0.5977 -11.8413 2.4058
1.0424 -11.8101 2.4058
1.4857 -11.7619 2.4058
1.9267 -11.6969 2.4058
2.3650 -11.6153 2.4058
2.7998 -11.5170 2.4058
3.0920 -10.9136 2.3027
3.4997 -10.7882 2.3026
3.9023 -10.6474 2.3026
4.2992 -10.4915 2.3026
2.4283 -5.3439 1.1923
5.0736 -10.1351 2.3026
5.4501 -9.9353 2.3026
3.1437 -5.2522 1.2440
6.1786 -9.4935 2.3026
6.5297 -9.2522 2.3025
6.9258 -9.0693 2.3208
7.2600 -8.8002 2.3208
7.5838 -8.5187 2.3208
7.8966 -8.2252 2.3208
8.1980 -7.9202 2.3208
8.4875 -7.6041 2.3208
8.7648 -7.2773 2.3208
9.0294 -6.9404 2.3208
9.2810 -6.5938 2.3208
9.5193 -6.2380 2.3208
9.7439 -5.8736 2.3208
9.9544 -5.5011 2.3208
10.1507 -5.1211 2.3208
10.3324 -4.7340 2.3208
10.4993 -4.3405 2.3208
10.6512 -3.9411 2.3208
6.5064 -2.1329 1.3997
6.6411 -1.9036 1.4128
11.0147 -2.7134 2.3208
7.5031 -1.5516 1.5681
7.4931 -1.2576 1.5556
7.4832 -0.9682 1.5455
7.4734 -0.6823 1.5377
7.4636 -0.3991 1.5321
7.4540 -0.1178 1.5287
7.4444 0.1625 1.5275
7.4348 0.4425 1.5285
7.4252 0.7231 1.5316
7.4155 1.0050 1.5369
7.4058 1.2890 1.5445
7.3960 1.5760 1.5543
7.3860 1.8669 1.5664
7.3759 2.1626 1.5810
7.3655 2.4641 1.5982
7.3550 2.7724 1.6180
7.3441 3.0886 1.6406
7.3330 3.4140 1.6662
7.3214 3.7500 1.6951
7.3095 4.0982 1.7274
7.2971 4.4601 1.7635
7.2842 4.8378 1.8037
7.2845 5.2434 1.8519
7.2688 5.6591 1.9013
7.2413 6.0888 1.9533
7.2253 6.5550 2.0147
7.2083 7.0518 2.0831
7.1900 7.5841 2.1594
7.4933 8.5246 2.3458
7.1654 8.7984 2.3458
6.8277 9.0597 2.3458
4.6468 6.6742 1.6820
4.4857 6.9898 1.7181
5.7599 9.7652 2.3458
5.2880 9.7893 2.3025
4.9151 9.9797 2.3025
4.5354 10.1560 2.3025
4.1494 10.3180 2.3025
3.7577 10.4655 2.3025
3.3608 10.5982 2.3025
2.9594 10.7161 2.3025
2.5538 10.8190 2.3025
2.1447 10.9066 2.3025
1.7326 10.9789 2.3025
1.3773 11.5308 2.4058
0.9424 11.5741 2.4058
0.5062 11.6012 2.4058
0.0693 11.6120 2.4058
-0.3678 11.6066 2.4058
-0.8043 11.5849 2.4058
-1.2397 11.5469 2.4058
-1.6735 11.4927 2.4058
-2.1049 11.4225 2.4058
-2.5335 11.3362 2.4058
-2.9586 11.2339 2.4058
-3.3796 11.1159 2.4058
-3.7960 10.9823 2.4058
-4.2071 10.8332 2.4058
-4.6125 10.6689 2.4058
-5.0116 10.4896 2.4058
-5.4037 10.2955 2.4058
-5.7884 10.0868 2.4058
-6.1652 9.8639 2.4058
-6.5334 9.6270 2.4058
-6.5973 8.9748 2.3027
-6.9320 8.7223 2.3027
-7.2571 8.4575 2.3027
-7.5722 8.1806 2.3027
-7.8769 7.8921 2.3027
-8.1706 7.5923 2.3027
-6.3894 5.5041 1.7406
-6.6749 5.3259 1.7619
-6.9681 5.1430 1.7864
-9.2282 6.2889 2.3027
-9.4614 5.9393 2.3027
-9.6815 5.5810 2.3027
-9.8880 5.2146 2.3027
-10.0808 4.8406 2.3027
-10.2594 4.4595 2.3027
-10.4188 4.0700 2.3016
-10.4039 3.6192 2.2658
-10.3893 3.1814 2.2341
-10.3709 2.7536 2.2055
-10.3559 2.3364 2.1812
-10.3412 1.9275 2.1604
-10.3268 1.5253 2.1431
-10.3125 1.1288 2.1290
-10.2984 0.7365 2.1180
-10.2871 0.3475 2.1106
-10.2736 -0.0396 2.1059
-10.2601 -0.4258 2.1041
-10.2466 -0.8122 2.1052
-10.2330 -1.1998 2.1094
-10.2194 -1.5899 2.1166
-10.2059 -1.9835 2.1270
-10.1925 -2.3819 2.1405
-10.1788 -2.7864 2.1573
-10.1648 -3.1980 2.1775
-10.1506 -3.6184 2.2013
-10.1360 -4.0490 2.2288
-10.1180 -4.4903 2.2596
-9.5914 -4.6962 2.3027
-9.4111 -5.0552 2.3027
-9.2173 -5.4073 2.3027
-9.0102 -5.7519 2.3027
-8.7903 -6.0885 2.3027
-8.5576 -6.4167 2.3027
-8.3127 -6.7359 2.3027
-8.0558 -7.0457 2.3027
-7.7873 -7.3456 2.3027
-7.5075 -7.6353 2.3027
-7.2169 -7.9142 2.3027
-6.9159 -8.1819 2.3027
-6.6048 -8.4381 2.3027
-6.2842 -8.6824 2.3027
-5.9546 -8.9144 2.3027
-5.8677 -9.5426 2.4058
-5.5057 -9.7583 2.4058
-5.1358 -9.9601 2.4058
-4.7584 -10.1478 2.4058
-4.3741 -10.3210 2.4058
-3.9835 -10.4795 2.4058
-3.5871 -10.6232 2.4058
-3.1855 -10.7516 2.4058
-2.7792 -10.8648 2.4058
-2.3689 -10.9625 2.4058
-1.9552 -11.0445 2.4058
-1.5387 -11.1107 2.4058
-1.1199 -11.1611 2.4058
-0.6994 -11.1955 2.4058
-0.2780 -11.2140 2.4058
0.1438 -11.2164 2.4058
0.5654 -11.2029 2.4058
0.9862 -11.1733 2.4058
1.4055 -11.1278 2.4058
1.8228 -11.0663 2.4058
2.2374 -10.9891 2.4058
2.6488 -10.8962 2.4058
2.9394 -10.3753 2.3138
3.3111 -10.2070 2.3027
3.6920 -10.0739 2.3027
4.0675 -9.9264 2.3026
2.4283 -5.3440 1.2602
4.8003 -9.5894 2.3026
5.1565 -9.4003 2.3026
3.1434 -5.2519 1.3148
5.8459 -8.9825 2.3026
6.1781 -8.7543 2.3025
6.5530 -8.5813 2.3208
6.8693 -8.3268 2.3208
7.1758 -8.0606 2.3208
7.4719 -7.7830 2.3208
7.7571 -7.4945 2.3208
8.0312 -7.1955 2.3208
8.2937 -6.8864 2.3208
8.5443 -6.5677 2.3208
8.7825 -6.2398 2.3208
9.0081 -5.9033 2.3208
9.2208 -5.5586 2.3208
9.4202 -5.2062 2.3208
9.6061 -4.8466 2.3208
9.7782 -4.4803 2.3208
9.9364 -4.1080 2.3208
10.0803 -3.7301 2.3208
6.5064 -2.1330 1.4790
6.6406 -1.9036 1.4927
10.4250 -2.5683 2.3208
7.5032 -1.5517 1.6568
7.4931 -1.2578 1.6435
7.4832 -0.9684 1.6328
7.4734 -0.6825 1.6245
7.4637 -0.3993 1.6186
7.4540 -0.1180 1.6150
7.4444 0.1623 1.6137
7.4348 0.4423 1.6147
7.4252 0.7229 1.6180
7.4155 1.0048 1.6236
7.4058 1.2888 1.6315
7.3960 1.5759 1.6418
7.3860 1.8668 1.6546
7.3759 2.1625 1.6700
7.3655 2.4639 1.6881
7.3550 2.7722 1.7090
7.3441 3.0884 1.7328
7.3330 3.4138 1.7599
7.3215 3.7499 1.7903
7.3095 4.0980 1.8244
7.2971 4.4599 1.8625
7.2842 4.8376 1.9049
7.2814 5.2409 1.9550
7.2657 5.6565 2.0071
7.2413 6.0886 2.0628
7.2253 6.5548 2.1276
7.2083 7.0516 2.1998
7.1901 7.5838 2.2804
7.0958 8.0722 2.3458
6.7854 8.3315 2.3458
6.4657 8.5791 2.3458
4.6503 6.6791 1.7775
4.4894 6.9955 1.8158
5.3541 9.0769 2.3025
5.0078 9.2704 2.3025
4.6547 9.4508 2.3025
4.2951 9.6178 2.3025
3.9296 9.7713 2.3025
3.5587 9.9110 2.3025
3.1829 10.0368 2.3025
2.8027 10.1485 2.3025
2.4186 10.2459 2.3025
2.0312 10.3290 2.3025
1.6409 10.3975 2.3025
1.3044 10.9201 2.4058
0.8925 10.9612 2.4058
0.4794 10.9869 2.4058
0.0656 10.9971 2.4058
-0.3483 10.9920 2.4058
-0.7617 10.9714 2.4058
-1.1741 10.9354 2.4058
-1.5849 10.8841 2.4058
-1.9935 10.8175 2.4058
-2.3994 10.7357 2.4058
-2.8019 10.6388 2.4058
-3.2006 10.5270 2.4058
-3.5949 10.4004 2.4058
-3.9843 10.2592 2.4058
-4.3682 10.1035 2.4058
-4.7460 9.9335 2.4058
-5.1174 9.7496 2.4058
-5.4816 9.5519 2.4058
-5.8383 9.3407 2.4058
-6.1870 9.1163 2.4058
-6.5145 8.8619 2.4011
-6.5643 8.2594 2.3027
-6.8721 8.0085 2.3027
-7.1704 7.7462 2.3027
-7.4587 7.4729 2.3027
-7.7367 7.1889 2.3027
-8.0040 6.8947 2.3027
-6.7037 5.3487 1.8688
-8.5048 6.2770 2.3027
-8.7377 5.9544 2.3027
-8.9583 5.6232 2.3027
-9.1665 5.2839 2.3027
-9.3619 4.9369 2.3027
-9.5442 4.5827 2.3027
-9.7132 4.2219 2.3027
-9.8686 3.8548 2.3027
-10.0101 3.4820 2.3027
-10.1376 3.1041 2.3027
-10.2509 2.7215 2.3027
-10.3559 2.3362 2.3040
-10.3412 1.9272 2.2822
-10.3267 1.5251 2.2639
-10.3124 1.1285 2.2490
-10.2983 0.7363 2.2375
-10.2870 0.3473 2.2298
-10.2735 -0.0398 2.2247
-10.2600 -0.4260 2.2229
-10.2465 -0.8124 2.2242
-10.2330 -1.2001 2.2287
-10.2194 -1.5902 2.2363
-10.2058 -1.9838 2.2473
-10.1923 -2.3822 2.2616
-10.1786 -2.7866 2.2794
-10.1647 -3.1983 2.3008
-10.0489 -3.5825 2.3027
-9.9105 -3.9593 2.3027
-9.7579 -4.3307 2.3027
-9.1006 -4.4561 2.3027
-8.9294 -4.7967 2.3027
-8.7454 -5.1307 2.3027
-8.5488 -5.4576 2.3027
-8.3400 -5.7769 2.3027
-8.1192 -6.0881 2.3027
-7.8867 -6.3909 2.3027
-7.6428 -6.6847 2.3027
-7.3880 -6.9692 2.3027
-7.1224 -7.2439 2.3027
-6.8467 -7.5084 2.3027
-6.5610 -7.7623 2.3027
-6.2659 -8.0053 2.3027
-5.9617 -8.2369 2.3027
-5.8977 -8.8294 2.4041
-5.5664 -9.0529 2.4058
-5.2230 -9.2574 2.4058
-4.8720 -9.4487 2.4058
-4.5140 -9.6267 2.4058
-4.1494 -9.7909 2.4058
-3.7788 -9.9413 2.4058
-3.4027 -10.0774 2.4058
-3.0217 -10.1993 2.4058
-2.6364 -10.3066 2.4058
-2.2472 -10.3991 2.4058
-1.8547 -10.4769 2.4058
-1.4596 -10.5397 2.4058
-1.0623 -10.5875 2.4058
-0.6635 -10.6202 2.4058
-0.2637 -10.6377 2.4058
0.1364 -10.6400 2.4058
0.5363 -10.6271 2.4058
0.9355 -10.5991 2.4058
1.3333 -10.5559 2.4058
1.7291 -10.4977 2.4058
2.1224 -10.4245 2.4058
2.5126 -10.3364 2.4058
2.7750 -9.7951 2.3027
3.1409 -9.6827 2.3027
3.5023 -9.5565 2.3027
3.8585 -9.4167 2.3026
2.4283 -5.3441 1.3284
4.5538 -9.0971 2.3026
4.8917 -8.9178 2.3026
3.1432 -5.2517 1.3858
5.5458 -8.5216 2.3026
5.8611 -8.3053 2.3025
6.1678 -8.0772 2.3025
6.5169 -7.8999 2.3208
6.8077 -7.6474 2.3208
7.0887 -7.3842 2.3208
7.3595 -7.1106 2.3208
7.6196 -6.8270 2.3208
7.8688 -6.5338 2.3208
8.1066 -6.2315 2.3208
8.3328 -5.9205 2.3208
8.5469 -5.6013 2.3208
8.7488 -5.2743 2.3208
8.9382 -4.9400 2.3208
9.1147 -4.5989 2.3208
9.2782 -4.2515 2.3208
9.4284 -3.8983 2.3208
9.5652 -3.5397 2.3208
6.5064 -2.1332 1.5586
6.6401 -1.9036 1.5729
9.8928 -2.4375 2.3208
7.5032 -1.5519 1.7459
7.4931 -1.2580 1.7319
7.4832 -0.9686 1.7206
7.4734 -0.6827 1.7118
7.4637 -0.3995 1.7055
7.4540 -0.1181 1.7017
7.4444 0.1621 1.7003
7.4348 0.4422 1.7013
7.4252 0.7227 1.7047
7.4155 1.0046 1.7106
7.4058 1.2887 1.7189
7.3960 1.5757 1.7298
7.3860 1.8666 1.7432
7.3759 2.1623 1.7594
7.3655 2.4637 1.7784
7.3550 2.7720 1.8004
7.3441 3.0882 1.8255
7.3330 3.4137 1.8539
7.3215 3.7497 1.8860
7.3095 4.0978 1.9219
7.2971 4.4597 1.9620
7.2842 4.8374 2.0066
7.2784 5.2386 2.0585
7.2625 5.6538 2.1133
7.2413 6.0884 2.1729
7.2253 6.5545 2.2411
7.2083 7.0514 2.3172
7.0219 7.4063 2.3458
6.7367 7.6635 2.3458
6.4421 7.9098 2.3458
6.1386 8.1449 2.3458
4.6538 6.6839 1.8736
4.4940 7.0023 1.9144
5.0834 8.6178 2.3025
4.7547 8.8016 2.3025
4.4194 8.9729 2.3025
4.0781 9.1315 2.3025
3.7311 9.2773 2.3025
3.3789 9.4100 2.3025
3.0221 9.5295 2.3025
2.6611 9.6356 2.3025
2.2964 9.7282 2.3025
1.9286 9.8071 2.3025
1.5581 9.8722 2.3025
1.2385 10.3684 2.4058
0.8474 10.4074 2.4058
0.4552 10.4318 2.4058
0.0623 10.4415 2.4058
-0.3307 10.4366 2.4058
-0.7232 10.4171 2.4058
-1.1148 10.3829 2.4058
-1.5048 10.3341 2.4058
-1.8928 10.2709 2.4058
-2.2782 10.1931 2.4058
-2.6604 10.1011 2.4058
-3.0389 9.9949 2.4058
-3.4133 9.8746 2.4058
-3.7830 9.7405 2.4058
-4.1474 9.5926 2.4058
-4.5061 9.4312 2.4058
-4.8587 9.2565 2.4058
-5.2045 9.0687 2.4058
-5.5431 8.8681 2.4058
-5.8741 8.6549 2.4058
-6.1969 8.4296 2.4058
-6.4907 8.1665 2.3982
-6.5243 7.6029 2.3027
-6.8074 7.3538 2.3027
-7.0810 7.0942 2.3027
-7.3449 6.8245 2.3027
-7.5985 6.5451 2.3027
-6.7021 5.3472 1.9681
-8.0737 5.9585 2.3027
-8.2946 5.6522 2.3027
-8.5040 5.3377 2.3027
-8.7014 5.0156 2.3027
-8.8868 4.6861 2.3027
-9.0597 4.3498 2.3027
-9.2199 4.0072 2.3027
-9.3673 3.6587 2.3027
-9.5015 3.3048 2.3027
-9.6223 2.9461 2.3027
-9.7297 2.5829 2.3027
-9.8234 2.2158 2.3027
-9.9032 1.8453 2.3027
-9.9692 1.4720 2.3027
-10.0210 1.0964 2.3027
-10.0587 0.7189 2.3027
-10.0822 0.3401 2.3027
-10.0915 -0.0394 2.3027
-10.0864 -0.4191 2.3027
-10.0671 -0.7984 2.3027
-10.0335 -1.1769 2.3027
-9.9856 -1.5540 2.3027
-9.9236 -1.9292 2.3027
-9.8474 -2.3018 2.3027
-9.7572 -2.6715 2.3027
-9.6531 -3.0376 2.3027
-9.5352 -3.3996 2.3027
-9.4038 -3.7571 2.3027
-9.2588 -4.1094 2.3027
-8.6555 -4.2384 2.3027
-8.4926 -4.5623 2.3027
-8.3174 -4.8798 2.3027
-8.1304 -5.1907 2.3027
-7.9316 -5.4942 2.3027
-7.7215 -5.7902 2.3027
-7.5003 -6.0781 2.3027
-7.2683 -6.3574 2.3027
-7.0259 -6.6279 2.3027
-6.7733 -6.8890 2.3027
-6.5109 -7.1405 2.3027
-6.2392 -7.3818 2.3027
-5.9585 -7.6128 2.3027
-5.9192 -8.1785 2.4043
-5.6121 -8.4022 2.4058
-5.2932 -8.6088 2.4058
-4.9666 -8.8032 2.4058
-4.6328 -8.9851 2.4058
-4.2923 -9.1542 2.4058
-3.9456 -9.3104 2.4058
-3.5932 -9.4532 2.4058
-3.2356 -9.5827 2.4058
-2.8733 -9.6985 2.4058
-2.5069 -9.8005 2.4058
-2.1368 -9.8885 2.4058
-1.7636 -9.9624 2.4058
-1.3878 -10.0221 2.4058
-1.0101 -10.0675 2.4058
-0.6309 -10.0986 2.4058
-0.2508 -10.1152 2.4058
0.1297 -10.1174 2.4058
0.5100 -10.1052 2.4058
0.8895 -10.0786 2.4058
1.2678 -10.0375 2.4058
1.6441 -9.9822 2.4058
2.0181 -9.9126 2.4058
2.3892 -9.8289 2.4058
2.6386 -9.3142 2.3027
2.9866 -9.2074 2.3027
3.3303 -9.0874 2.3027
3.6691 -8.9545 2.3026
2.4283 -5.3442 1.3969
4.3302 -8.6508 2.3026
4.6516 -8.4804 2.3026
3.1429 -5.2514 1.4572
5.2737 -8.1038 2.3026
5.5736 -7.8982 2.3026
5.8653 -7.6814 2.3025
6.1974 -7.5128 2.3208
6.4740 -7.2728 2.3208
6.7413 -7.0225 2.3208
6.9988 -6.7624 2.3208
7.2463 -6.4928 2.3208
7.4834 -6.2141 2.3208
7.7097 -5.9266 2.3208
7.9248 -5.6310 2.3208
8.1287 -5.3274 2.3208
8.3208 -5.0165 2.3208
8.5010 -4.6986 2.3208
8.6691 -4.3743 2.3208
8.8247 -4.0439 2.3208
8.9677 -3.7080 2.3208
9.0979 -3.3670 2.3208
6.5064 -2.1334 1.6386
6.6395 -1.9036 1.6535
9.4099 -2.3187 2.3208
7.5032 -1.5521 1.8354
7.4931 -1.2582 1.8207
7.4832 -0.9688 1.8088
7.4734 -0.6828 1.7995
7.4637 -0.3997 1.7929
7.4540 -0.1183 1.7888
7.4444 0.1620 1.7873
7.4348 0.4420 1.7884
7.4252 0.7225 1.7919
7.4155 1.0044 1.7981
7.4058 1.2885 1.8068
7.3960 1.5755 1.8182
7.3860 1.8664 1.8323
7.3759 2.1621 1.8493
7.3655 2.4635 1.8692
7.3550 2.7718 1.8923
7.3441 3.0880 1.9186
7.3330 3.4135 1.9485
7.3215 3.7495 1.9822
7.3095 4.0976 2.0199
7.2971 4.4595 2.0620
7.2842 4.8372 2.1089
7.2753 5.2361 2.1624
7.2594 5.6511 2.2200
7.2413 6.0882 2.2835
7.1964 6.5281 2.3458
6.9440 6.7926 2.3458
6.6820 7.0475 2.3458
6.4106 7.2923 2.3458
6.1304 7.5268 2.3458
5.8416 7.7506 2.3458
4.6573 6.6888 1.9703
4.4993 7.0105 2.0141
4.8376 8.2009 2.3025
4.5248 8.3758 2.3025
4.2058 8.5389 2.3025
3.8809 8.6899 2.3025
3.5507 8.8287 2.3025
3.2156 8.9551 2.3025
2.8760 9.0688 2.3025
2.5325 9.1698 2.3025
2.1854 9.2580 2.3025
1.8354 9.3331 2.3025
1.5125 9.5831 2.3486
1.1787 9.8673 2.4058
0.8065 9.9044 2.4058
0.4332 9.9277 2.4058
0.0593 9.9369 2.4058
-0.3147 9.9322 2.4058
-0.6883 9.9136 2.4058
-1.0610 9.8811 2.4058
-1.4321 9.8346 2.4058
-1.8013 9.7744 2.4058
-2.1681 9.7004 2.4058
-2.5318 9.6128 2.4058
-2.8921 9.5117 2.4058
-3.2483 9.3972 2.4058
-3.6001 9.2694 2.4058
-3.9469 9.1286 2.4058
-4.2883 8.9749 2.4058
-4.6237 8.8086 2.4058
-4.9528 8.6298 2.4058
-5.2750 8.4389 2.4058
-5.5899 8.2360 2.4058
-5.8970 8.0214 2.4058
-6.1960 7.7955 2.4058
-6.4691 7.5384 2.3994
-6.4777 6.9975 2.3027
-6.7381 6.7504 2.3027
-6.9891 6.4937 2.3027
-7.2303 6.2277 2.3027
-6.7004 5.3457 2.0678
-7.6823 5.6695 2.3027
-7.8924 5.3779 2.3027
-8.0915 5.0786 2.3027
-8.2793 4.7720 2.3027
-8.4555 4.4584 2.3027
-8.6199 4.1384 2.3027
-8.7722 3.8124 2.3027
-8.9122 3.4808 2.3027
-9.0398 3.1440 2.3027
-9.1546 2.8026 2.3027
-9.2566 2.4571 2.3027
-9.3456 2.1078 2.3027
-9.4214 1.7553 2.3027
-9.4840 1.4001 2.3027
-9.5332 1.0428 2.3027
-9.5689 0.6837 2.3027
-9.5911 0.3233 2.3027
-9.5997 -0.0377 2.3027
-9.5948 -0.3989 2.3027
-9.5762 -0.7597 2.3027
-9.5441 -1.1198 2.3027
-9.4984 -1.4784 2.3027
-9.4393 -1.8352 2.3027
-9.3666 -2.1897 2.3027
-9.2807 -2.5413 2.3027
-9.1816 -2.8894 2.3027
-9.0693 -3.2337 2.3027
-8.9441 -3.5736 2.3027
-8.8061 -3.9087 2.3027
-8.2499 -4.0400 2.3027
-8.0944 -4.3486 2.3027
-7.9274 -4.6512 2.3027
-7.7490 -4.9474 2.3027
-7.5595 -5.2367 2.3027
-7.3592 -5.5187 2.3027
-7.1483 -5.7930 2.3027
-6.9271 -6.0592 2.3027
-6.6959 -6.3168 2.3027
-6.4552 -6.5657 2.3027
-6.2051 -6.8052 2.3027
-5.9645 -7.0570 2.3098
-5.9327 -7.5800 2.4058
-5.6446 -7.7993 2.4058
-5.3483 -8.0074 2.4058
-5.0443 -8.2042 2.4058
-4.7330 -8.3894 2.4058
-4.4149 -8.5627 2.4058
-4.0904 -8.7238 2.4058
-3.7600 -8.8726 2.4058
-3.4242 -9.0087 2.4058
-3.0834 -9.1320 2.4058
-2.7381 -9.2423 2.4058
-2.3889 -9.3395 2.4058
-2.0362 -9.4233 2.4058
-1.6806 -9.4937 2.4058
-1.3225 -9.5506 2.4058
-0.9626 -9.5939 2.4058
-0.6012 -9.6234 2.4058
-0.2390 -9.6393 2.4058
0.1236 -9.6414 2.4058
0.4860 -9.6298 2.4058
0.8476 -9.6044 2.4058
1.2081 -9.5653 2.4058
1.5668 -9.5126 2.4058
1.9232 -9.4463 2.4058
2.2768 -9.3666 2.4058
2.5145 -8.8762 2.3027
2.8461 -8.7744 2.3027
3.1736 -8.6601 2.3027
3.4965 -8.5335 2.3026
2.4282 -5.3442 1.4659
4.1266 -8.2442 2.3026
4.4329 -8.0819 2.3026
3.1427 -5.2511 1.5290
5.0259 -7.7231 2.3026
5.3116 -7.5272 2.3026
5.5898 -7.3207 2.3026
5.8598 -7.1038 2.3025
6.1699 -6.9314 2.3208
6.4247 -6.6930 2.3208
6.6703 -6.4451 2.3208
6.9062 -6.1882 2.3208
7.1322 -5.9227 2.3208
7.3479 -5.6488 2.3208
7.5531 -5.3671 2.3208
7.7475 -5.0779 2.3208
7.9307 -4.7816 2.3208
8.1026 -4.4787 2.3208
8.2629 -4.1696 2.3208
8.4113 -3.8547 2.3208
8.5478 -3.5346 2.3208
8.6720 -3.2096 2.3208
6.5064 -2.1335 1.7191
6.6390 -1.9037 1.7345
8.9698 -2.2105 2.3208
7.5032 -1.5523 1.9255
7.4931 -1.2584 1.9100
7.4832 -0.9689 1.8974
7.4734 -0.6830 1.8877
7.4637 -0.3998 1.8807
7.4540 -0.1185 1.8765
7.4444 0.1618 1.8749
7.4348 0.4418 1.8759
7.4252 0.7224 1.8796
7.4156 1.0042 1.8860
7.4058 1.2883 1.8951
7.3960 1.5753 1.9071
7.3860 1.8662 1.9218
7.3759 2.1619 1.9396
7.3655 2.4634 1.9605
7.3550 2.7716 1.9847
7.3441 3.0878 2.0123
7.3330 3.4133 2.0436
7.3215 3.7493 2.0788
7.3095 4.0974 2.1184
7.2971 4.4593 2.1625
7.2842 4.8370 2.2116
7.2722 5.2337 2.2668
7.3145 5.6939 2.3458
7.0933 5.9636 2.3458
6.8623 6.2248 2.3458
6.6217 6.4771 2.3458
6.3718 6.7202 2.3458
6.1132 6.9537 2.3458
5.8460 7.1774 2.3458
5.4680 7.2546 2.3025
4.6610 6.6939 2.0678
4.5047 7.0187 2.1146
4.6133 7.8204 2.3025
4.3151 7.9873 2.3025
4.0108 8.1429 2.3025
3.7011 8.2870 2.3025
3.3862 8.4194 2.3025
3.0666 8.5399 2.3025
2.7428 8.6485 2.3025
2.4152 8.7448 2.3025
2.0842 8.8289 2.3025
1.7504 8.9005 2.3025
1.4775 9.3615 2.4058
1.1241 9.4101 2.4058
0.7691 9.4455 2.4058
0.4131 9.4677 2.4058
0.0565 9.4765 2.4058
-0.3002 9.4720 2.4058
-0.6564 9.4542 2.4058
-1.0118 9.4232 2.4058
-1.3658 9.3789 2.4058
-1.7179 9.3214 2.4058
-2.0677 9.2508 2.4058
-2.4145 9.1672 2.4058
-2.7581 9.0708 2.4058
-3.0978 8.9615 2.4058
-3.4333 8.8396 2.4058
-3.7640 8.7053 2.4058
-4.0895 8.5587 2.4058
-4.4094 8.4000 2.4058
-4.7231 8.2295 2.4058
-5.0303 8.0473 2.4058
-5.3306 7.8537 2.4058
-5.6234 7.6491 2.4058
-5.9085 7.4336 2.4058
-6.1853 7.2075 2.4058
-6.4495 6.9668 2.4043
-6.4421 6.4537 2.3087
-6.6645 6.1919 2.3027
-6.8945 5.9382 2.3027
-6.6988 5.3441 2.1680
-7.3253 5.4057 2.3027
-7.5255 5.1277 2.3027
-7.7153 4.8423 2.3027
-7.8942 4.5498 2.3027
-8.0621 4.2508 2.3027
