ply
format ascii 1.0
element vertex 2179
property float32 x
property float32 y
property float32 z
end_header
5.0382 -3.1540 2.2977
5.1087 -3.0295 2.2977
5.1761 -2.9034 2.2977
5.2403 -2.7758 2.2977
5.3013 -2.6467 2.2977
5.3590 -2.5163 2.2977
5.4134 -2.3845 2.2977
5.4646 -2.2515 2.2977
5.5124 -2.1174 2.2977
5.5568 -1.9823 2.2977
5.5979 -1.8462 2.2977
5.6356 -1.7093 2.2977
5.6698 -1.5715 2.2977
5.7007 -1.4331 2.2977
5.7281 -1.2941 2.2977
5.7521 -1.1546 2.2977
5.7726 -1.0146 2.2977
5.7897 -0.8743 2.2977
5.8034 -0.7337 2.2977
5.8136 -0.5930 2.2977
5.8203 -0.4522 2.2977
5.8236 -0.3113 2.2977
5.8235 -0.1706 2.2977
5.8199 -0.0300 2.2977
5.8130 0.1103 2.2977
5.8026 0.2503 2.2977
5.7888 0.3899 2.2977
5.7717 0.5289 2.2977
5.7512 0.6674 2.2977
5.7274 0.8052 2.2977
5.7003 0.9423 2.2977
5.6699 1.0786 2.2977
5.6363 1.2140 2.2977
5.5994 1.3483 2.2977
5.5593 1.4817 2.2977
5.5161 1.6139 2.2977
5.4698 1.7449 2.2977
5.4203 1.8747 2.2977
5.3678 2.0031 2.2977
5.3123 2.1301 2.2977
5.2538 2.2556 2.2977
5.1923 2.3796 2.2977
5.1280 2.5019 2.2977
5.0608 2.6226 2.2977
4.9909 2.7415 2.2977
4.9181 2.8586 2.2977
4.8426 2.9739 2.2977
4.7645 3.0872 2.2977
4.6838 3.1985 2.2977
4.6005 3.3078 2.2977
4.5148 3.4150 2.2977
4.4265 3.5200 2.2977
4.3359 3.6228 2.2977
4.2233 3.7061 2.2871
4.1477 3.8216 2.2977
3.7265 3.6044 2.1141
3.6357 3.6913 2.1146
3.8488 4.1019 2.2977
3.7450 4.1905 2.2977
3.6393 4.2764 2.2977
3.5316 4.3598 2.2977
3.4220 4.4406 2.2977
3.3107 4.5187 2.2977
3.1976 4.5941 2.2977
3.0829 4.6668 2.2977
2.9665 4.7367 2.2977
2.8486 4.8038 2.2977
2.7293 4.8680 2.2977
2.6085 4.9295 2.2977
2.4864 4.9880 2.2977
2.3631 5.0436 2.2977
2.2508 5.1243 2.3104
2.1128 5.1460 2.2977
1.9922 5.2088 2.3049
1.9417 5.4713 2.4008
1.8072 5.5139 2.4008
1.6719 5.5532 2.4008
1.5357 5.5894 2.4008
1.3988 5.6223 2.4008
1.2612 5.6520 2.4008
1.1230 5.6785 2.4008
0.9843 5.7017 2.4008
0.8451 5.7217 2.4008
0.7056 5.7385 2.4008
0.5657 5.7519 2.4008
0.4256 5.7621 2.4008
0.2854 5.7690 2.4008
0.1450 5.7727 2.4008
0.0047 5.7730 2.4008
-0.1357 5.7701 2.4008
-0.2758 5.7640 2.4008
-0.4158 5.7545 2.4008
-0.5555 5.7418 2.4008
-0.6948 5.7259 2.4008
-0.8337 5.7067 2.4008
-0.9721 5.6843 2.4008
-1.1100 5.6587 2.4008
-1.2472 5.6299 2.4008
-1.3837 5.5979 2.4008
-1.5194 5.5627 2.4008
-1.6543 5.5243 2.4008
-1.7882 5.4829 2.4008
-1.9211 5.4383 2.4008
-2.0530 5.3906 2.4008
-2.1838 5.3399 2.4008
-2.3133 5.2861 2.4008
-2.4416 5.2293 2.4008
-2.5685 5.1695 2.4008
-2.6941 5.1068 2.4008
-2.8182 5.0411 2.4008
-2.9407 4.9726 2.4008
-3.0617 4.9012 2.4008
-3.1809 4.8269 2.4008
-3.2985 4.7499 2.4008
-3.4142 4.6701 2.4008
-3.5281 4.5877 2.4008
-3.6401 4.5025 2.4008
-3.7501 4.4147 2.4008
-3.8581 4.3244 2.4008
-3.9640 4.2315 2.4008
-4.0677 4.1361 2.4008
-4.1692 4.0382 2.4008
-4.2684 3.9380 2.4008
-4.3653 3.8354 2.4008
-4.4599 3.7305 2.4008
-4.5520 3.6234 2.4008
-4.6416 3.5141 2.4008
-4.7286 3.4026 2.4008
-4.8131 3.2891 2.4008
-4.8949 3.1735 2.4008
-4.9741 3.0560 2.4008
-5.0505 2.9365 2.4008
-5.1241 2.8152 2.4008
-5.1949 2.6922 2.4008
-5.2628 2.5674 2.4008
-5.3278 2.4410 2.4008
-5.3899 2.3129 2.4008
-5.4489 2.1834 2.4008
-5.5049 2.0524 2.4008
-5.5579 1.9200 2.4008
-5.6077 1.7863 2.4008
-5.6544 1.6513 2.4008
-5.6979 1.5152 2.4008
-5.7382 1.3779 2.4008
-5.7753 1.2397 2.4008
-5.8091 1.1004 2.4008
-5.8396 0.9603 2.4008
-5.8668 0.8194 2.4008
-5.8906 0.6778 2.4008
-5.9111 0.5355 2.4008
-5.9282 0.3927 2.4008
-5.9419 0.2493 2.4008
-5.9522 0.1056 2.4008
-5.9590 -0.0385 2.4008
-5.9625 -0.1829 2.4008
-5.9624 -0.3274 2.4008
-5.9589 -0.4720 2.4008
-5.9519 -0.6166 2.4008
-5.9414 -0.7611 2.4008
-5.9275 -0.9054 2.4008
-5.9100 -1.0495 2.4008
-5.8891 -1.1933 2.4008
-5.8647 -1.3367 2.4008
-5.8369 -1.4796 2.4008
-5.8055 -1.6218 2.4008
-5.7707 -1.7634 2.4008
-5.7325 -1.9043 2.4008
-5.6908 -2.0443 2.4008
-5.6457 -2.1834 2.4008
-5.5972 -2.3215 2.4008
-5.5453 -2.4584 2.4008
-5.4900 -2.5943 2.4008
-5.4315 -2.7288 2.4008
-5.3696 -2.8620 2.4008
-5.3044 -2.9937 2.4008
-5.2360 -3.1240 2.4008
-5.1643 -3.2526 2.4008
-5.0895 -3.3796 2.4008
-5.0115 -3.5048 2.4008
-4.9304 -3.6282 2.4008
-4.8464 -3.7498 2.4009
-4.7595 -3.8695 2.4010
-4.5203 -3.8609 2.4010
-4.4303 -3.9726 2.4011
-4.3375 -4.0821 2.4013
-4.2420 -4.1894 2.4014
-4.1437 -4.2943 2.4015
-4.0427 -4.3968 2.4015
-3.9391 -4.4968 2.4016
-3.8330 -4.5943 2.4016
-3.7245 -4.6893 2.4017
-3.6135 -4.7816 2.4017
-3.5003 -4.8711 2.4018
-3.3848 -4.9579 2.4018
-3.2671 -5.0420 2.4019
-3.1474 -5.1233 2.4020
-3.0257 -5.2017 2.4022
-2.9019 -5.2771 2.4023
-2.7762 -5.3494 2.4025
-2.6487 -5.4186 2.4026
-2.5195 -5.4847 2.4028
-2.3885 -5.5476 2.4029
-2.2560 -5.6072 2.4030
-2.1218 -5.6633 2.4031
-1.9862 -5.7160 2.4031
-1.8492 -5.7653 2.4030
-1.7110 -5.8111 2.4030
-1.5717 -5.8535 2.4030
-1.4312 -5.8925 2.4030
-1.2898 -5.9279 2.4029
-1.1474 -5.9597 2.4029
-1.0043 -5.9880 2.4029
-0.8605 -6.0127 2.4028
-0.7160 -6.0337 2.4027
-0.5710 -6.0510 2.4026
-0.4256 -6.0647 2.4025
-0.2798 -6.0748 2.4024
-0.1338 -6.0812 2.4023
0.0123 -6.0839 2.4022
0.1585 -6.0830 2.4021
0.3046 -6.0784 2.4019
0.4506 -6.0702 2.4018
0.5963 -6.0583 2.4017
0.7417 -6.0427 2.4016
0.8867 -6.0235 2.4015
1.0312 -6.0007 2.4014
1.1750 -5.9743 2.4013
1.3181 -5.9443 2.4012
1.4605 -5.9107 2.4011
1.6019 -5.8735 2.4010
1.7424 -5.8328 2.4009
1.8818 -5.7888 2.4008
1.9673 -5.5912 2.3380
2.0645 -5.4461 2.2977
2.2280 -5.4768 2.3329
2.3230 -5.3390 2.2977
2.4500 -5.2806 2.2977
2.5756 -5.2191 2.2977
2.6996 -5.1544 2.2977
2.8219 -5.0867 2.2977
2.4086 -4.1060 1.8809
2.4184 -3.9047 1.8153
2.4421 -3.7392 1.7658
2.4234 -3.5226 1.6911
2.4176 -3.3394 1.6313
2.4454 -3.2124 1.5981
3.6243 -4.5308 2.2977
3.7304 -4.4404 2.2977
2.6126 -2.9623 1.5657
2.7135 -2.9315 1.5842
4.0345 -4.1537 2.2977
4.1309 -4.0533 2.2977
4.2247 -3.9506 2.2977
4.3159 -3.8456 2.2977
4.4045 -3.7384 2.2977
4.4902 -3.6291 2.2977
4.5732 -3.5178 2.2977
4.6534 -3.4045 2.2977
4.7306 -3.2893 2.2977
4.8050 -3.1724 2.2977
4.8764 -3.0536 2.2977
4.9448 -2.9332 2.2977
5.0101 -2.8113 2.2977
5.0723 -2.6878 2.2977
5.1315 -2.5629 2.2977
5.1875 -2.4367 2.2977
5.2403 -2.3092 2.2977
5.2899 -2.1805 2.2977
5.3363 -2.0508 2.2977
5.3794 -1.9200 2.2977
5.4194 -1.7883 2.2977
5.4560 -1.6558 2.2977
5.4893 -1.5225 2.2977
5.5193 -1.3885 2.2977
5.5460 -1.2540 2.2977
5.5694 -1.1189 2.2977
5.5894 -0.9834 2.2977
5.6061 -0.8476 2.2977
5.6195 -0.7115 2.2977
5.6295 -0.5753 2.2977
5.6362 -0.4389 2.2977
5.6395 -0.3025 2.2977
5.6396 -0.1663 2.2977
5.6363 -0.0301 2.2977
5.6297 0.1058 2.2977
5.6198 0.2413 2.2977
5.6066 0.3765 2.2977
5.5902 0.5112 2.2977
5.5705 0.6454 2.2977
5.5476 0.7789 2.2977
5.5215 0.9117 2.2977
5.4923 1.0437 2.2977
5.4598 1.1748 2.2977
5.4243 1.3051 2.2977
5.3856 1.4343 2.2977
5.3439 1.5624 2.2977
5.2991 1.6894 2.2977
5.2514 1.8151 2.2977
5.2006 1.9396 2.2977
5.1470 2.0627 2.2977
5.0905 2.1843 2.2977
5.0311 2.3045 2.2977
4.9689 2.4231 2.2977
4.9039 2.5401 2.2977
4.8362 2.6554 2.2977
4.7659 2.7690 2.2977
4.6929 2.8807 2.2977
4.6173 2.9906 2.2977
4.5392 3.0986 2.2977
4.4586 3.2046 2.2977
4.3756 3.3085 2.2977
4.2902 3.4104 2.2977
4.2025 3.5101 2.2977
4.1125 3.6076 2.2977
4.0203 3.7029 2.2977
3.7134 3.5905 2.1733
3.6227 3.6768 2.1737
3.7309 3.9749 2.2977
3.6303 4.0608 2.2977
3.5279 4.1442 2.2977
3.4236 4.2252 2.2977
3.3175 4.3036 2.2977
3.2096 4.3793 2.2977
3.1000 4.4525 2.2977
2.9889 4.5231 2.2977
2.8761 4.5909 2.2977
2.7619 4.6561 2.2977
2.6462 4.7185 2.2977
2.5292 4.7781 2.2977
2.4109 4.8349 2.2977
2.2913 4.8889 2.2977
2.1706 4.9401 2.2977
2.0487 4.9884 2.2977
1.9729 5.1566 2.3538
1.8829 5.3039 2.4008
1.7526 5.3452 2.4008
1.6213 5.3835 2.4008
1.4893 5.4186 2.4008
1.3566 5.4506 2.4008
1.2232 5.4795 2.4008
1.0892 5.5052 2.4008
0.9547 5.5278 2.4008
0.8198 5.5473 2.4008
0.6845 5.5635 2.4008
0.5488 5.5766 2.4008
0.4130 5.5866 2.4008
0.2770 5.5933 2.4008
0.1409 5.5969 2.4008
0.0048 5.5973 2.4008
-0.1313 5.5945 2.4008
-0.2672 5.5885 2.4008
-0.4029 5.5794 2.4008
-0.5384 5.5671 2.4008
-0.6735 5.5517 2.4008
-0.8082 5.5331 2.4008
-0.9425 5.5114 2.4008
-1.0762 5.4866 2.4008
-1.2092 5.4586 2.4008
-1.3416 5.4276 2.4008
-1.4732 5.3934 2.4008
-1.6040 5.3562 2.4008
-1.7339 5.3160 2.4008
-1.8628 5.2728 2.4008
-1.9907 5.2265 2.4008
-2.1175 5.1773 2.4008
-2.2431 5.1251 2.4008
-2.3675 5.0700 2.4008
-2.4906 5.0120 2.4008
-2.6123 4.9512 2.4008
-2.7326 4.8875 2.4008
-2.8514 4.8209 2.4008
-2.9687 4.7517 2.4008
-3.0843 4.6796 2.4008
-3.1983 4.6049 2.4008
-3.3105 4.5275 2.4008
-3.4209 4.4475 2.4008
-3.5295 4.3649 2.4008
-3.6361 4.2797 2.4008
-3.7407 4.1920 2.4008
-3.8433 4.1019 2.4008
-3.9438 4.0093 2.4008
-4.0422 3.9144 2.4008
-4.1384 3.8172 2.4008
-4.2323 3.7176 2.4008
-4.3238 3.6159 2.4008
-4.4131 3.5120 2.4008
-4.4999 3.4059 2.4008
-4.5842 3.2978 2.4008
-4.6660 3.1877 2.4008
-4.7453 3.0756 2.4008
-4.8219 2.9616 2.4008
-4.8959 2.8457 2.4008
-4.9671 2.7281 2.4008
-5.0357 2.6087 2.4008
-5.1014 2.4877 2.4008
-5.1643 2.3651 2.4008
-5.2243 2.2409 2.4008
-5.2815 2.1153 2.4008
-5.3356 1.9883 2.4008
-5.3868 1.8599 2.4008
-5.4350 1.7303 2.4008
-5.4801 1.5994 2.4008
-5.5222 1.4674 2.4008
-5.5611 1.3344 2.4008
-5.5969 1.2004 2.4008
-5.6295 1.0654 2.4008
-5.6589 0.9296 2.4008
-5.6852 0.7930 2.4008
-5.7081 0.6557 2.4008
-5.7278 0.5179 2.4008
-5.7442 0.3794 2.4008
-5.7574 0.2405 2.4008
-5.7672 0.1012 2.4008
-5.7737 -0.0384 2.4008
-5.7768 -0.1783 2.4008
-5.7766 -0.3183 2.4008
-5.7730 -0.4583 2.4008
-5.7661 -0.5984 2.4008
-5.7558 -0.7384 2.4008
-5.7421 -0.8782 2.4008
-5.7250 -1.0178 2.4008
-5.7046 -1.1571 2.4008
-5.6808 -1.2959 2.4008
-5.6537 -1.4343 2.4008
-5.6231 -1.5720 2.4008
-5.5893 -1.7092 2.4008
-5.5521 -1.8456 2.4008
-5.5116 -1.9811 2.4008
-5.4677 -2.1158 2.4008
-5.4206 -2.2494 2.4008
-5.3702 -2.3820 2.4008
-5.3165 -2.5135 2.4008
-5.2596 -2.6437 2.4008
-5.1996 -2.7726 2.4008
-5.1363 -2.9001 2.4008
-5.0699 -3.0262 2.4008
-5.0004 -3.1507 2.4008
-4.9278 -3.2735 2.4008
-4.8521 -3.3947 2.4008
-4.7735 -3.5140 2.4008
-4.6919 -3.6315 2.4008
-4.6075 -3.7472 2.4009
-4.3790 -3.7416 2.4009
-4.2917 -3.8497 2.4010
-4.2017 -3.9556 2.4011
-4.1090 -4.0595 2.4012
-4.0138 -4.1611 2.4014
-3.9159 -4.2603 2.4015
-3.8156 -4.3573 2.4016
-3.7128 -4.4517 2.4017
-3.6076 -4.5435 2.4017
-3.5000 -4.6328 2.4018
-3.3903 -4.7195 2.4018
-3.2783 -4.8035 2.4018
-3.1642 -4.8847 2.4019
-3.0481 -4.9632 2.4019
-2.9300 -5.0389 2.4020
-2.8101 -5.1118 2.4022
-2.6884 -5.1817 2.4023
-2.5649 -5.2487 2.4024
-2.4396 -5.3125 2.4026
-2.3128 -5.3733 2.4027
-2.1843 -5.4309 2.4028
-2.0544 -5.4851 2.4028
-1.9230 -5.5360 2.4028
-1.7904 -5.5836 2.4028
-1.6565 -5.6280 2.4028
-1.5215 -5.6690 2.4028
-1.3855 -5.7066 2.4027
-1.2485 -5.7408 2.4027
-1.1107 -5.7716 2.4027
-0.9721 -5.7989 2.4026
-0.8329 -5.8228 2.4026
-0.6930 -5.8431 2.4026
-0.5526 -5.8600 2.4025
-0.4118 -5.8733 2.4024
-0.2707 -5.8832 2.4024
-0.1293 -5.8893 2.4023
0.0122 -5.8919 2.4022
0.1537 -5.8910 2.4021
0.2952 -5.8866 2.4020
0.4365 -5.8786 2.4018
0.5776 -5.8670 2.4017
0.7184 -5.8520 2.4016
0.8588 -5.8334 2.4015
0.9987 -5.8113 2.4014
1.1380 -5.7857 2.4013
1.2766 -5.7566 2.4012
1.4144 -5.7241 2.4011
1.5513 -5.6881 2.4010
1.6873 -5.6487 2.4009
1.8223 -5.6060 2.4008
1.9543 -5.5547 2.3985
1.9992 -5.2742 2.2977
2.1250 -5.2239 2.2977
2.2529 -5.1784 2.3012
2.3725 -5.1140 2.2977
2.4941 -5.0545 2.2977
2.6142 -4.9919 2.2977
2.7326 -4.9264 2.2977
2.8493 -4.8579 2.2977
2.4107 -3.8927 1.8686
2.4236 -3.7114 1.8096
2.4445 -3.5538 1.7615
2.4247 -3.3498 1.6895
2.4196 -3.1790 1.6329
2.4450 -3.0571 1.6006
2.4798 -2.9523 1.5772
2.5488 -2.8905 1.5772
2.6902 -2.9069 1.6218
3.9072 -4.0235 2.2977
4.0007 -3.9263 2.2977
4.0916 -3.8269 2.2977
4.1800 -3.7253 2.2977
4.2658 -3.6216 2.2977
4.3489 -3.5158 2.2977
4.4294 -3.4080 2.2977
4.5071 -3.2984 2.2977
4.5820 -3.1869 2.2977
4.6541 -3.0736 2.2977
4.7233 -2.9587 2.2977
4.7897 -2.8421 2.2977
4.8530 -2.7240 2.2977
4.9134 -2.6045 2.2977
4.9708 -2.4836 2.2977
5.0252 -2.3614 2.2977
5.0764 -2.2379 2.2977
5.1246 -2.1133 2.2977
5.1697 -1.9877 2.2977
5.2116 -1.8611 2.2977
5.2504 -1.7335 2.2977
5.2860 -1.6052 2.2977
5.3184 -1.4761 2.2977
5.3476 -1.3463 2.2977
5.3736 -1.2160 2.2977
5.3964 -1.0852 2.2977
5.4159 -0.9539 2.2977
5.4322 -0.8223 2.2977
5.4453 -0.6905 2.2977
5.4552 -0.5585 2.2977
5.4618 -0.4263 2.2977
5.4652 -0.2942 2.2977
5.4654 -0.1622 2.2977
5.4623 -0.0302 2.2977
5.4561 0.1015 2.2977
5.4467 0.2329 2.2977
5.4341 0.3639 2.2977
5.4183 0.4944 2.2977
5.3993 0.6245 2.2977
5.3773 0.7539 2.2977
5.3521 0.8826 2.2977
5.3239 1.0106 2.2977
5.2926 1.1378 2.2977
5.2583 1.2640 2.2977
5.2210 1.3893 2.2977
5.1807 1.5136 2.2977
5.1374 1.6367 2.2977
5.0912 1.7587 2.2977
5.0422 1.8794 2.2977
4.9903 1.9988 2.2977
4.9356 2.1168 2.2977
4.8782 2.2334 2.2977
4.8180 2.3484 2.2977
4.7552 2.4619 2.2977
4.6896 2.5738 2.2977
4.6215 2.6840 2.2977
4.5509 2.7924 2.2977
4.4777 2.8990 2.2977
4.4021 3.0038 2.2977
4.3240 3.1066 2.2977
4.2436 3.2075 2.2977
4.1609 3.3064 2.2977
4.0759 3.4032 2.2977
3.9887 3.4979 2.2977
3.8994 3.5904 2.2977
3.7235 3.5990 2.2467
3.6320 3.6851 2.2467
3.6190 3.8544 2.2977
3.5215 3.9378 2.2977
3.4222 4.0188 2.2977
3.3211 4.0974 2.2977
3.2182 4.1735 2.2977
3.1137 4.2471 2.2977
3.0074 4.3182 2.2977
2.8996 4.3867 2.2977
2.7903 4.4526 2.2977
2.6796 4.5159 2.2977
2.5674 4.5765 2.2977
2.4539 4.6344 2.2977
2.3392 4.6896 2.2977
2.2445 4.7874 2.3197
2.1061 4.7918 2.2977
1.9928 4.8506 2.3034
1.9526 5.1019 2.4008
1.8271 5.1450 2.4008
1.7007 5.1852 2.4008
1.5734 5.2223 2.4008
1.4453 5.2564 2.4008
1.3165 5.2876 2.4008
1.1871 5.3157 2.4008
1.0571 5.3407 2.4008
0.9266 5.3627 2.4008
0.7957 5.3816 2.4008
0.6644 5.3974 2.4008
0.5328 5.4102 2.4008
0.4010 5.4199 2.4008
0.2690 5.4265 2.4008
0.1369 5.4300 2.4008
0.0049 5.4304 2.4008
-0.1272 5.4277 2.4008
-0.2591 5.4219 2.4008
-0.3908 5.4131 2.4008
-0.5222 5.4012 2.4008
-0.6533 5.3863 2.4008
-0.7841 5.3682 2.4008
-0.9143 5.3472 2.4008
-1.0440 5.3231 2.4008
-1.1732 5.2960 2.4008
-1.3016 5.2658 2.4008
-1.4293 5.2327 2.4008
-1.5562 5.1966 2.4008
-1.6823 5.1576 2.4008
-1.8074 5.1156 2.4008
-1.9315 5.0707 2.4008
-2.0545 5.0229 2.4008
-2.1764 4.9723 2.4008
-2.2971 4.9188 2.4008
-2.4165 4.8625 2.4008
-2.5346 4.8034 2.4008
-2.6513 4.7415 2.4008
-2.7666 4.6770 2.4008
-2.8804 4.6097 2.4008
-2.9926 4.5398 2.4008
-3.1031 4.4672 2.4008
-3.2120 4.3921 2.4008
-3.3191 4.3144 2.4008
-3.4244 4.2342 2.4008
-3.5278 4.1515 2.4008
-3.6293 4.0664 2.4008
-3.7288 3.9789 2.4008
-3.8263 3.8890 2.4008
-3.9217 3.7969 2.4008
-4.0149 3.7025 2.4008
-4.1059 3.6059 2.4008
-4.1947 3.5071 2.4008
-4.2812 3.4062 2.4008
-4.3654 3.3033 2.4008
-4.4471 3.1983 2.4008
-4.5264 3.0914 2.4008
-4.6032 2.9826 2.4008
-4.6775 2.8720 2.4008
-4.7492 2.7595 2.4008
-4.8182 2.6454 2.4008
-4.8846 2.5295 2.4008
-4.9482 2.4121 2.4008
-5.0092 2.2931 2.4008
-5.0673 2.1726 2.4008
-5.1226 2.0507 2.4008
-5.1750 1.9275 2.4008
-5.2246 1.8029 2.4008
-5.2712 1.6771 2.4008
-5.3148 1.5502 2.4008
-5.3555 1.4222 2.4008
-5.3931 1.2931 2.4008
-5.4277 1.1631 2.4008
-5.4592 1.0322 2.4008
-5.4876 0.9004 2.4008
-5.5129 0.7680 2.4008
-5.5350 0.6348 2.4008
-5.5540 0.5011 2.4008
-5.5698 0.3668 2.4008
-5.5824 0.2321 2.4008
-5.5917 0.0971 2.4008
-5.5979 -0.0383 2.4008
-5.6008 -0.1739 2.4008
-5.6004 -0.3096 2.4008
-5.5968 -0.4454 2.4008
-5.5900 -0.5812 2.4008
-5.5798 -0.7169 2.4008
-5.5664 -0.8525 2.4008
-5.5497 -0.9878 2.4008
-5.5298 -1.1227 2.4008
-5.5066 -1.2573 2.4008
-5.4801 -1.3914 2.4008
-5.4504 -1.5249 2.4008
-5.4174 -1.6578 2.4008
-5.3812 -1.7899 2.4008
-5.3417 -1.9212 2.4008
-5.2991 -2.0517 2.4008
-5.2533 -2.1812 2.4008
-5.2043 -2.3096 2.4008
-5.1522 -2.4370 2.4008
-5.0969 -2.5631 2.4008
-5.0385 -2.6880 2.4008
-4.9771 -2.8115 2.4008
-4.9126 -2.9335 2.4008
-4.8451 -3.0541 2.4008
-4.7746 -3.1731 2.4008
-4.7012 -3.2904 2.4008
-4.6249 -3.4059 2.4008
-4.5457 -3.5197 2.4008
-4.4637 -3.6316 2.4008
-4.2452 -3.6285 2.4008
-4.1603 -3.7331 2.4009
-4.0730 -3.8357 2.4010
-3.9830 -3.9363 2.4011
-3.8906 -4.0347 2.4012
-3.7957 -4.1308 2.4013
-3.6983 -4.2247 2.4014
-3.5986 -4.3162 2.4015
-3.4966 -4.4052 2.4016
-3.3924 -4.4918 2.4017
-3.2860 -4.5758 2.4018
-3.1774 -4.6571 2.4019
-3.0668 -4.7357 2.4019
-2.9541 -4.8117 2.4020
-2.8396 -4.8849 2.4020
-2.7232 -4.9552 2.4020
-2.6051 -5.0229 2.4022
-2.4854 -5.0876 2.4023
-2.3640 -5.1494 2.4024
-2.2410 -5.2082 2.4025
-2.1165 -5.2639 2.4026
-1.9905 -5.3163 2.4026
-1.8632 -5.3655 2.4026
-1.7346 -5.4116 2.4026
-1.6049 -5.4545 2.4026
-1.4741 -5.4941 2.4026
-1.3422 -5.5305 2.4025
-1.2095 -5.5636 2.4025
-1.0760 -5.5934 2.4025
-0.9417 -5.6198 2.4024
-0.8067 -5.6429 2.4024
-0.6712 -5.6625 2.4023
-0.5352 -5.6788 2.4023
-0.3987 -5.6917 2.4022
-0.2620 -5.7012 2.4022
-0.1250 -5.7072 2.4021
0.0121 -5.7098 2.4020
0.1492 -5.7090 2.4020
0.2863 -5.7047 2.4019
0.4232 -5.6970 2.4018
0.5600 -5.6859 2.4017
0.6964 -5.6713 2.4017
0.8324 -5.6533 2.4016
0.9679 -5.6319 2.4014
1.1029 -5.6071 2.4013
1.2372 -5.5789 2.4012
1.3707 -5.5474 2.4011
1.5034 -5.5125 2.4010
1.6352 -5.4744 2.4009
1.7659 -5.4330 2.4008
1.8957 -5.3884 2.4008
1.9762 -5.2139 2.3438
2.0592 -5.0627 2.2977
2.1798 -5.0110 2.2977
2.2991 -4.9563 2.2977
2.4169 -4.8986 2.2977
2.5333 -4.8380 2.2977
2.6480 -4.7745 2.2977
2.7611 -4.7082 2.2977
2.8725 -4.6391 2.2977
2.4131 -3.6958 1.8593
2.4280 -3.5303 1.8055
2.4466 -3.3806 1.7591
2.4271 -3.1894 1.6902
2.4215 -3.0283 1.6358
2.4438 -2.9099 1.6039
2.5289 -2.8684 1.6148
2.6897 -2.9069 1.6732
3.7867 -3.9001 2.2977
3.8773 -3.8060 2.2977
3.9654 -3.7097 2.2977
4.0512 -3.6113 2.2977
4.1344 -3.5108 2.2977
4.2150 -3.4084 2.2977
4.2931 -3.3040 2.2977
4.3685 -3.1978 2.2977
4.4411 -3.0898 2.2977
4.5111 -2.9800 2.2977
4.5783 -2.8687 2.2977
4.6427 -2.7558 2.2977
4.7042 -2.6414 2.2977
4.7628 -2.5256 2.2977
4.8185 -2.4084 2.2977
4.8713 -2.2900 2.2977
4.9211 -2.1704 2.2977
4.9679 -2.0496 2.2977
5.0117 -1.9279 2.2977
5.0525 -1.8052 2.2977
5.0902 -1.6816 2.2977
5.1248 -1.5572 2.2977
5.1564 -1.4321 2.2977
5.1848 -1.3063 2.2977
5.2101 -1.1800 2.2977
5.2323 -1.0531 2.2977
5.2514 -0.9259 2.2977
5.2674 -0.7983 2.2977
5.2802 -0.6705 2.2977
5.2899 -0.5425 2.2977
5.2964 -0.4144 2.2977
5.2999 -0.2863 2.2977
5.3001 -0.1583 2.2977
5.2973 -0.0303 2.2977
5.2914 0.0974 2.2977
5.2824 0.2248 2.2977
5.2703 0.3519 2.2977
5.2551 0.4785 2.2977
5.2369 0.6046 2.2977
5.2157 0.7302 2.2977
5.1914 0.8551 2.2977
5.1642 0.9792 2.2977
5.1339 1.1026 2.2977
5.1008 1.2251 2.2977
5.0647 1.3467 2.2977
5.0257 1.4672 2.2977
4.9839 1.5867 2.2977
4.9392 1.7051 2.2977
4.8918 1.8222 2.2977
4.8416 1.9381 2.2977
4.7886 2.0526 2.2977
4.7330 2.1658 2.2977
4.6748 2.2775 2.2977
4.6139 2.3876 2.2977
4.5504 2.4962 2.2977
4.4844 2.6032 2.2977
4.4160 2.7085 2.2977
4.3451 2.8120 2.2977
4.2718 2.9137 2.2977
4.1962 3.0136 2.2977
4.1182 3.1116 2.2977
4.0381 3.2076 2.2977
3.9557 3.3016 2.2977
3.8712 3.3935 2.2977
3.7845 3.4834 2.2977
3.6959 3.5711 2.2977
3.6052 3.6566 2.2977
3.5126 3.7399 2.2977
3.4181 3.8209 2.2977
3.3218 3.8996 2.2977
3.2237 3.9760 2.2977
3.1239 4.0499 2.2977
3.0225 4.1214 2.2977
2.9194 4.1905 2.2977
2.8149 4.2571 2.2977
2.7088 4.3212 2.2977
2.6013 4.3827 2.2977
2.4925 4.4416 2.2977
2.3824 4.4979 2.2977
2.2710 4.5515 2.2977
2.1585 4.6025 2.2977
2.0448 4.6509 2.2977
1.9743 4.8039 2.3503
1.8959 4.9520 2.4008
1.7740 4.9939 2.4008
1.6513 5.0329 2.4008
1.5278 5.0691 2.4008
1.4034 5.1023 2.4008
1.2784 5.1325 2.4008
1.1528 5.1599 2.4008
1.0266 5.1842 2.4008
0.8999 5.2056 2.4008
0.7728 5.2240 2.4008
0.6453 5.2395 2.4008
0.5176 5.2519 2.4008
0.3896 5.2613 2.4008
0.2614 5.2678 2.4008
0.1332 5.2712 2.4008
0.0050 5.2716 2.4008
-0.1232 5.2691 2.4008
-0.2513 5.2635 2.4008
-0.3792 5.2550 2.4008
-0.5068 5.2434 2.4008
-0.6341 5.2289 2.4008
-0.7611 5.2114 2.4008
-0.8875 5.1910 2.4008
-1.0135 5.1676 2.4008
-1.1389 5.1413 2.4008
-1.2636 5.1120 2.4008
-1.3876 5.0798 2.4008
-1.5108 5.0448 2.4008
-1.6332 5.0069 2.4008
-1.7547 4.9661 2.4008
-1.8752 4.9225 2.4008
-1.9946 4.8761 2.4008
-2.1130 4.8269 2.4008
-2.2301 4.7749 2.4008
-2.3461 4.7202 2.4008
-2.4608 4.6628 2.4008
-2.5741 4.6028 2.4008
-2.6860 4.5400 2.4008
-2.7964 4.4747 2.4008
-2.9053 4.4068 2.4008
-3.0126 4.3363 2.4008
-3.1183 4.2633 2.4008
-3.2222 4.1878 2.4008
-3.3244 4.1099 2.4008
-3.4248 4.0296 2.4008
-3.5233 3.9469 2.4008
-3.6199 3.8619 2.4008
-3.7145 3.7746 2.4008
-3.8070 3.6851 2.4008
-3.8975 3.5934 2.4008
-3.9858 3.4996 2.4008
-4.0720 3.4036 2.4008
-4.1559 3.3056 2.4008
-4.2375 3.2057 2.4008
-4.3168 3.1037 2.4008
-4.3937 2.9999 2.4008
-4.4682 2.8942 2.4008
-4.5402 2.7868 2.4008
-4.6097 2.6776 2.4008
-4.6766 2.5667 2.4008
-4.7410 2.4543 2.4008
-4.8027 2.3402 2.4008
-4.8617 2.2247 2.4008
-4.9180 2.1077 2.4008
-4.9716 1.9894 2.4008
-5.0224 1.8697 2.4008
-5.0704 1.7488 2.4008
-5.1155 1.6267 2.4008
-5.1578 1.5034 2.4008
-5.1971 1.3791 2.4008
-5.2335 1.2539 2.4008
-5.2669 1.1276 2.4008
-5.2974 1.0006 2.4008
-5.3248 0.8727 2.4008
-5.3493 0.7442 2.4008
-5.3706 0.6150 2.4008
-5.3889 0.4852 2.4008
-5.4041 0.3549 2.4008
-5.4162 0.2242 2.4008
-5.4251 0.0931 2.4008
-5.4309 -0.0382 2.4008
-5.4336 -0.1698 2.4008
-5.4331 -0.3014 2.4008
-5.4295 -0.4332 2.4008
-5.4227 -0.5649 2.4008
-5.4127 -0.6966 2.4008
-5.3996 -0.8280 2.4008
-5.3833 -0.9592 2.4008
-5.3638 -1.0901 2.4008
-5.3411 -1.2206 2.4008
-5.3153 -1.3507 2.4008
-5.2864 -1.4801 2.4008
-5.2542 -1.6090 2.4008
-5.2190 -1.7371 2.4008
-5.1806 -1.8644 2.4008
-5.1391 -1.9909 2.4008
-5.0946 -2.1164 2.4008
-5.0469 -2.2410 2.4008
-4.9962 -2.3644 2.4008
-4.9425 -2.4867 2.4008
-4.8858 -2.6077 2.4008
-4.8261 -2.7274 2.4008
-4.7634 -2.8457 2.4008
-4.6979 -2.9625 2.4008
-4.6294 -3.0778 2.4008
-4.5581 -3.1914 2.4008
-4.4840 -3.3034 2.4008
-4.4071 -3.4136 2.4008
-4.3275 -3.5220 2.4008
-4.1182 -3.5212 2.4008
-4.0356 -3.6225 2.4008
-3.9507 -3.7219 2.4009
-3.8634 -3.8193 2.4010
-3.7736 -3.9147 2.4011
-3.6814 -4.0079 2.4012
-3.5870 -4.0988 2.4013
-3.4902 -4.1874 2.4014
-3.3912 -4.2737 2.4015
-3.2900 -4.3576 2.4016
-3.1868 -4.4390 2.4017
-3.0814 -4.5179 2.4018
-2.9742 -4.5941 2.4019
-2.8649 -4.6678 2.4020
-2.7538 -4.7387 2.4020
-2.6409 -4.8069 2.4021
-2.5262 -4.8723 2.4021
-2.4100 -4.9348 2.4022
-2.2922 -4.9947 2.4023
-2.1729 -5.0516 2.4024
-2.0520 -5.1054 2.4024
-1.9298 -5.1561 2.4024
-1.8064 -5.2038 2.4024
-1.6817 -5.2484 2.4024
-1.5559 -5.2899 2.4024
-1.4290 -5.3283 2.4023
-1.3012 -5.3635 2.4023
-1.1725 -5.3955 2.4023
-1.0430 -5.4243 2.4023
-0.9128 -5.4499 2.4022
-0.7819 -5.4722 2.4022
-0.6505 -5.4912 2.4021
-0.5186 -5.5070 2.4021
-0.3863 -5.5194 2.4020
-0.2538 -5.5286 2.4020
-0.1210 -5.5344 2.4019
0.0119 -5.5369 2.4019
0.1449 -5.5360 2.4018
0.2778 -5.5319 2.4017
0.4106 -5.5244 2.4016
0.5431 -5.5136 2.4016
0.6754 -5.4994 2.4015
0.8073 -5.4820 2.4014
0.9387 -5.4613 2.4013
1.0695 -5.4372 2.4012
1.1997 -5.4099 2.4011
1.3292 -5.3794 2.4010
1.4578 -5.3457 2.4009
1.5856 -5.3088 2.4009
1.7125 -5.2688 2.4008
1.8383 -5.2256 2.4008
1.9629 -5.1794 2.4008
1.9992 -4.9157 2.3005
2.1138 -4.8596 2.2977
2.2489 -4.8486 2.3178
2.3437 -4.7507 2.2977
2.4565 -4.6920 2.2977
2.5678 -4.6305 2.2977
2.6775 -4.5662 2.2977
2.7855 -4.4993 2.2977
2.5859 -3.9611 2.0547
2.4154 -3.5126 1.8522
2.4315 -3.3602 1.8028
2.4487 -3.2183 1.7584
2.4305 -3.0400 1.6931
2.4233 -2.8861 1.6400
2.4418 -2.7702 1.6078
2.6892 -2.9069 1.7250
3.6723 -3.7831 2.2977
3.7602 -3.6918 2.2977
3.8457 -3.5985 2.2977
3.9289 -3.5031 2.2977
4.0097 -3.4057 2.2977
4.0880 -3.3064 2.2977
4.1637 -3.2052 2.2977
4.2369 -3.1023 2.2977
4.3075 -2.9976 2.2977
4.3754 -2.8912 2.2977
4.4406 -2.7833 2.2977
4.5031 -2.6738 2.2977
4.5629 -2.5629 2.2977
4.6198 -2.4506 2.2977
4.6740 -2.3370 2.2977
4.7252 -2.2222 2.2977
4.7737 -2.1062 2.2977
4.8192 -1.9892 2.2977
4.8618 -1.8711 2.2977
4.9014 -1.7521 2.2977
4.9381 -1.6322 2.2977
4.9718 -1.5116 2.2977
5.0025 -1.3903 2.2977
5.0302 -1.2683 2.2977
5.0549 -1.1457 2.2977
5.0765 -1.0227 2.2977
5.0952 -0.8993 2.2977
5.1107 -0.7756 2.2977
5.1233 -0.6516 2.2977
5.1328 -0.5274 2.2977
5.1393 -0.4031 2.2977
5.1427 -0.2788 2.2977
5.1432 -0.1546 2.2977
5.1405 -0.0304 2.2977
5.1349 0.0935 2.2977
5.1263 0.2172 2.2977
5.1147 0.3405 2.2977
5.1001 0.4634 2.2977
5.0825 0.5858 2.2977
5.0620 0.7077 2.2977
5.0386 0.8289 2.2977
5.0123 0.9494 2.2977
4.9831 1.0692 2.2977
4.9510 1.1881 2.2977
4.9161 1.3061 2.2977
4.8784 1.4232 2.2977
4.8379 1.5392 2.2977
4.7947 1.6541 2.2977
4.7487 1.7679 2.2977
4.7001 1.8804 2.2977
4.6488 1.9916 2.2977
4.5950 2.1015 2.2977
4.5385 2.2100 2.2977
4.4795 2.3170 2.2977
4.4180 2.4225 2.2977
4.3541 2.5264 2.2977
4.2877 2.6287 2.2977
4.2189 2.7292 2.2977
4.1479 2.8281 2.2977
4.0745 2.9251 2.2977
3.9990 3.0203 2.2977
3.9212 3.1136 2.2977
3.8413 3.2049 2.2977
3.7593 3.2943 2.2977
3.6752 3.3816 2.2977
3.5892 3.4669 2.2977
3.5012 3.5500 2.2977
3.4114 3.6309 2.2977
3.3197 3.7097 2.2977
3.2262 3.7862 2.2977
3.1310 3.8604 2.2977
3.0342 3.9323 2.2977
2.9357 4.0018 2.2977
2.8357 4.0690 2.2977
2.7342 4.1337 2.2977
2.6312 4.1960 2.2977
2.5268 4.2558 2.2977
2.4212 4.3131 2.2977
2.3142 4.3678 2.2977
2.2373 4.4825 2.3302
2.0968 4.4696 2.2977
1.9924 4.5301 2.3046
1.9592 4.7656 2.4008
1.8418 4.8092 2.4008
1.7235 4.8500 2.4008
1.6043 4.8880 2.4008
1.4843 4.9231 2.4008
1.3636 4.9554 2.4008
1.2421 4.9849 2.4008
1.1201 5.0115 2.4008
0.9975 5.0352 2.4008
0.8745 5.0560 2.4008
0.7510 5.0740 2.4008
0.6271 5.0890 2.4008
0.5030 5.1011 2.4008
0.3787 5.1103 2.4008
0.2542 5.1166 2.4008
0.1297 5.1200 2.4008
0.0051 5.1204 2.4008
-0.1195 5.1180 2.4008
-0.2439 5.1126 2.4008
-0.3681 5.1043 2.4008
-0.4921 5.0931 2.4008
-0.6158 5.0790 2.4008
-0.7392 5.0621 2.4008
-0.8620 5.0422 2.4008
-0.9844 5.0195 2.4008
-1.1062 4.9939 2.4008
-1.2274 4.9655 2.4008
-1.3479 4.9342 2.4008
-1.4676 4.9002 2.4008
-1.5865 4.8633 2.4008
-1.7045 4.8237 2.4008
-1.8215 4.7813 2.4008
-1.9376 4.7362 2.4008
-2.0525 4.6884 2.4008
-2.1664 4.6379 2.4008
-2.2790 4.5848 2.4008
-2.3904 4.5290 2.4008
-2.5005 4.4706 2.4008
-2.6092 4.4096 2.4008
-2.7164 4.3461 2.4008
-2.8222 4.2801 2.4008
-2.9264 4.2116 2.4008
-3.0290 4.1406 2.4008
-3.1300 4.0673 2.4008
-3.2293 3.9915 2.4008
-3.3267 3.9135 2.4008
-3.4224 3.8331 2.4008
-3.5162 3.7505 2.4008
-3.6080 3.6657 2.4008
-3.6979 3.5787 2.4008
-3.7857 3.4896 2.4008
-3.8715 3.3984 2.4008
-3.9551 3.3051 2.4008
-4.0365 3.2099 2.4008
-4.1157 3.1127 2.4008
-4.1927 3.0137 2.4008
-4.2673 2.9128 2.4008
-4.3396 2.8101 2.4008
-4.4095 2.7057 2.4008
-4.4769 2.5996 2.4008
-4.5418 2.4919 2.4008
-4.6043 2.3826 2.4008
-4.6641 2.2718 2.4008
-4.7214 2.1596 2.4008
-4.7760 2.0459 2.4008
-4.8279 1.9309 2.4008
-4.8771 1.8147 2.4008
-4.9236 1.6972 2.4008
-4.9674 1.5786 2.4008
-5.0083 1.4589 2.4008
-5.0464 1.3382 2.4008
-5.0816 1.2165 2.4008
-5.1140 1.0939 2.4008
-5.1435 0.9705 2.4008
-5.1700 0.8464 2.4008
-5.1936 0.7215 2.4008
-5.2142 0.5961 2.4008
-5.2318 0.4701 2.4008
-5.2465 0.3436 2.4008
-5.2581 0.2167 2.4008
-5.2666 0.0894 2.4008
-5.2722 -0.0381 2.4008
-5.2747 -0.1658 2.4008
-5.2741 -0.2937 2.4008
-5.2704 -0.4215 2.4008
-5.2637 -0.5494 2.4008
-5.2539 -0.6772 2.4008
-5.2410 -0.8048 2.4008
-5.2250 -0.9321 2.4008
-5.2060 -1.0592 2.4008
-5.1839 -1.1858 2.4008
-5.1587 -1.3120 2.4008
-5.1305 -1.4376 2.4008
-5.0992 -1.5626 2.4008
-5.0648 -1.6869 2.4008
-5.0275 -1.8104 2.4008
-4.9871 -1.9331 2.4008
-4.9437 -2.0549 2.4008
-4.8974 -2.1757 2.4008
-4.8480 -2.2954 2.4008
-4.7958 -2.4140 2.4008
-4.7406 -2.5314 2.4008
-4.6826 -2.6475 2.4008
-4.6217 -2.7622 2.4008
-4.5580 -2.8755 2.4008
-4.4915 -2.9873 2.4008
-4.4222 -3.0975 2.4008
-4.3502 -3.2060 2.4008
-4.2755 -3.3129 2.4008
-4.1981 -3.4180 2.4008
-3.9974 -3.4191 2.4008
-3.9172 -3.5174 2.4008
-3.8345 -3.6137 2.4008
-3.7496 -3.7081 2.4008
-3.6624 -3.8006 2.4009
-3.5729 -3.8909 2.4011
-3.4811 -3.9791 2.4012
-3.3871 -4.0651 2.4013
-3.2909 -4.1487 2.4014
-3.1927 -4.2300 2.4014
-3.0924 -4.3089 2.4015
-2.9902 -4.3854 2.4016
-2.8860 -4.4594 2.4017
-2.7799 -4.5307 2.4018
-2.6721 -4.5995 2.4019
-2.5625 -4.6656 2.4019
-2.4512 -4.7291 2.4020
-2.3384 -4.7898 2.4021
-2.2240 -4.8476 2.4022
-2.1081 -4.9027 2.4022
-1.9908 -4.9547 2.4022
-1.8722 -5.0039 2.4022
-1.7524 -5.0501 2.4022
-1.6314 -5.0933 2.4022
-1.5093 -5.1335 2.4022
-1.3862 -5.1707 2.4021
-1.2622 -5.2048 2.4021
-1.1373 -5.2358 2.4021
-1.0117 -5.2637 2.4021
-0.8853 -5.2884 2.4020
-0.7583 -5.3100 2.4020
-0.6308 -5.3285 2.4019
-0.5029 -5.3437 2.4019
-0.3745 -5.3558 2.4018
-0.2459 -5.3646 2.4018
-0.1171 -5.3702 2.4017
0.0118 -5.3726 2.4017
0.1408 -5.3718 2.4016
0.2698 -5.3677 2.4015
0.3986 -5.3604 2.4015
0.5272 -5.3499 2.4014
0.6555 -5.3362 2.4013
0.7834 -5.3192 2.4012
0.9109 -5.2991 2.4011
1.0378 -5.2759 2.4011
1.1642 -5.2495 2.4010
1.2898 -5.2200 2.4010
1.4146 -5.1874 2.4010
1.5386 -5.1516 2.4009
1.6617 -5.1128 2.4009
1.7837 -5.0709 2.4008
1.9047 -5.0260 2.4008
1.9800 -4.8688 2.3481
2.0511 -4.7158 2.2977
2.1633 -4.6644 2.2977
2.2741 -4.6102 2.2977
2.3836 -4.5532 2.2977
2.4916 -4.4936 2.2977
2.5980 -4.4313 2.2977
2.7029 -4.3663 2.2977
2.5859 -3.9616 2.1175
2.7039 -3.9327 2.1368
2.4175 -3.3415 1.8473
2.4342 -3.1998 1.8014
2.4506 -3.0657 1.7593
2.4348 -2.9002 1.6981
2.4251 -2.7516 1.6455
2.4392 -2.6372 1.6124
3.5635 -3.6718 2.2977
3.6489 -3.5833 2.2977
3.7319 -3.4928 2.2977
3.8127 -3.4003 2.2977
3.8911 -3.3058 2.2977
3.9671 -3.2095 2.2977
4.0407 -3.1114 2.2977
4.1118 -3.0115 2.2977
4.1804 -2.9100 2.2977
4.2463 -2.8068 2.2977
4.3097 -2.7021 2.2977
4.3705 -2.5959 2.2977
4.4285 -2.4883 2.2977
4.4839 -2.3794 2.2977
4.5365 -2.2692 2.2977
4.5864 -2.1578 2.2977
4.6334 -2.0452 2.2977
4.6777 -1.9317 2.2977
4.7191 -1.8171 2.2977
4.7577 -1.7016 2.2977
4.7934 -1.5853 2.2977
4.8262 -1.4683 2.2977
4.8561 -1.3505 2.2977
4.8831 -1.2321 2.2977
4.9072 -1.1132 2.2977
4.9283 -0.9938 2.2977
4.9465 -0.8740 2.2977
4.9617 -0.7539 2.2977
4.9740 -0.6335 2.2977
4.9834 -0.5130 2.2977
4.9898 -0.3923 2.2977
4.9933 -0.2717 2.2977
4.9938 -0.1510 2.2977
4.9913 -0.0305 2.2977
4.9860 0.0898 2.2977
4.9777 0.2099 2.2977
4.9666 0.3296 2.2977
4.9525 0.4490 2.2977
4.9356 0.5679 2.2977
4.9158 0.6862 2.2977
4.8932 0.8040 2.2977
4.8677 0.9210 2.2977
4.8394 1.0373 2.2977
4.8084 1.1529 2.2977
4.7746 1.2675 2.2977
4.7381 1.3812 2.2977
4.6989 1.4939 2.2977
4.6570 1.6056 2.2977
4.6125 1.7161 2.2977
4.5654 1.8254 2.2977
4.5157 1.9335 2.2977
4.4635 2.0403 2.2977
4.4087 2.1457 2.2977
4.3515 2.2497 2.2977
4.2919 2.3523 2.2977
4.2298 2.4532 2.2977
4.1655 2.5526 2.2977
4.0988 2.6504 2.2977
4.0298 2.7465 2.2977
3.9587 2.8408 2.2977
3.8853 2.9333 2.2977
3.8098 3.0240 2.2977
3.7323 3.1128 2.2977
3.6527 3.1997 2.2977
3.5711 3.2846 2.2977
3.4876 3.3675 2.2977
3.4022 3.4483 2.2977
3.3149 3.5271 2.2977
3.2259 3.6036 2.2977
3.1351 3.6780 2.2977
3.0427 3.7502 2.2977
2.9486 3.8202 2.2977
2.8530 3.8878 2.2977
2.7558 3.9531 2.2977
2.6572 4.0161 2.2977
2.5572 4.0767 2.2977
2.4558 4.1348 2.2977
2.3532 4.1906 2.2977
2.2553 4.2552 2.3039
2.1442 4.2946 2.2977
2.0380 4.3429 2.2977
1.9745 4.4880 2.3497
1.9044 4.6306 2.4008
1.7903 4.6731 2.4008
1.6753 4.7128 2.4008
1.5595 4.7497 2.4008
1.4429 4.7840 2.4008
1.3255 4.8154 2.4008
1.2075 4.8441 2.4008
1.0889 4.8700 2.4008
0.9698 4.8931 2.4008
0.8502 4.9134 2.4008
0.7302 4.9309 2.4008
0.6098 4.9455 2.4008
0.4892 4.9573 2.4008
0.3683 4.9663 2.4008
0.2473 4.9724 2.4008
0.1263 4.9757 2.4008
0.0052 4.9762 2.4008
-0.1159 4.9738 2.4008
-0.2368 4.9686 2.4008
-0.3576 4.9606 2.4008
-0.4782 4.9497 2.4008
-0.5984 4.9361 2.4008
-0.7182 4.9196 2.4008
-0.8377 4.9003 2.4008
-0.9567 4.8782 2.4008
-1.0751 4.8533 2.4008
-1.1929 4.8257 2.4008
-1.3100 4.7953 2.4008
-1.4263 4.7622 2.4008
-1.5419 4.7264 2.4008
-1.6566 4.6879 2.4008
-1.7704 4.6467 2.4008
-1.8832 4.6028 2.4008
-1.9949 4.5563 2.4008
-2.1056 4.5072 2.4008
-2.2150 4.4555 2.4008
-2.3233 4.4013 2.4008
-2.4303 4.3445 2.4008
-2.5359 4.2852 2.4008
-2.6401 4.2234 2.4008
-2.7429 4.1592 2.4008
-2.8442 4.0926 2.4008
-2.9439 4.0236 2.4008
-3.0420 3.9523 2.4008
-3.1385 3.8786 2.4008
-3.2332 3.8027 2.4008
-3.3261 3.7246 2.4008
-3.4172 3.6443 2.4008
-3.5065 3.5618 2.4008
-3.5938 3.4772 2.4008
-3.6791 3.3905 2.4008
-3.7624 3.3018 2.4008
-3.8436 3.2112 2.4008
-3.9227 3.1186 2.4008
-3.9997 3.0241 2.4008
-4.0744 2.9278 2.4008
-4.1469 2.8297 2.4008
-4.2170 2.7299 2.4008
-4.2849 2.6284 2.4008
-4.3503 2.5253 2.4008
-4.4134 2.4205 2.4008
-4.4739 2.3143 2.4008
-4.5320 2.2066 2.4008
-4.5876 2.0975 2.4008
-4.6406 1.9870 2.4008
-4.6910 1.8753 2.4008
-4.7387 1.7623 2.4008
-4.7838 1.6481 2.4008
-4.8262 1.5328 2.4008
-4.8659 1.4165 2.4008
-4.9028 1.2992 2.4008
-4.9369 1.1809 2.4008
-4.9683 1.0618 2.4008
-4.9968 0.9419 2.4008
-5.0225 0.8213 2.4008
-5.0453 0.7000 2.4008
-5.0652 0.5781 2.4008
-5.0822 0.4556 2.4008
-5.0963 0.3327 2.4008
-5.1075 0.2095 2.4008
-5.1157 0.0858 2.4008
-5.1210 -0.0380 2.4008
-5.1233 -0.1621 2.4008
-5.1226 -0.2862 2.4008
-5.1189 -0.4104 2.4008
-5.1123 -0.5346 2.4008
-5.1026 -0.6587 2.4008
-5.0900 -0.7826 2.4008
-5.0744 -0.9063 2.4008
-5.0558 -1.0296 2.4008
-5.0342 -1.1526 2.4008
-5.0096 -1.2751 2.4008
-4.9820 -1.3971 2.4008
-4.9515 -1.5184 2.4008
-4.9181 -1.6391 2.4008
-4.8817 -1.7590 2.4008
-4.8423 -1.8781 2.4008
-4.8001 -1.9963 2.4008
-4.7550 -2.1136 2.4008
-4.7070 -2.2298 2.4008
-4.6562 -2.3449 2.4008
-4.6025 -2.4588 2.4008
-4.5461 -2.5714 2.4008
-4.4868 -2.6827 2.4008
-4.4249 -2.7927 2.4008
-4.3602 -2.9011 2.4008
-4.2928 -3.0081 2.4008
-4.2228 -3.1134 2.4008
-4.1502 -3.2171 2.4008
-4.0751 -3.3190 2.4008
-3.8823 -3.3219 2.4008
-3.8043 -3.4173 2.4008
-3.7240 -3.5108 2.4008
-3.6413 -3.6023 2.4008
-3.5565 -3.6919 2.4008
-3.4694 -3.7796 2.4009
-3.3802 -3.8651 2.4010
-3.2889 -3.9485 2.4011
-3.1955 -4.0297 2.4012
-3.1000 -4.1086 2.4013
-3.0026 -4.1851 2.4014
-2.9032 -4.2593 2.4015
-2.8020 -4.3310 2.4016
-2.6990 -4.4002 2.4016
-2.5942 -4.4670 2.4017
-2.4878 -4.5311 2.4018
-2.3797 -4.5926 2.4019
-2.2701 -4.6514 2.4019
-2.1590 -4.7076 2.4020
-2.0465 -4.7610 2.4021
-1.9327 -4.8116 2.4021
-1.8175 -4.8593 2.4021
-1.7011 -4.9040 2.4021
-1.5836 -4.9458 2.4020
-1.4650 -4.9847 2.4020
-1.3455 -5.0207 2.4020
-1.2251 -5.0538 2.4019
-1.1038 -5.0838 2.4019
-0.9818 -5.1108 2.4019
-0.8592 -5.1348 2.4018
-0.7359 -5.1558 2.4018
-0.6121 -5.1736 2.4018
-0.4879 -5.1884 2.4017
-0.3633 -5.2000 2.4017
-0.2385 -5.2086 2.4016
-0.1134 -5.2140 2.4015
0.0117 -5.2163 2.4015
0.1369 -5.2154 2.4014
0.2621 -5.2115 2.4014
0.3871 -5.2045 2.4013
0.5120 -5.1943 2.4013
0.6365 -5.1811 2.4012
0.7607 -5.1647 2.4012
0.8845 -5.1452 2.4011
1.0077 -5.1227 2.4011
1.1304 -5.0971 2.4011
1.2523 -5.0684 2.4010
1.3735 -5.0367 2.4010
1.4939 -5.0020 2.4009
1.6134 -4.9643 2.4009
1.7318 -4.9237 2.4008
1.8493 -4.8801 2.4008
1.9656 -4.8337 2.4008
2.0009 -4.6010 2.3088
2.1003 -4.5291 2.2977
2.2434 -4.5483 2.3346
2.3142 -4.4212 2.2977
2.4191 -4.3633 2.2977
2.5224 -4.3029 2.2977
2.6242 -4.2399 2.2977
2.5859 -3.9622 2.1810
2.7035 -3.9327 2.2005
2.9196 -4.0360 2.2977
2.4196 -3.1811 1.8442
2.4362 -3.0482 1.8013
2.4525 -2.9218 1.7617
2.4400 -2.7691 1.7052
2.4267 -2.6242 1.6521
2.4358 -2.5103 1.6176
2.4588 -2.4152 1.5946
3.6236 -3.3922 2.2977
3.7021 -3.3024 2.2977
3.7783 -3.2108 2.2977
3.8522 -3.1173 2.2977
3.9237 -3.0220 2.2977
3.9927 -2.9251 2.2977
4.0594 -2.8265 2.2977
4.1235 -2.7264 2.2977
4.1851 -2.6248 2.2977
4.2441 -2.5217 2.2977
4.3006 -2.4173 2.2977
4.3544 -2.3115 2.2977
4.4056 -2.2046 2.2977
4.4541 -2.0964 2.2977
4.4999 -1.9872 2.2977
4.5430 -1.8769 2.2977
4.5833 -1.7657 2.2977
4.6208 -1.6536 2.2977
4.6556 -1.5406 2.2977
4.6876 -1.4270 2.2977
4.7167 -1.3126 2.2977
4.7430 -1.1977 2.2977
4.7665 -1.0822 2.2977
4.7871 -0.9662 2.2977
4.8049 -0.8499 2.2977
4.8198 -0.7333 2.2977
4.8318 -0.6163 2.2977
4.8410 -0.4993 2.2977
4.8473 -0.3821 2.2977
4.8508 -0.2649 2.2977
4.8514 -0.1477 2.2977
4.8492 -0.0306 2.2977
4.8441 0.0863 2.2977
4.8362 0.2030 2.2977
4.8254 0.3193 2.2977
4.8119 0.4353 2.2977
4.7955 0.5508 2.2977
4.7764 0.6658 2.2977
4.7545 0.7802 2.2977
4.7299 0.8940 2.2977
4.7025 1.0070 2.2977
4.6725 1.1193 2.2977
4.6397 1.2307 2.2977
4.6044 1.3412 2.2977
4.5664 1.4508 2.2977
4.5258 1.5593 2.2977
4.4826 1.6668 2.2977
4.4369 1.7730 2.2977
4.3887 1.8781 2.2977
4.3380 1.9819 2.2977
4.2849 2.0844 2.2977
4.2294 2.1855 2.2977
4.1715 2.2852 2.2977
4.1113 2.3834 2.2977
4.0488 2.4801 2.2977
3.9841 2.5752 2.2977
3.9172 2.6686 2.2977
3.8481 2.7603 2.2977
3.7769 2.8504 2.2977
3.7036 2.9386 2.2977
3.6283 3.0250 2.2977
3.5509 3.1095 2.2977
3.4717 3.1921 2.2977
3.3906 3.2727 2.2977
3.3076 3.3513 2.2977
3.2228 3.4279 2.2977
3.1363 3.5024 2.2977
3.0481 3.5748 2.2977
2.9583 3.6451 2.2977
2.8669 3.7131 2.2977
2.7740 3.7789 2.2977
2.6796 3.8425 2.2977
2.5837 3.9038 2.2977
2.4865 3.9628 2.2977
2.3880 4.0194 2.2977
2.2882 4.0736 2.2977
2.1873 4.1255 2.2977
2.0851 4.1749 2.2977
1.9909 4.2412 2.3082
1.9619 4.4579 2.4008
1.8520 4.5018 2.4008
1.7411 4.5431 2.4008
1.6293 4.5817 2.4008
1.5167 4.6177 2.4008
1.4033 4.6511 2.4008
1.2892 4.6817 2.4008
1.1745 4.7097 2.4008
1.0592 4.7349 2.4008
0.9433 4.7574 2.4008
0.8270 4.7771 2.4008
0.7103 4.7942 2.4008
0.5933 4.8085 2.4008
0.4760 4.8200 2.4008
0.3584 4.8287 2.4008
0.2408 4.8347 2.4008
0.1230 4.8380 2.4008
0.0053 4.8385 2.4008
-0.1125 4.8362 2.4008
-0.2301 4.8311 2.4008
-0.3476 4.8233 2.4008
-0.4648 4.8128 2.4008
-0.5817 4.7995 2.4008
-0.6983 4.7835 2.4008
-0.8145 4.7647 2.4008
-0.9302 4.7433 2.4008
-1.0453 4.7191 2.4008
-1.1599 4.6922 2.4008
-1.2737 4.6627 2.4008
-1.3869 4.6305 2.4008
-1.4993 4.5956 2.4008
-1.6108 4.5582 2.4008
-1.7215 4.5181 2.4008
-1.8312 4.4754 2.4008
-1.9399 4.4302 2.4008
-2.0475 4.3824 2.4008
-2.1539 4.3321 2.4008
-2.2592 4.2793 2.4008
-2.3632 4.2241 2.4008
-2.4659 4.1664 2.4008
-2.5673 4.1063 2.4008
-2.6672 4.0438 2.4008
-2.7657 3.9790 2.4008
-2.8627 3.9119 2.4008
-2.9581 3.8425 2.4008
-3.0518 3.7708 2.4008
-3.1439 3.6970 2.4008
-3.2342 3.6210 2.4008
-3.3228 3.5428 2.4008
-3.4095 3.4626 2.4008
-3.4944 3.3803 2.4008
-3.5773 3.2960 2.4008
-3.6583 3.2097 2.4008
-3.7372 3.1215 2.4008
-3.8141 3.0314 2.4008
-3.8888 2.9395 2.4008
-3.9614 2.8459 2.4008
-4.0318 2.7504 2.4008
-4.1000 2.6533 2.4008
-4.1659 2.5546 2.4008
-4.2295 2.4543 2.4008
-4.2907 2.3524 2.4008
-4.3495 2.2491 2.4008
-4.4059 2.1444 2.4008
-4.4599 2.0382 2.4008
-4.5113 1.9308 2.4008
-4.5602 1.8221 2.4008
-4.6066 1.7123 2.4008
-4.6503 1.6012 2.4008
-4.6915 1.4891 2.4008
-4.7299 1.3760 2.4008
-4.7657 1.2620 2.4008
-4.7988 1.1470 2.4008
-4.8292 1.0312 2.4008
-4.8568 0.9146 2.4008
-4.8817 0.7973 2.4008
-4.9038 0.6794 2.4008
-4.9230 0.5609 2.4008
-4.9395 0.4419 2.4008
-4.9531 0.3224 2.4008
-4.9638 0.2026 2.4008
-4.9717 0.0825 2.4008
-4.9767 -0.0379 2.4008
-4.9788 -0.1585 2.4008
-4.9781 -0.2792 2.4008
-4.9744 -0.3999 2.4008
-4.9678 -0.5205 2.4008
-4.9584 -0.6411 2.4008
-4.9460 -0.7615 2.4008
-4.9307 -0.8817 2.4008
-4.9125 -1.0015 2.4008
-4.8914 -1.1210 2.4008
-4.8674 -1.2400 2.4008
-4.8406 -1.3584 2.4008
-4.8108 -1.4763 2.4008
-4.7782 -1.5936 2.4008
-4.7427 -1.7100 2.4008
-4.7044 -1.8257 2.4008
-4.6633 -1.9405 2.4008
-4.6193 -2.0544 2.4008
-4.5726 -2.1672 2.4008
-4.5231 -2.2790 2.4008
-4.4709 -2.3896 2.4008
-4.4160 -2.4990 2.4008
-4.3583 -2.6071 2.4008
-4.2981 -2.7138 2.4008
-4.2351 -2.8191 2.4008
-4.1696 -2.9229 2.4008
-4.1015 -3.0252 2.4008
-4.0309 -3.1258 2.4008
-3.9578 -3.2247 2.4008
-3.7725 -3.2292 2.4008
-3.6967 -3.3218 2.4008
-3.6185 -3.4126 2.4008
-3.5382 -3.5015 2.4008
-3.4556 -3.5884 2.4008
-3.3708 -3.6734 2.4008
-3.2841 -3.7564 2.4009
-3.1953 -3.8374 2.4010
-3.1045 -3.9162 2.4011
-3.0116 -3.9928 2.4012
-2.9169 -4.0670 2.4013
-2.8203 -4.1390 2.4013
-2.7220 -4.2086 2.4014
-2.6218 -4.2759 2.4015
-2.5200 -4.3406 2.4016
-2.4165 -4.4028 2.4016
-2.3115 -4.4625 2.4017
-2.2050 -4.5196 2.4018
-2.0971 -4.5741 2.4018
-1.9878 -4.6259 2.4019
-1.8771 -4.6749 2.4020
-1.7653 -4.7213 2.4020
-1.6523 -4.7649 2.4021
-1.5381 -4.8055 2.4020
-1.4229 -4.8432 2.4020
-1.3068 -4.8781 2.4019
-1.1898 -4.9102 2.4019
-1.0720 -4.9393 2.4019
-0.9535 -4.9654 2.4018
-0.8343 -4.9887 2.4018
-0.7146 -5.0090 2.4017
-0.5943 -5.0262 2.4017
-0.4737 -5.0406 2.4016
-0.3527 -5.0518 2.4016
-0.2314 -5.0601 2.4016
-0.1099 -5.0654 2.4015
0.0116 -5.0676 2.4015
0.1333 -5.0668 2.4014
0.2548 -5.0630 2.4014
0.3763 -5.0562 2.4013
0.4975 -5.0463 2.4013
0.6185 -5.0334 2.4012
0.7392 -5.0175 2.4012
0.8593 -4.9986 2.4012
0.9791 -4.9767 2.4011
1.0982 -4.9518 2.4011
1.2166 -4.9240 2.4010
1.3344 -4.8932 2.4010
1.4513 -4.8595 2.4009
1.5673 -4.8229 2.4009
1.6824 -4.7834 2.4009
1.7964 -4.7411 2.4008
1.9094 -4.6960 2.4008
1.9819 -4.5577 2.3541
2.0403 -4.4001 2.2977
2.1448 -4.3490 2.2977
2.2621 -4.3223 2.3121
2.3499 -4.2392 2.2977
2.4503 -4.1805 2.2977
2.5492 -4.1193 2.2977
2.5859 -3.9628 2.2451
2.7030 -3.9327 2.2649
2.8362 -3.9214 2.2977
2.9284 -3.8508 2.2977
2.4215 -3.0304 1.8430
2.4375 -2.9045 1.8023
2.4542 -2.7858 1.7655
2.4461 -2.6457 1.7142
2.4282 -2.5030 1.6598
2.4318 -2.3891 1.6234
2.4538 -2.2976 1.6015
3.5967 -3.2091 2.2977
3.6707 -3.1201 2.2977
3.7426 -3.0293 2.2977
3.8120 -2.9369 2.2977
3.8792 -2.8427 2.2977
3.9440 -2.7470 2.2977
4.0064 -2.6498 2.2977
4.0663 -2.5511 2.2977
4.1237 -2.4510 2.2977
4.1786 -2.3495 2.2977
4.2310 -2.2468 2.2977
4.2808 -2.1429 2.2977
4.3280 -2.0379 2.2977
4.3726 -1.9318 2.2977
4.4145 -1.8247 2.2977
4.4537 -1.7166 2.2977
4.4903 -1.6077 2.2977
4.5242 -1.4980 2.2977
4.5553 -1.3876 2.2977
4.5837 -1.2765 2.2977
4.6094 -1.1648 2.2977
4.6323 -1.0526 2.2977
4.6524 -0.9399 2.2977
4.6698 -0.8269 2.2977
4.6844 -0.7136 2.2977
4.6961 -0.5999 2.2977
4.7052 -0.4862 2.2977
4.7114 -0.3723 2.2977
4.7149 -0.2584 2.2977
4.7156 -0.1445 2.2977
4.7135 -0.0307 2.2977
4.7086 0.0829 2.2977
4.7010 0.1963 2.2977
4.6907 0.3094 2.2977
4.6776 0.4222 2.2977
4.6618 0.5345 2.2977
4.6433 0.6463 2.2977
4.6222 0.7575 2.2977
4.5983 0.8681 2.2977
4.5718 0.9780 2.2977
4.5427 1.0872 2.2977
4.5110 1.1956 2.2977
4.4767 1.3030 2.2977
4.4398 1.4096 2.2977
4.4005 1.5151 2.2977
4.3586 1.6196 2.2977
4.3142 1.7230 2.2977
4.2674 1.8252 2.2977
4.2183 1.9262 2.2977
4.1667 2.0259 2.2977
4.1128 2.1243 2.2977
4.0566 2.2212 2.2977
3.9981 2.3168 2.2977
3.9375 2.4108 2.2977
3.8746 2.5033 2.2977
3.8096 2.5942 2.2977
3.7424 2.6835 2.2977
3.6733 2.7711 2.2977
3.6020 2.8569 2.2977
3.5289 2.9410 2.2977
3.4537 3.0232 2.2977
3.3767 3.1036 2.2977
3.2979 3.1821 2.2977
3.2172 3.2586 2.2977
3.1349 3.3332 2.2977
3.0508 3.4057 2.2977
2.9650 3.4762 2.2977
2.8777 3.5446 2.2977
2.7889 3.6108 2.2977
2.6985 3.6749 2.2977
2.6067 3.7368 2.2977
2.5135 3.7965 2.2977
2.4190 3.8539 2.2977
2.3232 3.9090 2.2977
2.2457 3.9966 2.3179
2.1280 4.0124 2.2977
2.0286 4.0605 2.2977
1.9737 4.2030 2.3519
1.9089 4.3358 2.4008
1.8019 4.3786 2.4008
1.6941 4.4188 2.4008
1.5853 4.4565 2.4008
1.4758 4.4915 2.4008
1.3655 4.5240 2.4008
1.2545 4.5539 2.4008
1.1429 4.5811 2.4008
1.0307 4.6057 2.4008
0.9180 4.6276 2.4008
0.8049 4.6469 2.4008
0.6913 4.6635 2.4008
0.5774 4.6774 2.4008
0.4633 4.6886 2.4008
0.3490 4.6972 2.4008
0.2345 4.7031 2.4008
0.1199 4.7063 2.4008
0.0053 4.7067 2.4008
-0.1092 4.7045 2.4008
-0.2236 4.6996 2.4008
-0.3379 4.6921 2.4008
-0.4520 4.6818 2.4008
-0.5658 4.6689 2.4008
-0.6792 4.6533 2.4008
-0.7922 4.6351 2.4008
-0.9048 4.6142 2.4008
-1.0168 4.5907 2.4008
-1.1283 4.5646 2.4008
-1.2391 4.5358 2.4008
-1.3492 4.5045 2.4008
-1.4586 4.4706 2.4008
-1.5671 4.4341 2.4008
-1.6748 4.3951 2.4008
-1.7815 4.3536 2.4008
-1.8872 4.3095 2.4008
-1.9919 4.2630 2.4008
-2.0955 4.2141 2.4008
-2.1979 4.1627 2.4008
-2.2991 4.1089 2.4008
-2.3990 4.0528 2.4008
-2.4976 3.9943 2.4008
-2.5949 3.9335 2.4008
-2.6907 3.8704 2.4008
-2.7850 3.8051 2.4008
-2.8777 3.7375 2.4008
-2.9689 3.6678 2.4008
-3.0585 3.5959 2.4008
-3.4800 3.2056 2.4008
-3.1464 3.5219 2.4008
-3.5587 3.1216 2.4008
-3.2325 3.4458 2.4008
-3.3168 3.3677 2.4008
-3.6355 3.0358 2.4008
-3.3993 3.2876 2.4008
-4.1735 2.2873 2.4008
-3.7102 2.9481 2.4008
-4.2306 2.1868 2.4008
-3.7829 2.8587 2.4008
-4.2854 2.0849 2.4008
-3.8535 2.7675 2.4008
-4.3378 1.9816 2.4008
-4.3878 1.8771 2.4008
-3.9219 2.6746 2.4008
-4.4353 1.7714 2.4008
-3.9882 2.5801 2.4008
-4.4803 1.6644 2.4008
-4.5228 1.5564 2.4008
-4.0522 2.4841 2.4008
-4.5627 1.4474 2.4008
-4.1140 2.3864 2.4008
-4.6000 1.3373 2.4008
-4.8342 0.0792 2.4008
-4.6348 1.2264 2.4008
-4.8390 -0.0379 2.4008
-4.6669 1.1145 2.4008
-4.8409 -0.1551 2.4008
-4.6964 1.0019 2.4008
-4.8401 -0.2724 2.4008
-4.8364 -0.3898 2.4008
-4.7231 0.8885 2.4008
-4.8299 -0.5071 2.4008
-4.7472 0.7744 2.4008
-4.8206 -0.6243 2.4008
-4.7686 0.6597 2.4008
-4.8085 -0.7413 2.4008
-4.7935 -0.8581 2.4008
-4.7757 -0.9746 2.4008
-4.7872 0.5445 2.4008
-4.7551 -1.0908 2.4008
-4.8031 0.4287 2.4008
-4.7317 -1.2064 2.4008
-4.8163 0.3126 2.4008
-4.7055 -1.3216 2.4008
-4.6765 -1.4362 2.4008
-4.8266 0.1960 2.4008
-4.6447 -1.5501 2.4008
-4.6101 -1.6633 2.4008
-4.5727 -1.7757 2.4008
-4.5327 -1.8872 2.4008
-4.4899 -1.9979 2.4008
-4.4444 -2.1075 2.4008
-4.3962 -2.2161 2.4008
-4.3453 -2.3236 2.4008
-4.2918 -2.4298 2.4008
-4.2357 -2.5348 2.4008
-4.1770 -2.6385 2.4008
-4.1158 -2.7408 2.4008
-4.0520 -2.8416 2.4008
-3.9858 -2.9409 2.4008
-3.9171 -3.0387 2.4008
-3.8460 -3.1348 2.4008
-3.6676 -3.1406 2.4008
-3.5938 -3.2306 2.4008
-3.5178 -3.3188 2.4008
-3.4396 -3.4051 2.4008
-3.3593 -3.4896 2.4008
-3.2768 -3.5722 2.4008
-3.1923 -3.6527 2.4008
-3.1059 -3.7313 2.4009
-3.0175 -3.8078 2.4010
-2.9273 -3.8822 2.4010
-2.8352 -3.9543 2.4011
-2.7412 -4.0242 2.4012
-2.6455 -4.0918 2.4013
-2.5482 -4.1571 2.4014
-2.4492 -4.2200 2.4014
-2.3486 -4.2804 2.4015
-2.2465 -4.3383 2.4016
-2.1429 -4.3937 2.4016
-2.0380 -4.4466 2.4017
-1.9317 -4.4969 2.4018
-1.8242 -4.5446 2.4018
-1.7154 -4.5895 2.4019
-1.6056 -4.6318 2.4019
-1.4946 -4.6714 2.4020
-1.3827 -4.7082 2.4020
-1.2698 -4.7420 2.4019
-1.1561 -4.7731 2.4019
-1.0416 -4.8014 2.4019
-0.9264 -4.8268 2.4018
-0.8106 -4.8493 2.4018
-0.6942 -4.8690 2.4017
-0.5774 -4.8858 2.4017
-0.4601 -4.8996 2.4016
-0.3425 -4.9106 2.4016
-0.2246 -4.9186 2.4016
-0.1066 -4.9237 2.4015
0.0115 -4.9258 2.4015
0.1297 -4.9250 2.4014
0.2479 -4.9213 2.4014
0.3659 -4.9146 2.4013
0.4837 -4.9050 2.4013
0.6013 -4.8925 2.4013
0.7185 -4.8770 2.4012
0.8354 -4.8586 2.4012
0.9517 -4.8374 2.4011
1.0674 -4.8132 2.4011
1.1826 -4.7861 2.4010
1.2970 -4.7562 2.4010
1.4106 -4.7235 2.4010
1.5234 -4.6879 2.4009
1.6352 -4.6496 2.4009
1.7460 -4.6084 2.4008
1.8558 -4.5646 2.4008
1.9645 -4.5181 2.4008
2.0013 -4.3166 2.3190
2.0846 -4.2274 2.2977
2.1850 -4.1753 2.2977
2.2840 -4.1207 2.2977
2.3815 -4.0637 2.2977
2.4777 -4.0043 2.2977
2.5723 -3.9425 2.2977
2.6653 -3.8784 2.2977
2.7567 -3.8120 2.2977
2.8463 -3.7434 2.2977
2.9342 -3.6726 2.2977
2.4233 -2.8882 1.8435
2.4381 -2.7681 1.8045
2.4558 -2.6568 1.7706
2.4531 -2.5292 1.7251
2.4296 -2.3875 1.6687
2.4310 -2.2768 1.6324
3.4960 -3.1201 2.2977
3.5681 -3.0336 2.2977
3.6379 -2.9454 2.2977
3.7055 -2.8555 2.2977
3.7708 -2.7641 2.2977
3.8339 -2.6711 2.2977
3.8945 -2.5766 2.2977
3.9528 -2.4807 2.2977
4.0087 -2.3834 2.2977
4.0622 -2.2849 2.2977
4.1132 -2.1851 2.2977
4.1616 -2.0841 2.2977
4.2076 -1.9820 2.2977
4.2510 -1.8789 2.2977
4.2918 -1.7748 2.2977
4.3300 -1.6698 2.2977
4.3656 -1.5639 2.2977
4.3986 -1.4573 2.2977
4.4290 -1.3500 2.2977
4.4567 -1.2420 2.2977
4.4817 -1.1334 2.2977
4.5041 -1.0244 2.2977
4.5237 -0.9148 2.2977
4.5407 -0.8049 2.2977
4.5550 -0.6947 2.2977
4.5665 -0.5843 2.2977
4.5754 -0.4737 2.2977
4.5815 -0.3629 2.2977
4.5850 -0.2522 2.2977
4.5857 -0.1414 2.2977
4.5838 -0.0308 2.2977
4.5792 0.0797 2.2977
4.5719 0.1900 2.2977
4.5619 0.3000 2.2977
4.5493 0.4096 2.2977
4.5340 0.5189 2.2977
4.5161 0.6276 2.2977
4.4956 0.7358 2.2977
4.4725 0.8434 2.2977
4.4469 0.9503 2.2977
4.4186 1.0565 2.2977
4.3879 1.1620 2.2977
4.3546 1.2665 2.2977
4.3188 1.3702 2.2977
4.2806 1.4729 2.2977
4.2400 1.5745 2.2977
4.1969 1.6751 2.2977
4.1515 1.7746 2.2977
4.1037 1.8729 2.2977
4.0537 1.9699 2.2977
4.0013 2.0656 2.2977
3.9467 2.1600 2.2977
3.8899 2.2530 2.2977
3.8309 2.3446 2.2977
3.7698 2.4346 2.2977
3.7067 2.5231 2.2977
3.6414 2.6100 2.2977
3.5741 2.6952 2.2977
3.5049 2.7788 2.2977
3.4338 2.8607 2.2977
3.3607 2.9407 2.2977
3.2859 3.0190 2.2977
3.2092 3.0954 2.2977
3.1308 3.1700 2.2977
3.0507 3.2426 2.2977
2.9689 3.3132 2.2977
2.8855 3.3818 2.2977
2.8006 3.4484 2.2977
2.7142 3.5129 2.2977
2.6263 3.5753 2.2977
2.5370 3.6356 2.2977
2.4463 3.6937 2.2977
2.3544 3.7497 2.2977
2.2612 3.8034 2.2977
2.1668 3.8549 2.2977
2.0712 3.9041 2.2977
1.9886 3.9791 2.3141
1.9611 4.1748 2.4008
1.8581 4.2190 2.4008
1.7540 4.2606 2.4008
1.6490 4.2998 2.4008
1.5432 4.3365 2.4008
1.4366 4.3707 2.4008
1.3293 4.4024 2.4008
1.2213 4.4315 2.4008
1.1127 4.4580 2.4008
1.0035 4.4820 2.4008
0.8938 4.5034 2.4008
0.7836 4.5222 2.4008
0.6731 4.5384 2.4008
0.5623 4.5519 2.4008
0.4512 4.5629 2.4008
0.3399 4.5713 2.4008
0.2285 4.5770 2.4008
0.1170 4.5801 2.4008
0.0054 4.5806 2.4008
-0.1061 4.5785 2.4008
-0.2175 4.5738 2.4008
-0.3287 4.5664 2.4008
-0.4398 4.5564 2.4008
-0.5505 4.5439 2.4008
-0.6609 4.5287 2.4008
-0.7710 4.5110 2.4008
-0.8805 4.4906 2.4008
-0.9896 4.4678 2.4008
-1.0981 4.4423 2.4008
