ply
format ascii 1.0
element vertex 1945
property float32 x
property float32 y
property float32 z
end_header
-32.7641 8.9456 -4.1391
-32.8331 8.1171 -4.1306
-26.1199 5.7913 -3.2743
-26.7742 5.2609 -3.3464
-25.0321 4.2930 -3.1212
-24.8006 3.6385 -3.0868
-26.0838 3.1847 -3.2426
-26.4734 2.5845 -3.2889
-26.8760 1.9693 -3.3386
-35.8299 1.7558 -4.4531
-27.4353 0.6802 -3.4134
-26.6334 0.0162 -3.3189
-60.4669 -1.4256 -7.5514
-40.5767 -1.9390 -5.0812
-41.5156 -2.9915 -5.2159
-42.4345 -4.0912 -5.3518
-50.7523 -6.1350 -6.4291
-51.8247 -7.5402 -6.5975
-69.1755 -32.1222 -9.7843
-7.8403 -3.8739 -1.1233
-72.8166 -38.1975 -10.5748
-70.8960 -39.4057 -10.4436
-39.7325 -23.3600 -5.9413
-38.8037 -24.0956 -5.8943
-58.1495 -38.0880 -8.9797
-39.3641 -27.1668 -6.1847
-23.4572 -17.0410 -3.7528
-48.9485 -37.4018 -7.9808
-36.1924 -29.0682 -6.0192
-41.5607 -35.0706 -6.4453
-51.1138 -45.2934 -8.1012
-46.7060 -43.4494 -7.5731
-25.5630 -24.9611 -4.2448
-25.5833 -26.2195 -4.3553
-25.1805 -27.0878 -4.3998
-24.3571 -27.5077 -4.3736
-23.5755 -27.9596 -4.3558
-23.6241 -29.4337 -4.4973
-46.7272 -64.3647 -9.4855
-24.8799 -36.0757 -5.2280
-47.7448 -72.9447 -10.4034
-13.3729 -21.5517 -3.0273
-12.6007 -21.4487 -2.9697
-11.8572 -21.3495 -2.9157
-11.1400 -21.2538 -2.8651
-10.4469 -21.1614 -2.8178
-9.8520 -21.2359 -2.7950
-9.2153 -21.1919 -2.7588
-8.5768 -21.1057 -2.7194
-7.9975 -21.1321 -2.6965
-7.4715 -21.2841 -2.6913
-6.9438 -21.4260 -2.6864
-6.4145 -21.5578 -2.6817
-5.8837 -21.6795 -2.6773
-5.3516 -21.7912 -2.6730
-4.8181 -21.8928 -2.6690
-4.2834 -21.9845 -2.6652
-3.7477 -22.0660 -2.6617
-3.2109 -22.1376 -2.6583
-2.6733 -22.1991 -2.6553
-2.1348 -22.2507 -2.6524
-1.5957 -22.2922 -2.6498
-1.0559 -22.3238 -2.6474
-0.5302 -22.9755 -2.7198
0.0296 -26.4495 -3.1271
0.7333 -28.9622 -3.4218
1.4303 -28.8692 -3.4102
2.1245 -28.7766 -3.4005
2.8168 -28.6842 -3.3926
3.5079 -28.5921 -3.3866
4.1986 -28.4999 -3.3824
4.8897 -28.4077 -3.3801
5.5821 -28.3154 -3.3796
6.2766 -28.2227 -3.3809
6.9740 -28.1297 -3.3840
7.6751 -28.0362 -3.3891
8.3808 -27.9420 -3.3960
18.5505 -56.8171 -6.9468
20.1631 -57.0422 -7.0205
21.6377 -56.8032 -7.0417
20.2246 -49.4634 -6.1801
20.3420 -46.5071 -5.8603
21.8047 -46.7391 -5.9437
17.4905 -35.2413 -4.5258
18.7053 -35.5061 -4.6080
7.1881 -12.8793 -1.6903
19.9521 -33.8016 -4.4896
21.3450 -34.2422 -4.6063
20.4939 -31.1718 -4.2503
20.9057 -30.1823 -4.1746
21.6764 -29.7328 -4.1751
22.3506 -29.1500 -4.1593
25.0204 -31.0478 -4.5055
27.3903 -32.3554 -4.7797
28.0566 -31.5625 -4.7511
28.2525 -30.2762 -4.6488
29.4762 -30.0951 -4.7185
57.1115 -55.5581 -8.9047
59.2165 -54.8833 -9.0029
50.5709 -44.6472 -7.5050
49.4323 -41.5598 -7.1683
48.4212 -38.7515 -6.8678
46.9466 -35.7448 -6.5189
49.8399 -36.0790 -6.7816
51.3088 -35.2845 -6.8471
51.1430 -33.3793 -6.6994
53.5275 -33.1191 -6.8883
54.2753 -31.7945 -6.8671
55.7563 -30.8771 -6.9412
21.6474 -11.3134 -2.6537
19.3127 -9.5064 -2.3329
17.6486 -8.1636 -2.1023
17.5761 -7.6201 -2.0661
17.0688 -6.9152 -1.9814
17.0020 -6.4144 -1.9503
16.9335 -5.9254 -1.9208
16.8701 -5.4494 -1.8934
17.2358 -5.1111 -1.9154
17.1793 -4.6460 -1.8915
17.1183 -4.1885 -1.8685
17.0584 -3.7395 -1.8471
16.9996 -3.2984 -1.8272
16.9417 -2.8644 -1.8086
16.8846 -2.4369 -1.7914
16.8284 -2.0151 -1.7756
16.7728 -1.5986 -1.7610
16.7179 -1.1868 -1.7476
16.6635 -0.7790 -1.7354
16.6096 -0.3748 -1.7243
16.5561 0.0263 -1.7144
16.9190 0.4357 -1.7486
22.5467 1.1259 -2.3272
80.7197 11.9105 -8.3386
80.1326 13.8086 -8.2926
79.8725 15.7586 -8.2855
79.9359 17.7865 -8.3173
81.1579 24.3410 -8.5554
81.2087 26.5095 -8.6095
80.6053 28.4838 -8.6002
80.0888 30.4957 -8.6057
79.8060 32.6153 -8.6423
79.5197 34.7616 -8.6848
79.2293 36.9380 -8.7335
32.5687 16.1524 -3.6262
30.0450 15.8158 -3.3814
27.9409 15.5809 -3.1812
27.8300 16.4121 -3.2081
27.7168 17.2604 -3.2376
22.7753 14.9580 -2.6981
21.1425 14.6282 -2.5425
20.0401 14.5931 -2.4485
18.6710 14.2985 -2.3200
17.5858 14.1537 -2.2244
16.5836 14.0200 -2.1375
16.1342 14.3220 -2.1214
16.0498 14.9551 -2.1551
15.9624 15.6103 -2.1913
15.8717 16.2895 -2.2304
15.7776 16.9950 -2.2724
15.5479 17.5802 -2.2981
14.7135 17.4689 -2.2350
14.1977 17.7068 -2.2196
14.1745 18.5797 -2.2842
14.0013 19.3015 -2.3297
13.9524 20.2448 -2.4012
13.7548 21.0268 -2.4530
13.7304 22.1381 -2.5425
13.5954 23.1499 -2.6197
14.5472 26.1989 -2.9238
16.6471 31.7638 -3.4986
15.6137 31.6259 -3.4409
4.2485 9.1557 -0.9847
4.0166 9.2333 -0.9825
3.7205 9.1504 -0.9640
3.5568 9.3913 -0.9803
3.1526 8.9722 -0.9286
3.0443 9.3823 -0.9635
2.7551 9.2455 -0.9428
11.1158 40.8824 -4.1425
11.7025 47.5448 -4.7902
11.1811 50.6666 -5.0793
9.8709 50.4918 -5.0399
9.2919 54.4834 -5.4184
12.9566 88.8662 -8.8113
2.5123 20.7242 -2.0501
2.0191 20.8583 -2.0598
1.5288 21.0919 -2.0807
1.0044 20.8144 -2.0525
0.4886 20.2899 -2.0013
-0.0014 21.2973 -2.1025
-0.8108 33.4865 -3.3109
-1.6124 33.3223 -3.3017
-6.2581 86.1757 -8.5626
-9.5541 98.5583 -9.8267
-18.4055 56.6897 -6.0027
-18.1893 51.7358 -5.5333
-20.8414 54.9982 -5.9456
-20.6213 50.6885 -5.5427
-21.7117 49.8830 -5.5212
-20.8942 39.8449 -4.5942
-22.5420 40.5738 -4.7496
-23.1237 39.3516 -4.6806
-23.4684 37.8168 -4.5741
-24.1019 36.8221 -4.5328
-24.7859 35.9418 -4.5069
-27.8062 38.3078 -4.8974
-34.9742 45.8135 -5.9768
-30.6576 36.3735 -4.9557
-41.2885 46.6517 -6.5052
-29.9702 32.2586 -4.6087
-31.3284 32.1282 -4.7079
-34.9958 34.1964 -5.1456
-32.5455 30.3003 -4.6876
-33.4944 29.7062 -4.7308
-40.2539 33.9999 -5.5814
-41.3244 33.2275 -5.6305
-40.0053 30.6054 -5.3615
-40.5845 29.5221 -5.3550
-42.4499 29.3375 -5.5194
-43.6756 28.6507 -5.6008
-48.6159 30.2372 -6.1538
-31.2777 18.4207 -3.9112
-30.6266 17.0544 -3.7864
-31.0206 16.3047 -3.7945
-31.5302 15.6121 -3.8189
-32.4651 15.1095 -3.8962
-33.2349 14.5013 -3.9549
-30.1574 12.2998 -3.5609
-31.2330 11.8666 -3.6617
-31.9772 11.2728 -3.7248
-31.4709 10.2462 -3.6446
-31.9756 9.5623 -3.6839
-33.0912 9.0307 -3.7950
-33.2510 8.2163 -3.7983
-25.7686 5.7103 -2.9338
-26.4070 5.1855 -2.9982
-24.5988 4.2157 -2.7868
-25.9943 3.8106 -2.9402
-25.4920 3.1095 -2.8805
-26.9458 2.6276 -3.0434
-26.2847 1.9230 -2.9690
-27.7626 1.3574 -3.1381
-27.2999 0.6738 -3.0896
-26.5531 0.0133 -3.0105
-71.2589 -1.6876 -8.0981
-41.5497 -1.9899 -4.7356
-41.1103 -2.9666 -4.7017
-41.5627 -4.0114 -4.7725
-51.5162 -6.2326 -5.9426
-51.6764 -7.5238 -5.9917
-41.8748 -15.8690 -5.2180
-41.8205 -17.0162 -5.2690
-69.4224 -30.2241 -8.8490
-68.2915 -31.7180 -8.8127
-7.8396 -3.8743 -1.0248
-68.4616 -35.9192 -9.0730
-62.7533 -34.8854 -8.4368
-58.6886 -34.5099 -8.0102
-57.8961 -35.9563 -8.0280
-59.6951 -39.1055 -8.4159
-61.6930 -42.5821 -8.8499
-23.4546 -17.0411 -3.4263
-49.0167 -37.4580 -7.2981
-49.1312 -39.4640 -7.4622
-51.5429 -43.4980 -7.2367
-47.3216 -41.9368 -6.7909
-45.5919 -42.4166 -6.6939
-30.3050 -29.5938 -4.5570
-44.0872 -45.1869 -6.7971
-26.7231 -28.7493 -4.2290
-24.7330 -27.9340 -4.0225
-23.8197 -28.2509 -3.9864
-22.8897 -28.5202 -3.9472
-23.2569 -30.4588 -4.1384
-44.0416 -63.8620 -8.3838
-51.1772 -78.1911 -10.1025
-49.6482 -80.0146 -10.1824
-12.7240 -21.6588 -2.7168
-12.0936 -21.7754 -2.6943
-11.5324 -22.0026 -2.6872
-10.9690 -22.2188 -2.6805
-10.4034 -22.4241 -2.6740
-9.8359 -22.6185 -2.6677
-9.2664 -22.8020 -2.6617
-8.6951 -22.9747 -2.6559
-8.1222 -23.1366 -2.6504
-7.5476 -23.2877 -2.6451
-6.9716 -23.4281 -2.6400
-6.3941 -23.5578 -2.6352
-5.8153 -23.6768 -2.6307
-5.2353 -23.7853 -2.6264
-4.6541 -23.8830 -2.6223
-4.0719 -23.9701 -2.6185
-3.4888 -24.0467 -2.6149
-2.9047 -24.1126 -2.6116
-2.3199 -24.1679 -2.6085
-1.7343 -24.2127 -2.6056
-1.1481 -24.2469 -2.6030
-0.5613 -24.2704 -2.6006
0.0282 -26.4386 -2.8291
0.7316 -28.9624 -3.0967
1.4286 -28.8694 -3.0858
2.1227 -28.7768 -3.0767
2.8149 -28.6845 -3.0692
3.5059 -28.5923 -3.0634
4.1966 -28.5002 -3.0592
4.8877 -28.4080 -3.0567
5.5800 -28.3157 -3.0558
6.2744 -28.2230 -3.0565
6.9717 -28.1300 -3.0589
7.6727 -28.0365 -3.0629
8.3783 -27.9424 -3.0687
18.5626 -56.8708 -6.2822
20.1313 -56.9681 -6.3335
21.3989 -56.1915 -6.2913
19.7068 -48.2094 -5.4391
20.5871 -47.0794 -5.3559
21.7406 -46.6132 -5.3506
18.1466 -36.5722 -4.2386
18.7644 -35.6268 -4.1719
7.1862 -12.8789 -1.5248
19.9418 -33.7920 -4.0482
20.2639 -32.5153 -3.9442
20.2189 -30.7605 -3.7812
20.9620 -30.2705 -3.7737
21.8944 -30.0385 -3.8010
22.5750 -29.4494 -3.7857
23.2183 -28.8180 -3.7668
25.4993 -30.1284 -4.0079
28.8412 -32.4525 -4.3980
28.2634 -30.2948 -4.1868
29.3993 -30.0235 -4.2359
46.1346 -44.8902 -6.4727
48.3478 -44.8204 -6.6126
49.6154 -43.8140 -6.6223
48.6077 -40.8763 -6.3378
48.5470 -38.8616 -6.1896
49.0671 -37.3686 -6.1230
49.7968 -36.0568 -6.0876
51.1257 -35.1677 -6.1282
51.3804 -33.5431 -6.0437
51.9550 -32.1548 -6.0021
54.1528 -31.7315 -6.1491
56.8480 -31.4907 -6.3498
19.3973 -10.1404 -2.1329
19.3132 -9.5095 -2.0921
17.6490 -8.1663 -1.8847
17.5765 -7.6227 -1.8517
17.0691 -6.9177 -1.7753
17.0023 -6.4169 -1.7470
16.9339 -5.9277 -1.7200
16.8704 -5.4517 -1.6951
17.2306 -5.1118 -1.7137
17.1797 -4.6482 -1.6924
17.1186 -4.1907 -1.6713
17.0587 -3.7417 -1.6517
16.9999 -3.3005 -1.6334
16.9420 -2.8665 -1.6164
16.8849 -2.4389 -1.6006
16.8287 -2.0171 -1.5860
16.7731 -1.6006 -1.5725
16.7181 -1.1887 -1.5601
16.6637 -0.7809 -1.5488
16.6098 -0.3766 -1.5385
16.5563 0.0246 -1.5292
16.9023 0.4334 -1.5577
21.6876 1.0807 -1.9956
80.7208 11.9025 -7.4260
80.1337 13.8008 -7.3831
79.8735 15.7509 -7.3750
79.9369 17.7789 -7.4015
81.1589 24.3336 -7.6078
81.5033 26.5980 -7.6819
80.6063 28.4766 -7.6441
80.0897 30.4885 -7.6473
79.8070 32.6083 -7.6782
79.5206 34.7547 -7.7144
79.2303 36.9312 -7.7560
78.9355 39.1408 -7.8033
30.0519 15.8167 -3.0024
27.9412 15.5786 -2.8235
27.8303 16.4098 -2.8468
27.7171 17.2582 -2.8725
22.7790 14.9585 -2.3938
20.3879 14.1043 -2.1745
19.8841 14.4779 -2.1544
18.6735 14.2988 -2.0573
17.5879 14.1540 -1.9722
16.5855 14.0203 -1.8949
16.1344 14.3208 -1.8802
16.0499 14.9540 -1.9098
15.9625 15.6092 -1.9417
15.8719 16.2885 -1.9761
15.7778 16.9940 -2.0131
15.5490 17.5804 -2.0359
14.7144 17.4690 -1.9798
14.1978 17.7060 -1.9659
14.1746 18.5789 -2.0230
13.6385 18.8005 -2.0097
13.5254 19.6245 -2.0613
13.7549 21.0262 -2.1722
13.6285 21.9733 -2.2347
13.5955 23.1496 -2.3197
14.5472 26.1987 -2.5889
16.6472 31.7638 -3.0979
15.6136 31.6259 -3.0467
4.2244 9.1039 -0.8670
3.9938 9.1813 -0.8651
3.7643 9.2585 -0.8637
3.5356 9.3358 -0.8629
3.1016 8.8276 -0.8091
3.0183 9.3027 -0.8461
2.7321 9.1688 -0.8281
11.1154 40.8849 -3.6692
11.7020 47.5484 -4.2433
11.1795 50.6663 -4.4994
9.8691 50.4915 -4.4649
9.0574 53.1196 -4.6805
12.9523 88.8599 -7.8070
2.5001 20.6307 -1.8085
2.0064 20.7372 -1.8150
1.5151 20.9156 -1.8289
1.0102 20.9560 -1.8320
0.4858 20.2190 -1.7682
-0.0026 21.2391 -1.8593
-0.8140 33.5391 -2.9411
-1.6219 33.4781 -2.9425
-6.2537 86.0405 -7.5849
-15.1371 50.7490 -4.7317
-16.3848 50.4513 -4.7491
-17.5715 49.9647 -4.7518
-19.1326 50.4752 -4.8532
-20.1898 49.6149 -4.8265
-26.4203 56.8912 -5.6773
-21.0518 40.1358 -4.1210
-22.4921 40.4746 -4.2204
-22.6962 38.6151 -4.0923
-23.4067 37.7086 -4.0648
-24.0392 36.7179 -4.0294
-25.0585 36.3288 -4.0620
-27.9825 38.5420 -4.3949
-36.7032 48.0674 -5.5947
-41.0046 48.6386 -5.9155
-41.4076 46.7757 -5.8241
-30.2805 32.5852 -4.1580
-31.2826 32.0738 -4.1991
-34.9927 34.1855 -4.5971
-36.9763 34.4174 -4.7598
-33.4504 29.6603 -4.2238
-40.3542 34.0766 -5.0036
-41.4831 33.3470 -5.0558
-39.7702 30.4182 -4.7690
-40.2372 29.2621 -4.7517
-42.8359 29.5968 -4.9863
-45.4193 29.7867 -5.2159
-46.0423 28.6288 -5.2206
-53.6901 31.6115 -6.0158
-30.8308 17.1632 -3.4163
-30.9892 16.2834 -3.3984
-31.8240 15.7528 -3.4566
-32.4151 15.0815 -3.4896
-33.6073 14.6589 -3.5884
-31.5877 12.8788 -3.3475
-31.4604 11.9486 -3.3113
-32.2134 11.3517 -3.3696
-31.3700 10.2092 -3.2632
-32.2884 9.6517 -3.3423
-33.7419 9.2040 -3.4777
-33.5974 8.2977 -3.4501
-25.4275 5.6315 -2.6030
-25.5891 5.0218 -2.6130
-26.3060 4.5052 -2.6811
-25.9160 3.7961 -2.6378
-24.7249 3.0131 -2.5146
-27.2880 2.6578 -2.7747
-26.7043 1.9507 -2.7163
-26.1731 1.2768 -2.6647
-26.8025 0.6586 -2.7328
-60.0730 0.0235 -6.1375
-71.8637 -1.7097 -7.3610
-41.5362 -1.9937 -4.2678
-40.8038 -2.9487 -4.2080
-41.0197 -3.9632 -4.2482
-50.0989 -6.0663 -5.2133
-51.3150 -7.4764 -5.3684
-41.6450 -18.1346 -4.7990
-68.0776 -31.6248 -7.9432
-7.8389 -3.8747 -0.9267
-73.1299 -38.3750 -8.7655
-64.2636 -35.7307 -7.8152
-58.8940 -34.6359 -7.2719
-58.0990 -36.0873 -7.2890
-57.5248 -37.6887 -7.3385
-51.4450 -35.5130 -6.6786
-23.4521 -17.0412 -3.1008
-51.3069 -39.2125 -6.9147
-49.7278 -39.9473 -6.8373
-50.9692 -43.0180 -6.4097
-49.9190 -44.2427 -6.4171
-57.4890 -53.4896 -7.5617
-49.6029 -48.4426 -6.6828
-27.1905 -27.8708 -3.7562
-25.4626 -27.3951 -3.6109
-45.2105 -51.0648 -6.5894
-25.6748 -30.4528 -3.8509
-23.0237 -28.6886 -3.5585
-22.6092 -29.6119 -3.6060
-21.9187 -30.1945 -3.6131
-21.0905 -30.5833 -3.5989
-19.9250 -30.4433 -3.5259
-50.8326 -81.9253 -9.3459
-34.0896 -58.0286 -6.5251
-35.1423 -63.2768 -7.0186
-12.6447 -24.1249 -2.6414
-12.0241 -24.3560 -2.6341
-11.4016 -24.5754 -2.6271
-10.7774 -24.7830 -2.6204
-10.1514 -24.9791 -2.6139
-9.5239 -25.1635 -2.6077
-8.8949 -25.3365 -2.6017
-8.2645 -25.4979 -2.5960
-7.6328 -25.6480 -2.5906
-6.9997 -25.7866 -2.5854
-6.3655 -25.9140 -2.5805
-5.7302 -26.0299 -2.5758
-5.0938 -26.1346 -2.5714
-4.4565 -26.2280 -2.5673
-3.8182 -26.3102 -2.5634
-3.1791 -26.3811 -2.5597
-2.5392 -26.4408 -2.5564
-1.8986 -26.4893 -2.5533
-1.2573 -26.5266 -2.5504
-0.6155 -26.5527 -2.5478
0.0275 -27.1561 -2.6019
0.7300 -28.9626 -2.7723
1.4269 -28.8696 -2.7623
2.1210 -28.7771 -2.7537
2.8131 -28.6847 -2.7466
3.5040 -28.5926 -2.7409
4.1946 -28.5005 -2.7368
4.8856 -28.4083 -2.7340
5.5779 -28.3159 -2.7327
6.2722 -28.2233 -2.7329
6.9694 -28.1303 -2.7345
7.6704 -28.0368 -2.7376
8.3759 -27.9427 -2.7422
18.9121 -57.9582 -5.7199
18.9601 -53.6686 -5.3295
19.4095 -50.9811 -5.0973
23.5534 -57.6346 -5.8056
25.9165 -59.2820 -6.0199
27.4536 -58.8766 -6.0312
19.0648 -38.4318 -3.9740
19.9099 -37.8106 -3.9493
7.1843 -12.8785 -1.3597
19.9512 -33.8158 -3.6115
20.4230 -32.7782 -3.5438
20.3893 -31.0268 -3.3984
20.9161 -30.2111 -3.3550
21.7322 -29.8227 -3.3607
21.8345 -28.4898 -3.2606
23.4875 -29.1588 -3.3922
25.5440 -30.1880 -3.5733
29.1298 -32.7846 -3.9522
28.5192 -30.5759 -3.7577
29.5668 -30.2014 -3.7879
56.6390 -55.1239 -7.0636
58.6434 -54.3774 -7.1274
47.7714 -42.1955 -5.6643
48.7415 -40.9986 -5.6439
48.6731 -38.9720 -5.5093
49.3871 -37.6216 -5.4695
50.1897 -36.3504 -5.4435
50.7679 -34.9305 -5.3970
51.3931 -33.5602 -5.3597
52.2533 -32.3481 -5.3502
19.5752 -11.4734 -1.9694
19.4849 -10.7966 -1.9276
19.3978 -10.1437 -1.8884
19.3136 -9.5126 -1.8517
17.6493 -8.1691 -1.6676
17.5768 -7.6254 -1.6378
17.0694 -6.9202 -1.5697
17.0026 -6.4193 -1.5440
16.9342 -5.9301 -1.5197
16.8707 -5.4540 -1.4971
17.2254 -5.1125 -1.5125
17.1800 -4.6505 -1.4936
17.1189 -4.1929 -1.4746
17.0590 -3.7438 -1.4567
17.0001 -3.3026 -1.4401
16.9422 -2.8685 -1.4246
16.8852 -2.4409 -1.4101
16.8289 -2.0191 -1.3967
16.7733 -1.6025 -1.3844
16.7184 -1.1905 -1.3730
16.6640 -0.7827 -1.3625
16.6101 -0.3784 -1.3530
16.5565 0.0228 -1.3444
16.8856 0.4312 -1.3676
21.6879 1.0785 -1.7532
23.4967 1.7382 -1.8969
80.8058 11.9069 -6.5220
80.1347 13.7930 -6.4755
79.8745 15.7432 -6.4663
81.3663 18.0888 -6.6034
81.1599 24.3262 -6.6621
80.2181 26.1710 -6.6189
79.9428 28.2347 -6.6349
80.0907 30.4815 -6.6909
79.8079 32.6013 -6.7161
79.5215 34.7478 -6.7459
79.2312 36.9244 -6.7805
78.9364 39.1341 -6.8200
30.0587 15.8176 -2.6240
27.9415 15.5763 -2.4665
27.8306 16.4075 -2.4863
27.7174 17.2560 -2.5081
21.7599 14.2873 -1.9962
20.3910 14.1047 -1.8981
19.8843 14.4763 -1.8800
18.6760 14.2991 -1.7951
17.5901 14.1543 -1.7205
16.5874 14.0205 -1.6528
16.1345 14.3197 -1.6395
16.0500 14.9529 -1.6651
15.9626 15.6081 -1.6926
15.8720 16.2874 -1.7224
15.7779 16.9930 -1.7544
15.5501 17.5805 -1.7741
14.7154 17.4691 -1.7251
14.1979 17.7053 -1.7127
14.1747 18.5782 -1.7623
13.6386 18.7999 -1.7505
13.5254 19.6239 -1.7954
13.7549 21.0257 -1.8919
13.6286 21.9729 -1.9462
13.4946 22.9774 -2.0052
13.3520 24.0459 -2.0693
13.1999 25.1861 -2.1392
15.6136 31.6259 -2.6533
14.9852 32.2948 -2.6785
3.9714 9.1299 -0.7492
3.7432 9.2068 -0.7480
3.5158 9.2837 -0.7474
3.2678 9.3011 -0.7425
2.9928 9.2245 -0.7308
11.4452 38.4130 -3.0221
12.8278 47.1879 -3.6893
11.7016 47.5520 -3.6974
11.1778 50.6661 -3.9206
9.8674 50.4913 -3.8909
9.1167 53.4792 -4.1070
12.9053 88.5611 -6.7824
2.4818 20.4866 -1.5657
2.0203 20.8906 -1.5943
1.5337 21.1864 -1.6157
1.0139 21.0555 -1.6055
0.4815 20.0818 -1.5321
-0.0058 33.3346 -2.5464
-0.8123 33.3889 -2.5553
-2.1315 43.9413 -3.3714
-6.1975 85.1953 -6.5574
-9.7041 66.4278 -5.1823
-18.4508 61.8400 -5.0458
-15.6535 48.1854 -3.9706
-17.3134 49.2171 -4.0986
-18.6573 49.2080 -4.1442
-22.0037 54.0584 -4.6076
-20.8838 39.8060 -3.5856
-22.6342 40.7206 -3.7262
-22.5413 38.3426 -3.5671
-23.2177 37.3954 -3.5400
-23.9769 36.6145 -3.5297
-25.3364 36.7235 -3.6084
-35.1640 48.4226 -4.8539
-35.4509 46.4170 -4.7510
-36.6896 45.7067 -4.7816
-37.5932 44.5822 -4.7715
-41.4495 46.8125 -5.1311
-42.8452 46.0959 -5.1800
-35.3116 36.1966 -4.1747
-39.7302 38.8047 -4.5987
-40.8526 38.0167 -4.6350
-39.7345 35.2239 -4.4237
-40.4549 34.1534 -4.4243
-41.6428 33.4673 -4.4781
-40.1406 30.6938 -4.2486
-41.4334 30.1245 -4.3203
-43.5138 30.0574 -4.4740
-45.4350 29.7893 -4.6103
-57.5408 35.7689 -5.7670
-55.4060 32.6128 -5.4893
-53.2566 29.6390 -5.2198
-49.2519 25.8720 -4.7793
-32.2537 15.9607 -3.1009
-32.3655 15.0536 -3.0852
-33.7929 14.7351 -3.1960
-34.4867 14.0559 -3.2383
-31.6905 12.0317 -2.9565
-32.3816 11.4066 -3.0033
-31.2699 10.1725 -2.8851
-35.2376 10.5287 -3.2363
-36.3152 9.9013 -3.3221
-33.6313 8.3018 -3.0662
-25.0960 5.5551 -2.2817
-25.7045 5.0414 -2.3319
-26.3375 4.5074 -2.3855
-26.6798 3.9048 -2.4140
-28.9005 3.5186 -2.6137
-27.6533 2.6903 -2.5011
-26.4729 1.9308 -2.3959
-26.8094 1.3049 -2.4293
-26.4426 0.6469 -2.4003
-45.1681 0.0128 -4.1095
-72.2216 -1.7258 -6.5896
-41.4248 -1.9927 -3.7925
-40.4664 -2.9285 -3.7194
-51.8437 -5.0144 -4.7866
-50.9093 -6.1696 -4.7240
-50.6694 -7.3875 -4.7281
-78.7305 -13.4301 -7.3918
-71.1526 -30.9904 -7.3309
-68.5532 -31.8520 -7.1529
-7.8382 -3.8750 -0.8288
-74.4531 -39.0760 -7.9832
-62.6259 -34.8258 -6.8142
-45.3228 -26.6587 -5.0078
-42.9902 -26.7065 -4.8272
-51.6526 -33.8459 -5.8983
-39.9988 -27.6150 -4.6488
-23.4495 -17.0414 -2.7760
-49.3624 -37.7304 -5.9573
-50.0988 -40.2495 -6.1691
-49.7447 -41.9885 -5.5287
-28.2263 -25.0189 -3.2072
-27.4476 -25.5403 -3.1915
-26.6854 -26.0632 -3.1786
-52.7178 -54.0407 -6.4394
-45.8638 -49.3479 -5.7515
-47.0955 -53.1971 -6.0706
-25.6515 -30.4269 -3.4029
-43.9647 -54.7848 -6.0104
-59.1583 -77.4847 -8.3464
-41.9145 -57.7426 -6.1121
-44.0711 -63.9094 -6.6531
-42.2158 -64.5032 -6.6092
-34.5193 -58.7613 -5.8460
-34.4991 -62.1195 -6.0963
-33.1907 -63.3250 -6.1345
-32.3498 -65.5277 -6.2703
-12.6088 -27.1770 -2.5705
-11.9154 -27.3995 -2.5632
-11.2208 -27.6095 -2.5561
-10.5249 -27.8071 -2.5494
-9.5156 -27.1029 -2.4621
-9.1297 -28.1654 -2.5368
-8.4305 -28.3263 -2.5309
-7.7302 -28.4750 -2.5252
-7.0290 -28.6115 -2.5199
-6.3268 -28.7361 -2.5148
-5.6237 -28.8486 -2.5100
-4.4862 -26.3973 -2.2847
-4.2151 -29.0377 -2.5013
-3.5097 -29.1144 -2.4973
-2.8035 -29.1792 -2.4936
-2.0965 -29.2321 -2.4902
-1.3890 -29.2731 -2.4871
-0.6807 -29.3022 -2.4842
0.0280 -29.3101 -2.4808
0.7365 -29.2898 -2.4763
1.4444 -29.2606 -2.4724
2.1520 -29.2226 -2.4690
2.8593 -29.1758 -2.4661
3.5667 -29.1200 -2.4638
4.2742 -29.0554 -2.4620
4.9821 -28.9818 -2.4607
5.6905 -28.8992 -2.4600
6.3997 -28.8076 -2.4598
7.1098 -28.7067 -2.4602
7.8211 -28.5967 -2.4611
17.3180 -57.7915 -4.9975
18.7471 -57.4689 -4.9963
20.0345 -56.7254 -4.9611
21.3976 -56.2180 -4.9490
22.8831 -56.0088 -4.9660
23.9975 -54.9062 -4.9063
26.0611 -55.9044 -5.0377
19.2956 -38.9066 -3.5380
19.9244 -37.8472 -3.4754
7.1825 -12.8782 -1.1950
19.8305 -33.6190 -3.1546
20.6097 -33.0854 -3.1417
20.5623 -31.2972 -3.0097
20.8706 -30.1521 -2.9389
22.3700 -30.7048 -3.0358
23.1116 -30.1629 -3.0276
23.8521 -29.6180 -3.0209
25.5888 -30.2477 -3.1378
29.1766 -32.8447 -3.4687
31.9859 -34.3003 -3.6915
32.5775 -33.2843 -3.6544
35.0704 -34.1401 -3.8281
56.7468 -52.6310 -6.0341
46.6776 -39.2718 -4.7248
47.8856 -38.3507 -4.7362
51.1575 -38.9798 -4.9486
50.2425 -36.3977 -4.7575
51.1093 -35.1743 -4.7416
51.2182 -33.4547 -4.6594
51.7939 -32.0724 -4.6240
19.5756 -11.4769 -1.7164
19.4853 -10.7999 -1.6793
19.3982 -10.1468 -1.6444
19.3140 -9.5157 -1.6117
17.6497 -8.1718 -1.4508
17.5772 -7.6281 -1.4243
17.0698 -6.9227 -1.3644
17.0029 -6.4218 -1.3415
16.9345 -5.9325 -1.3197
16.8710 -5.4564 -1.2995
17.2202 -5.1132 -1.3118
17.1803 -4.6528 -1.2953
17.1192 -4.1951 -1.2781
17.0593 -3.7460 -1.2621
17.0004 -3.3047 -1.2471
16.9425 -2.8706 -1.2330
16.8855 -2.4429 -1.2200
16.8292 -2.0210 -1.2078
16.7736 -1.6044 -1.1966
16.7187 -1.1924 -1.1862
16.6642 -0.7846 -1.1766
16.6103 -0.3802 -1.1679
16.5568 0.0210 -1.1599
16.8690 0.4290 -1.1782
21.6882 1.0762 -1.5112
23.4558 1.7327 -1.6315
88.4144 10.8446 -6.1395
80.7229 11.8866 -5.6061
80.1357 13.7852 -5.5695
79.8756 15.7355 -5.5592
79.9389 17.7637 -5.5751
81.1609 24.3187 -5.7182
81.2117 26.4874 -5.7491
80.6082 28.4621 -5.7376
80.0916 30.4744 -5.7362
79.8088 32.5943 -5.7556
79.5224 34.7410 -5.7791
79.2321 36.9177 -5.8067
78.9373 39.1275 -5.8385
30.0656 15.8185 -2.2461
27.9418 15.5740 -2.1102
27.8309 16.4053 -2.1264
27.7177 17.2537 -2.1444
21.7634 14.2878 -1.7065
20.3941 14.1051 -1.6222
19.8845 14.4748 -1.6060
18.6784 14.2994 -1.5333
17.5922 14.1546 -1.4692
16.5893 14.0208 -1.4110
16.1347 14.3185 -1.3992
16.0502 14.9517 -1.4207
15.9628 15.6070 -1.4440
15.8722 16.2864 -1.4691
15.7780 16.9920 -1.4961
15.5512 17.5806 -1.5128
14.7163 17.4693 -1.4708
14.1980 17.7045 -1.4600
14.1748 18.5775 -1.5021
13.6386 18.7993 -1.4919
13.5255 19.6233 -1.5300
13.7550 21.0252 -1.6121
13.6286 21.9724 -1.6583
13.4946 22.9771 -1.7085
13.3521 24.0457 -1.7631
13.1999 25.1860 -1.8226
15.6136 31.6259 -2.2606
14.9852 32.2950 -2.2821
3.9493 9.0791 -0.6347
3.7223 9.1557 -0.6338
3.4962 9.2323 -0.6333
3.2611 9.2825 -0.6315
2.9677 9.1478 -0.6176
11.4449 38.4150 -2.5758
13.3480 49.1062 -3.2726
12.0397 48.9318 -3.2435
11.1762 50.6659 -3.3427
9.8656 50.4911 -3.3180
9.1977 53.9657 -3.5347
12.9016 88.5593 -5.7856
7.7608 64.0844 -4.1787
2.0060 20.7512 -1.3515
1.5145 20.9348 -1.3627
1.0092 20.9788 -1.3658
0.4769 19.9339 -1.2988
-0.0077 33.6258 -2.1941
-0.8248 33.8246 -2.2118
-2.1725 44.7319 -2.9333
-3.2474 44.6024 -2.9350
-9.5744 98.5696 -6.5131
-17.3048 57.9814 -4.0570
-18.4862 56.8890 -4.0215
-19.6431 55.8244 -3.9897
-20.8227 54.9045 -3.9700
-22.2520 54.6542 -4.0011
-24.7146 56.7390 -4.2085
-21.3935 40.7679 -3.1595
-22.3149 40.1369 -3.1613
-22.3888 38.0744 -3.0502
-22.9899 37.0201 -3.0191
-23.9151 36.5117 -3.0337
-25.6200 37.1262 -3.1455
-34.9198 48.0754 -4.1573
-35.4375 46.3890 -4.0979
-40.8557 48.4403 -4.4787
-41.4122 46.7599 -4.4297
-45.8500 44.7718 -4.5922
-42.0234 39.0971 -4.1275
-42.6540 37.8032 -4.1129
-40.5559 34.2305 -3.8432
-41.9272 33.6877 -3.9086
-41.8251 31.9741 -3.8395
-42.8734 31.1637 -3.8792
-54.9673 36.0297 -4.8443
-53.0651 31.2263 -4.5704
-52.8864 29.4246 -4.5083
-53.9428 28.3277 -4.5546
-32.2032 15.9308 -2.6952
-32.3161 15.0259 -2.6828
-34.4389 15.0118 -2.8379
-38.2286 15.5757 -3.1291
-38.6028 14.6507 -3.1406
-32.2743 11.3645 -2.6115
-33.5230 10.9011 -2.6996
-36.9054 11.0223 -2.9597
-36.4230 9.9261 -2.9106
-35.8120 8.8357 -2.8534
-25.1365 5.5609 -1.9981
-25.3682 4.9723 -2.0129
-26.0323 4.4521 -2.0631
-26.5768 3.8866 -2.1049
-26.6826 3.2455 -2.1131
-26.7764 2.6019 -2.1216
-28.8620 2.1019 -2.2892
-27.4760 1.3343 -2.1827
-29.0791 0.7082 -2.3149
-71.0499 0.0124 -5.6712
-71.4692 -1.7155 -5.7230
-41.0189 -1.9775 -3.2970
-41.3912 -2.9998 -3.3412
-41.7919 -4.0465 -3.3898
-50.7632 -6.1570 -4.1397
-50.5465 -7.3747 -4.1464
-62.5525 -15.4131 -5.2828
-72.2024 -31.4543 -6.5597
-68.8019 -31.9738 -6.3317
-7.8375 -3.8754 -0.7311
-69.0076 -36.2243 -6.5290
-43.3397 -24.1047 -4.1619
-43.0821 -25.3445 -4.2021
-42.0160 -26.1050 -4.1654
-40.6439 -26.6359 -4.0986
-50.5919 -34.9328 -5.1933
-23.4149 -17.0182 -2.4487
-51.1032 -39.0653 -5.4491
-49.8088 -40.0206 -5.4198
-48.7596 -41.1609 -4.7078
-41.6250 -36.8985 -4.1095
-47.6605 -44.3523 -4.8160
-55.2070 -53.9240 -5.7155
-26.6659 -27.3371 -2.8315
-52.2839 -56.2595 -5.7003
-46.9039 -52.9840 -5.2569
-25.6283 -30.4011 -2.9565
-46.7738 -58.2883 -5.5612
-51.7299 -67.7583 -6.3479
-45.7893 -63.0831 -5.8080
-43.2431 -62.7109 -5.6787
-42.2708 -64.5891 -5.7571
-42.4976 -72.3437 -6.2615
-34.0831 -61.3713 -5.2399
-31.8292 -60.7277 -5.1182
-31.6884 -64.1878 -5.3438
-29.9254 -64.5007 -5.3076
-25.7023 -59.1015 -4.8100
-24.3907 -60.0137 -4.8337
-11.7582 -31.0645 -2.4776
-9.5157 -27.1020 -2.1417
-10.1948 -31.4494 -2.4638
-9.4121 -31.6222 -2.4574
-8.6288 -31.7821 -2.4513
-7.8449 -31.9290 -2.4454
-7.0603 -32.0631 -2.4399
-6.2752 -32.1846 -2.4346
-4.4871 -26.3974 -1.9861
-4.7029 -32.3891 -2.4250
-3.9158 -32.4725 -2.4206
-3.1281 -32.5432 -2.4166
-2.2798 -31.7660 -2.3510
-1.5090 -31.7695 -2.3445
-0.7396 -31.7642 -2.3386
0.0287 -31.7499 -2.3333
0.7960 -31.7269 -2.3285
1.5628 -31.6951 -2.3243
2.3291 -31.6544 -2.3205
3.0954 -31.6048 -2.3173
3.8618 -31.5465 -2.3147
4.6285 -31.4791 -2.3126
5.3960 -31.4028 -2.3110
6.1643 -31.3175 -2.3100
6.9339 -31.2230 -2.3095
7.7048 -31.1195 -2.3095
8.4775 -31.0065 -2.3101
17.0314 -56.8523 -4.2546
18.4549 -56.5896 -4.2563
22.2373 -62.9801 -4.7635
21.2302 -55.7931 -4.2461
22.3393 -54.6918 -4.1906
23.3950 -53.5410 -4.1329
26.1329 -56.0722 -4.3631
27.8640 -56.1972 -4.4110
28.9780 -55.0582 -4.3621
7.1806 -12.8778 -1.0306
21.4392 -36.3546 -2.9407
20.7867 -33.3771 -2.7310
21.5701 -32.8386 -2.7199
20.8253 -30.0934 -2.5252
41.6303 -57.1541 -4.8625
27.6099 -36.0417 -3.1116
25.1985 -31.2968 -2.7442
25.6337 -30.3076 -2.7015
29.2234 -32.9048 -2.9844
31.5606 -33.8519 -3.1273
32.7822 -33.5010 -3.1556
36.6364 -35.6727 -3.4298
71.5188 -66.3470 -6.5190
52.3817 -44.0814 -4.5402
50.6964 -40.6116 -4.2912
51.2615 -39.0686 -4.2413
54.6810 -39.6231 -4.4262
50.5940 -34.8286 -4.0102
51.6488 -33.7448 -4.0119
52.4858 -32.5095 -3.9986
19.5761 -11.4803 -1.4639
19.4857 -10.8032 -1.4314
19.3986 -10.1500 -1.4008
19.3144 -9.5188 -1.3721
17.6501 -8.1746 -1.2344
17.5775 -7.6307 -1.2110
17.6057 -7.1425 -1.1957
17.4385 -6.5887 -1.1684
17.3717 -6.0880 -1.1489
17.3065 -5.5995 -1.1306
17.2429 -5.1221 -1.1134
17.1806 -4.6550 -1.0972
17.1195 -4.1973 -1.0820
17.0596 -3.7481 -1.0677
17.0007 -3.3068 -1.0544
16.9428 -2.8726 -1.0418
16.8857 -2.4449 -1.0301
16.8294 -2.0230 -1.0192
16.7739 -1.6063 -1.0091
16.7189 -1.1943 -0.9997
16.6645 -0.7864 -0.9910
16.6105 -0.3821 -0.9830
16.5370 0.0192 -0.9745
16.8524 0.4268 -0.9895
21.6885 1.0739 -1.2696
23.4150 1.7273 -1.3674
88.5946 8.6914 -5.1647
88.4151 10.8357 -5.1484
80.7240 11.8787 -4.6983
80.1368 13.7773 -4.6649
79.8766 15.7278 -4.6535
79.9400 17.7561 -4.6640
81.1619 24.3113 -4.7756
80.2201 26.1564 -4.7402
79.9447 28.2204 -4.7472
79.9371 30.4082 -4.7737
79.6549 32.5241 -4.7874
79.5234 34.7341 -4.8138
79.2330 36.9109 -4.8343
32.6012 16.1567 -2.0066
30.0724 15.8194 -1.8686
27.9421 15.5717 -1.7543
27.8312 16.4030 -1.7671
27.7180 17.2515 -1.7813
21.7670 14.2883 -1.4171
20.3972 14.1056 -1.3466
19.8847 14.4733 -1.3324
18.6809 14.2998 -1.2718
17.5944 14.1548 -1.2182
16.5912 14.0210 -1.1696
16.1348 14.3174 -1.1593
16.0503 14.9506 -1.1768
15.9629 15.6060 -1.1957
15.8723 16.2853 -1.2161
15.7782 16.9910 -1.2383
15.5523 17.5808 -1.2519
14.7172 17.4694 -1.2168
14.1981 17.7037 -1.2076
14.0955 18.4727 -1.2352
13.9878 19.2798 -1.2652
13.8745 20.1290 -1.2976
13.7551 21.0247 -1.3327
13.6287 21.9720 -1.3708
13.4947 22.9767 -1.4122
13.3521 24.0454 -1.4572
13.1999 25.1859 -1.5064
15.6135 31.6259 -1.8684
14.9852 32.2952 -1.8862
3.9274 9.0290 -0.5218
3.7017 9.1053 -0.5210
3.5335 9.3313 -0.5292
3.2335 9.2043 -0.5177
2.9431 9.0725 -0.5065
11.4446 38.4171 -2.1302
11.1144 40.8928 -2.2540
12.0383 48.9316 -2.6831
11.1746 50.6657 -2.7658
9.8639 50.4908 -2.7459
9.2884 54.5094 -2.9554
12.8647 88.3295 -4.7780
7.8160 64.5619 -3.4867
1.9910 20.6063 -1.1118
1.5274 21.1268 -1.1396
0.9908 20.6176 -1.1127
0.5005 20.9668 -1.1328
-0.0097 34.0954 -1.8456
-0.8147 33.3347 -1.8090
-2.1439 44.0906 -2.4003
-3.2449 44.5303 -2.4337
-16.7061 55.9587 -3.2660
-19.1744 58.9900 -3.4802
-19.9717 56.7427 -3.3863
-21.4444 56.5288 -3.4150
-22.9803 56.4285 -3.4534
-25.6628 55.2191 -3.4758
-29.4414 52.9425 -3.4962
-22.2387 37.8103 -2.5412
-22.6914 36.5311 -2.5009
-25.4562 38.8558 -2.7118
-27.1399 39.3197 -2.8000
-35.7187 49.1642 -3.5755
-37.3176 46.4681 -3.5346
-40.4970 48.0043 -3.7399
-41.3855 46.7192 -3.7317
-44.5201 45.6151 -3.8423
-47.6866 46.5545 -4.0339
-44.5469 41.4354 -3.6978
-46.4748 41.1799 -3.7897
-40.8766 34.4930 -3.2779
-41.7721 33.5551 -3.2974
-46.1405 35.2645 -3.5888
-42.9295 31.1967 -3.2932
-53.3261 33.1312 -3.9448
-56.1321 33.0221 -4.1091
-54.2664 30.1839 -3.9343
-53.7947 28.2417 -3.8653
-32.1529 15.9011 -2.2914
-32.2669 14.9983 -2.2824
-35.8123 15.6054 -2.5160
-43.6729 16.5690 -3.0328
-32.1678 11.3227 -2.2230
-33.4691 10.8792 -2.3033
-37.1953 11.1041 -2.5505
-36.0304 9.8145 -2.4632
-36.8100 9.0773 -2.5105
-27.5730 6.0966 -1.8771
-25.2895 4.9539 -1.7195
-25.7347 4.3982 -1.7486
-26.1930 3.8275 -1.7796
-25.9479 3.1532 -1.7637
-25.9556 2.5192 -1.7660
-26.0121 1.8914 -1.7725
-29.0702 1.4085 -1.9850
-29.1765 0.7074 -1.9975
-42.2627 0.0029 -2.9025
-40.2687 -0.9708 -2.7758
-41.4066 -2.0005 -2.8662
-40.8298 -2.9633 -2.8397
-41.1770 -3.9911 -2.8790
-51.1954 -6.2147 -3.6002
-51.1057 -7.4614 -3.6167
-75.4035 -12.8776 -5.3730
-68.1610 -29.7000 -5.3639
-66.5267 -30.9225 -5.3047
-7.8369 -3.8758 -0.6336
-67.4734 -35.4249 -5.5345
-61.5086 -34.2153 -5.1221
-60.1379 -35.3833 -5.0879
-58.3128 -36.2354 -5.0158
-58.5133 -38.3515 -5.1207
-49.7449 -34.3521 -4.4325
-23.4444 -17.0416 -2.1287
-50.3233 -38.4733 -4.6598
-48.5531 -39.0157 -4.5888
-48.4481 -40.9019 -3.9721
-47.6879 -42.2767 -3.9988
-56.9857 -53.0346 -4.8918
-54.2928 -53.0352 -4.7761
-54.0102 -55.3735 -4.8740
-51.0589 -54.9450 -4.7319
-46.8954 -52.9778 -4.4684
-25.6052 -30.3754 -2.5116
-54.7927 -68.2847 -5.5400
-48.9909 -64.1734 -5.1130
-44.7698 -61.6810 -4.8302
-43.9791 -63.7804 -4.9129
-42.8374 -65.4568 -4.9633
-41.3968 -66.7226 -4.9840
-41.0744 -69.9222 -5.1489
-33.4313 -60.1983 -4.3730
-35.9974 -68.6805 -4.9251
-33.5608 -67.9803 -4.8154
-32.0203 -69.0153 -4.8320
-25.8429 -59.4237 -4.1148
-24.1474 -59.4133 -4.0713
-9.9850 -26.3788 -1.7899
-9.5158 -27.1010 -1.8218
-11.5385 -35.5924 -2.3718
-10.6500 -35.7783 -2.3648
-9.7615 -35.9506 -2.3580
-15.9088 -64.7422 -4.2163
-13.7717 -62.5327 -4.0456
-12.3956 -63.5647 -4.0874
-4.4881 -26.3975 -1.6880
-8.4260 -58.0148 -3.6910
-8.4464 -70.0191 -4.4343
-6.5165 -67.7641 -4.2741
-5.2291 -72.8151 -4.5762
-1.6477 -34.6547 -2.1712
-0.8085 -34.6456 -2.1650
0.0294 -34.6278 -2.1593
0.8662 -34.6013 -2.1542
1.7023 -34.5662 -2.1495
2.5380 -34.5225 -2.1454
3.3737 -34.4700 -2.1419
4.2098 -34.4088 -2.1388
5.0466 -34.3389 -2.1363
5.8844 -34.2601 -2.1343
6.7237 -34.1724 -2.1328
7.5647 -34.0757 -2.1319
8.4077 -33.9699 -2.1315
17.2817 -63.2284 -3.9811
18.8027 -62.7840 -3.9690
20.3704 -62.4811 -3.9678
22.0100 -62.3536 -3.9800
23.6640 -62.2057 -3.9932
25.2780 -61.9027 -3.9988
26.7882 -61.3223 -3.9886
27.1966 -58.3689 -3.8251
27.2369 -54.9456 -3.6301
28.8353 -54.7999 -3.6524
7.1787 -12.8774 -0.8664
21.4465 -36.3754 -2.4724
24.0305 -38.5945 -2.6518
21.7075 -33.0553 -2.2977
22.4235 -32.4102 -2.2809
24.6395 -33.8352 -2.4127
28.9140 -37.7525 -2.7300
25.6631 -31.8811 -2.3399
25.6787 -30.3676 -2.2642
30.6159 -34.4804 -2.6141
31.0387 -33.2996 -2.5696
33.1134 -33.8472 -2.6612
35.0454 -34.1314 -2.7371
36.1690 -33.5613 -2.7484
57.2487 -50.6021 -4.2367
34.2077 -28.7941 -2.4680
34.7803 -27.8683 -2.4486
35.9084 -27.3740 -2.4691
59.1742 -42.8895 -3.9776
51.8642 -35.7121 -3.4109
56.8232 -37.1351 -3.6593
52.6355 -32.6109 -3.3218
19.5765 -11.4837 -1.2117
19.4862 -10.8065 -1.1837
19.3990 -10.1532 -1.1575
19.3148 -9.5219 -1.1328
17.6504 -8.1773 -1.0182
17.5779 -7.6334 -0.9980
17.5074 -7.1051 -0.9791
17.4178 -6.5832 -0.9600
17.3511 -6.0831 -0.9432
17.2860 -5.5951 -0.9273
17.2224 -5.1183 -0.9124
17.1601 -4.6516 -0.8983
17.0991 -4.1944 -0.8850
17.0393 -3.7457 -0.8726
16.9805 -3.3049 -0.8608
16.9226 -2.8712 -0.8498
16.8656 -2.4439 -0.8395
16.8094 -2.0225 -0.8299
16.7539 -1.6063 -0.8208
16.6990 -1.1947 -0.8124
16.6446 -0.7873 -0.8046
16.5908 -0.3834 -0.7974
16.5373 0.0174 -0.7907
16.9876 0.4284 -0.8086
21.6856 1.0715 -1.0282
88.7747 6.5394 -4.1952
88.5953 8.6824 -4.1756
88.4158 10.8268 -4.1587
80.7251 11.8707 -3.7917
80.1418 13.7703 -3.7616
79.8817 15.7210 -3.7491
79.9410 17.7485 -3.7542
81.1629 24.3039 -3.8343
80.2210 26.1492 -3.8027
79.9457 28.2133 -3.8053
80.0935 30.4602 -3.8309
79.8107 32.5803 -3.8389
79.5243 34.7272 -3.8497
79.2339 36.9041 -3.8633
32.6092 16.1578 -1.6027
30.0793 15.8203 -1.4915
27.9424 15.5694 -1.3990
27.8315 16.4008 -1.4082
27.7183 17.2493 -1.4186
22.5794 14.8196 -1.1700
21.1586 14.6303 -1.1110
19.8382 14.4377 -1.0567
18.6574 14.2802 -1.0091
17.5721 14.1355 -0.9661
16.5700 14.0018 -0.9271
16.1171 14.3004 -0.9186
16.0327 14.9330 -0.9321
15.9454 15.5876 -0.9467
15.8549 16.2663 -0.9625
15.7608 16.9712 -0.9796
15.5369 17.5623 -0.9901
14.7026 17.4510 -0.9621
14.1810 17.6816 -0.9543
14.0786 18.4497 -0.9760
13.9710 19.2559 -0.9994
13.8579 20.1041 -1.0248
13.7385 20.9988 -1.0523
13.6287 21.9716 -1.0836
13.4947 22.9764 -1.1162
13.3521 24.0452 -1.1517
13.2000 25.1858 -1.1905
15.6135 31.6259 -1.4767
14.9851 32.2955 -1.4908
3.9058 8.9795 -0.4101
14.1794 34.8786 -1.5776
14.2671 37.6780 -1.6891
3.2703 9.3095 -0.4140
3.1631 9.7512 -0.4305
11.4444 38.4191 -1.6851
11.1140 40.8953 -1.7835
11.7002 47.5626 -2.0640
11.1730 50.6655 -2.1895
9.8621 50.4906 -2.1745
9.2875 54.5160 -2.3415
12.8391 88.1775 -3.7800
7.8275 64.6798 -2.7694
1.9763 20.4635 -0.8758
1.5082 20.8742 -0.8936
0.9823 20.4619 -0.8767
0.5117 21.4803 -0.9219
-0.0112 33.1661 -1.4269
-0.8074 32.9589 -1.4224
-2.1577 44.3190 -1.9199
-3.2424 44.4585 -1.9346
-9.5879 98.5771 -4.3120
-18.6940 57.4953 -2.7205
-19.8039 56.2502 -2.6945
-21.0797 55.5524 -2.6960
-22.8209 56.0226 -2.7566
-26.6691 57.3702 -2.9084
-29.7901 53.5571 -2.8560
-23.3514 39.6931 -2.1562
-23.3325 37.5547 -2.0798
-26.3656 40.2346 -2.2737
-34.0447 49.3121 -2.8460
-34.9348 48.0746 -2.8362
-36.3368 47.5450 -2.8699
-41.4899 51.6518 -3.1931
-40.5297 48.0323 -3.0440
-41.1977 46.4967 -3.0239
-44.7511 45.8414 -3.1498
-46.1580 45.0519 -3.1872
-46.7434 43.4683 -3.1702
-47.4033 41.9927 -3.1611
-47.6941 40.2364 -3.1306
-43.6988 35.0943 -2.8262
-48.5315 37.0828 -3.0955
-57.5856 37.7262 -3.5425
-53.4354 33.1903 -3.2533
-54.3983 31.9934 -3.2803
-53.2592 29.6152 -3.1834
-54.2697 28.4828 -3.2178
-34.8313 17.2205 -2.0501
-35.3366 16.4200 -2.0661
-35.7175 15.5590 -2.0760
-42.7962 17.4247 -2.4742
-43.3204 16.4293 -2.4929
-35.3002 12.4205 -2.0233
-38.5582 12.5284 -2.2025
-39.0740 11.6599 -2.2258
-36.3044 9.8846 -2.0635
-36.7932 9.0686 -2.0879
-33.9483 7.5021 -1.9244
-28.1846 5.5176 -1.5969
-25.4442 4.3455 -1.4418
-25.8933 3.7806 -1.4681
-26.1838 3.1789 -1.4863
-26.2164 2.5416 -1.4907
-26.2697 1.9072 -1.4971
-29.1603 1.4097 -1.6664
-29.2745 0.7066 -1.6784
-44.0691 -0.0017 -2.5363
-41.2359 -0.9985 -2.3835
-40.5930 -1.9654 -2.3578
-39.3590 -2.8607 -2.2984
-40.0885 -3.8898 -2.3548
-50.1297 -6.0904 -2.9634
-49.6136 -7.2485 -2.9533
-50.9217 -8.7016 -3.0538
-85.6131 -21.1117 -5.2666
-69.9974 -30.5065 -4.6587
-68.4104 -31.8043 -4.6154
-7.8362 -3.8761 -0.5362
-71.7328 -37.6675 -4.9822
-61.4898 -34.2103 -4.3375
-57.8000 -34.0129 -4.1438
-58.1800 -36.1580 -4.2420
-58.5882 -38.4057 -4.3476
-50.3747 -34.7914 -3.8073
-23.4418 -17.0417 -1.8058
-48.8242 -37.3312 -3.8369
-47.7107 -38.3427 -3.8280
-47.5409 -40.1398 -3.2061
-46.5412 -41.2637 -3.2112
-57.3394 -53.3683 -4.0515
-55.5213 -54.2394 -4.0214
-62.6460 -64.2320 -4.6559
-50.0725 -53.8872 -3.8228
-46.8871 -52.9716 -3.6813
-25.5822 -30.3498 -2.0681
-57.6637 -71.8663 -4.8060
-55.5369 -72.7515 -4.7787
-44.9623 -61.9487 -4.0000
-43.9790 -63.7826 -4.0516
-43.1383 -65.9185 -4.1224
-41.7650 -67.3177 -4.1476
-40.1010 -68.2664 -4.1467
-34.1992 -61.5816 -3.6903
-35.3380 -67.4228 -3.9885
-33.3645 -67.5824 -3.9491
-31.5130 -67.9213 -3.9229
-29.6733 -68.2302 -3.8973
-27.8716 -68.5745 -3.8760
-22.0452 -58.2377 -3.2592
-9.5159 -27.1000 -1.5024
-19.3486 -59.6802 -3.2795
-21.3512 -71.7233 -3.9085
-17.6842 -65.1231 -3.5212
-15.8660 -64.5605 -3.4653
-13.8959 -63.0878 -3.3633
-12.8587 -65.9282 -3.4926
-4.4891 -26.3977 -1.3903
-8.3716 -57.6251 -3.0188
-7.0547 -58.4616 -3.0477
-7.7771 -80.8352 -4.1956
-5.8335 -81.1785 -4.1970
-3.9073 -82.0941 -4.2297
-0.8909 -38.0966 -1.9570
0.0303 -38.0741 -1.9509
0.9431 -37.7586 -1.9308
1.8693 -38.0043 -1.9403
2.7882 -37.9569 -1.9358
3.7071 -37.9013 -1.9317
4.6267 -37.8373 -1.9282
5.5474 -37.7650 -1.9251
6.4698 -37.6841 -1.9226
7.3941 -37.5947 -1.9205
8.1654 -36.7952 -1.8831
9.2511 -37.3899 -1.9179
17.1085 -62.6142 -3.2209
18.6136 -62.1714 -3.2088
20.1672 -61.8756 -3.2059
21.7872 -61.7392 -3.2130
23.4235 -61.5900 -3.2212
25.0224 -61.2926 -3.2235
26.5193 -60.7220 -3.2130
27.9281 -59.9535 -3.1937
29.2703 -59.0618 -3.1694
30.6101 -58.1866 -3.1473
7.1768 -12.8770 -0.7025
32.3162 -54.8242 -3.0189
35.1517 -56.4687 -3.1406
36.7254 -55.9366 -3.1444
38.3917 -55.5026 -3.1559
40.2144 -55.2351 -3.1793
28.9410 -37.7962 -2.2040
25.4163 -31.5816 -1.8673
30.8459 -36.4865 -2.1893
30.1119 -33.9205 -2.0675
33.3169 -35.7518 -2.2156
33.4511 -34.2001 -2.1571
35.5048 -34.5867 -2.2227
35.9439 -33.3601 -2.1868
38.2159 -33.7870 -2.2618
34.6340 -29.1598 -1.9960
34.9124 -27.9809 -1.9611
35.8903 -27.3669 -1.9668
37.1445 -26.9291 -1.9874
53.9380 -37.1494 -2.8202
58.0475 -37.9450 -2.9682
55.0498 -34.1158 -2.7551
19.5553 -11.4744 -0.9586
19.4651 -10.7978 -0.9353
19.3780 -10.1452 -0.9134
19.2938 -9.5144 -0.8927
17.6295 -8.1702 -0.8012
17.5570 -7.6268 -0.7843
17.4866 -7.0991 -0.7684
17.4181 -6.5857 -0.7533
17.3514 -6.0855 -0.7391
17.2863 -5.5975 -0.7256
17.2227 -5.1206 -0.7129
17.1604 -4.6539 -0.7009
17.0994 -4.1966 -0.6896
17.0396 -3.7479 -0.6789
16.9808 -3.3070 -0.6688
16.9229 -2.8732 -0.6593
16.8659 -2.4459 -0.6503
16.8097 -2.0245 -0.6419
16.7541 -1.6082 -0.6340
16.6992 -1.1966 -0.6266
16.6449 -0.7891 -0.6197
16.5910 -0.3852 -0.6132
16.5375 0.0157 -0.6072
16.9710 0.4262 -0.6193
21.8538 1.0776 -0.7932
88.7755 6.5303 -3.2071
88.5961 8.6734 -3.1874
88.4166 10.8180 -3.1699
80.7261 11.8628 -2.8860
80.4653 13.8179 -2.8705
80.2040 15.7765 -2.8569
79.9420 17.7410 -2.8453
81.1671 24.2974 -2.8941
81.1477 26.4436 -2.8993
80.6143 28.4417 -2.8883
80.0944 30.4531 -2.8799
79.8116 32.5734 -2.8822
79.5252 34.7204 -2.8866
79.2348 36.8974 -2.8932
32.6173 16.1589 -1.1991
30.0861 15.8212 -1.1145
27.9241 15.5567 -1.0433
27.8133 16.3876 -1.0490
27.7002 17.2356 -1.0556
22.5521 14.7998 -0.8692
21.1324 14.6104 -0.8245
19.8410 14.4381 -0.7845
18.6598 14.2806 -0.7485
17.5742 14.1357 -0.7159
16.5718 14.0020 -0.6864
16.1173 14.2993 -0.6795
16.0329 14.9319 -0.6889
15.9456 15.5865 -0.6992
15.8550 16.2652 -0.7104
15.7610 16.9702 -0.7226
15.5380 17.5625 -0.7300
14.7035 17.4511 -0.7089
14.1812 17.6808 -0.7028
14.0787 18.4490 -0.7184
13.9711 19.2552 -0.7354
13.8580 20.1035 -0.7538
13.7386 20.9983 -0.7739
13.6124 21.9447 -0.7957
13.4785 22.9483 -0.8195
13.3360 24.0160 -0.8455
13.1841 25.1553 -0.8740
15.6135 31.6259 -1.0853
14.9851 32.2957 -1.0957
14.7650 33.9457 -1.1397
14.5265 35.7334 -1.1883
14.2666 37.6780 -1.2421
3.2711 9.3123 -0.3046
3.1428 9.6895 -0.3147
11.4441 38.4212 -1.2403
11.1137 40.8979 -1.3133
11.6997 47.5662 -1.5206
11.1714 50.6653 -1.6138
9.8604 50.4904 -1.6036
9.0531 53.1512 -1.6846
12.7890 87.8567 -2.7811
7.7656 64.1898 -2.0309
6.1475 63.6805 -2.0154
1.5099 20.9105 -0.6625
0.9740 20.3087 -0.6446
0.7995 33.6353 -1.0703
-0.0132 33.7894 -1.0787
-0.8199 33.3909 -1.0704
-2.1601 44.3143 -1.4273
-3.2375 44.3538 -1.4366
-15.6150 57.2835 -1.9914
-16.9788 56.8379 -2.0001
-18.1472 55.7976 -1.9890
-20.1905 57.3328 -2.0718
-20.4876 53.9778 -1.9789
-21.0038 51.5484 -1.9187
-24.0244 55.1129 -2.0843
-26.0589 56.0437 -2.1553
-40.2045 81.2713 -3.1806
-42.5166 80.9629 -3.2270
-22.9788 41.3021 -1.6780
-23.5442 40.0115 -1.6583
-24.2201 38.9743 -1.6493
-32.7437 49.9564 -2.1603
-34.3668 49.7674 -2.2011
-36.6615 50.4395 -2.2837
-36.1147 47.2438 -2.1918
-36.7230 45.7072 -2.1749
-40.5987 48.1032 -2.3500
-41.3870 46.6999 -2.3447
-43.6831 44.7372 -2.3801
-45.1721 44.0795 -2.4181
-46.3414 43.0845 -2.4401
-50.1107 44.3808 -2.5982
-47.5744 40.1260 -2.4314
-43.6975 35.0848 -2.2036
-57.1038 43.6223 -2.8441
-59.7525 43.4003 -2.9419
-55.3853 38.2189 -2.6980
-53.7526 35.2059 -2.5929
-55.0185 34.1645 -2.6302
-52.3738 30.7942 -2.4833
-53.4083 29.6898 -2.5136
-55.1556 28.9393 -2.5784
-56.5439 27.9466 -2.6274
-35.3688 16.4299 -1.6347
-35.9641 15.6613 -1.6545
-41.0580 16.7112 -1.8813
-41.8664 15.8722 -1.9119
-35.3047 12.4174 -1.6078
-37.7048 12.2461 -1.7133
-38.2410 11.4064 -1.7350
-36.2806 9.8736 -1.6444
-38.9541 9.5964 -1.7648
-34.1018 7.5319 -1.5451
-28.5516 5.5860 -1.2945
-28.8163 4.9180 -1.3081
-34.3183 5.0068 -1.5605
-25.4815 3.0907 -1.1613
-25.5544 2.4745 -1.1678
-26.5140 1.9220 -1.2157
-28.9033 1.3941 -1.3302
-29.3730 0.7058 -1.3576
-58.5954 -0.0085 -2.7213
-59.3468 -1.4434 -2.7708
-41.0954 -1.9941 -1.9298
-39.6091 -2.8829 -1.8717
-39.7051 -3.8566 -1.8890
-50.4718 -6.1370 -2.4187
-49.6498 -7.2588 -2.3979
-51.2938 -8.7703 -2.4978
-67.9144 -29.6049 -3.6967
-66.2999 -30.8291 -3.6604
-7.8355 -3.8765 -0.4390
-64.7420 -34.0024 -3.6839
-61.5678 -34.2591 -3.5600
-57.7438 -33.9848 -3.3951
-53.8662 -33.4816 -3.2225
-58.1621 -38.1313 -3.5430
-48.8997 -33.7769 -3.0352
-23.4393 -17.0419 -1.4836
-48.0817 -36.7675 -3.1058
-47.3350 -38.0445 -3.1228
-46.7805 -39.5016 -2.4750
-47.1898 -41.8425 -2.5557
-46.0426 -42.8574 -2.5549
-55.4484 -54.1725 -3.1554
-54.4586 -55.8414 -3.1814
-50.4971 -54.3478 -3.0315
-46.8788 -52.9655 -2.8952
-25.5590 -30.3241 -1.6259
-56.7409 -70.7199 -3.7223
-54.6228 -71.5573 -3.7004
-52.4151 -72.2203 -3.6721
-45.2896 -65.6857 -3.2863
-45.4665 -69.4783 -3.4228
-40.8394 -65.8273 -3.1954
-39.3310 -66.9568 -3.2047
-36.8923 -66.4318 -3.1370
-34.7619 -66.3240 -3.0919
-32.8400 -66.5199 -3.0632
-31.0335 -66.8872 -3.0443
-29.2573 -67.2723 -3.0279
-27.5131 -67.6905 -3.0146
-22.1578 -58.5328 -2.5806
-9.5161 -27.0991 -1.1834
-21.7930 -67.2159 -2.9088
-20.9834 -70.4824 -3.0242
-17.6088 -64.8394 -2.7597
-15.6720 -63.7637 -2.6934
-12.8770 -58.4538 -2.4515
-11.3154 -58.0053 -2.4166
-4.4901 -26.3978 -1.0929
-8.3242 -57.2832 -2.3581
-6.9591 -57.6500 -2.3606
-5.5835 -58.0089 -2.3637
-4.1260 -57.3808 -2.3278
-2.7641 -58.0149 -2.3441
-1.4728 -62.8380 -2.5300
0.0510 -68.8695 -2.7641
0.9296 -37.3017 -1.4931
3.3262 -67.7056 -2.7040
4.9453 -67.3804 -2.6861
5.7324 -58.6464 -2.3347
7.3103 -59.8168 -2.3791
9.6779 -65.9153 -2.6203
11.1603 -65.0325 -2.5851
12.6107 -64.1427 -2.5508
8.1626 -36.7956 -1.4646
15.4790 -62.5821 -2.4943
16.9333 -61.9927 -2.4753
18.4268 -61.5657 -2.4640
19.9641 -61.2701 -2.4590
21.5611 -61.1155 -2.4610
23.1809 -60.9681 -2.4645
24.7580 -60.6606 -2.4627
26.2351 -60.0863 -2.4514
27.6175 -59.3011 -2.4326
28.8886 -58.3057 -2.4063
30.1864 -57.3947 -2.3844
7.1749 -12.8767 -0.5388
32.3050 -54.8179 -2.3121
34.5081 -55.4475 -2.3587
36.0084 -54.8569 -2.3552
36.5503 -52.8524 -2.2917
35.8703 -49.2794 -2.1597
33.0281 -43.1434 -1.9125
35.0369 -43.5455 -1.9541
30.8711 -36.5245 -1.6606
32.4743 -36.5899 -1.6870
33.7060 -36.1775 -1.6930
34.6883 -35.4731 -1.6865
35.4289 -34.5207 -1.6692
36.3531 -33.7476 -1.6614
34.8674 -30.8337 -1.5473
34.5138 -29.0654 -1.4886
34.9816 -28.0431 -1.4677
35.5790 -27.1361 -1.4533
36.7448 -26.6460 -1.4625
53.9126 -37.1414 -2.0926
57.9542 -37.8939 -2.1953
58.4292 -36.2197 -2.1617
19.5558 -11.4778 -0.7071
19.4655 -10.8011 -0.6884
19.3784 -10.1483 -0.6707
19.2942 -9.5175 -0.6541
17.6299 -8.1729 -0.5857
17.5574 -7.6295 -0.5720
17.4870 -7.1017 -0.5590
17.4185 -6.5882 -0.5468
17.3517 -6.0879 -0.5351
17.2866 -5.5998 -0.5241
17.2230 -5.1229 -0.5136
17.1607 -4.6561 -0.5037
17.0997 -4.1988 -0.4943
17.0399 -3.7500 -0.4854
16.9810 -3.3091 -0.4769
16.9232 -2.8753 -0.4689
16.8661 -2.4479 -0.4613
16.8099 -2.0264 -0.4541
16.7544 -1.6101 -0.4473
16.6995 -1.1985 -0.4409
16.6451 -0.7910 -0.4348
16.5912 -0.3870 -0.4291
16.5377 0.0139 -0.4237
16.9545 0.4240 -0.4306
21.8267 1.0739 -0.5499
88.7762 6.5212 -2.2198
88.5968 8.6644 -2.2001
88.4173 10.8091 -2.1820
81.6657 11.9927 -2.0041
81.4019 13.9706 -1.9879
81.1375 15.9522 -1.9730
80.8724 17.9396 -1.9596
81.1681 24.2900 -1.9544
82.2889 26.8078 -1.9802
80.6152 28.4345 -1.9402
80.0954 30.4461 -1.9295
79.8125 32.5664 -1.9261
79.5261 34.7135 -1.9242
79.2357 36.8907 -1.9238
32.5801 16.1375 -0.7945
30.0510 15.8001 -0.7367
27.9244 15.5544 -0.6888
27.8136 16.3853 -0.6910
27.7005 17.2334 -0.6938
22.5558 14.8003 -0.5701
21.1356 14.6108 -0.5397
19.8438 14.4385 -0.5125
18.6623 14.2809 -0.4880
17.5764 14.1360 -0.4659
16.5737 14.0023 -0.4458
16.1174 14.2981 -0.4406
16.0330 14.9308 -0.4460
15.9457 15.5855 -0.4519
15.8551 16.2642 -0.4585
15.7611 16.9692 -0.4658
15.5391 17.5626 -0.4700
14.7045 17.4513 -0.4559
14.1813 17.6800 -0.4515
14.0788 18.4482 -0.4611
13.9712 19.2545 -0.4716
13.8580 20.1029 -0.4831
13.7387 20.9978 -0.4956
13.6124 21.9442 -0.5094
13.4785 22.9480 -0.5244
13.3361 24.0158 -0.5409
13.1841 25.1552 -0.5590
15.6221 31.6435 -0.6946
15.0006 32.3294 -0.7017
14.7802 33.9813 -0.7300
14.5415 35.7712 -0.7613
14.2725 37.6952 -0.7957
3.2719 9.3151 -0.1952
3.1229 9.6285 -0.2005
11.4576 38.4695 -0.7968
11.1268 40.9498 -0.8444
11.6862 47.5171 -0.9764
11.1660 50.6481 -1.0381
9.8554 50.4733 -1.0328
9.2858 54.5289 -1.1149
12.7374 87.5252 -1.7898
7.8117 64.5929 -1.3222
6.2035 64.2904 -1.3184
1.5123 20.9579 -0.4310
1.0099 21.0787 -0.4350
2.1368 90.0899 -1.8673
-0.0149 33.5801 -0.6997
-1.0941 44.4586 -0.9320
-2.1708 44.4801 -0.9388
-6.2225 85.1764 -1.8117
-9.6013 98.5846 -2.1147
-16.9161 62.0370 -1.4436
-18.0243 60.3199 -1.4245
-19.1443 58.8465 -1.4115
-19.1869 54.4679 -1.3279
-21.1894 55.8119 -1.3841
-21.0070 51.5429 -1.3013
-23.4017 53.6709 -1.3805
-27.1913 58.4649 -1.5333
-40.2136 81.2701 -2.1751
-28.5759 54.4033 -1.4870
-23.6750 42.5435 -1.1885
-24.3607 41.3896 -1.1829
-24.1592 38.8676 -1.1373
-7.8027 11.9017 -0.3568
-34.7348 50.2890 -1.5464
-36.5080 50.2170 -1.5852
-37.8083 49.4482 -1.6038
-39.7347 49.4447 -1.6494
-40.1110 47.5148 -1.6317
-40.7236 45.9411 -1.6258
-42.6213 45.8032 -1.6721
-45.4494 46.5356 -1.7545
-51.2805 50.0287 -1.9501
-51.1619 47.5553 -1.9187
-50.8210 44.9994 -1.8817
-51.1280 43.1130 -1.8709
-43.6961 35.0754 -1.5817
-55.8556 42.6583 -2.0020
-58.4107 42.4152 -2.0748
-63.3692 43.7171 -2.2326
-59.4688 38.9397 -2.0798
-52.5994 32.6537 -1.8275
-55.3559 32.5388 -1.9121
-56.5383 31.4210 -1.9430
-56.3369 29.5505 -1.9276
-57.2857 28.3048 -1.9528
-44.1567 20.5056 -1.5006
-76.2391 33.1890 -2.5846
-62.2173 25.3148 -2.1054
-44.0353 16.6885 -1.4883
-35.3092 12.4143 -1.1926
-42.7761 13.8876 -1.4447
-43.0883 12.8467 -1.4559
-42.2881 11.5032 -1.4303
-42.2861 10.4120 -1.4324
-34.2565 7.5619 -1.1628
-34.8548 6.8151 -1.1861
-44.2654 7.5495 -1.5109
-35.2002 5.1314 -1.2058
-26.6497 3.2293 -0.9166
-26.3561 2.5492 -0.9106
-28.6723 2.0753 -0.9955
-29.1855 1.4045 -1.0189
-29.4720 0.7050 -1.0350
-41.8458 -0.0105 -1.4789
-57.8535 -1.4132 -2.0587
-41.1336 -2.0002 -1.4745
-40.6217 -2.9608 -1.4674
-40.8461 -3.9716 -1.4877
-39.8778 -4.8529 -1.4651
-39.7463 -5.8148 -1.4737
-48.5700 -8.3094 -1.8182
-50.3334 -9.8687 -1.9033
-70.8593 -30.8951 -2.9989
-68.7054 -31.9539 -2.9520
-7.8348 -3.8769 -0.3419
-68.4136 -35.9369 -3.0349
-61.0264 -33.9633 -2.7533
-60.6138 -35.6793 -2.7829
-51.8515 -32.2338 -2.4242
-50.8661 -33.3524 -2.4232
-50.2764 -34.7320 -2.4423
-23.4368 -17.0420 -1.1617
-49.5060 -37.8608 -2.5058
-48.1622 -38.7134 -2.4913
-46.3126 -39.1102 -1.7778
-48.8945 -43.3579 -1.9231
-48.4618 -45.1131 -1.9546
-62.9603 -61.5164 -2.6064
-61.4658 -63.0311 -2.6140
-28.3680 -30.5332 -1.2406
-27.2060 -30.7403 -1.2248
-25.5361 -30.2986 -1.1848
-24.9809 -31.1370 -1.1959
-24.7370 -32.4076 -1.2235
-25.1334 -34.6315 -1.2861
-23.0770 -33.4709 -1.2235
-22.0253 -33.6584 -1.2118
-20.9951 -33.8420 -1.2009
-19.9846 -34.0222 -1.1906
-20.3392 -36.6251 -1.2646
-21.1540 -40.3610 -1.3759
-28.9356 -58.6112 -1.9737
-30.5643 -65.8753 -2.1925
-28.8526 -66.3407 -2.1833
-27.1444 -66.7817 -2.1743
-25.4665 -67.2706 -2.1678
-9.5162 -27.0981 -0.8647
-11.7709 -36.3024 -1.1476
-10.7687 -36.1687 -1.1332
-9.7879 -36.0379 -1.1195
-8.8270 -35.9097 -1.1065
