ply
format ascii 1.0
element vertex 2075
property float32 x
property float32 y
property float32 z
end_header
11.2805 17.2209 2.3199
10.8497 17.4710 2.3199
10.4138 17.7113 2.3199
4.0880 7.3541 0.9509
9.5282 18.1621 2.3199
9.0788 18.3725 2.3199
8.6252 18.5729 2.3199
8.1677 18.7631 2.3199
7.6442 18.7900 2.3011
7.1833 18.9583 2.3011
6.7190 19.1164 2.3011
6.2516 19.2642 2.3011
5.7813 19.4017 2.3011
5.3009 19.5012 2.2979
4.8260 19.6177 2.2979
4.3490 19.7238 2.2979
3.7027 18.9637 2.1987
3.3141 19.4658 2.2472
2.9059 19.9790 2.2979
2.4217 20.0429 2.2979
1.9362 20.0962 2.2979
1.4657 20.3631 2.3234
1.0053 21.0773 2.4011
0.4952 21.0997 2.4011
-0.0154 21.1109 2.4011
-0.5263 21.1110 2.4011
-1.0372 21.0998 2.4011
-1.5480 21.0775 2.4011
-2.0584 21.0439 2.4011
-2.5683 20.9992 2.4011
-3.0773 20.9433 2.4011
-3.5854 20.8761 2.4011
-4.0922 20.7978 2.4011
-4.5976 20.7083 2.4011
-5.1013 20.6077 2.4011
-5.6031 20.4959 2.4011
-6.1028 20.3730 2.4011
-6.5848 20.1918 2.3955
-6.7904 19.2312 2.2980
-7.2614 19.0817 2.2980
-7.7295 18.9218 2.2980
-8.1946 18.7513 2.2980
-8.6563 18.5703 2.2980
-9.1145 18.3790 2.2980
-9.5691 18.1772 2.2980
-10.0197 17.9651 2.2980
-10.3222 17.4988 2.2664
-10.5091 16.8694 2.2139
-11.1558 16.9784 2.2596
-10.4896 15.1527 2.0466
-10.4493 14.3406 1.9673
-10.4328 13.6137 1.8984
-10.4173 12.9333 1.8351
-10.4028 12.2944 1.7765
-13.2633 14.9275 2.1988
-10.3763 11.1244 1.6720
-10.3640 10.5861 1.6253
-10.3524 10.0749 1.5818
-10.3414 9.5883 1.5412
-10.3475 9.1388 1.5057
-10.3207 8.6802 1.4679
-15.0363 12.0377 2.0923
-10.3018 7.8463 1.4037
-10.2929 7.4533 1.3746
-16.6161 11.4301 2.1768
-17.3109 11.3015 2.2265
-17.3835 10.7587 2.1969
-17.4966 10.2521 2.1743
-17.7036 9.8064 2.1650
-17.9074 9.3609 2.1566
-18.1520 8.9369 2.1544
-18.5273 8.5717 2.1686
-18.7925 8.1489 2.1707
-19.0467 7.7177 2.1727
-19.2744 7.2727 2.1727
-19.6053 6.8610 2.1853
-19.8215 6.4033 2.1861
-20.0087 5.9338 2.1848
-20.3005 5.4903 2.1961
-20.4971 5.0151 2.1981
-20.7581 4.5503 2.2080
-20.9462 4.0637 2.2113
-20.9380 3.5395 2.1952
-20.9608 3.0243 2.1836
-21.5605 2.5807 2.2332
-22.2994 2.1241 2.2978
-22.5836 1.6017 2.3165
-22.7153 1.0602 2.3207
-22.7974 0.5125 2.3211
-22.8621 -0.0385 2.3211
-22.9136 -0.5924 2.3211
-22.9517 -1.1487 2.3211
-22.9765 -1.7072 2.3211
-17.9530 -1.7710 1.8128
-17.9082 -2.2045 1.8085
-18.6363 -2.7526 1.8833
-22.7098 -3.9170 2.2980
-22.6659 -4.4757 2.2980
-22.6080 -5.0346 2.2980
-22.5361 -5.5931 2.2980
-22.4502 -6.1511 2.2980
-22.3501 -6.7080 2.2980
-23.2335 -7.5895 2.4011
-23.0994 -8.1681 2.4011
-22.9504 -8.7446 2.4011
-22.7867 -9.3184 2.4011
-22.6081 -9.8892 2.4011
-22.4147 -10.4566 2.4011
-22.2065 -11.0200 2.4011
-21.9836 -11.5792 2.4011
-21.7460 -12.1337 2.4011
-21.4938 -12.6831 2.4011
-21.2270 -13.2270 2.4011
-20.9459 -13.7649 2.4011
-20.6504 -14.2963 2.4011
-20.3407 -14.8211 2.4011
-19.3437 -14.8227 2.3204
-18.8344 -15.1679 2.2980
-17.2865 -14.6257 2.4011
-16.5879 -14.7363 2.3489
-15.9019 -14.8290 2.2980
-15.5640 -15.2328 2.2980
-15.2152 -15.6282 2.2980
-14.8557 -16.0149 2.2980
-14.4858 -16.3926 2.2980
-14.1056 -16.7610 2.2980
-13.7155 -17.1198 2.2980
-13.3156 -17.4686 2.2980
-12.9062 -17.8072 2.2980
-12.4876 -18.1353 2.2980
-9.8354 -15.0488 1.8741
-9.3051 -15.0169 1.8396
-8.7948 -14.9897 1.8079
-8.2941 -14.9518 1.7769
-7.7963 -14.8908 1.7451
-7.3003 -14.8023 1.7121
-6.8071 -14.6856 1.6777
-6.3246 -14.5557 1.6437
-5.8546 -14.4163 1.6104
-7.9201 -20.9382 2.3155
-7.4167 -21.1355 2.3155
-6.9080 -21.3194 2.3155
-6.3943 -21.4898 2.3155
-5.8762 -21.6464 2.3155
-5.3538 -21.7893 2.3155
-4.8277 -21.9182 2.3155
-4.2982 -22.0330 2.3155
-3.7657 -22.1337 2.3155
-3.2307 -22.2201 2.3155
-2.6936 -22.2923 2.3155
-2.1547 -22.3500 2.3155
-1.6145 -22.3934 2.3155
-1.0733 -22.4223 2.3155
-0.5317 -22.4368 2.3155
0.0099 -22.4367 2.3155
0.5513 -22.4223 2.3155
1.0919 -22.3934 2.3155
1.6312 -22.3502 2.3155
2.1691 -22.2926 2.3155
2.7049 -22.2208 2.3155
3.2384 -22.1348 2.3155
3.7690 -22.0347 2.3155
4.2965 -21.9206 2.3155
4.8204 -21.7926 2.3155
5.3403 -21.6509 2.3155
5.8559 -21.4957 2.3155
6.3667 -21.3269 2.3155
6.8725 -21.1450 2.3155
7.3728 -20.9499 2.3155
5.7023 -15.0341 1.6783
8.3555 -20.5212 2.3155
8.8373 -20.2880 2.3155
9.3123 -20.0425 2.3155
9.7801 -19.7850 2.3155
10.2404 -19.5157 2.3155
10.6930 -19.2348 2.3155
11.1374 -18.9426 2.3155
11.5736 -18.6393 2.3155
12.0010 -18.3253 2.3155
12.4196 -18.0007 2.3155
12.8290 -17.6660 2.3155
13.2289 -17.3213 2.3155
13.6193 -16.9670 2.3155
13.9997 -16.6033 2.3155
14.3972 -16.2613 2.3199
14.7580 -15.8792 2.3199
15.1083 -15.4887 2.3199
15.4478 -15.0900 2.3199
15.7765 -14.6836 2.3199
16.0941 -14.2697 2.3199
17.4699 -14.7516 2.4711
17.7843 -14.2960 2.4711
18.0865 -13.8334 2.4711
18.3763 -13.3643 2.4711
16.5079 -11.4064 2.1869
16.5776 -10.8726 2.1653
17.9742 -11.1773 2.3169
18.3807 -10.8235 2.3400
19.6370 -10.9333 2.4711
19.8509 -10.4324 2.4711
20.0518 -9.9275 2.4711
16.4052 -7.6345 2.0029
16.7294 -7.2991 2.0250
17.8683 -7.2874 2.1459
20.7255 -7.8744 2.4711
20.8614 -7.3544 2.4711
20.9842 -6.8325 2.4711
21.0941 -6.3089 2.4711
21.1909 -5.7840 2.4711
21.2748 -5.2581 2.4711
16.2956 -3.6121 1.8865
16.2844 -3.1989 1.8801
16.7518 -2.8722 1.9299
21.1498 -3.1023 2.4330
21.5014 -2.6249 2.4711
21.5085 -2.0997 2.4711
20.4480 -1.4984 2.3499
20.4311 -1.0016 2.3499
20.4024 -0.5064 2.3499
20.3621 -0.0132 2.3499
20.3102 0.4778 2.3499
20.2469 0.9663 2.3499
20.1722 1.4521 2.3499
20.0864 1.9349 2.3499
19.9894 2.4144 2.3499
19.8815 2.8905 2.3499
19.7627 3.3629 2.3499
19.6332 3.8313 2.3499
19.4931 4.2956 2.3499
19.3427 4.7555 2.3499
19.1819 5.2108 2.3499
19.0110 5.6613 2.3499
18.8301 6.1067 2.3499
18.6394 6.5470 2.3499
18.4391 6.9818 2.3499
18.2291 7.4110 2.3499
18.0099 7.8345 2.3499
17.5939 8.1650 2.3251
17.3293 8.5574 2.3211
17.0860 8.9575 2.3211
16.8341 9.3512 2.3211
16.5738 9.7383 2.3211
16.3053 10.1187 2.3211
16.0286 10.4923 2.3211
15.7441 10.8588 2.3211
15.4519 11.2182 2.3211
15.1439 11.5641 2.3199
14.8369 11.9086 2.3199
14.5228 12.2456 2.3199
14.2016 12.5749 2.3199
13.8736 12.8964 2.3199
13.5390 13.2100 2.3199
13.1979 13.5155 2.3199
12.8505 13.8130 2.3199
12.4970 14.1022 2.3199
12.1376 14.3830 2.3199
11.7725 14.6555 2.3199
11.4019 14.9193 2.3199
11.0259 15.1746 2.3199
10.6447 15.4212 2.3199
10.2585 15.6589 2.3199
9.8676 15.8878 2.3199
9.4720 16.1077 2.3199
4.0852 7.3483 1.0446
8.6678 16.5204 2.3199
8.2596 16.7130 2.3199
7.7840 16.7599 2.3011
7.3716 16.9325 2.3011
6.9557 17.0960 2.3011
6.5366 17.2501 2.3011
6.1144 17.3947 2.3011
5.6893 17.5300 2.3011
5.2540 17.6308 2.2979
4.8243 17.7469 2.2979
4.3923 17.8534 2.2979
3.9581 17.9504 2.2979
3.5221 18.0377 2.2979
3.0842 18.1153 2.2979
2.6448 18.1833 2.2979
2.2040 18.2415 2.2979
1.7621 18.2901 2.2979
1.3784 19.1524 2.4011
0.9147 19.1826 2.4011
0.4504 19.2026 2.4011
-0.0143 19.2124 2.4011
-0.4793 19.2119 2.4011
-0.9443 19.2011 2.4011
-1.4091 19.1800 2.4011
-1.8735 19.1487 2.4011
-2.3374 19.1071 2.4011
-2.8005 19.0552 2.4011
-3.2626 18.9930 2.4011
-3.7236 18.9206 2.4011
-4.1831 18.8379 2.4011
-4.6410 18.7450 2.4011
-5.0972 18.6419 2.4011
-5.5513 18.5286 2.4011
-6.0032 18.4051 2.4011
-6.4527 18.2714 2.4011
-6.6033 17.3494 2.2980
-7.0283 17.2022 2.2980
-7.4503 17.0454 2.2980
-7.8692 16.8790 2.2980
-8.2848 16.7031 2.2980
-8.6969 16.5177 2.2980
-9.1053 16.3229 2.2980
-9.5098 16.1188 2.2980
-9.9101 15.9053 2.2980
-10.3062 15.6826 2.2980
-10.4913 15.1526 2.2537
-10.4492 14.3381 2.1663
-10.4327 13.6112 2.0908
-10.4175 12.9311 2.0214
-10.4028 12.2921 1.9572
-12.3206 13.8640 2.2506
-10.3762 11.1222 1.8427
-10.3640 10.5840 1.7914
-10.3524 10.0729 1.7438
-10.3413 9.5864 1.6994
-10.3495 9.1388 1.6609
-10.3207 8.6784 1.6192
-10.3350 8.2722 1.5866
-10.3018 7.8446 1.5489
-10.2928 7.4516 1.5171
-10.3055 7.0874 1.4904
-12.0555 7.8686 1.7120
-15.5439 9.6177 2.1694
-15.6206 9.1505 2.1442
-15.7481 8.7209 2.1277
-15.8017 8.2579 2.1030
-10.2380 5.0391 1.3431
-10.2311 4.7320 1.3239
-17.2106 7.4605 2.1984
-17.6192 7.1369 2.2230
-10.2203 3.8550 1.2746
-18.2358 6.3793 2.2493
-18.4651 5.9627 2.2541
-18.7010 5.5436 2.2608
-19.0112 5.1391 2.2774
-19.1313 4.6785 2.2724
-19.3111 4.2307 2.2757
-19.4186 3.7649 2.2718
-19.3499 3.2686 2.2486
-19.4745 2.8075 2.2494
-19.8407 2.3724 2.2791
-20.1905 1.9207 2.3079
-20.3436 1.4403 2.3153
-20.4712 0.9530 2.3211
-20.5361 0.4592 2.3211
-20.5892 -0.0372 2.3211
-20.6303 -0.5358 2.3211
-20.6594 -1.0364 2.3211
-20.6763 -1.5388 2.3211
-20.6810 -2.0425 2.3211
-16.8305 -2.0739 1.8897
-16.8552 -2.4915 1.8943
-20.4155 -3.5237 2.2980
-20.3709 -4.0250 2.2980
-20.3137 -4.5261 2.2980
-12.9513 -3.2159 1.4702
-20.1618 -5.5265 2.2980
-20.0670 -6.0252 2.2980
-19.9595 -6.5224 2.2980
-20.7294 -7.3327 2.4011
-20.5907 -7.8480 2.4011
-20.4389 -8.3609 2.4011
-20.2738 -8.8707 2.4011
-20.0956 -9.3772 2.4011
-19.9042 -9.8801 2.4011
-11.4325 -6.0232 1.3934
-19.4825 -10.8733 2.4011
-19.2522 -11.3629 2.4011
-19.0090 -11.8474 2.4011
-18.7531 -12.3263 2.4011
-18.4846 -12.7994 2.4011
-18.2035 -13.2663 2.4011
-17.9100 -13.7265 2.4011
-17.6043 -14.1798 2.4011
-15.6314 -13.2276 2.4011
-15.3308 -13.6218 2.4011
-15.0197 -14.0086 2.4011
-14.6984 -14.3878 2.4011
-14.2718 -14.6614 2.3852
-13.6003 -14.6636 2.3283
-13.0872 -14.8120 2.2980
-12.7421 -15.1428 2.2980
-12.3880 -15.4649 2.2980
-12.0253 -15.7780 2.2980
-11.6542 -16.0818 2.2980
-11.2749 -16.3762 2.2980
-10.0326 -15.3523 2.1175
-10.4928 -16.9355 2.2980
-10.0905 -17.2000 2.2980
-9.6810 -17.4540 2.2980
-7.9332 -15.1539 1.9677
-7.2977 -14.7985 1.8967
-6.8057 -14.6840 1.8590
-6.3263 -14.5610 1.8223
-5.8580 -14.4259 1.7861
-5.3916 -14.2549 1.7473
-4.9282 -14.0450 1.7056
-4.4760 -13.8150 1.6633
-4.0444 -13.5933 1.6237
-3.6859 -13.5789 1.6103
-4.8288 -19.6539 2.3155
-4.3542 -19.7696 2.3155
-3.8766 -19.8728 2.3155
-3.3963 -19.9633 2.3155
-2.9138 -20.0411 2.3155
-2.4294 -20.1061 2.3155
-1.9434 -20.1582 2.3155
-1.4562 -20.1975 2.3155
-0.9683 -20.2239 2.3155
-0.4798 -20.2373 2.3155
0.0087 -20.2379 2.3155
0.4969 -20.2255 2.3155
0.9845 -20.2003 2.3155
1.4711 -20.1622 2.3155
1.9563 -20.1113 2.3155
2.4398 -20.0476 2.3155
2.9212 -19.9713 2.3155
3.4002 -19.8823 2.3155
3.8763 -19.7808 2.3155
4.3494 -19.6670 2.3155
4.8189 -19.5408 2.3155
5.2847 -19.4024 2.3155
5.7462 -19.2519 2.3155
6.2033 -19.0896 2.3155
6.6556 -18.9155 2.3155
5.7005 -15.0319 1.8584
7.5446 -18.5327 2.3155
7.9806 -18.3244 2.3155
8.4106 -18.1049 2.3155
8.8343 -17.8747 2.3155
9.2513 -17.6337 2.3155
9.6615 -17.3823 2.3155
10.0646 -17.1208 2.3155
10.4602 -16.8492 2.3155
10.8483 -16.5678 2.3155
11.2496 -16.3077 2.3199
11.6222 -16.0071 2.3199
11.9866 -15.6973 2.3199
12.3423 -15.3788 2.3199
12.6892 -15.0518 2.3199
13.0272 -14.7166 2.3199
13.3560 -14.3733 2.3199
13.6754 -14.0224 2.3199
13.9853 -13.6640 2.3199
14.2855 -13.2985 2.3199
14.5759 -12.9262 2.3199
14.8562 -12.5473 2.3199
15.1265 -12.1621 2.3199
15.3865 -11.7709 2.3199
15.6362 -11.3741 2.3199
15.8754 -10.9718 2.3199
16.5738 -10.8727 2.3875
17.3862 -10.8143 2.4711
17.6069 -10.3704 2.4711
17.8162 -9.9221 2.4711
18.0139 -9.4697 2.4711
18.2000 -9.0133 2.4711
16.4053 -7.6368 2.2063
16.7244 -7.2992 2.2295
17.8683 -7.2899 2.3627
18.8272 -7.1556 2.4711
18.9545 -6.6847 2.4711
19.0702 -6.2118 2.4711
19.1740 -5.7371 2.4711
19.2660 -5.2611 2.4711
19.3464 -4.7839 2.4711
16.2957 -3.6142 2.0741
16.2844 -3.2010 2.0666
16.7412 -2.8725 2.1197
19.5506 -2.8702 2.4711
19.5727 -2.3919 2.4711
19.5832 -1.9142 2.4711
18.6215 -1.3668 2.3499
18.6098 -0.9145 2.3499
18.5875 -0.4636 2.3499
18.5544 -0.0142 2.3499
18.5108 0.4333 2.3499
18.4568 0.8787 2.3499
18.3923 1.3218 2.3499
18.3176 1.7623 2.3499
18.2326 2.2001 2.3499
18.1376 2.6348 2.3499
18.0327 3.0663 2.3499
17.9179 3.4944 2.3499
17.7933 3.9189 2.3499
17.6592 4.3395 2.3499
17.5155 4.7560 2.3499
17.3626 5.1683 2.3499
17.2004 5.5761 2.3499
17.0291 5.9793 2.3499
16.8488 6.3776 2.3499
16.6598 6.7710 2.3499
16.4621 7.1592 2.3499
16.2559 7.5420 2.3499
16.0414 7.9193 2.3499
15.6251 8.1895 2.3211
15.3887 8.5463 2.3199
15.1530 8.9015 2.3199
14.9096 9.2506 2.3199
14.6587 9.5936 2.3199
14.4005 9.9302 2.3199
14.1351 10.2604 2.3199
13.8627 10.5839 2.3199
13.5835 10.9006 2.3199
13.2975 11.2105 2.3199
13.0050 11.5134 2.3199
12.7061 11.8093 2.3199
12.4010 12.0979 2.3199
12.0899 12.3791 2.3199
11.7730 12.6529 2.3199
11.4503 12.9192 2.3199
11.1221 13.1779 2.3199
10.7886 13.4288 2.3199
10.4498 13.6719 2.3199
10.1061 13.9070 2.3199
9.7576 14.1342 2.3199
9.4043 14.3533 2.3199
9.0466 14.5642 2.3199
8.6846 14.7669 2.3199
4.0824 7.3425 1.1385
3.9017 7.4357 1.1388
7.5131 15.2010 2.3011
7.1386 15.3687 2.3011
6.7607 15.5279 2.3011
6.3796 15.6785 2.3011
5.9954 15.8205 2.3011
5.6005 15.9314 2.2979
5.2112 16.0558 2.2979
4.8195 16.1715 2.2979
4.4255 16.2784 2.2979
4.0292 16.3766 2.2979
2.8261 12.8156 1.7885
2.5147 12.8781 1.7885
2.8293 16.6175 2.2979
2.4262 16.6800 2.2979
2.0218 16.7334 2.2979
1.6164 16.7779 2.2979
1.2644 17.5688 2.4011
0.8390 17.5964 2.4011
0.4130 17.6145 2.4011
-0.0134 17.6231 2.4011
-0.4399 17.6222 2.4011
-0.8665 17.6119 2.4011
-1.2928 17.5920 2.4011
-1.7188 17.5626 2.4011
-2.1442 17.5238 2.4011
-2.5689 17.4754 2.4011
-2.9926 17.4175 2.4011
-3.4152 17.3502 2.4011
-3.8364 17.2734 2.4011
-4.2561 17.1871 2.4011
-4.6741 17.0915 2.4011
-5.0902 16.9864 2.4011
-5.5041 16.8720 2.4011
-5.9158 16.7482 2.4011
-6.3249 16.6151 2.4011
-6.4753 15.8461 2.3098
-6.8286 15.6203 2.2980
-7.2119 15.4664 2.2980
-7.5920 15.3038 2.2980
-7.9689 15.1324 2.2980
-8.3422 14.9524 2.2980
-6.5829 11.1560 1.7365
-9.0776 14.5666 2.2980
-9.4392 14.3609 2.2980
-9.7966 14.1469 2.2980
-10.1496 13.9245 2.2980
-10.3536 13.5056 2.2664
-10.4193 12.9311 2.2085
-10.4027 12.2898 2.1383
-11.4681 12.9023 2.2890
-10.3762 11.1201 2.0137
-10.3639 10.5819 1.9581
-10.3523 10.0709 1.9062
-10.3413 9.5845 1.8579
-10.3516 9.1388 1.8165
-10.3207 8.6765 1.7707
-13.8229 11.0616 2.3211
-10.3017 7.8428 1.6945
-10.2928 7.4499 1.6600
-14.3687 9.8795 2.2741
-10.2998 6.7210 1.6010
-10.2917 6.3664 1.5724
-14.8410 8.6916 2.2306
-15.0106 8.3103 2.2210
-15.1642 7.9226 2.2105
-10.2380 5.0377 1.4714
-10.2310 4.7305 1.4506
-10.2242 4.4307 1.4312
-15.9721 6.4675 2.2089
-10.2110 3.8502 1.3961
-10.2046 3.5685 1.3802
-16.6657 5.3795 2.2312
-10.1922 3.0200 1.3516
-17.1542 4.6349 2.2547
-10.1801 2.4883 1.3270
-17.6845 3.8721 2.2875
-10.1683 1.9702 1.3060
-17.8462 3.0124 2.2773
-10.1568 1.4630 1.2885
-18.2922 2.1850 2.3082
-10.1455 0.9639 1.2742
-18.5577 1.3116 2.3211
-18.6235 0.8647 2.3211
-18.6787 0.4154 2.3211
-18.7230 -0.0361 2.3211
-18.7565 -0.4894 2.3211
-18.7791 -0.9444 2.3211
-18.7906 -1.4007 2.3211
-18.7909 -1.8581 2.3211
-14.6321 -1.8047 1.8085
-16.9235 -2.5037 2.0941
-15.1928 -2.6241 1.8833
-18.4937 -3.6563 2.2980
-18.4380 -4.1104 2.2980
-12.0211 -2.9863 1.5037
-11.7989 -3.2356 1.4822
-18.2028 -5.4677 2.2980
-18.1017 -5.9175 2.2980
-17.9892 -6.3655 2.2980
-18.6667 -7.1170 2.4011
-18.5253 -7.5804 2.4011
-18.3721 -8.0409 2.4011
-18.2071 -8.4983 2.4011
-18.0303 -8.9522 2.4011
-17.8418 -9.4022 2.4011
-17.6416 -9.8482 2.4011
-17.4299 -10.2896 2.4011
-17.2066 -10.7263 2.4011
-16.9719 -11.1578 2.4011
-16.7260 -11.5840 2.4011
-16.4688 -12.0043 2.4011
-16.2006 -12.4186 2.4011
-15.9214 -12.8265 2.4011
-14.2622 -12.0710 2.4011
-13.9861 -12.4290 2.4011
-13.7005 -12.7802 2.4011
-13.4057 -13.1244 2.4011
-13.1018 -13.4614 2.4011
-12.7889 -13.7908 2.4011
-12.4673 -14.1124 2.4011
-12.1372 -14.4259 2.4011
-11.7056 -14.6148 2.3822
-11.1326 -14.6085 2.3341
-10.6211 -14.6580 2.2980
-10.2745 -14.9249 2.2980
-9.9207 -15.1829 2.2980
-9.5600 -15.4318 2.2980
-9.1928 -15.6715 2.2980
-8.8191 -15.9017 2.2980
-7.9330 -15.1551 2.1602
-8.0535 -16.3330 2.2980
-7.6622 -16.5336 2.2980
-7.2655 -16.7242 2.2980
-5.9965 -14.7684 2.0077
-6.4573 -17.0740 2.2980
-4.9208 -14.0252 1.8702
-4.4766 -13.8178 1.8269
-4.0523 -13.6208 1.7867
-3.6348 -13.3918 1.7441
-3.2235 -13.1207 1.6977
-2.8309 -12.8539 1.6534
-2.4585 -12.6036 1.6129
-3.0864 -18.1421 2.3111
-2.6479 -18.2126 2.3111
-2.2077 -18.2717 2.3111
-1.7662 -18.3191 2.3111
-1.3260 -18.3896 2.3155
-0.8818 -18.4139 2.3155
-0.4371 -18.4265 2.3155
0.0076 -18.4274 2.3155
0.4521 -18.4166 2.3155
0.8961 -18.3942 2.3155
1.3392 -18.3603 2.3155
1.7810 -18.3147 2.3155
2.2172 -18.2230 2.3111
2.6549 -18.1546 2.3111
3.0904 -18.0748 2.3111
3.5235 -17.9836 2.3111
3.9537 -17.8812 2.3111
4.3809 -17.7678 2.3111
4.8047 -17.6432 2.3111
5.2248 -17.5079 2.3111
5.6409 -17.3617 2.3111
6.0527 -17.2049 2.3111
5.6987 -15.0297 2.0388
6.8624 -16.8599 2.3111
7.2597 -16.6720 2.3111
7.6517 -16.4741 2.3111
8.0380 -16.2663 2.3111
8.4184 -16.0489 2.3111
8.8260 -15.8818 2.3199
9.1953 -15.6447 2.3199
9.5580 -15.3984 2.3199
9.9137 -15.1433 2.3199
10.2625 -14.8794 2.3199
10.6038 -14.6070 2.3199
10.9377 -14.3263 2.3199
11.2639 -14.0376 2.3199
11.5821 -13.7411 2.3199
11.8923 -13.4370 2.3199
12.1942 -13.1255 2.3199
12.4877 -12.8070 2.3199
12.7726 -12.4817 2.3199
13.0488 -12.1497 2.3199
13.3161 -11.8114 2.3199
13.5744 -11.4670 2.3199
13.8236 -11.1169 2.3199
14.0634 -10.7611 2.3199
14.2940 -10.4001 2.3199
14.5150 -10.0340 2.3199
14.7265 -9.6632 2.3199
14.9284 -9.2878 2.3199
15.1205 -8.9082 2.3199
15.3028 -8.5246 2.3199
15.4752 -8.1374 2.3199
15.6378 -7.7467 2.3199
15.7903 -7.3528 2.3199
16.7194 -7.2994 2.4344
17.1129 -6.9840 2.4711
17.2433 -6.5560 2.4711
17.3630 -6.1257 2.4711
17.4720 -5.6935 2.4711
17.5702 -5.2595 2.4711
17.6576 -4.8241 2.4711
17.7343 -4.3876 2.4711
16.2958 -3.6163 2.2623
16.2845 -3.2030 2.2537
16.7307 -2.8728 2.3097
17.9340 -2.6351 2.4711
17.9574 -2.1967 2.4711
17.0884 -1.6724 2.3499
17.0905 -1.2566 2.3499
17.0828 -0.8416 2.3499
17.0651 -0.4277 2.3499
17.0376 -0.0152 2.3499
17.0005 0.3959 2.3499
16.9536 0.8051 2.3499
16.8972 1.2123 2.3499
16.8313 1.6173 2.3499
16.7559 2.0199 2.3499
16.6713 2.4198 2.3499
16.5775 2.8169 2.3499
16.4745 3.2109 2.3499
16.3625 3.6018 2.3499
16.2416 3.9891 2.3499
16.1119 4.3729 2.3499
15.9736 4.7529 2.3499
15.8267 5.1288 2.3499
15.4713 5.4304 2.3199
15.3097 5.7931 2.3199
15.1401 6.1514 2.3199
14.9625 6.5051 2.3199
14.7771 6.8540 2.3199
14.5839 7.1980 2.3199
14.3833 7.5368 2.3199
14.1752 7.8705 2.3199
13.9598 8.1987 2.3199
13.7373 8.5215 2.3199
13.5077 8.8385 2.3199
13.2713 9.1498 2.3199
13.0282 9.4551 2.3199
12.7786 9.7544 2.3199
12.5225 10.0475 2.3199
12.2602 10.3343 2.3199
11.9917 10.6146 2.3199
11.7173 10.8885 2.3199
11.4370 11.1557 2.3199
11.1512 11.4162 2.3199
10.8598 11.6698 2.3199
10.5631 11.9165 2.3199
10.2612 12.1561 2.3199
9.9542 12.3887 2.3199
9.6424 12.6139 2.3199
9.3260 12.8319 2.3199
9.0049 13.0425 2.3199
8.6795 13.2455 2.3199
8.3499 13.4411 2.3199
8.0162 13.6290 2.3199
4.0796 7.3367 1.2325
3.8989 7.4294 1.2327
6.9360 14.0320 2.3011
6.5906 14.1875 2.3011
6.2420 14.3351 2.3011
5.8903 14.4748 2.3011
5.5280 14.5858 2.2979
5.1713 14.7092 2.2979
4.8120 14.8246 2.2979
4.4504 14.9319 2.2979
4.0866 15.0310 2.2979
2.8959 11.7696 1.7885
2.6097 11.8339 1.7885
2.4593 12.5939 1.8941
2.6127 15.3450 2.2979
2.2405 15.4027 2.2979
1.8670 15.4521 2.2979
1.5596 16.1893 2.4011
1.1674 16.2234 2.4011
0.7746 16.2487 2.4011
0.3811 16.2652 2.4011
-0.0126 16.2729 2.4011
-0.4065 16.2718 2.4011
-0.8004 16.2618 2.4011
-1.1941 16.2431 2.4011
-1.5874 16.2154 2.4011
-1.9802 16.1790 2.4011
-2.3722 16.1337 2.4011
-2.7633 16.0797 2.4011
-3.1534 16.0168 2.4011
-3.5421 15.9451 2.4011
-3.9294 15.8647 2.4011
-4.3150 15.7755 2.4011
-4.6988 15.6776 2.4011
-5.0806 15.5710 2.4011
-5.4602 15.4558 2.4011
-5.8374 15.3319 2.4011
-6.2121 15.1993 2.4011
-6.4360 14.7198 2.3471
-6.6545 14.2687 2.2980
-7.0047 14.1174 2.2980
-7.3517 13.9581 2.2980
-7.6955 13.7909 2.2980
-6.5765 11.1431 1.8807
-6.8397 10.9737 1.8774
-8.7050 13.2416 2.2980
-9.0337 13.0429 2.2980
-9.3582 12.8364 2.2980
-9.6783 12.6225 2.2980
-9.9939 12.4009 2.2980
-10.3047 12.1719 2.2980
-10.4132 11.7133 2.2552
-10.3761 11.1180 2.1852
-10.3639 10.5799 2.1251
-10.3523 10.0689 2.0691
-10.3412 9.5825 2.0169
-12.1826 10.7531 2.3211
-10.3206 8.6747 1.9229
-12.7282 10.1833 2.3211
-10.3017 7.8411 1.8405
-10.2928 7.4482 1.8033
-13.4472 9.2439 2.3123
-13.6592 8.9110 2.3071
-13.8845 8.5868 2.3054
-14.0879 8.2485 2.3015
-14.2398 7.8814 2.2904
-14.3964 7.5193 2.2817
-10.2380 5.0362 1.6000
-10.2310 4.7291 1.5777
-10.2242 4.4292 1.5568
-15.0884 6.1076 2.2702
-10.2110 3.8488 1.5191
-10.2046 3.5671 1.5020
-15.5703 5.0238 2.2690
-10.1922 3.0186 1.4714
-15.9283 4.3016 2.2795
-10.1801 2.4869 1.4451
-16.1878 3.5423 2.2807
-10.1683 1.9689 1.4227
-16.4390 2.7728 2.2856
-10.1568 1.4617 1.4041
-16.6896 1.9915 2.2954
-10.1455 0.9627 1.3890
-17.0158 1.2005 2.3205
-10.1342 0.4693 1.3774
-10.1287 0.2241 1.3728
-17.1632 -0.0351 2.3211
-10.1176 -0.2652 1.3661
-17.2085 -0.8675 2.3211
-10.1065 -0.7545 1.3626
-17.2133 -1.7042 2.3211
-10.0953 -1.2463 1.3623
-13.3832 -1.9815 1.8085
-14.0321 -2.4253 1.8999
-16.9293 -3.3491 2.2980
-16.8754 -3.7641 2.2980
-11.8798 -2.9527 1.6239
-11.6933 -3.2081 1.6056
-16.6517 -5.0038 2.2980
-16.5564 -5.4144 2.2980
-16.4507 -5.8232 2.2980
-16.3347 -6.2299 2.2980
-16.2083 -6.6343 2.2980
-16.7926 -7.3517 2.4011
-16.6392 -7.7685 2.4011
-16.4750 -8.1820 2.4011
-16.3002 -8.5919 2.4011
-16.1148 -8.9979 2.4011
-9.1090 -5.3786 1.3739
-15.7127 -9.7971 2.4011
-15.4961 -10.1896 2.4011
-15.2693 -10.5771 2.4011
-15.0324 -10.9593 2.4011
-14.7854 -11.3359 2.4011
-14.5287 -11.7065 2.4011
-13.1103 -11.0979 2.4011
-12.8551 -11.4257 2.4011
-12.5913 -11.7473 2.4011
-12.3190 -12.0624 2.4011
-12.0385 -12.3708 2.4011
-11.7499 -12.6722 2.4011
-11.4548 -12.9680 2.4014
-11.1510 -13.2556 2.4015
-10.8386 -13.5342 2.4014
-10.5188 -13.8049 2.4013
-10.1919 -14.0675 2.4012
-9.8583 -14.3220 2.4012
-9.4760 -14.5040 2.3905
-8.9662 -14.4748 2.3474
-8.4757 -14.4508 2.3078
-8.0961 -14.5996 2.2980
-7.7469 -14.8012 2.2980
-7.3924 -14.9937 2.2980
-7.0328 -15.1771 2.2980
-6.6684 -15.3512 2.2980
-5.9963 -14.7691 2.1874
-5.9261 -15.6709 2.2980
-5.5487 -15.8163 2.2980
-5.1675 -15.9519 2.2980
-4.7828 -16.0775 2.2980
-3.6297 -13.3737 1.8979
-3.2194 -13.1049 1.8477
-2.8349 -12.8729 1.8045
-2.4632 -12.6286 1.7611
-2.0973 -12.3289 1.7115
-1.7457 -12.0070 1.6604
-1.4172 -11.7291 1.6167
-1.6207 -16.8101 2.3111
-0.8336 -11.5595 1.5861
-0.8078 -16.8655 2.3111
-0.4006 -16.8773 2.3111
0.0067 -16.8784 2.3111
0.4139 -16.8690 2.3111
0.8205 -16.8489 2.3111
1.2263 -16.8183 2.3111
1.6311 -16.7771 2.3111
2.0345 -16.7255 2.3111
2.4363 -16.6633 2.3111
2.8361 -16.5909 2.3111
3.2337 -16.5080 2.3111
3.6288 -16.4150 2.3111
4.0211 -16.3117 2.3111
4.4104 -16.1985 2.3111
4.7964 -16.0752 2.3111
5.1788 -15.9421 2.3111
5.5573 -15.7993 2.3111
5.6969 -15.0275 2.2196
6.3017 -15.4850 2.3111
6.6672 -15.3137 2.3111
7.0278 -15.1333 2.3111
7.3833 -14.9438 2.3111
7.7334 -14.7454 2.3111
8.0781 -14.5384 2.3111
8.4169 -14.3228 2.3111
8.7829 -14.1521 2.3199
9.1108 -13.9191 2.3199
9.4323 -13.6780 2.3199
9.7471 -13.4292 2.3199
10.0552 -13.1727 2.3199
10.3562 -12.9087 2.3199
10.6501 -12.6376 2.3199
10.9366 -12.3594 2.3199
11.2157 -12.0745 2.3199
11.4871 -11.7830 2.3199
11.7507 -11.4852 2.3199
12.0063 -11.1812 2.3199
12.2538 -10.8714 2.3199
12.4932 -10.5559 2.3199
12.7242 -10.2349 2.3199
12.9468 -9.9088 2.3199
13.1608 -9.5777 2.3199
13.3662 -9.2420 2.3199
13.5628 -8.9017 2.3199
13.7507 -8.5572 2.3199
13.9296 -8.2087 2.3199
14.0996 -7.8565 2.3199
14.2606 -7.5007 2.3199
14.4124 -7.1417 2.3199
14.5552 -6.7797 2.3199
14.6887 -6.4149 2.3199
14.8131 -6.0475 2.3199
14.9282 -5.6778 2.3199
15.0340 -5.3061 2.3199
15.1306 -4.9325 2.3199
15.2179 -4.5574 2.3199
15.2959 -4.1809 2.3199
15.3646 -3.8033 2.3199
15.4241 -3.4248 2.3199
15.4742 -3.0456 2.3199
15.5152 -2.6661 2.3199
15.5469 -2.2863 2.3199
15.5694 -1.9065 2.3199
15.5827 -1.5270 2.3199
15.5869 -1.1479 2.3199
15.5821 -0.7696 2.3199
15.5683 -0.3921 2.3199
15.5454 -0.0157 2.3199
15.5137 0.3594 2.3199
15.4731 0.7329 2.3199
15.4238 1.1047 2.3199
15.3658 1.4746 2.3199
15.2991 1.8424 2.3199
15.2239 2.2079 2.3199
15.1402 2.5708 2.3199
15.0482 2.9312 2.3199
14.9479 3.2886 2.3199
14.8394 3.6429 2.3199
14.7228 3.9941 2.3199
14.5983 4.3418 2.3199
14.4658 4.6860 2.3199
14.3256 5.0265 2.3199
14.1777 5.3630 2.3199
14.0223 5.6955 2.3199
13.8595 6.0238 2.3199
13.6893 6.3477 2.3199
13.5119 6.6671 2.3199
13.3275 6.9819 2.3199
13.1361 7.2919 2.3199
12.9379 7.5969 2.3199
12.7330 7.8968 2.3199
12.5215 8.1915 2.3199
12.3036 8.4809 2.3199
12.0794 8.7649 2.3199
11.8491 9.0432 2.3199
11.6127 9.3159 2.3199
11.3705 9.5827 2.3199
11.1224 9.8436 2.3199
10.8688 10.0985 2.3199
10.6098 10.3472 2.3199
10.3454 10.5897 2.3199
10.0758 10.8259 2.3199
9.8013 11.0556 2.3199
9.5219 11.2787 2.3199
9.2377 11.4953 2.3199
8.9489 11.7051 2.3199
8.6557 11.9082 2.3199
8.3583 12.1044 2.3199
8.0567 12.2936 2.3199
7.6885 12.3750 2.3011
7.3816 12.5487 2.3011
4.0768 7.3308 1.3267
3.8960 7.4232 1.3268
6.4399 13.0269 2.3011
6.1194 13.1718 2.3011
5.7959 13.3094 2.3011
5.4618 13.4205 2.2979
5.1332 13.5430 2.2979
4.8021 13.6581 2.2979
4.4686 13.7656 2.2979
4.1329 13.8655 2.2979
3.7951 13.9578 2.2979
2.8773 11.6933 1.9135
2.5771 11.6851 1.9017
2.5340 12.9758 2.1014
2.4264 14.2501 2.2979
2.0807 14.3038 2.2979
1.7338 14.3497 2.2979
1.4483 15.0343 2.4011
1.0840 15.0659 2.4011
0.7191 15.0893 2.4011
0.3538 15.1045 2.4011
-0.0119 15.1114 2.4011
-0.3777 15.1101 2.4011
-0.7435 15.1005 2.4011
-1.1092 15.0827 2.4011
-1.4744 15.0567 2.4011
-1.8391 15.0224 2.4011
-2.2030 14.9799 2.4011
-2.5662 14.9292 2.4011
-2.9282 14.8702 2.4011
-3.2890 14.8031 2.4011
-3.6485 14.7277 2.4011
-4.0063 14.6443 2.4011
-4.3624 14.5526 2.4011
-4.7166 14.4529 2.4011
-5.0687 14.3451 2.4011
-5.4186 14.2293 2.4011
-5.7660 14.1054 2.4011
-6.1108 13.9736 2.4011
-6.4091 13.7402 2.3849
-6.5003 13.0987 2.2980
-6.8219 12.9499 2.2980
-7.1403 12.7937 2.2980
-6.5700 11.1302 2.0251
-6.8371 10.9676 2.0229
-8.0750 12.2811 2.2980
-8.3792 12.0958 2.2980
-8.6794 11.9033 2.2980
-8.9754 11.7037 2.2980
-9.2672 11.4972 2.2980
-9.5546 11.2838 2.2980
-9.8373 11.0635 2.2980
-10.1153 10.8365 2.2980
-10.3638 10.5778 2.2926
-10.3522 10.0669 2.2324
-10.3412 9.5806 2.1764
-11.2887 9.9620 2.3211
-10.3206 8.6729 2.0753
-11.7915 9.4319 2.3211
-10.3017 7.8393 1.9869
-10.2927 7.4465 1.9470
-12.5010 8.5914 2.3211
-12.7249 8.2996 2.3211
-12.9424 8.0021 2.3211
-13.1429 7.6932 2.3193
-13.3375 7.3800 2.3177
-13.5304 7.0650 2.3170
-10.2379 5.0347 1.7290
-10.2310 4.7276 1.7052
-10.2242 4.4278 1.6828
-14.1540 5.7274 2.3023
-10.2110 3.8474 1.6425
-10.2046 3.5657 1.6243
-10.2220 3.2969 1.6111
-10.1921 3.0173 1.5916
-10.2097 2.7560 1.5807
-10.1800 2.4856 1.5635
-10.2001 2.2308 1.5551
-10.1683 1.9676 1.5398
-15.2784 2.5751 2.2994
-10.1568 1.4604 1.5201
-15.4575 1.8426 2.3019
-10.1454 0.9614 1.5042
-15.7149 1.1068 2.3211
-10.1342 0.4681 1.4920
-10.1334 0.2229 1.4880
-15.8396 -0.0343 2.3211
-10.1176 -0.2664 1.4804
-15.8768 -0.8022 2.3211
-10.1064 -0.7558 1.4771
-15.8765 -1.5737 2.3211
-10.0953 -1.2475 1.4772
-13.1625 -1.9505 1.9290
-14.0912 -2.4372 2.0694
-12.7893 -2.5316 1.8833
-15.5534 -3.4711 2.2980
-11.9069 -2.9609 1.7662
-11.7039 -3.2124 1.7441
-15.3405 -4.6117 2.2980
-15.2506 -4.9892 2.2980
-15.1511 -5.3650 2.2980
-15.0421 -5.7388 2.2980
-14.9237 -6.1104 2.2980
-14.7958 -6.4794 2.2980
-15.3162 -7.1528 2.4011
-12.1970 -6.0590 1.9314
-15.0002 -7.9086 2.4011
-14.8277 -8.2811 2.4011
-14.6455 -8.6497 2.4011
-14.4540 -9.0141 2.4011
-14.2530 -9.3741 2.4011
-14.0426 -9.7293 2.4011
-13.8231 -10.0796 2.4011
-13.5944 -10.4246 2.4011
-13.3568 -10.7641 2.4011
-12.1277 -10.2679 2.4011
-11.8905 -10.5701 2.4011
-11.6461 -10.8672 2.4013
-11.3947 -11.1590 2.4016
-11.1356 -11.4446 2.4018
-10.8689 -11.7237 2.4021
-10.5932 -11.9943 2.4020
-10.3105 -12.2581 2.4019
-10.0219 -12.5160 2.4020
-9.7267 -12.7670 2.4022
-9.4238 -13.0090 2.4021
-9.1142 -13.2427 2.4020
-8.7985 -13.4686 2.4018
-8.4768 -13.6865 2.4016
-8.1495 -13.8962 2.4014
-7.8167 -14.0973 2.4012
-7.4579 -14.2505 2.3944
-6.9651 -14.1284 2.3435
-6.4974 -14.0231 2.2980
-6.1809 -14.2302 2.3056
-5.8194 -14.3349 2.2980
-5.4744 -14.4776 2.2980
-5.1256 -14.6114 2.2980
-4.7733 -14.7362 2.2980
-4.4179 -14.8518 2.2980
-3.6890 -13.5932 2.0883
-3.6983 -15.0554 2.2980
-2.8850 -13.1010 1.9881
-2.4613 -12.6194 1.9052
-2.0926 -12.3013 1.8488
-1.7490 -12.0300 1.8010
-1.4210 -11.7606 1.7550
-1.1024 -11.4332 1.7017
-0.8006 -11.1011 1.6491
-0.5177 -10.8060 1.6031
-0.3702 -15.5897 2.3111
0.0041 -10.5782 1.5681
0.3820 -15.5825 2.3111
0.7576 -15.5644 2.3111
1.1325 -15.5365 2.3111
1.5064 -15.4989 2.3111
1.8791 -15.4517 2.3111
2.2503 -15.3949 2.3111
2.6198 -15.3286 2.3111
2.9872 -15.2527 2.3111
3.3524 -15.1675 2.3111
3.7150 -15.0729 2.3111
4.0749 -14.9690 2.3111
4.4318 -14.8560 2.3111
4.7854 -14.7338 2.3111
5.1355 -14.6028 2.3111
5.4819 -14.4628 2.3111
5.8465 -14.3688 2.3199
6.1891 -14.2181 2.3211
6.5243 -14.0516 2.3211
6.8549 -13.8768 2.3211
7.1806 -13.6937 2.3211
7.5012 -13.5025 2.3211
7.8165 -13.3034 2.3211
8.1264 -13.0966 2.3211
8.4306 -12.8821 2.3211
8.7241 -12.6534 2.3199
9.0162 -12.4244 2.3199
9.3021 -12.1882 2.3199
9.5815 -11.9453 2.3199
9.8544 -11.6956 2.3199
10.1206 -11.4394 2.3199
10.3799 -11.1769 2.3199
10.6323 -10.9083 2.3199
10.8774 -10.6337 2.3199
11.1153 -10.3535 2.3199
11.3457 -10.0677 2.3199
11.5686 -9.7767 2.3199
11.7839 -9.4806 2.3199
11.9914 -9.1797 2.3199
12.1911 -8.8741 2.3199
12.3828 -8.5640 2.3199
12.5665 -8.2498 2.3199
12.7421 -7.9315 2.3199
12.9095 -7.6096 2.3199
13.0687 -7.2840 2.3199
13.2195 -6.9551 2.3199
13.3619 -6.6231 2.3199
13.4960 -6.2882 2.3199
13.6215 -5.9507 2.3199
13.7386 -5.6107 2.3199
13.8471 -5.2685 2.3199
13.9470 -4.9243 2.3199
14.0384 -4.5784 2.3199
14.1212 -4.2308 2.3199
14.1954 -3.8819 2.3199
14.2610 -3.5319 2.3199
14.3180 -3.1810 2.3199
14.3664 -2.8294 2.3199
14.4062 -2.4773 2.3199
14.4375 -2.1249 2.3199
14.4602 -1.7725 2.3199
14.4744 -1.4202 2.3199
14.4802 -1.0682 2.3199
14.4775 -0.7168 2.3199
14.4664 -0.3661 2.3199
14.4469 -0.0164 2.3199
14.4192 0.3322 2.3199
14.3833 0.6795 2.3199
14.3392 1.0253 2.3199
14.2869 1.3693 2.3199
14.2266 1.7115 2.3199
14.1584 2.0516 2.3199
14.0822 2.3895 2.3199
13.9982 2.7249 2.3199
13.9065 3.0578 2.3199
13.8071 3.3878 2.3199
13.7002 3.7150 2.3199
13.5857 4.0390 2.3199
13.4639 4.3598 2.3199
13.3349 4.6772 2.3199
13.1986 4.9910 2.3199
13.0553 5.3011 2.3199
12.9050 5.6073 2.3199
12.7478 5.9095 2.3199
12.5839 6.2076 2.3199
12.4133 6.5014 2.3199
12.2362 6.7907 2.3199
12.0527 7.0755 2.3199
11.8629 7.3556 2.3199
11.6669 7.6309 2.3199
11.4648 7.9012 2.3199
11.2569 8.1665 2.3199
11.0431 8.4266 2.3199
10.8237 8.6814 2.3199
10.5988 8.9308 2.3199
10.3684 9.1747 2.3199
10.1327 9.4130 2.3199
9.8919 9.6456 2.3199
9.6461 9.8724 2.3199
9.3954 10.0933 2.3199
9.1399 10.3081 2.3199
8.8799 10.5169 2.3199
8.6154 10.7195 2.3199
8.3466 10.9159 2.3199
8.0736 11.1059 2.3199
7.7335 11.1982 2.3011
7.4548 11.3739 2.3011
4.5245 7.2815 1.4516
4.4787 7.6129 1.4966
4.0740 7.3250 1.4210
3.8932 7.4170 1.4210
3.9943 8.0791 1.5297
3.7591 8.0905 1.5150
3.4733 7.9750 1.4779
5.0965 12.5218 2.2979
4.7900 12.6365 2.2979
4.4811 12.7441 2.2979
4.1700 12.8447 2.2979
3.8568 12.9382 2.2979
3.5416 13.0246 2.2979
3.2246 13.1038 2.2979
2.6303 11.9260 2.0799
2.5341 12.9753 2.2518
2.2644 13.2979 2.2979
1.9417 13.3481 2.2979
1.6457 13.6208 2.3373
1.3515 14.0298 2.4011
1.0115 14.0592 2.4011
0.6710 14.0810 2.4011
0.3299 14.0950 2.4011
-0.0113 14.1013 2.4011
-0.3527 14.0999 2.4011
-0.6941 14.0907 2.4011
-1.0353 14.0738 2.4011
-1.3761 14.0492 2.4011
-1.7164 14.0169 2.4011
-2.0560 13.9768 2.4011
-2.3947 13.9290 2.4011
-2.7325 13.8736 2.4011
-3.0691 13.8104 2.4011
-3.4043 13.7396 2.4011
-3.7380 13.6612 2.4011
-4.0701 13.5751 2.4011
-4.4003 13.4814 2.4011
-4.7286 13.3802 2.4011
-5.0547 13.2715 2.4011
-5.3785 13.1553 2.4011
-5.6998 13.0316 2.4011
-6.0185 12.9005 2.4011
-6.3343 12.7621 2.4011
-6.3749 12.0995 2.3027
-6.6584 11.9282 2.2980
-6.5635 11.1173 2.1697
-6.8345 10.9615 2.1688
-7.5284 11.4478 2.2980
-7.8114 11.2742 2.2980
-8.0906 11.0939 2.2980
-8.3659 10.9070 2.2980
-8.6372 10.7136 2.2980
-8.9043 10.5138 2.2980
-9.1670 10.3077 2.2980
-9.4252 10.0953 2.2980
-9.6787 9.8767 2.2980
-9.9275 9.6520 2.2980
-10.1713 9.4213 2.2980
-10.3546 9.1359 2.2858
-10.3205 8.6710 2.2283
-10.9808 8.7816 2.3211
-10.3016 7.8376 2.1338
-10.2927 7.4448 2.0911
-11.6380 7.9964 2.3211
-11.8452 7.7239 2.3211
-12.0463 7.4462 2.3211
-12.2411 7.1635 2.3211
-12.4296 6.8758 2.3211
-12.6115 6.5834 2.3211
-10.2379 5.0332 1.8584
-10.2309 4.7262 1.8330
-10.2241 4.4263 1.8092
-13.2501 5.3599 2.3174
-10.2109 3.8460 1.7662
-10.2046 3.5644 1.7469
-13.6055 4.3863 2.3065
-10.1921 3.0159 1.7121
-13.8270 3.7306 2.3032
-10.1800 2.4843 1.6824
-14.0535 3.0717 2.3058
-10.1682 1.9663 1.6572
-14.2739 2.4040 2.3124
-10.1567 1.4591 1.6364
-14.4288 1.7182 2.3135
-10.1454 0.9601 1.6198
-10.1634 0.7146 1.6167
-10.1342 0.4668 1.6071
-10.1522 0.2221 1.6059
-10.1466 -0.0232 1.6019
-10.1175 -0.2676 1.5952
-10.1355 -0.5133 1.5968
-10.1064 -0.7570 1.5920
-10.1243 -1.0048 1.5955
-10.0952 -1.2488 1.5925
-13.4009 -1.9874 2.1175
-14.0798 -2.4369 2.2297
-12.0046 -2.3777 1.9065
-11.8178 -2.6388 1.8833
-11.9343 -2.9691 1.9097
-11.7146 -3.2167 1.8834
-14.2174 -4.2758 2.2980
-14.1323 -4.6251 2.2980
-14.0384 -4.9727 2.2980
-13.9358 -5.3185 2.2980
-13.8245 -5.6620 2.2980
-13.7044 -6.0032 2.2980
-13.5757 -6.3417 2.2980
-14.0413 -6.9770 2.4011
-13.8889 -7.3245 2.4011
-8.0137 -4.4766 1.4017
-13.5575 -8.0089 2.4011
-13.3787 -8.3454 2.4011
-13.1913 -8.6776 2.4011
-12.9953 -9.0054 2.4011
-12.7908 -9.3286 2.4011
-12.5779 -9.6469 2.4011
-12.3569 -9.9600 2.4011
-11.2822 -9.5537 2.4017
-11.0618 -9.8350 2.4020
-10.8341 -10.1111 2.4022
-10.5992 -10.3816 2.4025
-10.3569 -10.6459 2.4027
-10.1076 -10.9041 2.4028
-9.8516 -11.1562 2.4030
-9.5891 -11.4020 2.4031
-9.3198 -11.6408 2.4032
-9.0433 -11.8715 2.4030
-8.7608 -12.0952 2.4028
-8.4725 -12.3118 2.4026
-8.1785 -12.5211 2.4024
-7.8791 -12.7229 2.4022
-7.5744 -12.9169 2.4020
-7.2647 -13.1033 2.4018
-6.9501 -13.2817 2.4016
-6.6310 -13.4521 2.4014
-6.3074 -13.6143 2.4012
-5.9798 -13.7687 2.4011
-5.5302 -13.6236 2.3508
-5.0853 -13.4500 2.2980
-4.7732 -13.6081 2.3038
-4.4340 -13.6895 2.2980
-4.1037 -13.7966 2.2980
-3.6887 -13.5931 2.2481
-3.4352 -13.9852 2.2980
-2.8848 -13.1009 2.1403
-2.7576 -14.1391 2.2980
-2.4160 -14.2029 2.2980
-2.0728 -14.2579 2.2980
-1.4160 -11.7186 1.8827
-1.1006 -11.4141 1.8290
-0.8036 -11.1412 1.7817
-0.5181 -10.8131 1.7269
-0.2477 -10.4249 1.6638
0.0037 -10.1102 1.6134
0.3529 -14.4074 2.3003
0.7003 -14.3943 2.3009
1.0517 -14.4329 2.3111
1.3990 -14.3984 2.3111
1.7453 -14.3550 2.3111
2.0902 -14.3026 2.3111
2.4334 -14.2415 2.3111
2.7749 -14.1715 2.3111
3.1143 -14.0929 2.3111
3.4513 -14.0056 2.3111
3.7859 -13.9097 2.3111
4.1354 -13.8651 2.3211
4.4657 -13.7518 2.3211
4.7926 -13.6302 2.3211
5.1162 -13.5004 2.3211
5.4361 -13.3624 2.3211
5.7521 -13.2164 2.3211
6.0641 -13.0625 2.3211
6.3717 -12.9009 2.3211
6.6750 -12.7316 2.3211
6.9735 -12.5547 2.3211
7.2672 -12.3705 2.3211
7.5558 -12.1791 2.3211
7.8392 -11.9806 2.3211
8.1173 -11.7752 2.3211
8.3897 -11.5631 2.3211
8.6518 -11.3382 2.3199
8.9125 -11.1131 2.3199
9.1671 -10.8818 2.3199
9.4156 -10.6444 2.3199
9.6577 -10.4011 2.3199
9.8934 -10.1521 2.3199
10.1224 -9.8976 2.3199
10.3448 -9.6377 2.3199
10.5603 -9.3727 2.3199
10.7689 -9.1027 2.3199
10.9703 -8.8280 2.3199
11.1647 -8.5486 2.3199
11.3517 -8.2649 2.3199
11.5314 -7.9771 2.3199
11.7037 -7.6852 2.3199
11.8685 -7.3896 2.3199
12.0257 -7.0904 2.3199
12.1753 -6.7878 2.3199
12.3171 -6.4821 2.3199
12.4512 -6.1735 2.3199
12.5774 -5.8620 2.3199
12.6958 -5.5481 2.3199
12.8063 -5.2318 2.3199
12.9089 -4.9133 2.3199
13.0035 -4.5929 2.3199
13.0901 -4.2709 2.3199
13.1688 -3.9472 2.3199
13.2394 -3.6223 2.3199
13.3021 -3.2962 2.3199
13.3567 -2.9692 2.3199
13.4034 -2.6415 2.3199
13.4420 -2.3132 2.3199
13.4726 -1.9846 2.3199
13.4953 -1.6559 2.3199
13.5101 -1.3272 2.3199
13.5169 -0.9988 2.3199
13.5159 -0.6708 2.3199
13.5070 -0.3435 2.3199
13.4903 -0.0169 2.3199
13.4658 0.3086 2.3199
13.4337 0.6330 2.3199
13.3939 0.9561 2.3199
13.3465 1.2776 2.3199
13.2915 1.5974 2.3199
13.2291 1.9154 2.3199
13.1593 2.2313 2.3199
13.0821 2.5450 2.3199
12.9977 2.8564 2.3199
12.9061 3.1652 2.3199
12.8074 3.4713 2.3199
12.7016 3.7746 2.3199
12.5889 4.0749 2.3199
12.4694 4.3721 2.3199
12.3432 4.6660 2.3199
12.2102 4.9565 2.3199
12.0707 5.2433 2.3199
11.9247 5.5265 2.3199
11.7724 5.8058 2.3199
11.6138 6.0812 2.3199
11.4490 6.3524 2.3199
11.2783 6.6194 2.3199
11.1015 6.8820 2.3199
10.9190 7.1402 2.3199
10.7307 7.3938 2.3199
10.5368 7.6427 2.3199
10.3375 7.8867 2.3199
10.1328 8.1258 2.3199
9.9229 8.3599 2.3199
9.7079 8.5888 2.3199
9.4878 8.8125 2.3199
9.2629 9.0309 2.3199
9.0333 9.2438 2.3199
8.7990 9.4512 2.3199
8.5603 9.6530 2.3199
8.3172 9.8491 2.3199
8.0046 9.9582 2.3011
7.7552 10.1412 2.3011
7.5019 10.3182 2.3011
7.2448 10.4893 2.3011
6.9841 10.6544 2.3011
4.2389 6.8212 1.4516
4.4661 7.5906 1.5928
4.0711 7.3191 1.5156
3.8903 7.4108 1.5154
3.9860 8.0614 1.6291
3.7490 8.0680 1.6124
3.1968 7.3396 1.4516
4.7759 11.7330 2.2979
4.4888 11.8408 2.2979
4.1994 11.9420 2.2979
3.9079 12.0365 2.2979
3.6144 12.1243 2.2979
3.3191 12.2054 2.2979
3.0220 12.2798 2.2979
2.6305 11.9260 2.2194
2.4234 12.4082 2.2979
2.1221 12.4621 2.2979
1.8197 12.5092 2.2979
1.5844 13.1133 2.4011
1.2665 13.1480 2.4011
0.9479 13.1756 2.4011
0.6287 13.1958 2.4011
0.3090 13.2089 2.4011
-0.0108 13.2147 2.4011
-0.3308 13.2131 2.4011
-0.6507 13.2044 2.4011
-0.9705 13.1883 2.4011
-1.2899 13.1650 2.4011
-1.6087 13.1344 2.4011
-1.9269 13.0965 2.4011
-2.2443 13.0514 2.4011
-2.5608 12.9990 2.4011
-2.8761 12.9395 2.4011
-3.1901 12.8727 2.4011
-3.5027 12.7987 2.4011
-3.8137 12.7176 2.4011
-4.1229 12.6293 2.4011
-4.4303 12.5339 2.4011
-4.7356 12.4315 2.4011
-5.0387 12.3221 2.4011
-5.3395 12.2056 2.4011
-5.6377 12.0822 2.4011
-5.9332 11.9519 2.4011
-6.2260 11.8147 2.4011
-6.3467 11.3679 2.3388
-6.5276 11.0546 2.3041
-6.7816 10.8748 2.2980
-7.0495 10.7178 2.2980
-7.3140 10.5545 2.2980
-7.5750 10.3850 2.2980
-7.8322 10.2093 2.2980
-8.0856 10.0276 2.2980
-8.3350 9.8398 2.2980
-8.5803 9.6462 2.2980
-8.8213 9.4466 2.2980
-9.0578 9.2413 2.2980
-9.2899 9.0303 2.2980
-9.5173 8.8137 2.2980
-9.7398 8.5916 2.2980
-9.9574 8.3641 2.2980
-10.1699 8.1313 2.2980
-10.3016 7.8358 2.2814
-10.2926 7.4431 2.2358
-10.8839 7.4765 2.3211
-11.0767 7.2210 2.3211
-11.2637 6.9607 2.3211
-11.4448 6.6957 2.3211
-11.6199 6.4262 2.3211
-11.7888 6.1522 2.3211
-10.2379 5.0317 1.9883
-10.2309 4.7247 1.9613
-10.2241 4.4249 1.9361
-12.4007 5.0145 2.3211
-10.2109 3.8446 1.8904
-10.2045 3.5630 1.8699
-12.7895 4.1215 2.3211
-10.1921 3.0146 1.8331
-13.0020 3.5063 2.3190
-10.1800 2.4830 1.8017
-13.1836 2.8799 2.3166
-10.1682 1.9650 1.7751
-13.3750 2.2509 2.3211
-10.1567 1.4579 1.7532
-13.5107 1.6071 2.3211
-10.1454 0.9589 1.7357
-13.6155 0.9556 2.3211
-10.1342 0.4656 1.7225
-13.6890 0.2977 2.3211
-13.7138 -0.0331 2.3211
-10.1175 -0.2689 1.7103
-13.7394 -0.6976 2.3211
-10.1064 -0.7582 1.7073
-13.7327 -1.3646 2.3211
-10.0952 -1.2500 1.7082
-13.4009 -1.9890 2.2716
-13.6613 -2.3662 2.3211
-12.0566 -2.3895 2.0545
-11.7482 -2.6247 2.0091
-11.9619 -2.9775 2.0543
-11.7253 -3.2211 2.0234
-13.2444 -3.9848 2.2980
-13.1637 -4.3097 2.2980
-13.0749 -4.6331 2.2980
-12.9780 -4.9545 2.2980
-12.8730 -5.2739 2.2980
-12.7599 -5.5910 2.2980
-12.6388 -5.9056 2.2980
-12.5097 -6.2176 2.2980
-12.9278 -6.8193 2.4011
-12.7764 -7.1389 2.4011
-12.6170 -7.4550 2.4011
-12.4494 -7.7673 2.4011
-12.2738 -8.0757 2.4011
-12.0903 -8.3800 2.4011
-11.8991 -8.6799 2.4011
-11.7008 -8.9758 2.4013
-11.4952 -9.2672 2.4015
-10.5432 -8.9294 2.4020
-10.3366 -9.1918 2.4023
-10.1236 -9.4495 2.4026
-9.9040 -9.7021 2.4030
-9.6778 -9.9493 2.4034
-9.4452 -10.1910 2.4038
-9.2059 -10.4265 2.4041
-8.9589 -10.6541 2.4039
-8.7058 -10.8753 2.4037
-8.4471 -11.0902 2.4035
-8.1827 -11.2986 2.4033
-7.9131 -11.5003 2.4031
-7.6381 -11.6951 2.4029
-7.3582 -11.8830 2.4027
-7.0733 -12.0638 2.4025
-6.7838 -12.2373 2.4024
-6.4899 -12.4035 2.4022
-6.1916 -12.5621 2.4020
-5.8893 -12.7131 2.4018
-5.5830 -12.8563 2.4016
-5.2732 -12.9917 2.4014
-4.9598 -13.1192 2.4012
-4.6307 -13.2030 2.3945
-4.2161 -13.0179 2.3411
-3.8303 -12.8783 2.2980
-3.5194 -12.9701 2.2980
-3.2062 -13.0539 2.2980
-2.8846 -13.1008 2.2930
-2.5738 -13.1973 2.2980
-2.2550 -13.2568 2.2980
-1.9347 -13.3081 2.2980
-1.4684 -12.1530 2.0918
-1.2912 -13.3913 2.2990
-0.8040 -11.1457 1.9097
-0.5161 -10.7697 1.8428
-0.2487 -10.4617 1.7888
0.0036 -10.1400 1.7336
0.2389 -9.7577 1.6691
0.4594 -9.4453 1.6174
0.6992 -9.5983 1.6465
1.3013 -13.3958 2.3034
1.6235 -13.3566 2.3036
1.9439 -13.3049 2.3030
2.2713 -13.2952 2.3111
2.5901 -13.2304 2.3111
2.9070 -13.1574 2.3111
3.2217 -13.0764 2.3111
3.5342 -12.9874 2.3111
3.8441 -12.8906 2.3111
4.1692 -12.8412 2.3211
4.4747 -12.7282 2.3211
4.7770 -12.6076 2.3211
5.0760 -12.4794 2.3211
5.3714 -12.3438 2.3211
5.6630 -12.2007 2.3211
5.9507 -12.0504 2.3211
6.2343 -11.8930 2.3211
6.5135 -11.7286 2.3211
6.7883 -11.5573 2.3211
7.0583 -11.3792 2.3211
7.3236 -11.1945 2.3211
7.5839 -11.0034 2.3211
7.8390 -10.8059 2.3211
8.0888 -10.6023 2.3211
8.3331 -10.3927 2.3211
8.5673 -10.1717 2.3199
8.8002 -9.9506 2.3199
9.0272 -9.7239 2.3199
9.2482 -9.4920 2.3199
9.4631 -9.2548 2.3199
9.6718 -9.0126 2.3199
9.8742 -8.7655 2.3199
10.0700 -8.5138 2.3199
10.2593 -8.2576 2.3199
10.4420 -7.9970 2.3199
10.6179 -7.7324 2.3199
10.7869 -7.4638 2.3199
10.9491 -7.1914 2.3199
11.1043 -6.9155 2.3199
11.2524 -6.6362 2.3199
11.3934 -6.3537 2.3199
11.5272 -6.0681 2.3199
11.6538 -5.7798 2.3199
11.7731 -5.4888 2.3199
11.8850 -5.1954 2.3199
11.9896 -4.8998 2.3199
12.0868 -4.6021 2.3199
12.1766 -4.3025 2.3199
12.2589 -4.0013 2.3199
12.3338 -3.6986 2.3199
12.4011 -3.3945 2.3199
12.4610 -3.0894 2.3199
12.5134 -2.7833 2.3199
12.5583 -2.4765 2.3199
12.5957 -2.1692 2.3199
12.6257 -1.8615 2.3199
12.6482 -1.5535 2.3199
12.6632 -1.2456 2.3199
12.6708 -0.9379 2.3199
12.6710 -0.6305 2.3199
12.6639 -0.3236 2.3199
12.6495 -0.0174 2.3199
12.6277 0.2879 2.3199
12.5988 0.5922 2.3199
12.5626 0.8952 2.3199
12.5193 1.1969 2.3199
12.4689 1.4970 2.3199
12.4114 1.7955 2.3199
12.3470 2.0921 2.3199
12.2757 2.3867 2.3199
12.1976 2.6790 2.3199
12.1126 2.9691 2.3199
12.0210 3.2567 2.3199
11.9228 3.5417 2.3199
11.8180 3.8239 2.3199
11.7067 4.1032 2.3199
11.5891 4.3795 2.3199
11.4652 4.6526 2.3199
11.3351 4.9223 2.3199
11.1989 5.1887 2.3199
11.0567 5.4514 2.3199
10.9085 5.7105 2.3199
10.7546 5.9657 2.3199
10.5949 6.2169 2.3199
10.4296 6.4641 2.3199
10.2588 6.7071 2.3199
10.0826 6.9459 2.3199
9.9011 7.1802 2.3199
9.7144 7.4100 2.3199
9.5227 7.6351 2.3199
9.3259 7.8556 2.3199
9.1243 8.0712 2.3199
8.9180 8.2820 2.3199
8.7071 8.4877 2.3199
8.4917 8.6883 2.3199
8.2719 8.8838 2.3199
7.9828 9.0006 2.3011
7.7565 9.1839 2.3011
7.5262 9.3618 2.3011
7.2920 9.5343 2.3011
7.0542 9.7012 2.3011
6.8127 9.8624 2.3011
6.5678 10.0180 2.3011
4.4067 7.0903 1.6046
3.9744 6.7542 1.5072
3.7343 6.7127 1.4781
3.5467 6.7555 1.4690
3.3919 6.8592 1.4740
3.2608 7.0168 1.4911
3.1974 7.3402 1.5435
4.4923 11.0351 2.2979
4.2223 11.1367 2.2979
3.9502 11.2321 2.2979
3.6760 11.3212 2.2979
3.4000 11.4040 2.2979
3.1222 11.4805 2.2979
2.8428 11.5506 2.2979
2.5619 11.6143 2.2979
2.2796 11.6715 2.2979
1.9962 11.7223 2.2979
1.7117 11.7666 2.2979
1.4904 12.3349 2.4011
1.1913 12.3676 2.4011
0.8915 12.3934 2.4011
0.5912 12.4125 2.4011
0.2906 12.4246 2.4011
-0.0104 12.4299 2.4011
-0.3114 12.4284 2.4011
-0.6123 12.4200 2.4011
-0.9131 12.4047 2.4011
-1.2135 12.3825 2.4011
-1.5134 12.3535 2.4011
-1.8127 12.3176 2.4011
-2.1113 12.2748 2.4011
-2.4088 12.2253 2.4011
-2.7053 12.1689 2.4011
-3.0006 12.1057 2.4011
-3.2945 12.0358 2.4011
-3.5869 11.9591 2.4011
-3.8776 11.8756 2.4011
-4.1665 11.7855 2.4011
-4.4534 11.6887 2.4011
-4.7382 11.5853 2.4011
-5.0208 11.4753 2.4011
-5.3010 11.3588 2.4011
-5.5786 11.2357 2.4011
-5.8536 11.1062 2.4011
-6.1257 10.9703 2.4011
-6.3267 10.7126 2.3755
-6.3750 10.2210 2.2980
-6.6264 10.0728 2.2980
-6.8747 9.9188 2.2980
-7.1195 9.7589 2.2980
-7.3608 9.5932 2.2980
-7.5985 9.4218 2.2980
-7.8324 9.2448 2.2980
-8.0623 9.0622 2.2980
-8.2882 8.8741 2.2980
-8.5099 8.6806 2.2980
-8.7273 8.4817 2.2980
-8.9402 8.2777 2.2980
-9.1486 8.0685 2.2980
-9.3523 7.8542 2.2980
-9.5511 7.6350 2.2980
-9.7451 7.4109 2.2980
-9.9339 7.1820 2.2980
-10.1176 6.9485 2.2980
-10.3995 6.7779 2.3211
-10.2915 6.3584 2.2591
-10.7433 6.2837 2.3211
-10.9067 6.0301 2.3211
-11.0643 5.7725 2.3211
-10.2378 5.0302 2.1187
-10.2309 4.7232 2.0901
-10.2241 4.4234 2.0634
-11.6345 4.7031 2.3211
-10.2109 3.8431 2.0151
-10.2045 3.5616 1.9934
-11.9960 3.8642 2.3211
-10.1920 3.0132 1.9546
-12.2041 3.2895 2.3211
-10.1800 2.4816 1.9214
-12.3850 2.7038 2.3211
-10.1682 1.9637 1.8934
-12.5381 2.1085 2.3211
-10.1567 1.4566 1.8704
-12.6628 1.5047 2.3211
-10.1454 0.9576 1.8521
-12.7586 0.8939 2.3211
-10.1341 0.4643 1.8383
-12.8250 0.2774 2.3211
-12.8470 -0.0326 2.3211
-10.1175 -0.2701 1.8259
-12.8685 -0.6549 2.3211
-10.1064 -0.7594 1.8230
-12.8597 -1.2794 2.3211
-10.0952 -1.2512 1.8244
-12.8203 -1.9044 2.3211
-12.7891 -2.2167 2.3211
-12.0481 -2.3893 2.1933
-11.7481 -2.6261 2.1466
-11.9897 -2.9858 2.2001
-11.7360 -3.2255 2.1642
-12.3930 -3.7301 2.2980
-12.3164 -4.0339 2.2980
-12.2322 -4.3360 2.2980
-12.1404 -4.6363 2.2980
-12.0411 -4.9346 2.2980
-11.9342 -5.2308 2.2980
-11.8200 -5.5245 2.2980
-11.6983 -5.8157 2.2980
-8.3622 -4.4121 1.6610
-8.3819 -4.6845 1.6848
-9.2591 -5.4721 1.8848
-11.6391 -7.2633 2.4013
-11.4745 -7.5514 2.4015
-11.3027 -7.8356 2.4016
-11.1235 -8.1157 2.4017
-10.9371 -8.3915 2.4018
-10.7437 -8.6628 2.4019
-9.8935 -8.3806 2.4025
-9.6993 -8.6265 2.4028
-9.4986 -8.8675 2.4031
-9.2913 -9.1034 2.4033
-9.0780 -9.3341 2.4035
-8.8586 -9.5595 2.4037
-8.6334 -9.7794 2.4039
-8.4025 -9.9938 2.4041
-8.1656 -10.2018 2.4041
-7.9225 -10.4029 2.4040
-7.6743 -10.5978 2.4038
-7.4210 -10.7865 2.4036
-7.1629 -10.9687 2.4034
-6.9001 -11.1445 2.4032
-6.6328 -11.3136 2.4030
-6.3611 -11.4760 2.4028
-6.0852 -11.6313 2.4026
-5.8054 -11.7797 2.4024
-5.5218 -11.9209 2.4022
-5.2345 -12.0549 2.4020
-4.9439 -12.1816 2.4018
-4.6500 -12.3008 2.4016
-4.3531 -12.4125 2.4014
-4.0534 -12.5166 2.4012
-3.7512 -12.6134 2.4011
-3.3845 -12.4739 2.3578
-3.0107 -12.2588 2.3023
-2.7261 -12.3814 2.3119
-2.4127 -12.3718 2.2983
-2.1143 -12.4304 2.2989
-1.8145 -12.4815 2.2994
-1.4684 -12.1530 2.2317
-1.2112 -12.5608 2.3006
-0.8339 -11.5597 2.1130
-0.6044 -12.6091 2.3017
-0.2491 -10.4741 1.9106
0.0034 -10.0901 1.8403
0.2396 -9.7952 1.7874
0.4608 -9.4795 1.7318
0.6641 -9.1196 1.6689
0.8569 -8.8232 1.6185
1.5207 -12.5143 2.3024
1.2405 -8.4925 1.5681
2.1197 -12.4109 2.3013
2.4168 -12.3477 2.3007
2.7119 -12.2769 2.3001
3.0200 -12.2600 2.3111
3.3130 -12.1770 2.3111
3.6037 -12.0866 2.3111
3.8918 -11.9889 2.3111
4.1952 -11.9354 2.3211
4.4789 -11.8228 2.3211
4.7594 -11.7032 2.3211
5.0366 -11.5765 2.3211
5.3104 -11.4429 2.3211
5.5804 -11.3026 2.3211
5.8467 -11.1555 2.3211
6.1089 -11.0019 2.3211
6.3669 -10.8418 2.3211
6.6206 -10.6754 2.3211
6.8699 -10.5028 2.3211
7.1144 -10.3241 2.3211
7.3542 -10.1395 2.3211
7.5891 -9.9491 2.3211
7.8189 -9.7531 2.3211
8.0434 -9.5515 2.3211
8.2627 -9.3445 2.3211
8.4764 -9.1324 2.3211
8.6799 -8.9104 2.3199
8.8823 -8.6884 2.3199
9.0788 -8.4617 2.3199
9.2694 -8.2304 2.3199
9.4540 -7.9947 2.3199
9.6325 -7.7547 2.3199
9.8047 -7.5107 2.3199
9.9707 -7.2627 2.3199
10.1303 -7.0110 2.3199
10.2834 -6.7558 2.3199
10.4299 -6.4971 2.3199
10.5699 -6.2353 2.3199
10.7033 -5.9704 2.3199
10.8299 -5.7027 2.3199
10.9497 -5.4322 2.3199
11.0627 -5.1592 2.3199
11.1689 -4.8840 2.3199
11.2681 -4.6065 2.3199
11.3604 -4.3271 2.3199
11.4458 -4.0459 2.3199
11.5241 -3.7630 2.3199
11.5955 -3.4787 2.3199
11.6598 -3.1932 2.3199
11.7171 -2.9065 2.3199
11.7674 -2.6189 2.3199
11.8106 -2.3306 2.3199
11.8469 -2.0417 2.3199
11.8760 -1.7524 2.3199
11.8982 -1.4629 2.3199
11.9134 -1.1734 2.3199
11.9216 -0.8839 2.3199
11.9228 -0.5947 2.3199
11.9171 -0.3060 2.3199
11.9045 -0.0179 2.3199
11.8850 0.2695 2.3199
11.8587 0.5559 2.3199
11.8256 0.8412 2.3199
11.7858 1.1253 2.3199
11.7393 1.4080 2.3199
11.6862 1.6891 2.3199
11.6264 1.9685 2.3199
11.5602 2.2461 2.3199
11.4875 2.5217 2.3199
11.4084 2.7951 2.3199
11.3230 3.0662 2.3199
11.2313 3.3349 2.3199
11.1334 3.6010 2.3199
11.0294 3.8644 2.3199
10.9194 4.1250 2.3199
10.8034 4.3826 2.3199
10.6815 4.6371 2.3199
10.5539 4.8885 2.3199
10.4206 5.1364 2.3199
10.2816 5.3809 2.3199
10.1372 5.6218 2.3199
9.9873 5.8591 2.3199
9.8321 6.0925 2.3199
9.6717 6.3220 2.3199
9.5061 6.5474 2.3199
9.3355 6.7687 2.3199
9.1600 6.9858 2.3199
8.9797 7.1985 2.3199
8.7947 7.4068 2.3199
8.6050 7.6106 2.3199
8.4109 7.8097 2.3199
8.2124 8.0042 2.3199
7.9448 8.1276 2.3011
7.7396 8.3108 2.3011
7.5303 8.4891 2.3011
