ply
format ascii 1.0
element vertex 2178
property float32 x
property float32 y
property float32 z
end_header
1.9243 -5.9249 2.3751
2.0007 -5.6893 2.2997
2.1371 -5.6385 2.2997
2.2722 -5.5845 2.2997
2.4058 -5.5271 2.2997
2.5381 -5.4666 2.2997
2.5691 -5.2010 2.2138
2.7978 -5.3359 2.2997
2.4000 -4.3203 1.8867
2.4076 -4.0978 1.8148
2.4302 -3.9168 1.7604
2.4036 -3.6730 1.6768
2.4106 -3.4965 1.6226
3.5341 -4.8704 2.2997
3.6498 -4.7826 2.2997
3.7633 -4.6920 2.2997
3.8745 -4.5987 2.2997
3.9834 -4.5028 2.2997
4.0899 -4.4042 2.2997
4.1939 -4.3032 2.2997
4.2955 -4.1996 2.2997
4.3944 -4.0936 2.2997
4.4908 -3.9853 2.2997
4.5844 -3.8746 2.2997
4.6753 -3.7618 2.2997
4.7634 -3.6468 2.2997
4.8487 -3.5297 2.2997
4.9311 -3.4107 2.2997
5.0105 -3.2897 2.2997
5.0869 -3.1668 2.2997
5.1604 -3.0421 2.2997
5.2307 -2.9157 2.2997
5.2980 -2.7877 2.2997
5.3621 -2.6581 2.2997
5.4230 -2.5271 2.2997
5.4807 -2.3946 2.2997
5.5352 -2.2608 2.2997
5.5864 -2.1258 2.2997
5.6343 -1.9896 2.2997
5.6789 -1.8524 2.2997
5.7201 -1.7141 2.2997
5.7580 -1.5749 2.2997
5.7925 -1.4349 2.2997
5.8235 -1.2941 2.2997
5.8511 -1.1527 2.2997
5.8753 -1.0106 2.2997
5.8961 -0.8681 2.2997
5.9134 -0.7251 2.2997
5.9272 -0.5818 2.2997
5.9376 -0.4383 2.2997
5.9445 -0.2946 2.2997
5.9479 -0.1508 2.2997
5.9478 -0.0070 2.2997
5.9443 0.1367 2.2997
5.9373 0.2802 2.2997
5.9269 0.4235 2.2997
5.9130 0.5665 2.2997
5.8957 0.7090 2.2997
5.8749 0.8511 2.2997
5.8507 0.9925 2.2997
5.8232 1.1333 2.2997
5.7923 1.2734 2.2997
5.7580 1.4126 2.2997
5.7204 1.5509 2.2997
5.6795 1.6883 2.2997
5.6353 1.8246 2.2997
5.5878 1.9597 2.2997
5.5372 2.0936 2.2997
5.4833 2.2263 2.2997
5.4263 2.3576 2.2997
5.3662 2.4874 2.2997
5.3030 2.6157 2.2997
5.2367 2.7425 2.2997
5.1674 2.8675 2.2997
5.0952 2.9909 2.2997
5.0200 3.1125 2.2997
4.9420 3.2321 2.2997
4.8611 3.3499 2.2997
4.7775 3.4657 2.2997
4.6911 3.5794 2.2997
4.6020 3.6909 2.2997
4.2827 3.6085 2.1836
4.1830 3.7012 2.1783
4.3193 4.0123 2.2997
3.7956 3.7009 2.0684
3.6973 3.7838 2.0645
3.9011 4.1906 2.2347
3.9081 4.4074 2.2997
3.7996 4.4998 2.2997
3.6889 4.5896 2.2997
3.5761 4.6767 2.2997
3.4613 4.7611 2.2997
3.3446 4.8427 2.2997
3.2259 4.9215 2.2997
3.1054 4.9974 2.2997
2.9831 5.0703 2.2997
2.8591 5.1404 2.2997
2.7335 5.2074 2.2997
2.6064 5.2714 2.2997
2.4777 5.3324 2.2997
2.3477 5.3902 2.2997
2.2318 5.4830 2.3157
2.0837 5.4965 2.2996
1.9744 5.6146 2.3286
1.8963 5.8407 2.4027
1.7543 5.8845 2.4027
1.6112 5.9249 2.4027
1.4673 5.9619 2.4027
1.3225 5.9954 2.4027
1.1769 6.0255 2.4027
1.0307 6.0520 2.4027
0.8839 6.0751 2.4027
0.7365 6.0947 2.4027
0.5888 6.1107 2.4027
0.4407 6.1232 2.4027
0.2923 6.1322 2.4027
0.1438 6.1376 2.4027
-0.0048 6.1394 2.4027
-0.1534 6.1378 2.4027
-0.3020 6.1325 2.4027
-0.4503 6.1238 2.4027
-0.5985 6.1114 2.4027
-0.7463 6.0956 2.4027
-0.8937 6.0762 2.4027
-1.0406 6.0533 2.4027
-1.1869 6.0269 2.4027
-1.3326 5.9970 2.4027
-1.4775 5.9636 2.4027
-1.6216 5.9268 2.4027
-1.7648 5.8865 2.4027
-1.9070 5.8429 2.4027
-2.0481 5.7958 2.4027
-2.1881 5.7454 2.4027
-2.3269 5.6916 2.4027
-2.4643 5.6345 2.4027
-2.6004 5.5741 2.4027
-2.7350 5.5105 2.4027
-2.8681 5.4437 2.4027
-2.9995 5.3737 2.4027
-3.1293 5.3005 2.4027
-3.2573 5.2243 2.4027
-3.3834 5.1450 2.4027
-3.5077 5.0627 2.4027
-3.6299 4.9774 2.4027
-3.7501 4.8892 2.4027
-3.8682 4.7982 2.4027
-3.9841 4.7043 2.4027
-4.0977 4.6076 2.4027
-4.2091 4.5083 2.4027
-4.3180 4.4062 2.4027
-4.4244 4.3016 2.4027
-4.5284 4.1944 2.4027
-4.6297 4.0847 2.4027
-4.7285 3.9726 2.4027
-4.8245 3.8581 2.4027
-4.9177 3.7413 2.4027
-5.0082 3.6223 2.4027
-5.0958 3.5012 2.4027
-5.1805 3.3779 2.4027
-5.2622 3.2526 2.4027
-5.3410 3.1253 2.4027
-5.4166 2.9962 2.4027
-5.4891 2.8652 2.4027
-5.5585 2.7325 2.4027
-5.6247 2.5981 2.4027
-5.6877 2.4621 2.4027
-5.7473 2.3246 2.4027
-5.8037 2.1857 2.4027
-5.8567 2.0454 2.4027
-5.9064 1.9039 2.4027
-5.9526 1.7611 2.4027
-5.9954 1.6172 2.4027
-6.0347 1.4724 2.4027
-6.0705 1.3265 2.4027
-6.0787 1.1751 2.3933
-6.0793 1.0235 2.3823
-6.0798 0.8731 2.3727
-6.0802 0.7237 2.3646
-6.0806 0.5751 2.3579
-6.0810 0.4272 2.3525
-6.0817 0.2797 2.3487
-6.0825 0.1326 2.3464
-6.0832 -0.0144 2.3453
-6.0837 -0.1614 2.3455
-6.0840 -0.3086 2.3471
-6.0843 -0.4562 2.3500
-6.0843 -0.6043 2.3542
-6.0843 -0.7531 2.3597
-6.0841 -0.9028 2.3667
-6.0837 -1.0535 2.3750
-6.0833 -1.2054 2.3847
-6.0829 -1.3588 2.3960
-6.0673 -1.5100 2.4027
-6.0309 -1.6566 2.4027
-5.9910 -1.8023 2.4027
-5.9476 -1.9470 2.4027
-5.9006 -2.0907 2.4027
-5.8502 -2.2332 2.4027
-5.7962 -2.3745 2.4027
-5.7389 -2.5145 2.4027
-5.6781 -2.6531 2.4027
-5.6140 -2.7902 2.4027
-5.5466 -2.9257 2.4027
-5.4759 -3.0596 2.4027
-5.4019 -3.1917 2.4027
-5.3247 -3.3221 2.4027
-5.2443 -3.4505 2.4027
-5.1608 -3.5770 2.4027
-5.0743 -3.7015 2.4028
-4.9850 -3.8241 2.4029
-4.8928 -3.9444 2.4031
-4.6422 -3.9313 2.4031
-4.5472 -4.0433 2.4032
-4.4495 -4.1530 2.4033
-4.3490 -4.2601 2.4034
-4.2459 -4.3648 2.4034
-4.1402 -4.4669 2.4035
-4.0321 -4.5665 2.4035
-3.9216 -4.6634 2.4035
-3.8086 -4.7576 2.4036
-3.6935 -4.8490 2.4036
-3.5761 -4.9377 2.4037
-3.4565 -5.0234 2.4037
-3.3351 -5.1064 2.4039
-3.2116 -5.1865 2.4040
-3.0862 -5.2635 2.4042
-2.9589 -5.3375 2.4043
-2.8298 -5.4083 2.4045
-2.6990 -5.4759 2.4046
-2.5665 -5.5404 2.4048
-2.4325 -5.6016 2.4049
-2.2970 -5.6595 2.4050
-2.1601 -5.7139 2.4051
-2.0218 -5.7647 2.4051
-1.8823 -5.8122 2.4051
-1.7416 -5.8562 2.4051
-1.5999 -5.8968 2.4050
-1.4573 -5.9339 2.4050
-1.3138 -5.9675 2.4050
-1.1695 -5.9975 2.4049
-1.0245 -6.0240 2.4049
-0.8788 -6.0468 2.4048
-0.7327 -6.0660 2.4047
-0.5862 -6.0817 2.4045
-0.4393 -6.0937 2.4044
-0.2922 -6.1022 2.4043
-0.1449 -6.1070 2.4042
0.0025 -6.1083 2.4041
0.1498 -6.1059 2.4040
0.2970 -6.1000 2.4039
0.4440 -6.0904 2.4038
0.5907 -6.0773 2.4037
0.7370 -6.0606 2.4035
0.8829 -6.0403 2.4034
1.0282 -6.0165 2.4033
1.1729 -5.9891 2.4032
1.3168 -5.9582 2.4031
1.4599 -5.9238 2.4030
1.6021 -5.8859 2.4029
1.7434 -5.8446 2.4028
1.8836 -5.8000 2.4027
1.9614 -5.5780 2.3300
2.0678 -5.4562 2.2997
2.2235 -5.4653 2.3258
2.3279 -5.3485 2.2997
2.4558 -5.2899 2.2997
2.5691 -5.2014 2.2879
2.7072 -5.1635 2.2997
2.8305 -5.0957 2.2997
2.3986 -4.0829 1.8685
2.4139 -3.8908 1.8071
2.4327 -3.7177 1.7538
2.4059 -3.4901 1.6737
2.4128 -3.3254 1.6225
3.5318 -4.6283 2.2997
3.6416 -4.5407 2.2997
3.7492 -4.4504 2.2997
3.8546 -4.3576 2.2997
2.7040 -2.9121 1.5712
4.0584 -4.1645 2.2997
4.1567 -4.0643 2.2997
4.2525 -3.9618 2.2997
4.3458 -3.8570 2.2997
4.4364 -3.7499 2.2997
4.5244 -3.6408 2.2997
4.6097 -3.5295 2.2997
4.6923 -3.4163 2.2997
4.7720 -3.3010 2.2997
4.8489 -3.1840 2.2997
4.9230 -3.0651 2.2997
4.9941 -2.9445 2.2997
5.0622 -2.8222 2.2997
5.1274 -2.6983 2.2997
5.1894 -2.5729 2.2997
5.2485 -2.4461 2.2997
5.3044 -2.3179 2.2997
5.3571 -2.1885 2.2997
5.4067 -2.0578 2.2997
5.4532 -1.9260 2.2997
5.4964 -1.7932 2.2997
5.5363 -1.6594 2.2997
5.5730 -1.5247 2.2997
5.6064 -1.3891 2.2997
5.6365 -1.2529 2.2997
5.6633 -1.1160 2.2997
5.6868 -0.9785 2.2997
5.7069 -0.8406 2.2997
5.7237 -0.7022 2.2997
5.7372 -0.5635 2.2997
5.7472 -0.4246 2.2997
5.7540 -0.2855 2.2997
5.7573 -0.1463 2.2997
5.7573 -0.0071 2.2997
5.7540 0.1320 2.2997
5.7473 0.2709 2.2997
5.7372 0.4097 2.2997
5.7238 0.5480 2.2997
5.7071 0.6860 2.2997
5.6871 0.8235 2.2997
5.6637 0.9605 2.2997
5.6371 1.0968 2.2997
5.6072 1.2324 2.2997
5.5741 1.3672 2.2997
5.5377 1.5011 2.2997
5.4982 1.6341 2.2997
5.4554 1.7660 2.2997
5.4095 1.8968 2.2997
5.3605 2.0265 2.2997
5.3084 2.1550 2.2997
5.2533 2.2821 2.2997
5.1951 2.4078 2.2997
5.1339 2.5320 2.2997
5.0698 2.6548 2.2997
5.0028 2.7759 2.2997
4.9329 2.8953 2.2997
4.8602 3.0130 2.2997
4.7846 3.1289 2.2997
4.7064 3.2430 2.2997
4.6255 3.3551 2.2997
4.5418 3.4652 2.2997
4.4556 3.5732 2.2997
4.3031 3.6254 2.2661
4.1970 3.7133 2.2573
4.1820 3.8844 2.2997
3.7278 3.6345 2.0981
3.6368 3.7217 2.0974
3.8868 4.1750 2.2997
3.7839 4.2670 2.2997
3.6789 4.3566 2.2997
3.5717 4.4435 2.2997
3.4626 4.5279 2.2997
3.3514 4.6096 2.2997
3.2384 4.6886 2.2997
3.1235 4.7649 2.2997
3.0068 4.8384 2.2997
2.8884 4.9091 2.2997
2.7684 4.9770 2.2997
2.6468 5.0419 2.2997
2.5237 5.1039 2.2997
2.3991 5.1629 2.2997
2.2732 5.2190 2.2997
2.1460 5.2720 2.2997
2.0176 5.3219 2.2997
1.9559 5.5617 2.3823
1.8362 5.6552 2.4027
1.6986 5.6976 2.4027
1.5601 5.7367 2.4027
1.4207 5.7725 2.4027
1.2805 5.8050 2.4027
1.1396 5.8341 2.4027
0.9980 5.8598 2.4027
0.8558 5.8822 2.4027
0.7132 5.9011 2.4027
0.5701 5.9167 2.4027
0.4267 5.9288 2.4027
0.2830 5.9374 2.4027
0.1392 5.9427 2.4027
-0.0047 5.9445 2.4027
-0.1486 5.9429 2.4027
-0.2924 5.9378 2.4027
-0.4361 5.9293 2.4027
-0.5795 5.9173 2.4027
-0.7227 5.9020 2.4027
-0.8654 5.8832 2.4027
-1.0076 5.8610 2.4027
-1.1493 5.8354 2.4027
-1.2904 5.8065 2.4027
-1.4307 5.7741 2.4027
-1.5702 5.7385 2.4027
-1.7089 5.6995 2.4027
-1.8465 5.6572 2.4027
-1.9832 5.6115 2.4027
-2.1187 5.5627 2.4027
-2.2531 5.5106 2.4027
-2.3862 5.4553 2.4027
-2.5179 5.3968 2.4027
-2.6482 5.3352 2.4027
-2.7770 5.2705 2.4027
-2.9043 5.2027 2.4027
-3.0299 5.1318 2.4027
-3.1538 5.0580 2.4027
-3.2760 4.9812 2.4027
-3.3962 4.9014 2.4027
-3.5146 4.8189 2.4027
-3.6309 4.7334 2.4027
-3.7452 4.6452 2.4027
-3.8574 4.5543 2.4027
-3.9674 4.4607 2.4027
-4.0751 4.3644 2.4027
-4.1806 4.2656 2.4027
-4.2836 4.1643 2.4027
-4.3842 4.0605 2.4027
-4.4823 3.9543 2.4027
-4.5779 3.8457 2.4027
-4.6708 3.7348 2.4027
-4.7611 3.6218 2.4027
-4.8486 3.5065 2.4027
-4.9334 3.3892 2.4027
-5.0153 3.2698 2.4027
-5.0944 3.1485 2.4027
-5.1706 3.0252 2.4027
-5.2438 2.9002 2.4027
-5.3139 2.7734 2.4027
-5.3811 2.6449 2.4027
-5.4451 2.5148 2.4027
-5.5060 2.3831 2.4027
-5.5637 2.2500 2.4027
-5.6182 2.1155 2.4027
-5.6695 1.9797 2.4027
-5.7175 1.8426 2.4027
-5.7622 1.7044 2.4027
-5.8035 1.5651 2.4027
-5.8415 1.4249 2.4027
-5.8762 1.2837 2.4027
-5.9074 1.1416 2.4027
-5.9351 0.9989 2.4027
-5.9595 0.8554 2.4027
-5.9803 0.7114 2.4027
-5.9977 0.5669 2.4027
-6.0116 0.4219 2.4027
-6.0220 0.2767 2.4027
-6.0289 0.1311 2.4027
-6.0322 -0.0146 2.4027
-6.0320 -0.1604 2.4027
-6.0283 -0.3061 2.4027
-6.0211 -0.4518 2.4027
-6.0103 -0.5973 2.4027
-5.9961 -0.7425 2.4027
-5.9782 -0.8874 2.4027
-5.9569 -1.0319 2.4027
-5.9321 -1.1758 2.4027
-5.9038 -1.3191 2.4027
-5.8720 -1.4618 2.4027
-5.8368 -1.6036 2.4027
-5.7981 -1.7446 2.4027
-5.7560 -1.8847 2.4027
-5.7105 -2.0237 2.4027
-5.6617 -2.1616 2.4027
-5.6094 -2.2983 2.4027
-5.5539 -2.4338 2.4027
-5.4951 -2.5679 2.4027
-5.4330 -2.7005 2.4027
-5.3677 -2.8317 2.4027
-5.2992 -2.9612 2.4027
-5.2275 -3.0891 2.4027
-5.1528 -3.2152 2.4027
-5.0750 -3.3394 2.4027
-4.9941 -3.4618 2.4027
-4.9103 -3.5822 2.4027
-4.8237 -3.7006 2.4028
-4.7344 -3.8171 2.4029
-4.4953 -3.8073 2.4029
-4.4033 -3.9157 2.4030
-4.3087 -4.0218 2.4032
-4.2115 -4.1257 2.4033
-4.1117 -4.2272 2.4034
-4.0095 -4.3261 2.4035
-3.9047 -4.4225 2.4035
-3.7976 -4.5164 2.4036
-3.6883 -4.6075 2.4036
-3.5767 -4.6961 2.4037
-3.4630 -4.7819 2.4037
-3.3472 -4.8649 2.4038
-3.2294 -4.9450 2.4038
-3.1098 -5.0224 2.4039
-2.9883 -5.0969 2.4040
-2.8650 -5.1685 2.4042
-2.7400 -5.2371 2.4043
-2.6133 -5.3025 2.4045
-2.4851 -5.3649 2.4046
-2.3553 -5.4241 2.4047
-2.2241 -5.4802 2.4049
-2.0915 -5.5327 2.4049
-1.9576 -5.5819 2.4049
-1.8225 -5.6279 2.4048
-1.6863 -5.6705 2.4048
-1.5491 -5.7098 2.4048
-1.4110 -5.7457 2.4048
-1.2720 -5.7782 2.4047
-1.1323 -5.8073 2.4047
-0.9920 -5.8330 2.4047
-0.8510 -5.8552 2.4046
-0.7095 -5.8739 2.4046
-0.5676 -5.8892 2.4045
-0.4254 -5.9010 2.4044
-0.2829 -5.9092 2.4043
-0.1403 -5.9139 2.4042
0.0023 -5.9151 2.4041
0.1450 -5.9128 2.4040
0.2875 -5.9071 2.4039
0.4299 -5.8979 2.4038
0.5720 -5.8852 2.4037
0.7137 -5.8690 2.4036
0.8549 -5.8494 2.4035
0.9956 -5.8263 2.4034
1.1357 -5.7998 2.4032
1.2751 -5.7699 2.4031
1.4137 -5.7366 2.4030
1.5514 -5.7000 2.4029
1.6882 -5.6600 2.4028
1.8239 -5.6167 2.4027
1.9448 -5.5311 2.3858
2.0024 -5.2839 2.2997
2.1289 -5.2333 2.2997
2.2542 -5.1796 2.2997
2.3781 -5.1229 2.2997
2.5006 -5.0632 2.2997
2.6216 -5.0005 2.2997
2.7410 -4.9349 2.2997
2.8587 -4.8664 2.2997
2.4012 -3.8707 1.8563
2.4193 -3.6976 1.8011
2.4350 -3.5325 1.7492
2.4081 -3.3191 1.6722
2.4142 -3.1640 1.6233
2.4451 -3.0490 1.5944
3.6308 -4.3102 2.2997
2.5634 -2.8981 1.5792
2.6791 -2.8856 1.6075
3.9303 -4.0334 2.2997
4.0255 -3.9364 2.2997
4.1183 -3.8371 2.2997
4.2087 -3.7357 2.2997
4.2965 -3.6320 2.2997
4.3818 -3.5263 2.2997
4.4644 -3.4186 2.2997
4.5444 -3.3089 2.2997
4.6217 -3.1974 2.2997
4.6962 -3.0840 2.2997
4.7679 -2.9689 2.2997
4.8368 -2.8521 2.2997
4.9029 -2.7337 2.2997
4.9660 -2.6137 2.2997
5.0262 -2.4923 2.2997
5.0834 -2.3695 2.2997
5.1376 -2.2454 2.2997
5.1887 -2.1200 2.2997
5.2368 -1.9935 2.2997
5.2818 -1.8658 2.2997
5.3237 -1.7372 2.2997
5.3624 -1.6076 2.2997
5.3980 -1.4771 2.2997
5.4304 -1.3459 2.2997
5.4596 -1.2139 2.2997
5.4857 -1.0813 2.2997
5.5084 -0.9482 2.2997
5.5280 -0.8146 2.2997
5.5443 -0.6805 2.2997
5.5574 -0.5462 2.2997
5.5672 -0.4116 2.2997
5.5738 -0.2769 2.2997
5.5771 -0.1420 2.2997
5.5771 -0.0072 2.2997
5.5739 0.1275 2.2997
5.5675 0.2621 2.2997
5.5578 0.3965 2.2997
5.5448 0.5306 2.2997
5.5287 0.6642 2.2997
5.5093 0.7975 2.2997
5.4868 0.9301 2.2997
5.4610 1.0622 2.2997
5.4321 1.1935 2.2997
5.4001 1.3242 2.2997
5.3649 1.4539 2.2997
5.3266 1.5827 2.2997
5.2852 1.7106 2.2997
5.2408 1.8374 2.2997
5.1934 1.9630 2.2997
5.1429 2.0875 2.2997
5.0896 2.2106 2.2997
5.0332 2.3324 2.2997
4.9740 2.4528 2.2997
4.9119 2.5718 2.2997
4.8470 2.6891 2.2997
4.7793 2.8049 2.2997
4.7089 2.9189 2.2997
4.6358 3.0313 2.2997
4.5600 3.1418 2.2997
4.4816 3.2504 2.2997
4.4006 3.3571 2.2997
4.3171 3.4618 2.2997
4.2311 3.5645 2.2997
4.1428 3.6650 2.2997
4.0520 3.7634 2.2997
3.7046 3.6116 2.1519
3.6138 3.6978 2.1509
3.7661 4.0450 2.2997
3.6664 4.1342 2.2997
3.5647 4.2210 2.2997
3.4608 4.3053 2.2997
3.3551 4.3870 2.2997
3.2474 4.4662 2.2997
3.1379 4.5428 2.2997
3.0265 4.6168 2.2997
2.9135 4.6880 2.2997
2.7988 4.7565 2.2997
2.6825 4.8223 2.2997
2.5647 4.8852 2.2997
2.4454 4.9453 2.2997
2.3247 5.0025 2.2997
2.2306 5.1208 2.3288
2.0795 5.1082 2.2997
1.9762 5.2125 2.3246
1.9115 5.4353 2.4027
1.7792 5.4795 2.4027
1.6460 5.5207 2.4027
1.5117 5.5586 2.4027
1.3767 5.5933 2.4027
1.2408 5.6248 2.4027
1.1042 5.6530 2.4027
0.9670 5.6779 2.4027
0.8293 5.6996 2.4027
0.6910 5.7179 2.4027
0.5524 5.7330 2.4027
0.4134 5.7447 2.4027
0.2742 5.7531 2.4027
0.1349 5.7582 2.4027
-0.0046 5.7599 2.4027
-0.1440 5.7584 2.4027
-0.2834 5.7534 2.4027
-0.4226 5.7452 2.4027
-0.5616 5.7336 2.4027
-0.7003 5.7187 2.4027
-0.8386 5.7005 2.4027
-0.9764 5.6790 2.4027
-1.1137 5.6542 2.4027
-1.2504 5.6261 2.4027
-1.3864 5.5948 2.4027
-1.5215 5.5602 2.4027
-1.6559 5.5224 2.4027
-1.7893 5.4813 2.4027
-1.9217 5.4371 2.4027
-2.0530 5.3898 2.4027
-2.1832 5.3393 2.4027
-2.3122 5.2857 2.4027
-2.4398 5.2290 2.4027
-2.5660 5.1693 2.4027
-2.6909 5.1065 2.4027
-2.8142 5.0408 2.4027
-2.9359 4.9721 2.4027
-3.0559 4.9005 2.4027
-3.1742 4.8261 2.4027
-3.2908 4.7488 2.4027
-3.4054 4.6688 2.4027
-3.5181 4.5860 2.4027
-3.6289 4.5005 2.4027
-3.7375 4.4124 2.4027
-3.8441 4.3216 2.4027
-3.9484 4.2284 2.4027
-4.0505 4.1326 2.4027
-4.1503 4.0344 2.4027
-4.2478 3.9338 2.4027
-4.3428 3.8308 2.4027
-4.4353 3.7256 2.4027
-4.5254 3.6182 2.4027
-4.6128 3.5086 2.4027
-4.6976 3.3969 2.4027
-4.7797 3.2832 2.4027
-4.8590 3.1676 2.4027
-4.9356 3.0500 2.4027
-5.0093 2.9305 2.4027
-5.0802 2.8094 2.4027
-5.1481 2.6865 2.4027
-5.2131 2.5620 2.4027
-5.2751 2.4359 2.4027
-5.3341 2.3083 2.4027
-5.3900 2.1794 2.4027
-5.4427 2.0490 2.4027
-5.4924 1.9174 2.4027
-5.5388 1.7847 2.4027
-5.5820 1.6508 2.4027
-5.6221 1.5158 2.4027
-5.6588 1.3799 2.4027
-5.6923 1.2432 2.4027
-5.7225 1.1056 2.4027
-5.7493 0.9673 2.4027
-5.7729 0.8283 2.4027
-5.7930 0.6888 2.4027
-5.8098 0.5488 2.4027
-5.8232 0.4084 2.4027
-5.8332 0.2676 2.4027
-5.8398 0.1267 2.4027
-5.8430 -0.0145 2.4027
-5.8428 -0.1557 2.4027
-5.8392 -0.2969 2.4027
-5.8321 -0.4380 2.4027
-5.8216 -0.5789 2.4027
-5.8078 -0.7196 2.4027
-5.7905 -0.8599 2.4027
-5.7698 -0.9998 2.4027
-5.7457 -1.1392 2.4027
-5.7182 -1.2780 2.4027
-5.6874 -1.4161 2.4027
-5.6532 -1.5535 2.4027
-5.6157 -1.6901 2.4027
-5.5749 -1.8257 2.4027
-5.5308 -1.9603 2.4027
-5.4834 -2.0939 2.4027
-5.4328 -2.2263 2.4027
-5.3789 -2.3575 2.4027
-5.3219 -2.4873 2.4027
-5.2618 -2.6157 2.4027
-5.1985 -2.7427 2.4027
-5.1321 -2.8682 2.4027
-5.0627 -2.9920 2.4027
-4.9902 -3.1141 2.4027
-4.9148 -3.2344 2.4027
-4.8365 -3.3529 2.4027
-4.7553 -3.4695 2.4027
-4.6713 -3.5841 2.4027
-4.5846 -3.6967 2.4028
-4.3562 -3.6898 2.4028
-4.2671 -3.7948 2.4029
-4.1753 -3.8977 2.4030
-4.0811 -3.9983 2.4031
-3.9844 -4.0966 2.4033
-3.8853 -4.1925 2.4034
-3.7839 -4.2860 2.4035
-3.6802 -4.3770 2.4036
-3.5743 -4.4654 2.4037
-3.4661 -4.5512 2.4037
-3.3559 -4.6343 2.4037
-3.2437 -4.7147 2.4038
-3.1296 -4.7924 2.4038
-3.0135 -4.8672 2.4039
-2.8957 -4.9393 2.4039
-2.7762 -5.0085 2.4040
-2.6550 -5.0749 2.4042
-2.5323 -5.1383 2.4043
-2.4080 -5.1987 2.4044
-2.2822 -5.2561 2.4046
-2.1551 -5.3103 2.4046
-2.0266 -5.3611 2.4046
-1.8968 -5.4088 2.4046
-1.7659 -5.4534 2.4046
-1.6340 -5.4947 2.4046
-1.5010 -5.5327 2.4046
-1.3672 -5.5675 2.4045
-1.2326 -5.5990 2.4045
-1.0972 -5.6272 2.4045
-0.9612 -5.6520 2.4044
-0.8246 -5.6736 2.4044
-0.6875 -5.6917 2.4043
-0.5500 -5.7065 2.4043
-0.4122 -5.7180 2.4042
-0.2742 -5.7260 2.4042
-0.1360 -5.7307 2.4041
0.0022 -5.7320 2.4040
0.1405 -5.7299 2.4040
0.2786 -5.7244 2.4039
0.4165 -5.7155 2.4038
0.5542 -5.7032 2.4037
0.6915 -5.6876 2.4036
0.8284 -5.6686 2.4035
0.9647 -5.6463 2.4034
1.1005 -5.6206 2.4033
1.2356 -5.5917 2.4032
1.3699 -5.5594 2.4031
1.5034 -5.5239 2.4030
1.6359 -5.4852 2.4029
1.7674 -5.4433 2.4028
1.8980 -5.3983 2.4027
1.9707 -5.2008 2.3356
2.0630 -5.0716 2.2997
2.2222 -5.1064 2.3394
2.3045 -4.9647 2.2997
2.4232 -4.9069 2.2997
2.5405 -4.8462 2.2997
2.6562 -4.7826 2.2997
2.7703 -4.7163 2.2997
2.8827 -4.6472 2.2997
2.4036 -3.6739 1.8466
2.4238 -3.5166 1.7967
2.4372 -3.3595 1.7463
2.4101 -3.1590 1.6722
2.4147 -3.0114 1.6248
2.4430 -2.9004 1.5966
2.5180 -2.8470 1.6006
2.6789 -2.8856 1.6585
3.8090 -3.9093 2.2997
3.9013 -3.8153 2.2997
3.9912 -3.7191 2.2997
4.0788 -3.6208 2.2997
4.1640 -3.5204 2.2997
4.2466 -3.4179 2.2997
4.3268 -3.3136 2.2997
4.4043 -3.2073 2.2997
4.4792 -3.0992 2.2997
4.5515 -2.9893 2.2997
4.6211 -2.8778 2.2997
4.6879 -2.7646 2.2997
4.7519 -2.6499 2.2997
4.8131 -2.5336 2.2997
4.8715 -2.4160 2.2997
4.9270 -2.2970 2.2997
4.9796 -2.1767 2.2997
5.0292 -2.0552 2.2997
5.0758 -1.9325 2.2997
5.1195 -1.8088 2.2997
5.1601 -1.6841 2.2997
5.1977 -1.5585 2.2997
5.2323 -1.4321 2.2997
5.2637 -1.3049 2.2997
5.2921 -1.1770 2.2997
5.3173 -1.0485 2.2997
5.3394 -0.9194 2.2997
5.3585 -0.7899 2.2997
5.3743 -0.6600 2.2997
5.3870 -0.5298 2.2997
5.3966 -0.3993 2.2997
5.4030 -0.2687 2.2997
5.4062 -0.1380 2.2997
5.4063 -0.0073 2.2997
5.4033 0.1233 2.2997
5.3971 0.2538 2.2997
5.3877 0.3841 2.2997
5.3752 0.5140 2.2997
5.3596 0.6436 2.2997
5.3409 0.7728 2.2997
5.3190 0.9014 2.2997
5.2941 1.0294 2.2997
5.2661 1.1568 2.2997
5.2351 1.2834 2.2997
5.2010 1.4092 2.2997
5.1640 1.5341 2.2997
5.1239 1.6581 2.2997
5.0809 1.7810 2.2997
5.0349 1.9028 2.2997
4.9861 2.0235 2.2997
4.9343 2.1429 2.2997
4.8798 2.2610 2.2997
4.8224 2.3778 2.2997
4.7622 2.4931 2.2997
4.6993 2.6069 2.2997
4.6337 2.7191 2.2997
4.5655 2.8297 2.2997
4.4946 2.9387 2.2997
4.4212 3.0458 2.2997
4.3452 3.1512 2.2997
4.2667 3.2547 2.2997
4.1857 3.3562 2.2997
4.1024 3.4557 2.2997
4.0167 3.5533 2.2997
3.9288 3.6487 2.2997
3.7048 3.6115 2.2195
3.6139 3.6976 2.2184
3.6516 3.9218 2.2997
3.5550 4.0083 2.2997
3.4563 4.0924 2.2997
3.3557 4.1742 2.2997
3.2532 4.2535 2.2997
3.1487 4.3303 2.2997
3.0425 4.4046 2.2997
2.9346 4.4763 2.2997
2.8250 4.5454 2.2997
2.7138 4.6118 2.2997
2.6010 4.6756 2.2997
2.4868 4.7367 2.2997
2.3711 4.7949 2.2997
2.2542 4.8504 2.2997
2.1359 4.9031 2.2997
2.0163 4.9529 2.2997
1.9568 5.1610 2.3738
1.8535 5.2701 2.4027
1.7252 5.3130 2.4027
1.5960 5.3529 2.4027
1.4659 5.3897 2.4027
1.3349 5.4234 2.4027
1.2031 5.4539 2.4027
1.0707 5.4812 2.4027
0.9377 5.5054 2.4027
0.8041 5.5264 2.4027
0.6700 5.5442 2.4027
0.5356 5.5588 2.4027
0.4009 5.5702 2.4027
0.2659 5.5783 2.4027
0.1308 5.5833 2.4027
-0.0045 5.5849 2.4027
-0.1397 5.5834 2.4027
-0.2748 5.5786 2.4027
-0.4098 5.5706 2.4027
-0.5446 5.5594 2.4027
-0.6791 5.5449 2.4027
-0.8132 5.5273 2.4027
-0.9468 5.5064 2.4027
-1.0800 5.4823 2.4027
-1.2125 5.4551 2.4027
-1.3443 5.4247 2.4027
-1.4754 5.3911 2.4027
-1.6057 5.3544 2.4027
-1.7350 5.3147 2.4027
-1.8634 5.2718 2.4027
-1.9907 5.2258 2.4027
-2.1169 5.1768 2.4027
-2.2420 5.1248 2.4027
-2.3657 5.0699 2.4027
-2.4881 5.0119 2.4027
-2.6091 4.9511 2.4027
-2.7287 4.8873 2.4027
-2.8467 4.8207 2.4027
-2.9631 4.7513 2.4027
-3.0778 4.6791 2.4027
-3.1908 4.6041 2.4027
-3.3019 4.5265 2.4027
-3.4112 4.4462 2.4027
-3.5185 4.3633 2.4027
-3.6239 4.2778 2.4027
-3.7271 4.1898 2.4027
-3.8283 4.0993 2.4027
-3.9273 4.0065 2.4027
-4.0240 3.9112 2.4027
-4.1185 3.8136 2.4027
-4.2106 3.7138 2.4027
-4.3003 3.6118 2.4027
-4.3875 3.5076 2.4027
-4.4722 3.4013 2.4027
-4.5544 3.2930 2.4027
-4.6340 3.1828 2.4027
-4.7109 3.0706 2.4027
-4.7851 2.9566 2.4027
-4.8565 2.8408 2.4027
-4.9252 2.7233 2.4027
-4.9910 2.6041 2.4027
-5.0540 2.4834 2.4027
-5.1140 2.3612 2.4027
-5.1712 2.2375 2.4027
-5.2253 2.1124 2.4027
-5.2764 1.9861 2.4027
-5.3245 1.8585 2.4027
-5.3694 1.7298 2.4027
-5.4113 1.5999 2.4027
-5.4501 1.4691 2.4027
-5.4857 1.3374 2.4027
-5.5181 1.2048 2.4027
-5.5473 1.0714 2.4027
-5.5733 0.9373 2.4027
-5.5960 0.8026 2.4027
-5.6155 0.6673 2.4027
-5.6318 0.5316 2.4027
-5.6447 0.3955 2.4027
-5.6544 0.2591 2.4027
-5.6607 0.1224 2.4027
-5.6638 -0.0144 2.4027
-5.6635 -0.1512 2.4027
-5.6599 -0.2881 2.4027
-5.6530 -0.4249 2.4027
-5.6429 -0.5615 2.4027
-5.6293 -0.6978 2.4027
-5.6125 -0.8338 2.4027
-5.5924 -0.9694 2.4027
-5.5691 -1.1045 2.4027
-5.5424 -1.2390 2.4027
-5.5125 -1.3729 2.4027
-5.4793 -1.5060 2.4027
-5.4429 -1.6384 2.4027
-5.4033 -1.7698 2.4027
-5.3605 -1.9003 2.4027
-5.3145 -2.0297 2.4027
-5.2654 -2.1580 2.4027
-5.2132 -2.2851 2.4027
-5.1579 -2.4110 2.4027
-5.0996 -2.5354 2.4027
-5.0382 -2.6585 2.4027
-4.9738 -2.7800 2.4027
-4.9065 -2.9000 2.4027
-4.8363 -3.0183 2.4027
-4.7632 -3.1349 2.4027
-4.6873 -3.2497 2.4027
-4.6086 -3.3627 2.4027
-4.5271 -3.4737 2.4027
-4.4430 -3.5828 2.4027
-4.2245 -3.5785 2.4027
-4.1378 -3.6802 2.4028
-4.0488 -3.7799 2.4029
-3.9574 -3.8774 2.4030
-3.8636 -3.9727 2.4031
-3.7675 -4.0657 2.4032
-3.6692 -4.1563 2.4033
-3.5686 -4.2446 2.4034
-3.4659 -4.3303 2.4035
-3.3611 -4.4135 2.4036
-3.2543 -4.4942 2.4037
-3.1455 -4.5723 2.4038
-3.0348 -4.6476 2.4039
-2.9223 -4.7201 2.4039
-2.8080 -4.7900 2.4040
-2.6920 -4.8570 2.4040
-2.5745 -4.9212 2.4040
-2.4554 -4.9826 2.4041
-2.3349 -5.0411 2.4043
-2.2129 -5.0967 2.4044
-2.0896 -5.1492 2.4044
-1.9650 -5.1985 2.4044
-1.8391 -5.2447 2.4044
-1.7122 -5.2879 2.4044
-1.5843 -5.3279 2.4044
-1.4554 -5.3648 2.4044
-1.3257 -5.3985 2.4043
-1.1951 -5.4290 2.4043
-1.0639 -5.4564 2.4043
-0.9320 -5.4805 2.4042
-0.7995 -5.5013 2.4042
-0.6666 -5.5190 2.4041
-0.5333 -5.5333 2.4041
-0.3997 -5.5444 2.4040
-0.2659 -5.5522 2.4040
-0.1319 -5.5568 2.4039
0.0021 -5.5580 2.4038
0.1362 -5.5560 2.4038
0.2701 -5.5507 2.4037
0.4038 -5.5421 2.4036
0.5373 -5.5303 2.4035
0.6705 -5.5151 2.4035
0.8032 -5.4968 2.4034
0.9354 -5.4752 2.4033
1.0671 -5.4503 2.4032
1.1981 -5.4223 2.4031
1.3283 -5.3910 2.4030
1.4577 -5.3566 2.4029
1.5863 -5.3192 2.4028
1.7139 -5.2787 2.4028
1.8404 -5.2351 2.4027
1.9548 -5.1593 2.3893
2.0005 -4.9183 2.2997
2.1182 -4.8679 2.2997
2.2450 -4.8368 2.3102
2.3498 -4.7586 2.2997
2.4635 -4.6998 2.2997
2.5757 -4.6382 2.2997
2.6864 -4.5739 2.2997
2.7954 -4.5069 2.2997
2.5765 -3.9384 2.0411
2.4059 -3.4909 1.8391
2.4275 -3.3464 1.7937
2.4392 -3.1973 1.7452
2.4121 -3.0084 1.6737
2.4143 -2.8666 1.6271
2.4413 -2.7606 1.6003
2.6787 -2.8856 1.7101
3.6939 -3.7914 2.2997
3.7834 -3.7003 2.2997
3.8707 -3.6071 2.2997
3.9556 -3.5117 2.2997
4.0382 -3.4144 2.2997
4.1184 -3.3151 2.2997
4.1962 -3.2139 2.2997
4.2714 -3.1108 2.2997
4.3441 -3.0060 2.2997
4.4142 -2.8995 2.2997
4.4817 -2.7913 2.2997
4.5465 -2.6816 2.2997
4.6087 -2.5703 2.2997
4.6681 -2.4576 2.2997
4.7247 -2.3435 2.2997
4.7786 -2.2281 2.2997
4.8296 -2.1114 2.2997
4.8778 -1.9936 2.2997
4.9231 -1.8747 2.2997
4.9654 -1.7547 2.2997
5.0049 -1.6338 2.2997
5.0414 -1.5120 2.2997
5.0749 -1.3894 2.2997
5.1055 -1.2660 2.2997
5.1330 -1.1419 2.2997
5.1576 -1.0173 2.2997
5.1791 -0.8921 2.2997
5.1975 -0.7665 2.2997
5.2130 -0.6405 2.2997
5.2253 -0.5142 2.2997
5.2346 -0.3877 2.2997
5.2409 -0.2610 2.2997
5.2441 -0.1342 2.2997
5.2442 -0.0074 2.2997
5.2413 0.1193 2.2997
5.2353 0.2459 2.2997
5.2263 0.3722 2.2997
5.2142 0.4983 2.2997
5.1991 0.6240 2.2997
5.1810 0.7493 2.2997
5.1598 0.8741 2.2997
5.1357 0.9983 2.2997
5.1086 1.1219 2.2997
5.0785 1.2447 2.2997
5.0455 1.3667 2.2997
5.0096 1.4879 2.2997
4.9708 1.6082 2.2997
4.9291 1.7275 2.2997
4.8845 1.8457 2.2997
4.8371 1.9627 2.2997
4.7870 2.0786 2.2997
4.7341 2.1932 2.2997
4.6784 2.3065 2.2997
4.6201 2.4184 2.2997
4.5591 2.5288 2.2997
4.4955 2.6377 2.2997
4.4293 2.7450 2.2997
4.3606 2.8507 2.2997
4.2893 2.9547 2.2997
4.2156 3.0569 2.2997
4.1395 3.1574 2.2997
4.0610 3.2559 2.2997
3.9802 3.3525 2.2997
3.8971 3.4471 2.2997
3.8118 3.5397 2.2997
3.7243 3.6302 2.2997
3.6346 3.7186 2.2997
3.5429 3.8048 2.2997
3.4492 3.8887 2.2997
3.3535 3.9704 2.2997
3.2558 4.0497 2.2997
3.1564 4.1267 2.2997
3.0551 4.2012 2.2997
2.9520 4.2733 2.2997
2.8473 4.3429 2.2997
2.7410 4.4100 2.2997
2.6331 4.4744 2.2997
2.5237 4.5363 2.2997
2.4129 4.5956 2.2997
2.3007 4.6521 2.2997
2.2240 4.7853 2.3384
2.0724 4.7571 2.2997
1.9767 4.8552 2.3234
1.9218 5.0685 2.4027
1.7984 5.1132 2.4027
1.6740 5.1549 2.4027
1.5485 5.1936 2.4027
1.4223 5.2293 2.4027
1.2952 5.2620 2.4027
1.1674 5.2916 2.4027
1.0389 5.3181 2.4027
0.9098 5.3416 2.4027
0.7802 5.3620 2.4027
0.6501 5.3792 2.4027
0.5197 5.3934 2.4027
0.3889 5.4044 2.4027
0.2580 5.4123 2.4027
0.1268 5.4171 2.4027
-0.0044 5.4187 2.4027
-0.1356 5.4172 2.4027
-0.2667 5.4126 2.4027
-0.3977 5.4048 2.4027
-0.5285 5.3939 2.4027
-0.6589 5.3799 2.4027
-0.7891 5.3627 2.4027
-0.9187 5.3425 2.4027
-1.0479 5.3191 2.4027
-1.1765 5.2927 2.4027
-1.3044 5.2631 2.4027
-1.4316 5.2306 2.4027
-1.5580 5.1950 2.4027
-1.6835 5.1563 2.4027
-1.8081 5.1147 2.4027
-1.9316 5.0701 2.4027
-2.0540 5.0226 2.4027
-2.1753 4.9721 2.4027
-2.2954 4.9187 2.4027
-2.4141 4.8625 2.4027
-2.5316 4.8034 2.4027
-2.6475 4.7415 2.4027
-2.7620 4.6769 2.4027
-2.8749 4.6095 2.4027
-2.9862 4.5395 2.4027
-3.0958 4.4667 2.4027
-3.2036 4.3914 2.4027
-3.3096 4.3134 2.4027
-3.4137 4.2330 2.4027
-3.5159 4.1500 2.4027
-3.6161 4.0646 2.4027
-3.7142 3.9768 2.4027
-3.8102 3.8867 2.4027
-3.9041 3.7943 2.4027
-3.9957 3.6996 2.4027
-4.0850 3.6027 2.4027
-4.1720 3.5037 2.4027
-4.2566 3.4026 2.4027
-4.3388 3.2995 2.4027
-4.4185 3.1944 2.4027
-4.4956 3.0874 2.4027
-4.5702 2.9786 2.4027
-4.6421 2.8679 2.4027
-4.7114 2.7556 2.4027
-4.7780 2.6416 2.4027
-4.8418 2.5260 2.4027
-4.9029 2.4088 2.4027
-4.9611 2.2902 2.4027
-5.0165 2.1702 2.4027
-5.0690 2.0489 2.4027
-5.1185 1.9263 2.4027
-5.1651 1.8025 2.4027
-5.2087 1.6776 2.4027
-5.2493 1.5517 2.4027
-5.2868 1.4248 2.4027
-5.3213 1.2970 2.4027
-5.3527 1.1683 2.4027
-5.3810 1.0389 2.4027
-5.4062 0.9089 2.4027
-5.4282 0.7782 2.4027
-5.4471 0.6470 2.4027
-5.4628 0.5153 2.4027
-5.4753 0.3833 2.4027
-5.4846 0.2510 2.4027
-5.4907 0.1184 2.4027
-5.4936 -0.0143 2.4027
-5.4933 -0.1470 2.4027
-5.4898 -0.2798 2.4027
-5.4831 -0.4124 2.4027
-5.4732 -0.5449 2.4027
-5.4600 -0.6771 2.4027
-5.4437 -0.8090 2.4027
-5.4241 -0.9406 2.4027
-5.4014 -1.0716 2.4027
-5.3755 -1.2021 2.4027
-5.3465 -1.3319 2.4027
-5.3143 -1.4610 2.4027
-5.2789 -1.5894 2.4027
-5.2405 -1.7168 2.4027
-5.1989 -1.8434 2.4027
-5.1543 -1.9689 2.4027
-5.1067 -2.0933 2.4027
-5.0560 -2.2165 2.4027
-5.0023 -2.3386 2.4027
-4.9457 -2.4593 2.4027
-4.8861 -2.5786 2.4027
-4.8237 -2.6964 2.4027
-4.7584 -2.8128 2.4027
-4.6902 -2.9275 2.4027
-4.6193 -3.0405 2.4027
-4.5457 -3.1519 2.4027
-4.4693 -3.2614 2.4027
-4.3903 -3.3690 2.4027
-4.3087 -3.4748 2.4027
-4.0993 -3.4728 2.4027
-4.0152 -3.5714 2.4027
-3.9286 -3.6680 2.4028
-3.8399 -3.7626 2.4029
-3.7489 -3.8550 2.4030
-3.6556 -3.9452 2.4031
-3.5602 -4.0331 2.4032
-3.4626 -4.1187 2.4033
-3.3629 -4.2019 2.4034
-3.2612 -4.2826 2.4035
-3.1575 -4.3609 2.4036
-3.0520 -4.4366 2.4036
-2.9446 -4.5097 2.4037
-2.8355 -4.5802 2.4038
-2.7246 -4.6480 2.4039
-2.6121 -4.7130 2.4040
-2.4981 -4.7754 2.4040
-2.3825 -4.8349 2.4041
-2.2655 -4.8915 2.4042
-2.1471 -4.9453 2.4042
-2.0274 -4.9961 2.4042
-1.9065 -5.0439 2.4042
-1.7844 -5.0888 2.4042
-1.6613 -5.1307 2.4042
-1.5371 -5.1695 2.4042
-1.4121 -5.2053 2.4042
-1.2862 -5.2380 2.4041
-1.1595 -5.2676 2.4041
-1.0322 -5.2941 2.4041
-0.9042 -5.3175 2.4040
-0.7757 -5.3377 2.4040
-0.6468 -5.3548 2.4039
-0.5175 -5.3688 2.4039
-0.3878 -5.3795 2.4038
-0.2580 -5.3871 2.4038
-0.1280 -5.3916 2.4037
0.0020 -5.3928 2.4037
0.1321 -5.3908 2.4036
0.2620 -5.3857 2.4035
0.3918 -5.3774 2.4034
0.5213 -5.3659 2.4034
0.6505 -5.3512 2.4033
0.7792 -5.3334 2.4032
0.9075 -5.3125 2.4031
1.0353 -5.2884 2.4030
1.1624 -5.2613 2.4030
1.2888 -5.2312 2.4029
1.4144 -5.1979 2.4029
1.5391 -5.1616 2.4028
1.6630 -5.1223 2.4028
1.7857 -5.0800 2.4028
1.9075 -5.0348 2.4027
1.9748 -4.8555 2.3396
2.0553 -4.7238 2.2997
2.1683 -4.6721 2.2997
2.2800 -4.6177 2.2997
2.3904 -4.5606 2.2997
2.4993 -4.5009 2.2997
2.6067 -4.4385 2.2997
2.7125 -4.3736 2.2997
2.5765 -3.9388 2.1035
2.6955 -3.9114 2.1234
2.4081 -3.3200 1.8337
2.4304 -3.1860 1.7920
2.4412 -3.0449 1.7456
2.4139 -2.8663 1.6765
2.4156 -2.7318 1.6318
2.4389 -2.6275 1.6046
3.5845 -3.6795 2.2997
3.6714 -3.5911 2.2997
3.7561 -3.5006 2.2997
3.8386 -3.4081 2.2997
3.9187 -3.3137 2.2997
3.9966 -3.2173 2.2997
4.0721 -3.1192 2.2997
4.1451 -3.0192 2.2997
4.2157 -2.9175 2.2997
4.2837 -2.8141 2.2997
4.3493 -2.7092 2.2997
4.4122 -2.6027 2.2997
4.4726 -2.4947 2.2997
4.5302 -2.3854 2.2997
4.5852 -2.2746 2.2997
4.6375 -2.1627 2.2997
4.6871 -2.0495 2.2997
4.7339 -1.9351 2.2997
4.7778 -1.8197 2.2997
4.8190 -1.7033 2.2997
4.8573 -1.5860 2.2997
4.8928 -1.4677 2.2997
4.9254 -1.3487 2.2997
4.9551 -1.2290 2.2997
4.9818 -1.1086 2.2997
5.0057 -0.9877 2.2997
5.0266 -0.8662 2.2997
5.0446 -0.7443 2.2997
5.0596 -0.6220 2.2997
5.0716 -0.4994 2.2997
5.0807 -0.3766 2.2997
5.0868 -0.2536 2.2997
5.0899 -0.1306 2.2997
5.0901 -0.0075 2.2997
5.0873 0.1155 2.2997
5.0815 0.2383 2.2997
5.0728 0.3610 2.2997
5.0611 0.4834 2.2997
5.0465 0.6054 2.2997
5.0289 0.7270 2.2997
5.0084 0.8481 2.2997
4.9851 0.9687 2.2997
4.9588 1.0887 2.2997
4.9296 1.2079 2.2997
4.8976 1.3264 2.2997
4.8628 1.4440 2.2997
4.8251 1.5608 2.2997
4.7847 1.6766 2.2997
4.7415 1.7913 2.2997
4.6955 1.9050 2.2997
4.6469 2.0175 2.2997
4.5955 2.1287 2.2997
4.5415 2.2387 2.2997
4.4850 2.3473 2.2997
4.4258 2.4546 2.2997
4.3640 2.5603 2.2997
4.2998 2.6645 2.2997
4.2331 2.7671 2.2997
4.1640 2.8681 2.2997
4.0924 2.9673 2.2997
4.0186 3.0648 2.2997
3.9424 3.1605 2.2997
3.8639 3.2543 2.2997
3.7833 3.3462 2.2997
3.7005 3.4361 2.2997
3.6155 3.5240 2.2997
3.5285 3.6098 2.2997
3.4395 3.6934 2.2997
3.3485 3.7750 2.2997
3.2556 3.8543 2.2997
3.1608 3.9313 2.2997
3.0643 4.0060 2.2997
2.9660 4.0784 2.2997
2.8659 4.1484 2.2997
2.7643 4.2160 2.2997
2.6611 4.2811 2.2997
2.5563 4.3437 2.2997
2.4501 4.4038 2.2997
2.3425 4.4614 2.2997
2.2435 4.5363 2.3098
2.1234 4.5686 2.2997
2.0120 4.6182 2.2997
1.9580 4.8092 2.3706
1.8658 4.9206 2.4027
1.7460 4.9639 2.4027
1.6252 5.0044 2.4027
1.5034 5.0420 2.4027
1.3808 5.0767 2.4027
1.2575 5.1084 2.4027
1.1334 5.1372 2.4027
1.0086 5.1630 2.4027
0.8833 5.1857 2.4027
0.7574 5.2055 2.4027
0.6311 5.2223 2.4027
0.5045 5.2360 2.4027
0.3776 5.2468 2.4027
0.2504 5.2544 2.4027
0.1231 5.2591 2.4027
-0.0043 5.2606 2.4027
-0.1316 5.2592 2.4027
-0.2590 5.2547 2.4027
-0.3861 5.2471 2.4027
-0.5131 5.2365 2.4027
-0.6398 5.2229 2.4027
-0.7661 5.2062 2.4027
-0.8920 5.1865 2.4027
-1.0174 5.1638 2.4027
-1.1423 5.1382 2.4027
-1.2664 5.1095 2.4027
-1.3899 5.0779 2.4027
-1.5126 5.0433 2.4027
-1.6345 5.0058 2.4027
-1.7554 4.9653 2.4027
-1.8753 4.9220 2.4027
-1.9942 4.8758 2.4027
-2.1119 4.8268 2.4027
-2.2285 4.7750 2.4027
-2.3438 4.7204 2.4027
-2.4578 4.6630 2.4027
-2.5703 4.6029 2.4027
-2.6815 4.5401 2.4027
-2.7911 4.4747 2.4027
-2.8991 4.4067 2.4027
-3.0055 4.3360 2.4027
-3.1101 4.2629 2.4027
-3.2130 4.1872 2.4027
-3.3141 4.1090 2.4027
-3.4133 4.0285 2.4027
-3.5105 3.9456 2.4027
-3.6058 3.8603 2.4027
-3.6989 3.7728 2.4027
-3.7900 3.6830 2.4027
-3.8789 3.5911 2.4027
-3.9656 3.4970 2.4027
-4.0500 3.4009 2.4027
-4.1321 3.3027 2.4027
-4.2119 3.2026 2.4027
-4.2892 3.1006 2.4027
-4.3641 2.9967 2.4027
-4.4364 2.8910 2.4027
-4.5063 2.7836 2.4027
-4.5735 2.6746 2.4027
-4.6381 2.5639 2.4027
-4.7000 2.4516 2.4027
-4.7592 2.3379 2.4027
-4.8157 2.2228 2.4027
-4.8694 2.1063 2.4027
-4.9203 1.9885 2.4027
-4.9684 1.8695 2.4027
-5.0136 1.7493 2.4027
-5.0558 1.6281 2.4027
-5.0952 1.5058 2.4027
-5.1316 1.3826 2.4027
-5.1650 1.2585 2.4027
-5.1955 1.1337 2.4027
-5.2229 1.0081 2.4027
-5.2473 0.8818 2.4027
-5.2686 0.7550 2.4027
-5.2869 0.6276 2.4027
-5.3021 0.4998 2.4027
-5.3142 0.3717 2.4027
-5.3232 0.2433 2.4027
-5.3291 0.1146 2.4027
-5.3319 -0.0142 2.4027
-5.3316 -0.1430 2.4027
-5.3281 -0.2718 2.4027
-5.3216 -0.4006 2.4027
-5.3119 -0.5292 2.4027
-5.2991 -0.6575 2.4027
-5.2832 -0.7855 2.4027
-5.2642 -0.9131 2.4027
-5.2421 -1.0403 2.4027
-5.2169 -1.1669 2.4027
-5.1887 -1.2929 2.4027
-5.1574 -1.4182 2.4027
-5.1231 -1.5427 2.4027
-5.0857 -1.6664 2.4027
-5.0454 -1.7892 2.4027
-5.0020 -1.9110 2.4027
-4.9558 -2.0317 2.4027
-4.9066 -2.1513 2.4027
-4.8544 -2.2697 2.4027
-4.7994 -2.3869 2.4027
-4.7416 -2.5026 2.4027
-4.6810 -2.6170 2.4027
-4.6176 -2.7298 2.4027
-4.5514 -2.8412 2.4027
-4.4826 -2.9509 2.4027
-4.4111 -3.0589 2.4027
-4.3370 -3.1651 2.4027
-4.2603 -3.2696 2.4027
-4.1810 -3.3721 2.4027
-3.9802 -3.3722 2.4027
-3.8985 -3.4679 2.4027
-3.8144 -3.5616 2.4027
-3.7281 -3.6533 2.4027
-3.6397 -3.7430 2.4028
-3.5491 -3.8306 2.4029
-3.4565 -3.9159 2.4030
-3.3617 -3.9990 2.4031
-3.2649 -4.0797 2.4032
-3.1662 -4.1581 2.4033
-3.0655 -4.2340 2.4034
-2.9630 -4.3075 2.4035
-2.8588 -4.3785 2.4036
-2.7528 -4.4469 2.4037
-2.6452 -4.5127 2.4037
-2.5359 -4.5758 2.4038
-2.4252 -4.6363 2.4039
-2.3130 -4.6941 2.4039
-2.1994 -4.7491 2.4040
-2.0845 -4.8013 2.4041
-1.9683 -4.8507 2.4041
-1.8509 -4.8970 2.4041
-1.7323 -4.9405 2.4040
-1.6128 -4.9811 2.4040
-1.4923 -5.0188 2.4040
-1.3709 -5.0535 2.4040
-1.2486 -5.0853 2.4039
-1.1257 -5.1140 2.4039
-1.0021 -5.1398 2.4039
-0.8778 -5.1625 2.4038
-0.7531 -5.1821 2.4038
-0.6279 -5.1987 2.4037
-0.5024 -5.2123 2.4037
-0.3766 -5.2227 2.4037
-0.2505 -5.2301 2.4036
-0.1243 -5.2344 2.4035
0.0019 -5.2356 2.4035
0.1282 -5.2337 2.4034
0.2543 -5.2287 2.4033
0.3803 -5.2206 2.4033
0.5060 -5.2096 2.4032
0.6315 -5.1954 2.4032
0.7565 -5.1782 2.4031
0.8811 -5.1580 2.4031
1.0051 -5.1347 2.4030
1.1285 -5.1085 2.4030
1.2512 -5.0792 2.4030
1.3732 -5.0469 2.4029
1.4943 -5.0117 2.4029
1.6145 -4.9735 2.4028
1.7337 -4.9325 2.4028
1.8519 -4.8885 2.4027
1.9604 -4.8205 2.3922
1.9958 -4.5873 2.3000
2.1052 -4.5365 2.2997
2.2402 -4.5374 2.3272
2.3208 -4.4283 2.2997
2.4266 -4.3703 2.2997
2.5309 -4.3097 2.2997
2.6336 -4.2467 2.2997
2.5765 -3.9391 2.1665
2.6952 -3.9114 2.1868
2.4304 -3.3511 1.9062
2.4111 -3.1610 1.8310
2.4325 -3.0344 1.7915
2.4430 -2.9012 1.7475
2.4184 -2.7351 1.6825
2.4172 -2.6044 1.6379
2.4358 -2.5006 1.6095
3.5648 -3.4872 2.2997
3.6470 -3.3993 2.2997
3.7271 -3.3096 2.2997
3.8050 -3.2179 2.2997
3.8806 -3.1243 2.2997
3.9539 -3.0290 2.2997
4.0249 -2.9319 2.2997
4.0934 -2.8332 2.2997
4.1596 -2.7329 2.2997
4.2232 -2.6310 2.2997
4.2844 -2.5276 2.2997
4.3430 -2.4228 2.2997
4.3990 -2.3166 2.2997
4.4525 -2.2091 2.2997
4.5033 -2.1004 2.2997
4.5514 -1.9905 2.2997
4.5969 -1.8794 2.2997
4.6396 -1.7674 2.2997
4.6796 -1.6544 2.2997
4.7169 -1.5404 2.2997
4.7513 -1.4256 2.2997
4.7830 -1.3101 2.2997
4.8119 -1.1938 2.2997
4.8379 -1.0769 2.2997
4.8611 -0.9594 2.2997
4.8814 -0.8415 2.2997
4.8989 -0.7231 2.2997
4.9135 -0.6043 2.2997
4.9253 -0.4853 2.2997
4.9341 -0.3660 2.2997
4.9401 -0.2466 2.2997
4.9432 -0.1271 2.2997
4.9434 -0.0076 2.2997
4.9407 0.1119 2.2997
4.9351 0.2312 2.2997
4.9267 0.3503 2.2997
4.9154 0.4691 2.2997
4.9012 0.5877 2.2997
4.8842 0.7058 2.2997
4.8643 0.8234 2.2997
4.8416 0.9405 2.2997
4.8161 1.0570 2.2997
4.7878 1.1729 2.2997
4.7568 1.2879 2.2997
4.7230 1.4022 2.2997
4.6864 1.5156 2.2997
4.6472 1.6281 2.2997
4.6052 1.7396 2.2997
4.5607 1.8500 2.2997
4.5134 1.9592 2.2997
4.4636 2.0673 2.2997
4.4112 2.1742 2.2997
4.3562 2.2797 2.2997
4.2988 2.3838 2.2997
4.2388 2.4866 2.2997
4.1765 2.5878 2.2997
4.1117 2.6875 2.2997
4.0446 2.7856 2.2997
3.9751 2.8820 2.2997
3.9034 2.9767 2.2997
3.8294 3.0696 2.2997
3.7532 3.1608 2.2997
3.6749 3.2500 2.2997
3.5945 3.3374 2.2997
3.5120 3.4228 2.2997
3.4275 3.5061 2.2997
3.3410 3.5874 2.2997
3.2527 3.6666 2.2997
3.1624 3.7437 2.2997
3.0704 3.8185 2.2997
2.9766 3.8911 2.2997
2.8811 3.9614 2.2997
2.7840 4.0295 2.2997
2.6852 4.0951 2.2997
2.5849 4.1584 2.2997
2.4832 4.2192 2.2997
2.3800 4.2776 2.2997
2.2755 4.3335 2.2997
2.1697 4.3869 2.2997
2.0626 4.4377 2.2997
1.9760 4.5355 2.3251
1.9278 4.7347 2.4027
1.8124 4.7796 2.4027
1.6960 4.8218 2.4027
1.5787 4.8611 2.4027
1.4604 4.8976 2.4027
1.3414 4.9313 2.4027
1.2215 4.9621 2.4027
1.1009 4.9901 2.4027
0.9797 5.0151 2.4027
0.8580 5.0373 2.4027
0.7358 5.0565 2.4027
0.6131 5.0728 2.4027
0.4901 5.0861 2.4027
0.3668 5.0965 2.4027
0.2432 5.1040 2.4027
0.1196 5.1085 2.4027
-0.0042 5.1100 2.4027
-0.1279 5.1086 2.4027
-0.2516 5.1042 2.4027
-0.3751 5.0969 2.4027
-0.4985 5.0866 2.4027
-0.6215 5.0733 2.4027
-0.7442 5.0571 2.4027
-0.8665 5.0380 2.4027
-0.9884 5.0159 2.4027
-1.1096 4.9910 2.4027
-1.2303 4.9631 2.4027
-1.3502 4.9324 2.4027
-1.4694 4.8988 2.4027
-1.5878 4.8623 2.4027
-1.7052 4.8230 2.4027
-1.8217 4.7809 2.4027
-1.9372 4.7361 2.4027
-2.0516 4.6884 2.4027
-2.1648 4.6381 2.4027
-2.2768 4.5850 2.4027
-2.3875 4.5293 2.4027
-2.4968 4.4709 2.4027
-2.6047 4.4099 2.4027
-2.7112 4.3463 2.4027
-2.8161 4.2802 2.4027
-2.9194 4.2115 2.4027
-3.0211 4.1404 2.4027
-3.1210 4.0669 2.4027
-3.2192 3.9910 2.4027
-3.3155 3.9127 2.4027
-3.4099 3.8322 2.4027
-3.5024 3.7493 2.4027
-3.5929 3.6643 2.4027
-3.6813 3.5771 2.4027
-3.7677 3.4878 2.4027
-3.8519 3.3964 2.4027
-3.9338 3.3030 2.4027
-4.0136 3.2077 2.4027
-4.0910 3.1104 2.4027
-4.1661 3.0113 2.4027
-4.2388 2.9103 2.4027
-4.3090 2.8077 2.4027
-4.3768 2.7033 2.4027
-4.4421 2.5974 2.4027
-4.5048 2.4899 2.4027
-4.5649 2.3808 2.4027
-4.6224 2.2704 2.4027
-4.6773 2.1585 2.4027
-4.7294 2.0453 2.4027
-4.7788 1.9309 2.4027
-4.8254 1.8153 2.4027
-4.8693 1.6986 2.4027
-4.9103 1.5809 2.4027
-4.9485 1.4621 2.4027
-4.9838 1.3425 2.4027
-5.0163 1.2220 2.4027
-5.0458 1.1007 2.4027
-5.0724 0.9787 2.4027
-5.0960 0.8561 2.4027
-5.1167 0.7329 2.4027
-5.1344 0.6092 2.4027
-5.1491 0.4851 2.4027
-5.1609 0.3606 2.4027
-5.1696 0.2359 2.4027
-5.1753 0.1110 2.4027
-5.1779 -0.0141 2.4027
-5.1776 -0.1392 2.4027
-5.1742 -0.2643 2.4027
-5.1678 -0.3893 2.4027
-5.1584 -0.5142 2.4027
-5.1459 -0.6388 2.4027
-5.1304 -0.7631 2.4027
-5.1119 -0.8870 2.4027
-5.0905 -1.0105 2.4027
-5.0660 -1.1335 2.4027
-5.0385 -1.2558 2.4027
-5.0081 -1.3775 2.4027
-4.9747 -1.4984 2.4027
-4.9384 -1.6185 2.4027
-4.8992 -1.7377 2.4027
-4.8571 -1.8559 2.4027
-4.8121 -1.9732 2.4027
-4.7643 -2.0893 2.4027
-4.7137 -2.2042 2.4027
-4.6603 -2.3179 2.4027
-4.6041 -2.4303 2.4027
-4.5452 -2.5414 2.4027
-4.4836 -2.6509 2.4027
-4.4194 -2.7590 2.4027
-4.3525 -2.8655 2.4027
-4.2830 -2.9704 2.4027
-4.2110 -3.0735 2.4027
-4.1365 -3.1749 2.4027
-4.0596 -3.2745 2.4027
-3.8667 -3.2763 2.4027
-3.7873 -3.3693 2.4027
-3.7056 -3.4603 2.4027
-3.6218 -3.5494 2.4027
-3.5357 -3.6364 2.4027
-3.4477 -3.7214 2.4028
-3.3576 -3.8042 2.4029
-3.2656 -3.8849 2.4030
-3.1715 -3.9633 2.4031
-3.0756 -4.0394 2.4032
-2.9778 -4.1132 2.4033
-2.8782 -4.1845 2.4034
-2.7770 -4.2534 2.4034
-2.6740 -4.3199 2.4035
-2.5694 -4.3838 2.4036
-2.4633 -4.4451 2.4037
-2.3558 -4.5038 2.4037
-2.2467 -4.5599 2.4038
-2.1364 -4.6133 2.4039
-2.0248 -4.6641 2.4039
-1.9119 -4.7120 2.4040
-1.7979 -4.7572 2.4040
-1.6828 -4.7995 2.4040
-1.5667 -4.8389 2.4040
-1.4496 -4.8755 2.4039
-1.3317 -4.9092 2.4039
-1.2129 -4.9400 2.4038
-1.0935 -4.9679 2.4038
-0.9734 -4.9929 2.4038
-0.8527 -5.0149 2.4037
-0.7316 -5.0340 2.4037
-0.6100 -5.0501 2.4036
-0.4880 -5.0632 2.4036
-0.3658 -5.0734 2.4035
-0.2434 -5.0806 2.4035
-0.1208 -5.0848 2.4034
0.0019 -5.0860 2.4034
0.1245 -5.0842 2.4034
0.2470 -5.0794 2.4033
0.3694 -5.0717 2.4033
0.4915 -5.0609 2.4032
0.6134 -5.0472 2.4032
0.7348 -5.0305 2.4031
0.8558 -5.0109 2.4031
0.9763 -4.9883 2.4031
1.0962 -4.9628 2.4030
1.2154 -4.9343 2.4030
1.3339 -4.9030 2.4029
1.4516 -4.8688 2.4029
1.5683 -4.8318 2.4028
1.6842 -4.7919 2.4028
1.7990 -4.7492 2.4028
1.9127 -4.7038 2.4027
1.9771 -4.5447 2.3455
2.0451 -4.4072 2.2997
2.1504 -4.3559 2.2997
2.2586 -4.3100 2.3039
2.3573 -4.2458 2.2997
2.4586 -4.1870 2.2997
2.5584 -4.1258 2.2997
2.5764 -3.9394 2.2302
2.6950 -3.9114 2.2509
2.8485 -3.9278 2.2997
2.4162 -3.1680 1.8887
2.4136 -3.0111 1.8298
2.4340 -2.8908 1.7922
2.4447 -2.7652 1.7508
2.4240 -2.6120 1.6907
2.4188 -2.4834 1.6451
2.4321 -2.3794 1.6150
3.5431 -3.3028 2.2997
3.6209 -3.2156 2.2997
3.6966 -3.1265 2.2997
3.7701 -3.0357 2.2997
3.8413 -2.9431 2.2997
3.9103 -2.8488 2.2997
3.9769 -2.7529 2.2997
4.0412 -2.6554 2.2997
4.1030 -2.5564 2.2997
4.1625 -2.4560 2.2997
4.2195 -2.3542 2.2997
4.2740 -2.2510 2.2997
4.3259 -2.1466 2.2997
4.3753 -2.0410 2.2997
4.4221 -1.9342 2.2997
4.4663 -1.8264 2.2997
4.5078 -1.7175 2.2997
4.5467 -1.6077 2.2997
4.5830 -1.4970 2.2997
4.6165 -1.3855 2.2997
4.6473 -1.2732 2.2997
4.6754 -1.1602 2.2997
4.7007 -1.0467 2.2997
4.7233 -0.9325 2.2997
4.7431 -0.8179 2.2997
4.7601 -0.7029 2.2997
4.7743 -0.5875 2.2997
4.7857 -0.4718 2.2997
4.7944 -0.3559 2.2997
4.8002 -0.2399 2.2997
4.8032 -0.1238 2.2997
4.8035 -0.0077 2.2997
4.8009 0.1084 2.2997
4.7955 0.2243 2.2997
4.7873 0.3401 2.2997
4.7764 0.4556 2.2997
4.7626 0.5708 2.2997
4.7461 0.6855 2.2997
4.7268 0.7999 2.2997
4.7048 0.9137 2.2997
4.6801 1.0269 2.2997
4.6526 1.1395 2.2997
4.6225 1.2513 2.2997
4.5897 1.3624 2.2997
4.5542 1.4726 2.2997
4.5161 1.5819 2.2997
4.4753 1.6902 2.2997
4.4320 1.7975 2.2997
4.3861 1.9037 2.2997
4.3377 2.0088 2.2997
4.2868 2.1126 2.2997
4.2335 2.2152 2.2997
4.1777 2.3164 2.2997
4.1194 2.4162 2.2997
4.0588 2.5146 2.2997
3.9959 2.6115 2.2997
3.9307 2.7069 2.2997
3.8632 2.8006 2.2997
3.7935 2.8926 2.2997
3.7216 2.9830 2.2997
3.6476 3.0716 2.2997
3.5715 3.1583 2.2997
3.4934 3.2432 2.2997
3.4132 3.3262 2.2997
3.3311 3.4073 2.2997
3.2471 3.4863 2.2997
3.1612 3.5633 2.2997
3.0735 3.6382 2.2997
2.9841 3.7109 2.2997
2.8929 3.7815 2.2997
2.8001 3.8499 2.2997
2.7057 3.9160 2.2997
2.6098 3.9798 2.2997
2.5123 4.0413 2.2997
2.4134 4.1005 2.2997
2.3132 4.1572 2.2997
2.2343 4.2548 2.3233
2.1088 4.2634 2.2997
2.0047 4.3128 2.2997
1.9581 4.4940 2.3705
1.8736 4.6015 2.4027
1.7615 4.6452 2.4027
1.6484 4.6862 2.4027
1.5344 4.7244 2.4027
1.4194 4.7599 2.4027
1.3037 4.7926 2.4027
1.1872 4.8226 2.4027
1.0700 4.8498 2.4027
0.9522 4.8741 2.4027
0.8339 4.8956 2.4027
0.7151 4.9143 2.4027
0.5959 4.9302 2.4027
0.4763 4.9431 2.4027
0.3564 4.9533 2.4027
0.2364 4.9605 2.4027
0.1162 4.9649 2.4027
-0.0041 4.9663 2.4027
-0.1244 4.9650 2.4027
-0.2446 4.9607 2.4027
-0.3646 4.9535 2.4027
-0.4845 4.9435 2.4027
-0.6041 4.9306 2.4027
-0.7234 4.9149 2.4027
-0.8423 4.8963 2.4027
-0.9607 4.8748 2.4027
-1.0785 4.8506 2.4027
-1.1958 4.8235 2.4027
-1.3123 4.7936 2.4027
-1.4282 4.7609 2.4027
-1.5432 4.7255 2.4027
-1.6574 4.6873 2.4027
-1.7706 4.6464 2.4027
-1.8828 4.6027 2.4027
-1.9940 4.5564 2.4027
-2.1040 4.5075 2.4027
-2.2128 4.4559 2.4027
-2.3204 4.4017 2.4027
-2.4267 4.3449 2.4027
-2.5316 4.2856 2.4027
-2.6350 4.2238 2.4027
-2.7370 4.1595 2.4027
-2.8374 4.0928 2.4027
-2.9361 4.0237 2.4027
-3.0333 3.9522 2.4027
-3.1286 3.8784 2.4027
-3.2222 3.8023 2.4027
-3.3140 3.7240 2.4027
-3.4039 3.6435 2.4027
-3.4918 3.5608 2.4027
-3.5777 3.4761 2.4027
-3.6616 3.3893 2.4027
-3.7434 3.3004 2.4027
-3.8230 3.2096 2.4027
-3.9005 3.1169 2.4027
-3.9757 3.0224 2.4027
-4.0487 2.9261 2.4027
-4.1193 2.8280 2.4027
-4.1876 2.7282 2.4027
-4.2534 2.6268 2.4027
-4.3168 2.5238 2.4027
-4.3777 2.4193 2.4027
-4.4361 2.3133 2.4027
-4.4920 2.2060 2.4027
-4.5452 2.0972 2.4027
-4.5958 1.9873 2.4027
-4.6438 1.8761 2.4027
-4.6891 1.7637 2.4027
-4.7317 1.6503 2.4027
-4.7715 1.5359 2.4027
-4.8086 1.4205 2.4027
-4.8429 1.3042 2.4027
-4.8744 1.1871 2.4027
-4.9030 1.0692 2.4027
-4.9289 0.9507 2.4027
-4.9518 0.8315 2.4027
-4.9719 0.7118 2.4027
-4.9890 0.5916 2.4027
-5.0033 0.4710 2.4027
-5.0147 0.3501 2.4027
-5.0231 0.2289 2.4027
-5.0286 0.1075 2.4027
-5.0312 -0.0140 2.4027
-5.0308 -0.1356 2.4027
-5.0275 -0.2571 2.4027
-5.0212 -0.3786 2.4027
-5.0120 -0.4999 2.4027
-4.9999 -0.6210 2.4027
-4.9848 -0.7418 2.4027
-4.9668 -0.8622 2.4027
-4.9459 -0.9821 2.4027
-4.9221 -1.1016 2.4027
-4.8954 -1.2204 2.4027
-4.8658 -1.3386 2.4027
-4.8333 -1.4561 2.4027
-4.7980 -1.5728 2.4027
-4.7599 -1.6886 2.4027
-4.7190 -1.8035 2.4027
-4.6752 -1.9173 2.4027
-4.6288 -2.0301 2.4027
-4.5796 -2.1418 2.4027
-4.5276 -2.2523 2.4027
-4.4730 -2.3614 2.4027
-4.4158 -2.4693 2.4027
-4.3559 -2.5757 2.4027
-4.2935 -2.6807 2.4027
-4.2285 -2.7842 2.4027
-4.1610 -2.8860 2.4027
-4.0910 -2.9862 2.4027
-4.0186 -3.0847 2.4027
-3.9439 -3.1814 2.4027
-3.7584 -3.1848 2.4027
-3.6812 -3.2752 2.4027
-3.6018 -3.3637 2.4027
-3.5203 -3.4502 2.4027
-3.4366 -3.5347 2.4027
-3.3509 -3.6172 2.4027
-3.2633 -3.6977 2.4028
-3.1738 -3.7761 2.4029
-3.0824 -3.8523 2.4030
-2.9892 -3.9262 2.4031
-2.8941 -3.9979 2.4031
-2.7974 -4.0672 2.4032
-2.6989 -4.1342 2.4033
-2.5988 -4.1987 2.4034
-2.4972 -4.2608 2.4034
-2.3941 -4.3204 2.4035
-2.2895 -4.3774 2.4036
-2.1836 -4.4319 2.4036
-2.0763 -4.4838 2.4037
-1.9678 -4.5331 2.4038
-1.8581 -4.5797 2.4038
-1.7474 -4.6236 2.4039
-1.6355 -4.6648 2.4039
-1.5227 -4.7033 2.4040
-1.4089 -4.7388 2.4039
-1.2943 -4.7716 2.4039
-1.1789 -4.8015 2.4038
-1.0628 -4.8286 2.4038
-0.9461 -4.8529 2.4038
-0.8288 -4.8743 2.4037
-0.7110 -4.8929 2.4037
-0.5929 -4.9085 2.4036
-0.4743 -4.9213 2.4036
-0.3556 -4.9312 2.4035
-0.2366 -4.9382 2.4035
-0.1174 -4.9423 2.4034
0.0018 -4.9434 2.4034
0.1209 -4.9417 2.4034
0.2400 -4.9371 2.4033
0.3590 -4.9295 2.4033
0.4777 -4.9191 2.4032
0.5961 -4.9058 2.4032
0.7142 -4.8896 2.4031
0.8318 -4.8705 2.4031
0.9489 -4.8485 2.4031
1.0654 -4.8237 2.4030
1.1813 -4.7961 2.4030
1.2964 -4.7657 2.4029
1.4108 -4.7325 2.4029
1.5243 -4.6965 2.4029
1.6369 -4.6577 2.4028
1.7485 -4.6162 2.4028
1.8590 -4.5721 2.4027
1.9653 -4.5179 2.3988
1.9964 -4.3026 2.3097
2.0901 -4.2340 2.2997
2.1913 -4.1818 2.2997
2.2911 -4.1270 2.2997
2.3896 -4.0699 2.2997
2.4866 -4.0104 2.2997
2.5764 -3.9398 2.2945
2.6762 -3.8844 2.2997
2.7686 -3.8180 2.2997
2.8594 -3.7494 2.2997
2.4121 -3.0094 1.8813
2.4154 -2.8690 1.8298
2.4349 -2.7543 1.7940
2.4464 -2.6364 1.7555
2.4306 -2.4957 1.7008
2.4202 -2.3680 1.6534
2.4277 -2.2633 1.6211
2.4560 -2.1813 1.6048
3.5932 -3.0393 2.2997
3.6646 -2.9510 2.2997
3.7339 -2.8611 2.2997
3.8009 -2.7694 2.2997
3.8657 -2.6762 2.2997
3.9282 -2.5815 2.2997
3.9884 -2.4853 2.2997
4.0462 -2.3877 2.2997
4.1016 -2.2887 2.2997
4.1546 -2.1885 2.2997
4.2051 -2.0870 2.2997
4.2531 -1.9843 2.2997
4.2986 -1.8805 2.2997
4.3416 -1.7757 2.2997
4.3821 -1.6699 2.2997
4.4199 -1.5631 2.2997
4.4551 -1.4555 2.2997
4.4877 -1.3471 2.2997
4.5177 -1.2380 2.2997
4.5451 -1.1282 2.2997
4.5697 -1.0178 2.2997
4.5917 -0.9069 2.2997
4.6110 -0.7954 2.2997
4.6275 -0.6836 2.2997
4.6414 -0.5714 2.2997
4.6525 -0.4590 2.2997
4.6610 -0.3463 2.2997
4.6667 -0.2335 2.2997
4.6696 -0.1207 2.2997
4.6699 -0.0078 2.2997
4.6674 0.1051 2.2997
4.6622 0.2178 2.2997
4.6543 0.3304 2.2997
4.6437 0.4426 2.2997
4.6303 0.5546 2.2997
4.6143 0.6662 2.2997
4.5956 0.7774 2.2997
4.5742 0.8880 2.2997
4.5502 0.9981 2.2997
4.5235 1.1076 2.2997
4.4942 1.2163 2.2997
4.4624 1.3243 2.2997
4.4279 1.4315 2.2997
4.3908 1.5377 2.2997
4.3513 1.6431 2.2997
4.3092 1.7474 2.2997
4.2646 1.8507 2.2997
4.2176 1.9528 2.2997
4.1681 2.0538 2.2997
4.1162 2.1535 2.2997
4.0620 2.2520 2.2997
4.0054 2.3491 2.2997
3.9465 2.4448 2.2997
3.8853 2.5390 2.2997
3.8219 2.6317 2.2997
3.7563 2.7228 2.2997
3.6886 2.8124 2.2997
3.6187 2.9002 2.2997
3.5468 2.9864 2.2997
3.4728 3.0707 2.2997
3.3968 3.1533 2.2997
3.3189 3.2340 2.2997
3.2390 3.3128 2.2997
3.1574 3.3897 2.2997
3.0739 3.4646 2.2997
2.9886 3.5374 2.2997
2.9016 3.6082 2.2997
2.8130 3.6768 2.2997
2.7228 3.7433 2.2997
2.6310 3.8076 2.2997
2.5377 3.8697 2.2997
2.4430 3.9295 2.2997
2.3468 3.9870 2.2997
2.2493 4.0422 2.2997
2.1506 4.0951 2.2997
