ply
format ascii 1.0
element vertex 1944
property float32 x
property float32 y
property float32 z
end_header
-3.4661 -72.4201 -13.6654
-1.7805 -75.4072 -14.2174
-15.0494 -76.9523 -14.7633
0.0417 -68.0845 -12.8332
-10.8817 -63.8079 -12.1907
6.7360 -68.8796 -13.0404
1.9489 -78.4755 -14.7959
8.6140 -70.4299 -13.3670
9.1855 -62.5021 -11.8985
10.7846 -62.7750 -11.9935
12.1826 -61.8916 -11.8741
3.6705 -74.7752 -14.1099
5.1057 -69.5633 -13.1445
13.3473 -53.8908 -10.4436
13.0414 -36.9089 -7.3500
13.7961 -36.2276 -7.2747
14.2843 -52.2214 -10.1800
14.5051 -35.4816 -7.1891
15.5560 -51.8982 -10.1830
15.3760 -35.1568 -7.1921
12.0703 -36.9882 -7.3092
16.8755 -36.1735 -7.4766
22.5288 -34.2542 -7.6436
27.3003 -39.3976 -8.9282
17.3185 -34.8925 -7.2913
28.2382 -38.7148 -8.9175
18.0415 -34.2417 -7.2392
18.9344 -33.9188 -7.2602
50.3362 -65.6144 -15.3750
19.7052 -33.3747 -7.2380
21.5191 -34.5105 -7.5888
42.8761 -53.1740 -12.6869
17.6883 -16.3791 -4.4482
43.6966 -51.5848 -12.5436
17.6860 -15.5993 -4.3462
46.0468 -51.7651 -12.8413
43.6273 -46.7176 -11.8349
17.6839 -14.8524 -4.2509
44.7573 -45.6607 -11.8250
16.2065 -12.9559 -3.8146
44.7984 -43.5429 -11.5409
16.2047 -12.3239 -3.7381
16.2512 -8.9847 -3.3820
16.2043 -11.7158 -3.6668
16.3166 -8.5123 -3.3470
16.2013 -11.1269 -3.5993
16.3151 -8.0157 -3.3012
16.3138 -7.5308 -3.2583
16.1996 -10.5584 -3.5364
16.3124 -7.0568 -3.2182
16.0360 -9.9074 -3.4427
16.7522 -6.7710 -3.2668
17.6554 -6.6441 -3.4054
16.1966 -9.4732 -3.4222
17.6546 -6.1607 -3.3704
17.6522 -4.7566 -3.2798
17.6538 -5.6855 -3.3378
18.6843 -4.5532 -3.4446
17.6530 -5.2177 -3.3076
20.8364 -4.5470 -3.8139
81.4313 -1.7508 -14.3760
22.1411 -4.2739 -4.0261
81.0098 0.2161 -14.2746
81.0042 2.1740 -14.2549
82.2836 4.1995 -14.4696
82.7636 -11.8606 -14.8793
82.7578 -9.8250 -14.8070
84.3540 -7.9525 -15.0290
83.1263 16.4995 -14.7359
83.1203 18.5956 -14.7858
18.3878 9.1462 -3.5087
83.1142 20.7140 -14.8450
18.1893 9.6020 -3.5087
32.7099 8.9964 -5.8698
29.8421 8.9882 -5.3838
17.9792 10.0534 -3.5087
29.4835 9.6626 -5.3510
25.3026 8.9746 -4.6228
17.7576 10.5000 -3.5087
22.8659 8.7374 -4.2082
17.6102 10.9950 -3.5258
21.8641 8.9654 -4.0561
20.4343 8.9613 -3.8239
17.6085 11.5937 -3.5753
19.1548 8.9576 -3.6183
17.6067 12.2118 -3.6286
17.2864 12.6182 -3.6192
15.9691 13.5312 -3.5253
16.4350 12.6157 -3.4989
16.1324 13.0140 -3.4956
16.1292 14.3497 -3.6313
16.1265 15.0600 -3.7067
4.3409 5.9970 -1.2323
4.0354 5.8678 -1.1842
16.0352 15.7160 -3.7671
3.9183 6.0027 -1.1909
16.1222 16.5826 -3.8757
3.8364 6.1990 -1.2100
5.3760 5.8034 -1.3241
3.5775 6.1051 -1.1734
5.1947 5.8864 -1.3125
4.3210 5.1411 -1.1215
18.1231 32.7114 -6.1960
4.6337 5.7914 -1.2372
4.5573 5.9864 -1.2537
17.1037 32.7085 -6.1104
16.1099 32.7056 -6.0308
16.0799 34.7341 -6.3267
17.5183 43.1913 -7.6935
17.3747 45.9918 -8.1102
18.3695 42.3288 -7.6217
16.1169 45.9882 -8.0339
2.4461 16.8539 -2.7985
2.2321 18.5092 -3.0629
16.0484 49.5935 -8.5889
5.1559 17.3511 -2.9810
2.9048 30.1987 -4.9834
4.7043 17.3534 -2.9597
2.9980 41.6959 -6.8658
4.3343 17.6651 -2.9928
4.0095 18.2306 -3.0702
3.5050 17.9951 -3.0143
3.1039 18.2737 -3.0466
-9.6148 49.0620 -8.2222
-11.2395 50.8250 -8.5638
-12.0649 48.9290 -8.2945
-12.7308 46.7488 -7.9783
-14.6251 49.0102 -8.4262
-16.7796 41.2333 -7.3517
-14.8908 45.8360 -7.9442
-6.5039 9.9388 -1.9746
-17.3599 39.8763 -7.1874
-18.0475 38.8666 -7.0871
-24.0919 34.9454 -7.0634
-24.3836 33.6039 -6.9162
-18.7401 37.9350 -7.0030
-26.4409 34.6489 -7.2682
-19.9469 38.0387 -7.1147
-29.9919 37.3960 -8.0027
-21.8782 39.3816 -7.4688
-35.2455 41.8371 -9.1427
-26.2078 29.6278 -6.6185
-28.9237 49.2280 -9.4742
-26.7558 28.8155 -6.5872
-22.3038 35.9465 -7.0261
-27.6557 28.3795 -6.6462
-32.3437 30.1344 -7.4330
-31.6791 30.9764 -7.4405
-28.1368 15.6901 -5.4934
-39.9801 35.4862 -9.0002
-28.5734 15.0411 -5.5145
-41.4753 35.0610 -9.1557
-30.1891 14.9723 -5.7636
-42.2805 34.0267 -9.1618
-28.9220 13.4839 -5.4664
-29.9524 13.0936 -5.6085
-30.5985 12.5051 -5.6803
-45.0714 32.8194 -9.4381
-31.3808 11.9490 -5.7794
-44.4791 30.7735 -9.1688
-28.2750 18.5697 -5.7427
-30.2099 10.6753 -5.5235
-27.5786 17.1741 -5.5235
-30.6138 9.9932 -5.5606
-26.9347 15.8840 -5.3240
-26.6375 7.9889 -4.8097
-26.2712 7.1923 -4.7185
-28.5160 0.7315 -5.0241
-26.2151 6.5007 -4.6865
-41.3013 0.0613 -7.2864
-34.5301 7.6824 -6.1481
-34.4871 -0.7824 -6.0959
-36.1009 -1.6925 -6.3972
-25.2763 4.9861 -4.4851
-25.1625 4.3351 -4.4524
-25.0494 3.6950 -4.4226
-24.5615 3.0187 -4.3296
-24.7541 2.4370 -4.3591
-26.0419 1.9299 -4.5840
-27.0108 1.3465 -4.7553
-66.8893 -32.9627 -13.5566
-43.7959 -22.9151 -8.9989
-22.4457 -7.2584 -4.2502
-42.8930 -23.7815 -8.9416
-74.2900 -26.0239 -14.2042
-42.2071 -24.7546 -8.9333
-73.2178 -27.6535 -14.1445
-41.1987 -25.5222 -8.8601
-8.5491 -5.5867 -1.8696
-40.4474 -27.8509 -9.0021
-78.3803 -34.0193 -15.4882
-78.3511 -56.7927 -17.7618
-53.7113 -40.9507 -12.4130
-50.3738 -40.3701 -11.8788
-50.3100 -42.3669 -11.3658
-53.6123 -47.4117 -12.3832
-29.4527 -27.3444 -6.9624
-28.3722 -27.6492 -6.8715
-27.3530 -27.9780 -6.7947
-25.7498 -27.6459 -6.5683
-26.6201 -30.0044 -6.9814
-52.3858 -65.1405 -14.5806
-50.4057 -65.8816 -14.4840
-48.7023 -66.9528 -14.4704
-42.4847 -61.4799 -13.0739
-40.5597 -61.8428 -12.9505
-39.9439 -64.2426 -13.2584
-38.0797 -64.6854 -13.1669
-29.8960 -53.7170 -10.7926
-28.9906 -55.1934 -10.9535
-27.6228 -55.8321 -10.9525
-26.8351 -57.7144 -11.1989
-25.9792 -59.6071 -11.4484
-24.6828 -60.5970 -11.5277
-28.6348 -75.4801 -14.2314
-7.8428 -22.2857 -4.1671
-22.2970 -68.6204 -12.7331
-20.3679 -68.2645 -12.5779
-6.0644 -22.2806 -4.0788
-17.8519 -72.4679 -13.1886
-4.9190 -22.2774 -4.0329
-14.8836 -76.1145 -13.7144
-10.6669 -62.5567 -11.2249
-9.2404 -63.4228 -11.3396
-7.9039 -65.2944 -11.6390
-7.7255 -80.0174 -14.2283
-5.3784 -74.5356 -13.2281
-3.5167 -73.4850 -13.0239
-1.5968 -67.6345 -11.9771
0.0406 -66.4608 -11.7661
1.8505 -74.5289 -13.1981
3.3080 -67.4001 -11.9454
5.5595 -75.7565 -13.4448
6.7688 -69.2253 -12.3093
10.4342 -85.3247 -15.2095
9.0621 -61.6713 -11.0265
10.5336 -61.3230 -11.0036
12.4086 -63.0486 -11.3602
17.9053 -80.6230 -14.5955
19.2039 -77.5488 -14.1135
14.5939 -53.3607 -9.7686
11.8000 -39.3731 -7.2547
12.0732 -37.0024 -6.8662
13.3864 -37.8907 -7.0853
13.7872 -36.2094 -6.8273
14.7138 -35.9974 -6.8482
16.4187 -37.5464 -7.2117
16.8895 -36.2091 -7.0264
17.3211 -34.9030 -6.8473
18.1998 -34.5473 -6.8567
19.0436 -34.1198 -6.8558
19.7970 -33.5355 -6.8269
21.5061 -34.4952 -7.1199
22.4629 -34.1595 -7.1542
28.1441 -40.6220 -8.6397
48.5114 -66.5205 -14.3793
49.1238 -64.0450 -14.0828
43.9134 -54.4698 -12.1947
44.2191 -52.2109 -11.9122
45.6669 -51.3473 -11.9506
44.3085 -47.4558 -11.2782
44.0340 -44.9313 -10.9155
44.4418 -43.2047 -10.7413
17.6883 -16.3824 -4.1729
17.6861 -15.6025 -4.0770
17.6839 -14.8555 -3.9873
16.2065 -12.9587 -3.5776
16.0425 -12.2033 -3.4706
16.2031 -11.7177 -3.4382
16.2013 -11.1296 -3.3750
16.2923 -10.6214 -3.3346
16.2907 -10.0674 -3.2787
16.1966 -9.4757 -3.2080
16.2467 -8.9848 -3.1692
16.3166 -8.5148 -3.1370
16.3152 -8.0181 -3.0937
16.3138 -7.5333 -3.0532
16.3124 -7.0592 -3.0154
16.7462 -6.7710 -3.0595
17.6554 -6.6466 -3.1902
17.6546 -6.1632 -3.1570
17.6538 -5.6880 -3.1262
17.6530 -5.2202 -3.0976
17.6522 -4.7590 -3.0712
18.6738 -4.5532 -3.2234
20.5180 -4.4804 -3.5160
23.5003 -4.5394 -4.0002
82.7667 -11.8723 -13.9262
82.7608 -9.8366 -13.8569
84.2369 -7.9528 -14.0432
81.3465 -1.7599 -13.4332
81.0098 0.2052 -13.3508
81.0042 2.1631 -13.3310
81.3296 4.1399 -13.3733
83.1263 16.4882 -13.7699
83.1203 18.5842 -13.8150
83.1143 20.7026 -13.8687
32.7266 8.9964 -5.4860
29.8561 8.9882 -5.0310
29.4835 9.6584 -4.9975
25.3128 8.9746 -4.3186
23.4834 8.9700 -4.0354
21.8709 8.9650 -3.7880
20.4406 8.9610 -3.5708
19.6905 9.2052 -3.4718
19.6888 9.7904 -3.5064
19.4909 10.2862 -3.5087
19.2678 10.7710 -3.5087
18.2491 10.7878 -3.3643
17.6102 10.9922 -3.2893
17.6085 11.5909 -3.3352
17.6067 12.2089 -3.3845
17.3264 12.6445 -3.3833
16.4386 12.6158 -3.2636
16.1324 13.0113 -3.2595
16.2228 13.7434 -3.3391
16.2208 14.4284 -3.4047
16.2188 15.1432 -3.4752
16.0227 15.7008 -3.5087
16.1229 16.5803 -3.6125
5.3434 5.7670 -1.2265
5.1634 5.8498 -1.2157
4.9419 5.8789 -1.1952
4.4671 5.5822 -1.1113
4.5178 5.9335 -1.1579
4.4860 6.1964 -1.1864
3.9296 5.7131 -1.0743
3.8261 5.8606 -1.0832
3.7977 6.1356 -1.1156
3.5426 6.0444 -1.0822
18.1259 32.7114 -5.7712
17.1063 32.7085 -5.6911
16.1122 32.7056 -5.6166
19.6003 42.3323 -7.1808
18.3721 42.3288 -7.0975
17.5183 43.1852 -7.1630
17.3771 45.9918 -7.5517
16.1192 45.9882 -7.4803
16.0506 49.5935 -7.9967
5.1453 17.3129 -2.7693
4.6778 17.2534 -2.7395
4.3097 17.5623 -2.7700
3.9386 17.9060 -2.8072
3.5155 18.0463 -2.8140
3.0871 18.1725 -2.8204
2.4381 16.7962 -2.5962
2.2261 18.4574 -2.8431
2.9763 30.9373 -4.7522
2.1929 30.4952 -4.6741
4.7052 98.6381 -15.0953
-11.2322 50.7847 -7.9662
-11.5030 46.6436 -7.3613
-13.3181 48.8985 -7.7694
-14.3149 47.9640 -7.6777
-15.8862 48.8928 -7.8900
-16.6779 38.3041 -6.4294
-17.9761 38.7069 -6.5731
-19.1506 38.7601 -6.6642
-20.4750 39.0398 -6.8012
-21.8011 39.2369 -6.9315
-28.1214 47.8549 -8.5795
-22.6472 36.4941 -6.6453
-6.5051 9.9389 -1.8397
-24.9121 36.1292 -6.8042
-24.2544 33.4203 -6.4094
-25.8235 33.8341 -6.6138
-25.9132 32.3048 -6.4428
-35.3346 41.9354 -8.5413
-26.2823 29.7067 -6.1857
-26.9187 28.9855 -6.1768
-27.7155 28.4356 -6.2084
-29.3173 28.6615 -6.4189
-32.3169 30.1035 -6.9239
-40.0246 35.5184 -8.4007
-40.8339 34.5116 -8.4052
-44.0232 35.4216 -8.8958
-44.1080 33.7690 -8.7585
-44.2932 32.2453 -8.6510
-45.5623 31.5154 -8.7610
-28.6570 18.8159 -5.4297
-27.8031 17.3095 -5.1953
-26.9985 15.9173 -4.9796
-28.2054 15.7240 -5.1389
-28.5672 15.0335 -5.1455
-28.5413 14.1508 -5.0861
-28.8522 13.4471 -5.0905
-29.9121 13.0716 -5.2290
-30.4710 12.4485 -5.2815
-31.2480 11.8939 -5.3739
-30.5688 10.7977 -5.2197
-31.4510 10.2621 -5.3356
-27.0342 8.1041 -4.5596
-26.9927 7.3861 -4.5291
-27.0905 6.7140 -4.5249
-26.5132 5.8951 -4.4111
-24.2757 4.7854 -4.0255
-24.7798 4.2658 -4.0981
-24.7606 3.6490 -4.0863
-25.0677 3.0776 -4.1308
-26.0112 2.5572 -4.2825
-25.5506 1.8900 -4.2054
-28.0192 1.3930 -4.6130
-28.8829 0.7371 -4.7593
-41.8413 0.0565 -6.9045
-41.8513 -0.9550 -6.9202
-52.2248 -2.4555 -8.6581
-52.9846 -3.7763 -8.8121
-74.9968 -26.2821 -13.4325
-73.3046 -27.6967 -13.2670
-77.9537 -33.8455 -14.4340
-68.6181 -31.7859 -12.8641
-67.8960 -33.4689 -12.8967
-82.9836 -43.4317 -15.9817
-42.8812 -25.1566 -8.5084
-42.3329 -26.2315 -8.5355
-8.5476 -5.5871 -1.7527
-79.2209 -54.5621 -16.5334
-78.2350 -56.7215 -16.6322
-51.0590 -38.9371 -11.0669
-49.2556 -39.4824 -10.8944
-49.2265 -41.4631 -10.3889
-54.1819 -47.9250 -11.6919
-28.9775 -26.9084 -6.4002
-27.6378 -26.9386 -6.2545
-26.4517 -27.0611 -6.1403
-26.5531 -28.5135 -6.3300
-26.2108 -29.5483 -6.4246
-52.6652 -62.3472 -13.2905
-53.0862 -66.0226 -13.8116
-26.3807 -34.4860 -7.0864
-48.7809 -67.0719 -13.5500
-42.9387 -62.1470 -12.3541
-40.8278 -62.2615 -12.1888
-40.2865 -64.8038 -12.5037
-43.8835 -74.5556 -14.1891
-29.8999 -53.7322 -10.0942
-31.1421 -59.2984 -11.0041
-28.5991 -57.8139 -10.6055
-26.8346 -57.7218 -10.4742
-25.6715 -58.9096 -10.5814
-9.1317 -22.4217 -3.9892
-8.5042 -22.4199 -3.9536
-7.8883 -22.4181 -3.9208
-7.2398 -22.2840 -3.8677
-6.6474 -22.2823 -3.8403
-6.0996 -22.4130 -3.8381
-5.5201 -22.4114 -3.8154
-4.9183 -22.2774 -3.7727
-4.3553 -22.2757 -3.7548
-3.8202 -22.4065 -3.7612
-9.0570 -62.1719 -10.3993
-7.5124 -62.0681 -10.3507
-6.0913 -63.0998 -10.4969
-5.3010 -73.4722 -12.1991
-3.5207 -73.5773 -12.2000
0.0415 -68.1678 -11.2907
1.6702 -67.2766 -11.1461
3.7413 -76.2404 -12.6415
5.0932 -69.4132 -11.5251
8.1373 -83.2330 -13.8461
7.9064 -64.6618 -10.7832
9.5907 -65.2779 -10.9187
10.7247 -62.4442 -10.4820
12.2181 -62.0892 -10.4655
12.0295 -54.1733 -9.1742
13.0548 -52.7251 -8.9761
14.3714 -52.5550 -8.9996
11.9670 -39.9361 -6.8829
12.8245 -39.3106 -6.8229
13.5745 -38.4287 -6.7210
14.0326 -36.8593 -6.5000
15.6778 -38.3615 -6.8253
15.6657 -35.8299 -6.4359
16.9035 -36.2446 -6.5771
17.2854 -34.8365 -6.3906
18.2049 -34.5623 -6.4140
19.0855 -34.2002 -6.4252
19.8893 -33.6971 -6.4135
21.2940 -34.1605 -6.5916
22.3976 -34.0657 -6.6695
28.6424 -41.3481 -8.2203
28.9372 -39.6864 -8.0185
50.6511 -66.0476 -13.5736
42.4208 -52.6276 -11.0111
44.4861 -52.5354 -11.2009
43.9182 -49.3900 -10.7410
43.0684 -46.1362 -10.2446
43.3867 -44.2793 -10.0498
43.9488 -42.7337 -9.9248
17.6883 -16.3856 -3.8986
17.6861 -15.6057 -3.8086
17.6839 -14.8586 -3.7245
16.2065 -12.9615 -3.3416
16.2974 -12.3999 -3.2928
16.2956 -11.7873 -3.2291
16.2013 -11.1322 -3.1514
16.2923 -10.6240 -3.1134
16.2907 -10.0699 -3.0609
16.1966 -9.4782 -2.9946
16.2422 -8.9848 -2.9572
16.3166 -8.5172 -2.9277
16.3152 -8.0206 -2.8870
16.3138 -7.5357 -2.8489
16.3124 -7.0616 -2.8133
16.9741 -6.8656 -2.8930
17.6554 -6.6492 -2.9757
17.6546 -6.1657 -2.9444
17.6538 -5.6905 -2.9153
17.6530 -5.2226 -2.8883
17.6522 -4.7615 -2.8634
81.3465 -1.7708 -12.5087
18.6633 -4.5532 -3.0032
81.0099 0.1944 -12.4305
21.3640 -4.6680 -3.4124
81.0043 2.1523 -12.4104
23.4839 -4.5395 -3.7256
81.3296 4.1290 -12.4482
84.0946 -12.0741 -13.1841
84.0887 -10.0057 -13.1170
84.1206 -7.9532 -13.0636
83.1263 16.4769 -12.8075
83.1204 18.5728 -12.8477
83.1143 20.6911 -12.8961
19.8615 9.8734 -3.2854
32.7433 8.9965 -5.1032
29.8700 8.9883 -4.6791
19.8598 10.4779 -3.3202
29.4835 9.6543 -4.6452
25.3230 8.9746 -4.0153
19.3085 10.7908 -3.2650
23.4900 8.9692 -3.7511
21.8796 8.9654 -3.5211
18.2539 10.7878 -3.1245
20.4480 8.9613 -3.3186
17.6102 10.9894 -3.0537
19.6905 9.2023 -3.2250
16.2228 13.7406 -3.0978
17.6085 11.5882 -3.0959
16.2208 14.4255 -3.1583
17.6067 12.2061 -3.1414
16.2188 15.1403 -3.2234
17.4625 12.7410 -3.1645
16.4422 12.6158 -3.0291
16.2166 15.8878 -3.2935
16.1222 16.5765 -3.3499
16.1324 13.0085 -3.0243
5.3111 5.7313 -1.1304
5.1325 5.8138 -1.1205
4.4562 6.1542 -1.0923
4.8984 5.8261 -1.0983
4.3128 5.3885 -0.9946
3.8298 5.5671 -0.9703
4.4792 5.8818 -1.0641
4.0727 6.2374 -1.0685
17.5183 43.1791 -6.6345
3.7599 6.0736 -1.0235
3.5084 5.9852 -0.9930
17.3795 45.9918 -6.9951
16.1214 45.9882 -6.9286
18.1286 32.7114 -5.3478
15.6245 48.2703 -7.2089
5.1347 17.2751 -2.5592
17.1088 32.7085 -5.2733
4.8112 17.7430 -2.6091
4.2853 17.4609 -2.5504
16.1146 32.7056 -5.2039
3.9156 17.7987 -2.5841
19.6031 42.3323 -6.6527
3.4967 17.9474 -2.5916
3.0706 18.0728 -2.5974
18.3747 42.3288 -6.5751
2.4301 16.7392 -2.3959
3.6484 30.2462 -4.3141
2.9730 30.9001 -4.3950
2.1902 30.4539 -4.3221
-9.9302 50.6570 -7.3187
4.7057 98.6381 -13.9773
-11.0178 49.8081 -7.2355
-11.9551 48.4700 -7.0843
-13.1055 48.1111 -7.0798
-16.8750 47.9601 -7.2322
-15.5785 41.0820 -6.2543
-14.3174 47.9655 -7.1112
-15.6390 38.4192 -5.9092
-15.4065 47.4097 -7.0863
-16.4561 37.7891 -5.8764
-6.5062 9.9390 -1.7053
-17.8699 38.4725 -6.0531
-25.1863 36.5210 -6.3757
-19.1218 38.6959 -6.1645
-20.8066 39.6659 -6.4032
-24.6622 33.9765 -6.0408
-21.8204 39.2654 -6.4280
-24.8775 32.5891 -5.9064
-26.0542 32.4749 -6.0054
-28.0197 47.6744 -7.9211
-27.2677 32.3557 -6.1112
-22.9047 36.9032 -6.2281
-32.2903 30.0728 -6.4174
-26.3557 29.7843 -5.7516
-26.8984 28.9584 -5.7236
-36.4714 32.3588 -7.1016
-28.6488 29.3876 -5.9517
-40.9366 34.5911 -7.8180
-32.5534 31.8191 -6.6108
-41.9373 33.7360 -7.8634
-28.2741 15.7580 -4.7839
-27.6713 14.5579 -4.6291
-30.1980 14.9677 -4.9987
-44.8142 32.6173 -8.1237
-28.7830 13.4106 -4.7178
-44.2098 30.5726 -7.8908
-28.3680 18.6216 -4.9898
-29.8720 13.0497 -4.8519
-28.0890 17.4830 -4.8732
-28.7135 16.9240 -4.9175
-31.2376 12.7572 -5.0313
-26.7483 7.3155 -4.1731
-27.0573 6.7021 -4.2027
-30.6423 11.6589 -4.8975
-33.9353 7.5407 -5.2511
-24.2023 4.7676 -3.7332
-30.9351 10.9227 -4.9097
-24.8835 4.2802 -3.8284
-25.3209 3.7281 -3.8881
-30.8417 10.0589 -4.8638
-25.4033 3.1153 -3.8954
-25.5901 2.5124 -3.9211
-31.9096 9.5611 -5.0036
-29.5159 2.1794 -4.5218
-29.1880 0.7409 -4.4778
-27.5940 1.3682 -4.2291
-37.1778 0.0451 -5.7126
-41.5912 -0.9546 -6.4045
-52.4563 -2.4734 -8.0997
-72.8534 -25.5413 -12.1709
-52.5902 -3.7552 -8.1473
-72.6025 -27.4418 -12.2574
-80.8434 -32.8119 -13.8023
-78.5190 -34.1024 -13.5653
-69.1309 -32.0336 -12.0939
-67.4586 -33.2633 -11.9583
-67.3219 -35.2448 -12.1013
-45.0804 -25.0081 -8.2229
-42.2685 -24.8037 -7.8295
-41.6773 -25.8318 -7.8457
-8.5462 -5.5875 -1.6363
-41.8381 -28.8221 -8.1538
-73.3825 -53.2154 -14.5696
-50.7195 -40.6645 -10.4787
-49.0018 -41.2823 -9.6151
-49.3366 -43.6480 -9.8995
-27.6296 -25.6618 -5.6750
-51.4250 -50.1337 -10.8234
-29.1676 -29.8452 -6.2976
-25.1451 -27.0064 -5.5759
-25.3754 -28.6116 -5.7863
-26.3873 -31.2438 -6.1954
-58.3776 -72.6157 -14.1318
-50.4814 -66.0027 -12.6181
-40.3771 -55.5260 -10.4371
-47.8544 -69.2727 -12.8136
-41.1741 -62.7996 -11.4406
-40.4125 -65.0166 -11.6747
-13.2023 -22.4333 -3.9736
-12.4803 -22.4312 -3.9222
-11.7776 -22.4292 -3.8743
-11.0926 -22.4273 -3.8297
-10.4240 -22.4254 -3.7883
-9.7703 -22.4235 -3.7498
-9.1304 -22.4217 -3.7141
-8.5030 -22.4199 -3.6811
-7.8872 -22.4181 -3.6507
-7.2818 -22.4164 -3.6228
-6.6860 -22.4147 -3.5973
-6.0988 -22.4130 -3.5741
-5.5194 -22.4114 -3.5531
-4.9469 -22.4097 -3.5343
-4.3806 -22.4081 -3.5176
-3.8197 -22.4065 -3.5029
-3.6413 -24.9989 -3.8944
-7.4399 -61.4771 -9.5484
-6.1534 -63.7504 -9.8773
-5.2872 -73.2896 -11.3337
-2.9178 -60.9839 -9.4180
-1.5928 -67.4795 -10.4126
0.0406 -66.7329 -10.2946
1.9132 -77.0769 -11.8935
3.7596 -76.6263 -11.8336
5.6454 -76.9507 -11.8997
7.6144 -77.8964 -12.0688
9.7774 -79.9772 -12.4215
8.9572 -60.9750 -9.4986
10.4787 -61.0206 -9.5394
11.8609 -60.2830 -9.4628
13.3377 -60.0730 -9.4740
12.9526 -52.3198 -8.2946
14.5149 -53.0871 -8.4653
11.8902 -39.6856 -6.3689
12.8071 -39.2632 -6.3453
13.8909 -39.3303 -6.4046
14.3949 -37.8166 -6.2089
16.7955 -41.1023 -6.8083
15.6784 -35.8642 -5.9972
16.9176 -36.2801 -6.1286
17.8284 -35.9363 -6.1365
18.1722 -34.5055 -5.9603
19.0909 -34.2151 -5.9826
19.9821 -33.8597 -5.9975
21.4202 -34.3683 -6.1715
23.8307 -36.2512 -6.6043
28.9986 -41.8692 -7.7451
29.0929 -39.9065 -7.5016
50.1298 -65.3788 -12.4998
42.7408 -53.0337 -10.3219
43.7301 -51.6518 -10.2433
43.9972 -49.4878 -10.0096
42.4587 -45.4915 -9.3941
43.5475 -44.4517 -9.3816
44.2500 -43.0349 -9.2930
17.6883 -16.3889 -3.6253
17.6861 -15.6089 -3.5413
17.6839 -14.8617 -3.4627
16.2065 -12.9643 -3.1064
16.2974 -12.4027 -3.0606
16.2956 -11.7900 -3.0011
16.2013 -11.1349 -2.9286
16.2923 -10.6266 -2.8930
16.2907 -10.0725 -2.8439
16.1966 -9.4807 -2.7819
16.2377 -8.9848 -2.7461
16.3166 -8.5197 -2.7191
16.3152 -8.0230 -2.6810
16.3138 -7.5381 -2.6453
16.3124 -7.0640 -2.6119
16.9681 -6.8656 -2.6846
17.6554 -6.6517 -2.7619
17.6546 -6.1683 -2.7325
17.6538 -5.6930 -2.7052
17.6530 -5.2251 -2.6798
17.6522 -4.7639 -2.6563
18.6529 -4.5533 -2.7841
21.5246 -4.7061 -3.1885
23.4676 -4.5395 -3.4523
82.7637 -11.8942 -12.0285
82.7579 -9.8585 -11.9655
84.0051 -7.9535 -12.0901
81.4314 -1.7835 -11.5995
81.0099 0.1836 -11.5132
81.0043 2.1415 -11.4929
82.7864 4.1919 -11.7326
82.9646 16.4336 -11.8252
82.9586 18.5254 -11.8606
83.1143 20.6797 -11.9267
32.7599 8.9965 -4.7213
29.8839 8.9883 -4.3281
29.4835 9.6502 -4.2941
25.3331 8.9747 -3.7127
23.7756 9.0748 -3.5087
22.1603 9.0773 -3.2953
20.4548 8.9613 -3.0670
19.6905 9.1994 -2.9791
19.8615 9.8704 -3.0344
19.8598 10.4749 -3.0662
19.3137 10.7908 -3.0156
18.2587 10.7878 -2.8854
17.6102 10.9867 -2.8189
17.6085 11.5854 -2.8575
17.6067 12.2032 -2.8990
17.4626 12.7382 -2.9200
16.4458 12.6158 -2.7953
16.1324 13.0058 -2.7899
16.2228 13.7378 -2.8574
16.2208 14.4226 -2.9128
16.2188 15.1373 -2.9725
16.2167 15.8848 -3.0368
16.1222 16.5734 -3.0884
5.2795 5.6960 -1.0359
5.1021 5.7783 -1.0267
4.8557 5.7744 -1.0034
4.6454 5.8030 -0.9873
4.4654 5.8627 -0.9775
4.4268 6.1126 -0.9998
4.2722 6.2092 -0.9972
3.9869 6.1049 -0.9635
3.7231 6.0131 -0.9335
4.1994 7.1630 -1.0947
18.1313 32.7114 -4.9257
17.1113 32.7085 -4.8567
16.1170 32.7056 -4.7924
19.6060 42.3323 -6.1262
19.0532 43.8854 -6.2770
17.9189 44.1603 -6.2474
17.3820 45.9918 -6.4402
16.1236 45.9882 -6.3786
16.0550 49.5936 -6.8183
5.1243 17.2375 -2.3507
4.7831 17.6370 -2.3873
4.2614 17.3609 -2.3341
3.9295 17.8598 -2.3866
3.4781 17.8500 -2.3723
2.9693 17.4742 -2.3113
2.6592 18.3151 -2.4125
3.5247 29.2168 -3.8352
2.9698 30.8631 -4.0398
2.9910 41.5842 -5.4312
3.9937 83.7046 -10.9154
-8.5503 49.9686 -6.6124
-9.6893 49.4208 -6.5717
-10.6811 48.2793 -6.4553
-11.2798 45.7254 -6.1517
-12.6690 46.5019 -6.2990
-13.9882 46.8559 -6.3949
-15.6951 41.3834 -5.8007
-16.3752 40.2219 -5.6963
-16.7818 38.5313 -5.5175
-17.4844 37.6369 -5.4533
-19.8884 40.2411 -5.9041
-20.7332 39.5198 -5.8760
-21.9455 39.4845 -5.9540
-29.2578 49.7731 -7.6182
-28.7073 46.2448 -7.1904
-6.5073 9.9392 -1.5712
-25.4442 36.8888 -5.9342
-25.8084 35.5497 -5.8248
-25.0110 32.7584 -5.4720
-25.9501 32.3395 -5.5125
-27.4187 32.5293 -5.6639
-26.4293 29.8621 -5.3167
-26.8783 28.9314 -5.2727
-28.6908 29.4252 -5.4956
-32.8837 32.1357 -6.1578
-35.6818 33.2248 -6.5400
-36.2663 32.1703 -6.5133
-37.2069 31.4330 -6.5548
-39.9389 32.1215 -6.9090
-43.7988 33.5174 -7.4472
-43.6164 31.7382 -7.2963
-45.4715 31.4377 -7.4906
-27.9332 18.3317 -4.5353
-28.4102 17.6785 -4.5503
-29.1904 17.2006 -4.6159
-28.3429 15.7920 -4.4285
-28.3515 14.9114 -4.3805
-30.2024 14.9654 -4.6180
-28.7143 13.3744 -4.3481
-29.8323 13.0279 -4.4771
-31.1451 12.7149 -4.6357
-30.8824 11.7459 -4.5619
-31.0296 10.9517 -4.5523
-31.1770 10.1639 -4.5456
-31.2762 9.3669 -4.5348
-26.5090 7.2464 -3.8248
-25.9286 6.4189 -3.7251
-33.8934 7.5268 -4.8516
-23.2443 4.5757 -3.3172
-24.6846 4.2427 -3.5143
-25.4582 3.7449 -3.6178
-25.3131 3.1009 -3.5929
-25.4978 2.4999 -3.6169
-25.6874 1.8933 -3.6436
-27.4052 1.3552 -3.8895
-27.5115 0.6947 -3.9090
-41.4110 0.0448 -5.8941
-41.2100 -0.9514 -5.8790
-52.3214 -2.4740 -7.4857
-52.6011 -3.7630 -7.5518
-74.3663 -24.0796 -11.4157
-72.2658 -25.3455 -11.2051
-71.7431 -27.1272 -11.2433
-77.7638 -33.7856 -12.4741
-67.6813 -31.3718 -10.9949
-66.0820 -32.5943 -10.8793
-66.2603 -34.6989 -11.0629
-43.7273 -24.2641 -7.4093
-42.3062 -24.8324 -7.2805
-40.3503 -25.0156 -7.0578
-8.5448 -5.5879 -1.5203
-40.2250 -27.7174 -7.2857
-41.7295 -30.2682 -7.7008
-51.8287 -39.5414 -9.7533
-49.3111 -39.5436 -9.4712
-47.6309 -40.1356 -8.6423
-48.0704 -42.5362 -8.9202
-50.4581 -46.8735 -9.5856
-29.3476 -28.6161 -5.7136
-28.4872 -29.1543 -5.6901
-60.4303 -64.9153 -12.3982
-53.3470 -60.1611 -11.2559
-51.6102 -61.1194 -11.2132
-25.2302 -31.3891 -5.6525
-51.0972 -66.8189 -11.8213
-16.3168 -22.4422 -3.9041
-15.4992 -22.4399 -3.8419
-14.7088 -22.4376 -3.7837
-13.9431 -22.4354 -3.7294
-13.2003 -22.4333 -3.6787
-12.4784 -22.4312 -3.6315
-11.7758 -22.4292 -3.5874
-11.0910 -22.4273 -3.5463
-10.4224 -22.4254 -3.5082
-9.7689 -22.4235 -3.4727
-9.1291 -22.4217 -3.4399
-8.5018 -22.4199 -3.4095
-7.8861 -22.4181 -3.3816
-7.2809 -22.4164 -3.3559
-6.6851 -22.4147 -3.3324
-6.0980 -22.4130 -3.3110
-5.5187 -22.4114 -3.2917
-4.9463 -22.4097 -3.2744
-4.3800 -22.4081 -3.2590
-3.8192 -22.4065 -3.2455
-3.6413 -25.0020 -3.6087
-7.7665 -64.1838 -9.2365
-6.3719 -66.0230 -9.4781
-5.3112 -73.6306 -10.5503
-2.9231 -61.1020 -8.7434
-1.6175 -68.5311 -9.7985
0.0407 -67.0972 -9.5909
1.8873 -76.0501 -10.8735
3.7069 -75.5635 -10.8126
5.5434 -75.5721 -10.8283
6.4604 -66.1003 -9.4890
9.3438 -76.4411 -11.0001
9.3099 -63.3845 -9.1483
10.6114 -61.8020 -8.9514
10.8053 -54.9253 -7.9878
13.2882 -59.8586 -8.7457
13.1182 -52.9963 -7.7834
14.3092 -52.3424 -7.7319
12.1567 -40.5807 -6.0327
5.3361 -16.3614 -2.4492
13.8721 -39.2826 -5.9250
14.4326 -37.9210 -5.7665
16.4562 -40.2780 -6.1789
15.6911 -35.8985 -5.5592
16.9316 -36.3156 -5.6807
17.2533 -34.7822 -5.4996
18.3678 -34.8824 -5.5788
19.0646 -34.1733 -5.5321
20.0499 -33.9799 -5.5720
21.5474 -34.5780 -5.7477
23.9107 -36.3789 -6.1345
28.7291 -41.4869 -7.1027
29.7276 -40.7840 -7.0949
50.2880 -65.5962 -11.6051
43.5233 -54.0141 -9.7270
43.9857 -51.9628 -9.5338
42.7938 -48.1429 -9.0079
42.2297 -45.2544 -8.6439
43.7090 -44.6249 -8.7105
44.5104 -43.2964 -8.6461
18.0030 -16.6838 -3.4124
18.4300 -16.2688 -3.4124
17.6840 -14.8648 -3.2017
16.2065 -12.9671 -2.8719
16.2974 -12.4054 -2.8292
16.2956 -11.7927 -2.7739
16.2013 -11.1375 -2.7065
16.2923 -10.6292 -2.6732
16.2907 -10.0751 -2.6275
16.1966 -9.4832 -2.5699
16.2333 -8.9848 -2.5358
16.3166 -8.5222 -2.5112
16.3152 -8.0254 -2.4756
16.3138 -7.5405 -2.4423
16.3124 -7.0664 -2.4111
16.9621 -6.8656 -2.4769
17.6554 -6.6542 -2.5488
17.6546 -6.1707 -2.5213
17.6538 -5.6954 -2.4957
17.6530 -5.2276 -2.4719
17.6522 -4.7664 -2.4498
18.6426 -4.5533 -2.5658
21.5114 -4.7061 -2.9379
24.2711 -4.6982 -3.2914
83.7908 -12.0531 -11.2221
83.7850 -9.9921 -11.1614
83.8903 -7.9538 -11.1223
81.3466 -1.7924 -10.6690
81.0099 0.1728 -10.5988
81.0043 2.1307 -10.5783
81.3297 4.1074 -10.6071
85.7015 10.5898 -11.1734
83.7211 12.4052 -10.9268
83.7151 14.4789 -10.9443
83.1264 16.4544 -10.8921
83.1204 18.5502 -10.9228
83.1144 20.6684 -10.9603
32.7765 8.9966 -4.3402
29.8978 8.9883 -3.9779
29.4835 9.6461 -3.9441
25.3433 8.9747 -3.4109
23.8031 9.0820 -3.2253
22.1681 9.0773 -3.0262
20.4616 8.9614 -2.8160
19.6905 9.1966 -2.7340
19.8615 9.8675 -2.7843
19.8598 10.4720 -2.8129
19.3190 10.7908 -2.7668
18.2635 10.7879 -2.6469
17.6102 10.9840 -2.5848
17.6085 11.5826 -2.6198
17.6067 12.2004 -2.6575
17.4626 12.7353 -2.6763
16.4494 12.6158 -2.5622
16.1324 13.0031 -2.5563
16.2228 13.7350 -2.6177
16.2209 14.4198 -2.6681
16.2188 15.1344 -2.7224
16.2167 15.8818 -2.7809
16.1222 16.5704 -2.8278
16.2423 17.5207 -2.9175
5.0721 5.7434 -0.9342
4.8988 5.8246 -0.9265
4.7278 5.9049 -0.9195
4.3075 5.6545 -0.8628
4.0992 5.6593 -0.8470
4.2444 6.1678 -0.9063
3.9470 6.0430 -0.8725
3.6870 5.9540 -0.8455
4.1735 7.1177 -0.9950
18.1340 32.7114 -4.5048
17.1139 32.7085 -4.4413
16.1193 32.7057 -4.3821
16.0800 34.7142 -4.5932
19.1768 44.1638 -5.7750
17.9214 44.1603 -5.7111
17.3844 45.9919 -5.8869
16.1258 45.9882 -5.8302
16.0572 49.5936 -6.2316
5.1139 17.2002 -2.1436
4.7554 17.5325 -2.1687
4.3548 17.7394 -2.1794
3.9756 18.0668 -2.2060
3.4598 17.7538 -2.1560
2.9553 17.3897 -2.1016
2.6515 18.2594 -2.1976
3.6997 30.6637 -3.6775
2.9493 30.6458 -3.6649
2.9903 41.5699 -4.9603
3.9824 83.4586 -9.9430
-8.8643 51.7966 -6.2629
-10.9517 55.8521 -6.7864
-12.6056 56.9704 -6.9608
-13.8859 56.2820 -6.9195
-13.5638 49.7791 -6.1623
-14.2828 47.8358 -5.9668
-15.2837 47.0185 -5.9135
-15.7594 44.7764 -5.6822
-16.6964 41.0048 -5.3090
-17.2068 39.5014 -5.1715
-17.6636 38.0171 -5.0366
-19.8637 40.1851 -5.3915
-19.3961 36.9658 -5.0265
-21.1780 38.0977 -5.2544
-22.7212 38.6471 -5.4108
-6.5085 9.9393 -1.4376
-25.6333 37.1570 -5.4694
-35.8295 49.3451 -7.3990
-25.1455 32.9291 -5.0343
-26.3393 32.8190 -5.1207
-26.9349 31.9497 -5.0928
-27.8501 31.4618 -5.1287
-26.8582 28.9045 -4.8239
-29.0452 29.7830 -5.0944
-36.4185 35.5833 -6.2456
-35.5919 33.1346 -5.9752
-36.0642 31.9845 -5.9334
-37.5505 31.7168 -6.0610
-40.2866 32.3942 -6.3861
-41.7454 31.9391 -6.5053
-44.0086 32.0164 -6.7482
-45.5066 31.4547 -6.8725
-28.8935 18.9573 -4.3015
-28.3803 17.6554 -4.1686
-29.2694 17.2426 -4.2452
-28.4118 15.8260 -4.0724
-30.5434 16.0596 -4.3299
-30.2068 14.9630 -4.2384
-28.6462 13.3385 -3.9813
-29.7927 13.0064 -4.1044
-30.2800 12.3574 -4.1379
-31.1256 11.8339 -4.2222
-30.2890 10.6860 -4.0812
-31.5186 10.2709 -4.2214
-31.6511 9.4748 -4.2164
-28.3208 7.7377 -3.7549
-25.5369 6.3184 -3.3720
-24.4673 5.4302 -3.2195
-24.5771 4.8348 -3.2248
-24.1730 4.1515 -3.1647
-25.8233 3.7951 -3.3752
-25.8899 3.1681 -3.3804
-26.8002 2.6240 -3.4977
-28.7645 2.1162 -3.7546
-27.2921 1.3460 -3.5650
-27.1872 0.6829 -3.5560
-41.1319 0.0391 -5.3901
-41.3499 -0.9601 -5.4321
-50.9276 -2.4149 -6.7107
-52.4790 -3.7613 -6.9403
-73.0092 -25.6165 -10.4465
-72.7535 -27.5196 -10.5232
-77.4757 -33.6717 -11.4737
-67.1095 -31.1166 -10.0665
-65.6287 -32.3804 -9.9780
-43.6163 -22.8474 -6.7260
-42.4763 -23.5764 -6.6486
-43.1980 -25.3624 -6.8681
-42.1116 -26.1141 -6.8061
-8.5434 -5.5884 -1.4047
-42.8079 -29.5039 -7.1661
-56.1743 -40.7547 -9.5823
-33.2095 -25.3419 -5.7775
-50.0949 -40.1807 -8.8961
-49.4402 -41.6687 -8.2422
-49.8207 -44.0939 -8.4954
-29.4147 -27.3304 -5.1356
-28.7288 -28.0179 -5.1410
-27.8194 -28.4762 -5.1082
-28.1811 -30.2781 -5.3157
-54.1236 -61.0475 -10.5004
-52.3824 -62.0446 -10.4661
-27.1838 -33.8253 -5.6011
-26.6446 -34.8484 -5.6699
-16.3141 -22.4422 -3.5908
-15.4968 -22.4398 -3.5339
-14.7065 -22.4376 -3.4808
-13.9409 -22.4354 -3.4312
-13.1983 -22.4333 -3.3849
-12.4765 -22.4312 -3.3416
-11.7741 -22.4292 -3.3014
-11.0894 -22.4273 -3.2638
-10.4209 -22.4254 -3.2290
-9.7675 -22.4235 -3.1966
-9.1278 -22.4217 -3.1666
-8.5007 -22.4199 -3.1388
-7.8850 -22.4181 -3.1132
-7.2799 -22.4164 -3.0898
-6.6842 -22.4147 -3.0683
-6.0972 -22.4130 -3.0488
-5.5179 -22.4114 -3.0311
-4.9456 -22.4097 -3.0153
-4.3795 -22.4081 -3.0012
-3.8187 -22.4065 -2.9889
-3.6413 -25.0051 -3.3238
-7.6403 -63.1491 -8.3694
-6.9798 -72.3293 -9.5630
-4.7046 -65.2290 -8.6081
-2.8773 -60.1511 -7.9274
-1.5881 -67.2916 -8.8613
0.0408 -67.3401 -8.8653
1.8646 -75.1462 -9.8955
3.6615 -74.6504 -9.8380
5.4574 -74.4104 -9.8195
7.2613 -74.3057 -9.8240
7.6051 -62.2256 -8.2466
10.9337 -74.4507 -9.8959
10.3029 -60.0139 -8.0049
12.2342 -62.1974 -8.3297
14.2193 -64.0621 -8.6189
13.4562 -54.3694 -7.3527
13.9396 -50.9974 -6.9363
12.0503 -40.2312 -5.5066
12.7728 -39.1692 -5.3983
13.8533 -39.2352 -5.4481
14.4585 -37.9947 -5.3187
16.7455 -40.9919 -5.7885
15.7038 -35.9328 -5.1218
16.9456 -36.3510 -5.2334
17.1629 -34.6052 -5.0355
18.6502 -35.4240 -5.2135
19.3372 -34.6673 -5.1639
20.9908 -35.5801 -5.3679
23.5309 -37.7670 -5.7753
23.9180 -36.3958 -5.6456
27.7422 -40.0682 -6.3096
29.4547 -40.4163 -6.4663
49.1484 -64.1207 -10.4318
43.5674 -54.0781 -8.9544
42.7929 -50.5626 -8.5289
41.9436 -47.1949 -8.1176
43.1511 -46.2503 -8.1199
44.5605 -45.5028 -8.1627
46.2723 -45.0189 -8.2610
45.3058 -41.9941 -7.8917
51.3627 -45.3487 -8.7383
17.6840 -14.8679 -2.9414
16.2065 -12.9699 -2.6380
16.2974 -12.4081 -2.5985
16.2957 -11.7954 -2.5473
16.2013 -11.1401 -2.4850
16.2923 -10.6318 -2.4541
16.2907 -10.0776 -2.4118
16.1966 -9.4857 -2.3585
16.2288 -8.9848 -2.3262
16.3166 -8.5246 -2.3038
16.3152 -8.0279 -2.2708
16.3138 -7.5429 -2.2399
16.3124 -7.0687 -2.2109
16.9561 -6.8657 -2.2701
16.1869 -6.1030 -2.1420
16.1856 -5.6596 -2.1185
16.1844 -5.2236 -2.0965
16.1832 -4.7945 -2.0760
16.8733 -4.5584 -2.1449
18.6323 -4.5533 -2.3485
21.4982 -4.7062 -2.6884
24.2544 -4.6983 -3.0110
84.0947 -12.1081 -10.3064
84.0888 -10.0395 -10.2486
83.7760 -7.9542 -10.1599
81.3466 -1.8032 -9.7532
81.0100 0.1621 -9.6871
81.0044 2.1200 -9.6664
81.3297 4.0966 -9.6907
85.7962 10.5901 -10.2130
82.6949 12.2421 -9.8523
82.6890 14.2903 -9.8659
83.1264 16.4432 -9.9387
83.1205 18.5390 -9.9646
83.1144 20.6571 -9.9968
32.7930 8.9966 -3.9598
29.9117 8.9884 -3.6284
29.4835 9.6420 -3.5951
25.3534 8.9747 -3.1097
23.8120 9.0820 -2.9398
22.1759 9.0773 -2.7577
20.4683 8.9614 -2.5656
19.6905 9.1937 -2.4896
19.8615 9.8646 -2.5348
19.8598 10.4690 -2.5604
19.3242 10.7908 -2.5186
18.2682 10.7879 -2.4090
17.6102 10.9812 -2.3514
17.6085 11.5798 -2.3827
17.6067 12.1976 -2.4166
17.4626 12.7325 -2.4332
16.4529 12.6158 -2.3296
16.1324 13.0003 -2.3233
16.2228 13.7322 -2.3787
16.2209 14.4169 -2.4241
16.2188 15.1315 -2.4730
16.2167 15.8788 -2.5257
16.1222 16.5674 -2.5679
16.2423 17.5176 -2.6489
5.0426 5.7090 -0.8432
4.8705 5.7899 -0.8361
4.7006 5.8700 -0.8297
4.5329 5.9494 -0.8239
3.9950 5.5146 -0.7489
4.2006 6.1032 -0.8136
3.9081 5.9824 -0.7836
3.6518 5.8962 -0.7595
18.7946 32.0487 -4.0630
18.1367 32.7114 -4.0850
17.1164 32.7085 -4.0269
16.1216 32.7057 -3.9728
16.0800 34.7092 -4.1632
18.3826 42.3288 -5.0171
17.9239 44.1603 -5.1762
17.3868 45.9919 -5.3350
16.1281 45.9882 -5.2832
16.0594 49.5936 -5.6465
5.1035 17.1631 -1.9380
4.7757 17.6049 -1.9730
4.3297 17.6346 -1.9627
3.9369 17.8888 -1.9787
3.5039 17.9774 -1.9775
2.9453 17.3289 -1.8970
2.6419 18.1914 -1.9831
3.6945 30.6170 -3.3258
2.9406 30.5517 -3.3091
2.9163 40.5365 -4.3808
3.9684 83.1541 -8.9724
-11.9301 53.9099 -5.9671
-12.3054 49.8688 -5.5546
-13.7599 50.4919 -5.6632
-14.8877 49.8548 -5.6346
-16.0265 39.3538 -4.6183
-16.8373 38.6473 -4.5866
-18.1309 39.0169 -4.6862
-18.6413 37.7065 -4.5868
-19.3456 36.8639 -4.5454
-20.0867 36.1290 -4.5190
-22.8239 38.8158 -4.9290
-34.2172 55.1033 -7.1099
-6.5096 9.9394 -1.3042
-34.7206 50.3213 -6.7211
-35.5398 48.9380 -6.6592
-25.2811 33.1011 -4.5931
-26.7092 33.2741 -4.7129
-27.7147 32.8690 -4.7569
-27.7817 31.3789 -4.6449
-29.3627 31.5941 -4.7887
-29.6673 30.4152 -4.7258
-36.5588 35.7136 -5.6950
-35.3085 32.8643 -5.3852
-35.8648 31.8013 -5.3616
-37.6837 31.8227 -5.5279
-40.1845 32.3053 -5.7901
-41.1976 31.5130 -5.8366
-44.7832 32.5725 -6.2442
-45.4627 31.4169 -6.2444
-28.7873 18.8831 -3.8985
-28.3505 17.6325 -3.7887
-29.2382 17.2197 -3.8590
-29.2622 16.2953 -3.8176
-30.4986 16.0315 -3.9360
-30.2112 14.9607 -3.8598
-28.5787 13.3028 -3.6173
-29.6872 12.9560 -3.7255
-30.5153 12.4490 -3.7994
-30.1498 11.4586 -3.7270
-30.6130 10.7960 -3.7597
-31.7854 10.3534 -3.8810
-31.1165 9.3105 -3.7797
-32.4166 8.8523 -3.9199
-25.1580 6.2212 -3.0303
-25.9310 5.7515 -3.1133
-24.1861 4.7546 -2.8961
-24.3339 4.1758 -2.9079
-25.1808 3.6974 -3.0048
-26.4469 3.2327 -3.1533
-25.8332 2.5259 -3.0794
-35.1602 2.5821 -4.1926
-27.1803 1.3369 -3.2441
-26.7587 0.6686 -3.1987
-41.8210 0.0342 -5.0097
-41.8157 -0.9765 -5.0225
-50.6317 -2.4075 -6.1012
-53.6049 -5.1538 -6.5129
-71.7865 -25.1975 -9.4148
-73.3750 -27.7650 -9.7296
-72.7221 -29.5470 -9.7560
-76.5346 -33.2737 -10.3945
-62.7944 -29.1249 -8.6397
-42.5575 -21.0037 -5.9359
-62.9423 -32.9802 -8.9060
-56.0491 -31.1183 -8.0510
-42.3403 -24.8653 -6.1787
-41.6586 -25.8397 -6.1807
-8.5420 -5.5888 -1.2895
-39.9038 -27.5088 -6.1340
-38.5332 -27.9624 -6.0367
-43.3098 -33.0565 -6.9209
-50.5047 -40.5179 -8.2394
-35.2087 -29.6803 -5.3523
-29.4889 -26.1043 -4.5860
-28.9323 -26.8873 -4.6076
-28.0268 -27.3384 -4.5755
-27.2825 -27.9316 -4.5709
-26.1556 -28.1069 -4.5022
-27.5386 -31.0671 -4.8762
-52.4129 -62.0913 -9.5591
-55.8911 -69.5580 -10.5136
-52.0403 -68.0746 -10.1112
-16.3115 -22.4422 -3.2785
-15.4943 -22.4398 -3.2269
-14.7041 -22.4376 -3.1788
-13.9388 -22.4354 -3.1338
-13.1962 -22.4333 -3.0918
-12.4747 -22.4312 -3.0527
-11.7723 -22.4292 -3.0162
-11.0878 -22.4273 -2.9822
-10.4195 -22.4254 -2.9506
-9.7661 -22.4235 -2.9212
-9.1265 -22.4217 -2.8940
-8.4995 -22.4199 -2.8689
-7.8839 -22.4181 -2.8457
-7.2789 -22.4164 -2.8244
-6.6833 -22.4147 -2.8050
-6.1180 -22.4923 -2.7971
-5.5628 -22.5972 -2.7942
-4.9878 -22.6036 -2.7808
-4.4167 -22.6016 -2.7679
-3.8512 -22.5997 -2.7565
-3.6413 -25.0082 -3.0397
-3.6271 -29.9822 -3.6337
-6.7823 -70.2917 -8.4986
-4.4527 -61.7428 -7.4512
-2.8914 -60.4525 -7.2858
-1.4511 -61.4879 -7.4046
0.0401 -66.3266 -7.9852
1.6806 -67.7428 -8.1578
3.6197 -73.8090 -8.8953
5.3825 -73.4006 -8.8577
6.3858 -65.3556 -7.9014
8.8989 -72.8228 -8.8251
9.3150 -63.4375 -7.7102
10.7102 -62.3948 -7.6098
11.7630 -59.8105 -7.3238
14.0158 -63.1541 -7.7685
12.8901 -52.0891 -6.4403
14.4202 -52.7633 -6.5607
12.9157 -43.1267 -5.3961
13.2821 -40.7368 -5.1320
13.8347 -39.1880 -4.9737
14.7996 -38.8967 -4.9765
16.6547 -40.7756 -5.2621
15.6145 -35.7340 -4.6544
16.3677 -35.1166 -4.6196
17.2069 -34.6992 -4.6132
17.9933 -34.1815 -4.5957
20.5052 -36.7669 -5.0027
22.8043 -38.6601 -5.3273
23.5598 -37.8194 -5.2817
24.0718 -36.6357 -5.1893
25.2712 -36.5054 -5.2487
47.4389 -65.1040 -9.5092
49.3494 -64.3937 -9.5629
42.8950 -53.2526 -8.0478
42.8900 -50.6862 -7.8022
42.6380 -47.9848 -7.5307
42.9159 -46.0065 -7.3687
43.5950 -44.5253 -7.2857
45.7564 -44.5255 -7.4516
47.3833 -43.9283 -7.5277
48.4581 -42.7928 -7.5178
17.6840 -14.8710 -2.6818
16.2066 -12.9727 -2.4048
16.2974 -12.4109 -2.3684
16.2957 -11.7981 -2.3213
16.2013 -11.1428 -2.2641
16.2923 -10.6344 -2.2356
16.2907 -10.0802 -2.1966
16.1966 -9.4882 -2.1476
16.1951 -8.9686 -2.1134
16.1936 -8.4628 -2.0812
16.1922 -7.9698 -2.0510
16.1909 -7.4884 -2.0227
16.1895 -7.0178 -1.9961
16.1882 -6.5570 -1.9711
16.1869 -6.1053 -1.9478
16.1856 -5.6618 -1.9259
16.1844 -5.2259 -1.9055
16.1832 -4.7968 -1.8865
16.8648 -4.5584 -1.9477
18.6220 -4.5534 -2.1319
21.4851 -4.7062 -2.4398
24.2378 -4.6983 -2.7317
82.7638 -11.9275 -9.2045
82.7580 -9.8917 -9.1507
83.6623 -7.9545 -9.2027
81.4315 -1.8159 -8.8491
81.0100 0.1514 -8.7778
81.0044 2.1093 -8.7568
82.7864 4.1590 -8.9339
85.8911 10.5903 -9.2530
82.6949 12.2310 -8.9141
82.6890 14.2793 -8.9242
83.1265 16.4320 -8.9878
83.1205 18.5277 -9.0089
83.1144 20.6458 -9.0358
32.8095 8.9967 -3.5800
29.9255 8.9884 -3.2795
29.4836 9.6379 -3.2471
25.3634 8.9747 -2.8091
23.8209 9.0820 -2.6549
22.1836 9.0773 -2.4898
20.4751 8.9614 -2.3157
19.1911 8.9577 -2.1888
18.0344 8.9544 -2.0758
17.6151 9.2831 -2.0476
17.6135 9.8329 -2.0694
17.6119 10.3976 -2.0930
17.6102 10.9785 -2.1186
17.6085 11.5771 -2.1464
17.6067 12.1948 -2.1763
17.3097 12.6182 -2.1717
16.4565 12.6158 -2.0975
16.1325 12.9976 -2.0910
16.2228 13.7294 -2.1403
15.7200 13.9690 -2.1134
15.7180 14.6615 -2.1555
15.7128 15.3826 -2.2006
16.1223 16.5643 -2.3086
16.2423 17.5144 -2.3810
5.0136 5.6751 -0.7534
4.8425 5.7557 -0.7469
4.6738 5.8356 -0.7411
4.5072 5.9147 -0.7358
4.3425 5.9933 -0.7311
4.1390 6.0128 -0.7199
3.8700 5.9232 -0.6966
4.1995 6.7795 -0.7840
18.6266 31.7574 -3.6138
18.1394 32.7114 -3.6663
17.1189 32.7085 -3.6136
16.1240 32.7057 -3.5646
16.0800 34.7043 -3.7343
18.3852 42.3288 -4.5004
17.5184 43.1551 -4.5368
17.3892 45.9919 -4.7845
16.1303 45.9883 -4.7375
15.6330 48.2703 -4.9278
24.6776 82.9793 -8.4006
4.7424 17.4799 -1.7561
4.3049 17.5314 -1.7491
3.9684 18.0294 -1.7876
3.4654 17.7776 -1.7528
2.9300 17.2364 -1.6911
2.6477 18.2291 -1.7809
3.6661 30.3781 -2.9572
2.9275 30.4121 -2.9519
2.9380 40.8327 -3.9544
3.9709 83.1983 -8.0445
-6.6115 45.1487 -4.4130
-8.6163 50.3331 -4.9410
-9.8519 50.2293 -4.9555
-11.0124 49.7558 -4.9367
-12.5301 50.7725 -5.0696
-13.4952 49.5135 -4.9788
-14.5788 48.8133 -4.9465
-18.4529 56.7517 -5.7996
-16.1466 39.6430 -4.1730
-17.4888 40.1368 -4.2731
-17.8892 38.4910 -4.1478
-18.5925 37.6022 -4.1045
-19.2955 36.7629 -4.0680
-20.3032 36.5128 -4.0992
-22.9006 38.9402 -4.4390
-30.6536 49.3566 -5.7179
-6.5107 9.9396 -1.1712
-34.6857 50.2626 -6.0295
-35.7179 49.1752 -6.0110
-25.4178 33.2745 -4.1484
-26.6718 33.2219 -4.2285
-27.6729 32.8136 -4.2683
-31.0086 35.0175 -4.6599
-29.3354 31.5590 -4.3011
-35.6762 36.5688 -5.1100
-36.6999 35.8446 -5.1416
-35.5974 33.1268 -4.8838
-35.6194 31.5774 -4.7911
-37.0744 31.3017 -4.8943
-40.2204 32.3274 -5.2165
-41.8877 32.0339 -5.3429
-52.7473 38.3564 -6.6231
-45.2966 31.2949 -5.6040
-45.9591 30.1396 -5.6074
-28.6754 17.8300 -3.4533
-29.2072 17.1969 -3.4747
-29.5205 16.4346 -3.4722
-30.4541 16.0035 -3.5443
-30.2156 14.9584 -3.4821
-29.8732 13.9010 -3.4115
-29.9150 13.0511 -3.3879
-30.7536 12.5418 -3.4564
-30.0651 11.4222 -3.3557
-30.9432 10.9081 -3.4321
-31.8696 10.3763 -3.5152
-32.4253 9.6976 -3.5589
-32.4487 8.8566 -3.5463
-24.7911 6.1271 -2.6996
-25.5435 5.6621 -2.7731
-25.5903 5.0272 -2.7716
-25.5791 4.3861 -2.7654
-24.1621 3.5446 -2.6092
-26.9566 3.2914 -2.9092
-26.3893 2.5768 -2.8481
-25.8031 1.8915 -2.7865
-26.8964 1.3193 -2.9080
-26.4296 0.6569 -2.8626
-41.5082 0.0284 -4.5063
-40.9359 -0.9613 -4.4572
-51.5854 -2.4597 -5.6364
-51.9857 -3.7397 -5.7033
-71.3428 -25.0517 -8.5075
-72.5595 -27.4666 -8.7502
-72.2443 -29.3631 -8.8161
-67.2599 -29.2512 -8.3111
-63.0136 -29.2357 -7.8897
-62.3976 -30.8046 -7.9215
-63.6957 -33.3844 -8.2048
-66.8121 -37.1040 -8.7385
-53.5092 -31.4326 -7.1114
-43.3622 -26.9031 -5.8602
-8.5406 -5.5892 -1.1746
-53.8610 -37.1391 -7.5446
-65.2755 -47.3789 -9.3201
-52.2234 -39.8685 -7.6071
-49.7885 -39.9517 -7.4054
-33.4976 -28.2436 -4.6011
-49.8179 -44.1088 -7.0017
-30.2034 -28.0739 -4.3479
-28.4557 -27.7621 -4.1999
-27.5416 -28.2021 -4.1725
-26.5645 -28.5514 -4.1355
-53.5661 -60.4399 -8.5797
-51.7769 -61.3483 -8.5433
-59.4280 -73.9721 -10.1153
-54.2349 -70.9572 -9.5365
-16.3088 -22.4422 -2.9670
-15.4919 -22.4398 -2.9208
-14.7019 -22.4376 -2.8776
-13.9367 -22.4354 -2.8373
-13.1942 -22.4333 -2.7996
-12.5807 -22.6255 -2.7885
-11.8721 -22.6225 -2.7553
-11.1813 -22.6197 -2.7245
-10.5175 -22.6396 -2.6985
-9.9399 -22.8257 -2.6941
-9.3609 -23.0008 -2.6900
-8.7807 -23.1649 -2.6861
-8.1994 -23.3182 -2.6824
-7.6169 -23.4607 -2.6791
-7.0336 -23.5924 -2.6759
-6.4493 -23.7135 -2.6731
-5.8642 -23.8238 -2.6705
-5.2783 -23.9235 -2.6681
-4.6919 -24.0127 -2.6660
-4.1048 -24.0912 -2.6641
-3.6490 -25.0643 -2.7622
-3.6271 -29.9858 -3.2950
-3.0501 -31.6149 -3.4658
-2.2795 -31.6127 -3.4592
-1.5118 -31.6106 -3.4544
-0.7458 -31.6084 -3.4514
0.0191 -31.6062 -3.4503
0.7839 -31.6040 -3.4509
1.5496 -31.6018 -3.4533
2.3169 -31.5996 -3.4576
3.0869 -31.5974 -3.4636
3.8604 -31.5952 -3.4715
4.6384 -31.5930 -3.4813
10.5360 -61.3886 -6.7877
12.1626 -61.8509 -6.8659
13.6339 -61.4421 -6.8513
13.4237 -54.2532 -6.0803
13.9783 -51.1535 -5.7652
12.3948 -41.3934 -4.6941
13.2260 -40.5705 -4.6320
14.3330 -40.6052 -4.6701
14.8003 -38.9041 -4.5101
15.8014 -38.6922 -4.5240
15.9107 -36.4169 -4.2972
16.5047 -35.4158 -4.2202
16.7087 -33.6996 -4.0580
18.1743 -34.5305 -4.2045
20.5424 -36.8393 -4.5390
22.5032 -38.1556 -4.7604
23.4864 -37.7074 -4.7673
23.8448 -36.2960 -4.6536
25.2273 -36.4478 -4.7427
47.9573 -65.8263 -8.7002
45.2264 -59.0237 -7.9305
40.7847 -50.6413 -6.9231
44.6178 -52.7373 -7.3423
42.2587 -47.5665 -6.7506
43.6970 -46.8524 -6.7848
44.3817 -45.3371 -6.7061
49.3460 -48.0277 -7.2645
47.2136 -43.7795 -6.7791
48.4117 -42.7603 -6.7867
17.6840 -14.8741 -2.4229
16.2066 -12.9754 -2.1722
16.2974 -12.4136 -2.1388
15.7925 -11.4364 -2.0311
15.7877 -10.8608 -1.9916
15.7861 -10.3065 -1.9549
16.2908 -10.0827 -1.9819
16.1966 -9.4907 -1.9373
16.1951 -8.9711 -1.9060
16.1937 -8.4652 -1.8765
16.1922 -7.9722 -1.8488
16.1909 -7.4908 -1.8228
16.1895 -7.0201 -1.7984
16.1882 -6.5594 -1.7754
16.1869 -6.1076 -1.7539
16.1856 -5.6641 -1.7338
16.1844 -5.2281 -1.7150
16.1832 -4.7990 -1.6974
16.8564 -4.5584 -1.7511
18.6118 -4.5534 -1.9162
21.4720 -4.7062 -2.1921
24.2213 -4.6984 -2.4535
83.7909 -12.0867 -8.3706
83.7851 -10.0256 -8.3193
83.5491 -7.9548 -8.2503
81.3466 -1.8247 -7.9287
81.0100 0.1407 -7.8707
81.0044 2.0986 -7.8495
81.3298 4.0751 -7.8649
85.9856 10.5906 -8.2932
84.0247 12.4165 -8.1065
84.0188 14.4977 -8.1132
82.9647 16.3889 -8.0235
82.9588 18.4805 -8.0399
82.9527 20.5944 -8.0614
32.8260 8.9967 -3.2008
29.9393 8.9885 -2.9310
29.4836 9.6338 -2.8999
25.3735 8.9748 -2.5090
23.8297 9.0820 -2.3705
21.3706 8.7416 -2.1401
20.7373 9.0732 -2.0920
19.1971 8.9577 -1.9524
18.0397 8.9544 -1.8510
17.6151 9.2805 -1.8248
17.6135 9.8302 -1.8436
17.6119 10.3949 -1.8641
17.6102 10.9758 -1.8864
17.6085 11.5743 -1.9106
17.6067 12.1920 -1.9367
17.3136 12.6183 -1.9324
16.4600 12.6158 -1.8659
16.1325 12.9949 -1.8591
16.2228 13.7266 -1.9025
15.7200 13.9663 -1.8781
15.7180 14.6587 -1.9150
15.7128 15.3797 -1.9546
16.1223 16.5613 -2.0500
16.1199 17.3794 -2.0978
4.9849 5.6416 -0.6648
4.8150 5.7221 -0.6590
4.6474 5.8017 -0.6537
4.4819 5.8805 -0.6489
4.4389 6.1254 -0.6627
4.0979 5.9522 -0.6319
3.8328 5.8653 -0.6115
4.1748 6.7385 -0.6907
18.8003 32.0487 -3.2319
18.1421 32.7114 -3.2483
17.1214 32.7085 -3.2011
16.1263 32.7057 -3.1571
19.6172 42.3323 -4.0338
18.3878 42.3288 -3.9847
17.5184 43.1491 -4.0159
17.3916 45.9919 -4.2351
16.1325 45.9883 -4.1930
15.6351 48.2703 -4.3608
16.0158 53.8467 -4.8236
4.7097 17.3570 -1.5428
4.2804 17.4295 -1.5384
3.9220 17.8162 -1.5626
3.4958 17.9314 -1.5638
2.9082 17.1060 -1.4844
2.6329 18.1248 -1.5661
3.6872 30.5487 -2.6300
2.9200 30.3300 -2.6035
2.9156 40.5174 -3.4700
3.9460 82.6671 -7.0684
-6.6122 45.1471 -3.9030
-10.0100 58.4665 -5.0767
-9.3358 47.5912 -4.1533
-10.7924 48.7552 -4.2795
-12.0603 48.8619 -4.3165
-13.1780 48.3430 -4.3013
-16.1528 54.0760 -4.8492
-15.2802 40.2663 -3.7127
-16.0545 39.4113 -3.6731
-17.5949 40.3744 -3.8063
-17.7612 38.2101 -3.6467
-18.4190 37.2457 -3.6013
-19.2458 36.6625 -3.5943
-20.5238 36.9039 -3.6713
-28.8183 48.9950 -4.9502
-29.9267 48.1786 -4.9478
-6.5116 9.9393 -1.0384
-32.1962 46.6475 -4.9626
-34.8290 47.9435 -5.1983
-37.2661 48.7770 -5.3954
-30.5254 38.0153 -4.2940
-34.5402 40.9495 -4.7281
-34.7723 39.2607 -4.6387
-34.9162 37.5559 -4.5455
-34.7563 35.6193 -4.4213
-36.3296 35.4761 -4.5215
-35.5723 33.0970 -4.3367
-37.0563 32.8447 -4.4302
-37.7086 31.8306 -4.4258
-42.7284 34.3359 -4.9284
-47.7515 34.7157 -5.3351
-49.7695 34.3771 -5.4804
-45.7843 30.0177 -4.9734
-46.2365 28.7421 -4.9589
-29.9748 17.6443 -3.1768
-30.3068 16.8678 -3.1765
-30.3479 15.9432 -3.1482
-31.6666 15.6721 -3.2539
-36.4570 16.9594 -3.7134
-30.1458 13.1474 -3.0459
-30.7829 12.5494 -3.0876
-29.9811 11.3861 -2.9873
-33.9689 11.9700 -3.3646
-32.6103 10.6130 -3.2130
-32.4993 9.7152 -3.1873
-34.0135 9.2791 -3.3226
-24.4356 6.0359 -2.3791
-25.1684 5.5755 -2.4438
-25.9650 5.0973 -2.5159
-26.2830 4.5033 -2.5430
-26.5130 3.8859 -2.5630
-26.8637 3.2765 -2.5962
-26.3702 2.5714 -2.5493
-26.3554 1.9285 -2.5502
-26.5644 1.2995 -2.5743
-58.9043 1.4563 -5.7201
-41.4021 0.0229 -4.0311
-51.3672 -1.2131 -5.0175
-40.7806 -1.9498 -3.9986
-50.7377 -3.6566 -4.9967
-52.5232 -5.0637 -5.1982
-71.1414 -24.9909 -7.6388
-70.4993 -26.6967 -7.6572
-76.9069 -31.2690 -8.4549
-68.7522 -29.9101 -7.6555
-64.8735 -30.1080 -7.3212
-62.6455 -30.9361 -7.1702
-61.9801 -32.4944 -7.1997
-56.2958 -31.2722 -6.6415
-44.3999 -26.0884 -5.3238
-44.1718 -27.4122 -5.3871
-8.5389 -5.5895 -1.0600
-56.8850 -39.2333 -7.1938
-45.4009 -32.9608 -5.8537
-51.0172 -38.9560 -6.7121
-35.8161 -28.7458 -4.8125
-54.8286 -46.2383 -6.7291
-30.6083 -27.1060 -3.8447
-28.8641 -26.8343 -3.7144
-50.6199 -49.3952 -6.6804
-29.1669 -29.8718 -3.9518
-26.9342 -28.9539 -3.7509
-26.5488 -29.9609 -3.8047
-51.7499 -61.3268 -7.6415
-59.4013 -73.9511 -9.0499
-23.6888 -30.9978 -3.7290
-41.4142 -56.9982 -6.7464
-15.9242 -23.0698 -2.6888
-15.2985 -23.3517 -2.6821
-14.6710 -23.6212 -2.6758
-14.0421 -23.8785 -2.6697
-13.4118 -24.1235 -2.6639
-12.7801 -24.3565 -2.6584
-12.1473 -24.5775 -2.6532
-11.5132 -24.7866 -2.6483
-10.8782 -24.9839 -2.6436
-10.2421 -25.1695 -2.6392
-9.6051 -25.3434 -2.6351
-8.9673 -25.5057 -2.6313
-8.3287 -25.6566 -2.6277
-7.6895 -25.7960 -2.6244
-7.0495 -25.9240 -2.6214
-6.4090 -26.0407 -2.6186
-5.7680 -26.1462 -2.6161
-5.1265 -26.2403 -2.6138
-4.4845 -26.3234 -2.6118
-3.8423 -26.3952 -2.6101
-3.6271 -29.9894 -2.9570
-3.0497 -31.6149 -3.1101
-2.2793 -31.6127 -3.1042
-1.5116 -31.6106 -3.0999
-0.7458 -31.6084 -3.0973
0.0190 -31.6062 -3.0963
0.7838 -31.6040 -3.0968
1.5493 -31.6018 -3.0990
2.3166 -31.5996 -3.1027
3.0864 -31.5974 -3.1081
3.8598 -31.5952 -3.1150
4.6377 -31.5930 -3.1237
10.5249 -61.3329 -6.0846
12.1061 -61.5725 -6.1322
13.4458 -60.6027 -6.0624
13.0841 -52.8882 -5.3171
16.0994 -58.9240 -5.9568
12.4285 -41.5117 -4.2222
13.0910 -40.1619 -4.1122
14.5476 -41.2191 -4.2511
14.8010 -38.9114 -4.0446
15.4228 -37.7705 -3.9593
15.6968 -35.9327 -3.8009
16.5241 -35.4627 -3.7876
17.5572 -35.4161 -3.8219
18.3585 -34.8859 -3.8063
19.7631 -35.4470 -3.9129
21.1819 -35.9207 -4.0145
24.1444 -38.7699 -4.3900
23.8696 -36.3396 -4.1722
25.1639 -36.3621 -4.2363
34.7121 -47.6537 -5.6380
40.5019 -52.8668 -6.3573
42.3138 -52.5491 -6.4282
42.6167 -50.3808 -6.2750
42.3661 -47.6958 -6.0544
43.2981 -46.4332 -6.0129
44.3755 -45.3393 -5.9958
48.9017 -47.6043 -6.4359
45.8880 -42.5587 -5.8890
47.0013 -41.5229 -5.8878
17.6840 -14.8772 -2.1645
16.2066 -12.9782 -1.9400
16.2974 -12.4163 -1.9097
15.7925 -11.4389 -1.8131
15.7877 -10.8634 -1.7773
15.7861 -10.3090 -1.7441
16.2908 -10.0853 -1.7677
16.1966 -9.4932 -1.7274
16.1951 -8.9735 -1.6990
16.1937 -8.4677 -1.6722
16.1923 -7.9745 -1.6471
16.1909 -7.4931 -1.6234
16.1895 -7.0225 -1.6011
16.1882 -6.5617 -1.5802
16.1869 -6.1099 -1.5606
16.1856 -5.6664 -1.5421
16.1844 -5.2304 -1.5249
16.1832 -4.8012 -1.5088
16.8479 -4.5584 -1.5552
18.6016 -4.5534 -1.7011
21.3925 -4.6917 -1.9392
21.4073 -4.1554 -1.9248
82.7639 -11.9496 -7.3335
82.7581 -9.9137 -7.2858
83.4421 -7.9556 -7.3031
81.3467 -1.8354 -7.0195
81.0101 0.1301 -6.9655
81.0044 2.0879 -6.9441
81.4997 4.0729 -6.9696
86.0805 10.5909 -7.3334
82.6949 12.2090 -7.0443
82.6891 14.2572 -7.0474
83.1265 16.4097 -7.0926
83.1206 18.5054 -7.1043
83.1145 20.6233 -7.1205
32.8425 8.9968 -2.8220
29.9531 8.9885 -2.5831
29.4836 9.6298 -2.5534
25.3836 8.9748 -2.2092
22.8660 8.7115 -2.0013
21.3706 8.7386 -1.8822
20.7441 9.0732 -1.8398
19.2031 8.9578 -1.7163
18.0451 8.9544 -1.6265
17.6151 9.2778 -1.6024
17.6135 9.8276 -1.6184
17.6119 10.3922 -1.6358
17.6102 10.9731 -1.6547
17.6085 11.5716 -1.6752
17.6068 12.1892 -1.6975
17.3175 12.6183 -1.6936
16.4636 12.6158 -1.6347
