ply
format ascii 1.0
element vertex 2178
property float32 x
property float32 y
property float32 z
end_header
5.3013 2.6130 2.2995
5.2349 2.7396 2.2995
5.1654 2.8645 2.2995
5.0929 2.9876 2.2995
5.0176 3.1090 2.2995
4.9394 3.2284 2.2995
4.8583 3.3460 2.2995
4.7746 3.4615 2.2995
4.6880 3.5750 2.2995
4.5988 3.6863 2.2995
4.2832 3.6070 2.1853
4.1835 3.6996 2.1801
4.3158 4.0069 2.2995
3.7903 3.6937 2.0671
3.6920 3.7765 2.0633
3.9032 4.1908 2.2379
3.9043 4.4008 2.2995
3.7958 4.4930 2.2995
3.6851 4.5825 2.2995
3.5723 4.6693 2.2995
3.4575 4.7534 2.2995
3.3407 4.8348 2.2995
3.2221 4.9132 2.2995
3.1016 4.9889 2.2995
2.9794 5.0616 2.2995
2.8555 5.1313 2.2995
2.7300 5.1981 2.2995
2.6030 5.2619 2.2995
2.4744 5.3226 2.2995
2.3445 5.3802 2.2995
2.2309 5.4778 2.3178
2.0808 5.4859 2.2995
1.9739 5.6099 2.3310
1.8937 5.8292 2.4026
1.7518 5.8728 2.4026
1.6090 5.9129 2.4026
1.4652 5.9497 2.4026
1.3207 5.9830 2.4026
1.1753 6.0129 2.4026
1.0294 6.0393 2.4026
0.8828 6.0622 2.4026
0.7357 6.0816 2.4026
0.5882 6.0975 2.4026
0.4404 6.1099 2.4026
0.2923 6.1187 2.4026
0.1441 6.1241 2.4026
-0.0043 6.1258 2.4026
-0.1526 6.1241 2.4026
-0.3008 6.1188 2.4026
-0.4489 6.1100 2.4026
-0.5968 6.0976 2.4026
-0.7443 6.0817 2.4026
-0.8914 6.0623 2.4026
-1.0380 6.0394 2.4026
-1.1840 6.0131 2.4026
-1.3294 5.9832 2.4026
-1.4740 5.9499 2.4026
-1.6178 5.9131 2.4026
-1.7607 5.8729 2.4026
-1.9026 5.8293 2.4026
-2.0435 5.7824 2.4026
-2.1832 5.7321 2.4026
-2.3217 5.6784 2.4026
-2.4589 5.6215 2.4026
-2.5947 5.5613 2.4026
-2.7291 5.4978 2.4026
-2.8619 5.4312 2.4026
-2.9931 5.3613 2.4026
-3.1226 5.2884 2.4026
-3.2504 5.2124 2.4026
-3.3764 5.1333 2.4026
-3.5004 5.0512 2.4026
-3.6225 4.9662 2.4026
-3.7425 4.8782 2.4026
-3.8604 4.7874 2.4026
-3.9762 4.6938 2.4026
-4.0897 4.5974 2.4026
-4.2009 4.4983 2.4026
-4.3097 4.3965 2.4026
-4.4160 4.2922 2.4026
-4.5199 4.1853 2.4026
-4.6212 4.0759 2.4026
-4.7199 3.9641 2.4026
-4.8159 3.8499 2.4026
-4.9091 3.7334 2.4026
-4.9996 3.6147 2.4026
-5.0872 3.4938 2.4026
-5.1719 3.3709 2.4026
-5.2537 3.2459 2.4026
-5.3324 3.1189 2.4026
-5.4081 2.9900 2.4026
-5.4807 2.8593 2.4026
-5.5502 2.7269 2.4026
-5.6165 2.5928 2.4026
-5.6796 2.4571 2.4026
-5.7394 2.3199 2.4026
-5.7959 2.1812 2.4026
-5.8491 2.0412 2.4026
-5.8989 1.8998 2.4026
-5.9453 1.7573 2.4026
-5.9882 1.6137 2.4026
-6.0278 1.4690 2.4026
-6.0638 1.3234 2.4026
-6.0782 1.1734 2.3954
-6.0787 1.0218 2.3843
-6.0792 0.8713 2.3747
-6.0797 0.7219 2.3664
-6.0801 0.5733 2.3596
-6.0804 0.4254 2.3542
-6.0811 0.2780 2.3502
-6.0819 0.1309 2.3477
-6.0825 -0.0161 2.3465
-6.0830 -0.1631 2.3467
-6.0834 -0.3103 2.3481
-6.0837 -0.4579 2.3509
-6.0838 -0.6060 2.3550
-6.0837 -0.7548 2.3605
-6.0835 -0.9045 2.3673
-6.0832 -1.0552 2.3755
-6.0827 -1.2072 2.3851
-6.0824 -1.3606 2.3963
-6.0658 -1.5115 2.4026
-6.0298 -1.6582 2.4026
-5.9901 -1.8040 2.4026
-5.9470 -1.9488 2.4026
-5.9003 -2.0925 2.4026
-5.8501 -2.2352 2.4026
-5.7965 -2.3766 2.4026
-5.7394 -2.5167 2.4026
-5.6789 -2.6554 2.4026
-5.6151 -2.7927 2.4026
-5.5478 -2.9284 2.4026
-5.4773 -3.0625 2.4026
-5.4036 -3.1948 2.4026
-5.3266 -3.3254 2.4026
-5.2464 -3.4540 2.4026
-5.1631 -3.5808 2.4026
-5.0769 -3.7055 2.4026
-4.9878 -3.8283 2.4028
-4.8956 -3.9489 2.4029
-4.6449 -3.9359 2.4029
-4.5501 -4.0481 2.4030
-4.4525 -4.1581 2.4032
-4.3521 -4.2655 2.4032
-4.2491 -4.3704 2.4032
-4.1435 -4.4728 2.4033
-4.0355 -4.5726 2.4033
-3.9249 -4.6698 2.4034
-3.8121 -4.7643 2.4034
-3.6969 -4.8560 2.4035
-3.5795 -4.9449 2.4035
-3.4600 -5.0310 2.4036
-3.3385 -5.1143 2.4037
-3.2150 -5.1946 2.4039
-3.0895 -5.2719 2.4040
-2.9622 -5.3461 2.4042
-2.8330 -5.4172 2.4043
-2.7021 -5.4852 2.4045
-2.5695 -5.5499 2.4046
-2.4354 -5.6113 2.4048
-2.2998 -5.6695 2.4049
-2.1627 -5.7241 2.4050
-2.0243 -5.7752 2.4049
-1.8846 -5.8229 2.4049
-1.7438 -5.8672 2.4049
-1.6019 -5.9080 2.4049
-1.4591 -5.9453 2.4049
-1.3154 -5.9790 2.4048
-1.1709 -6.0093 2.4048
-1.0257 -6.0359 2.4047
-0.8798 -6.0589 2.4046
-0.7335 -6.0782 2.4045
-0.5867 -6.0940 2.4044
-0.4395 -6.1061 2.4043
-0.2921 -6.1147 2.4042
-0.1446 -6.1197 2.4041
0.0030 -6.1210 2.4039
0.1506 -6.1187 2.4038
0.2981 -6.1128 2.4037
0.4453 -6.1033 2.4036
0.5923 -6.0902 2.4035
0.7389 -6.0735 2.4034
0.8851 -6.0533 2.4033
1.0306 -6.0294 2.4032
1.1756 -6.0020 2.4030
1.3198 -5.9711 2.4029
1.4632 -5.9366 2.4028
1.6057 -5.8987 2.4027
1.7472 -5.8573 2.4026
1.8876 -5.8126 2.4026
1.9630 -5.5827 2.3268
2.0722 -5.4681 2.2995
2.2255 -5.4706 2.3228
2.3327 -5.3601 2.2995
2.4609 -5.3014 2.2995
2.5695 -5.2030 2.2835
2.7127 -5.1746 2.2995
2.8362 -5.1067 2.2995
2.3991 -4.0844 1.8651
2.4155 -3.8941 1.8047
2.4331 -3.7191 1.7506
2.4064 -3.4914 1.6707
2.4149 -3.3289 1.6207
3.5384 -4.6380 2.2995
3.6484 -4.5502 2.2995
3.7561 -4.4597 2.2995
3.8617 -4.3667 2.2995
2.7045 -2.9134 1.5685
4.0656 -4.1730 2.2995
4.1640 -4.0726 2.2995
4.2598 -3.9698 2.2995
4.3531 -3.8647 2.2995
4.4438 -3.7574 2.2995
4.5318 -3.6480 2.2995
4.6171 -3.5365 2.2995
4.6996 -3.4229 2.2995
4.7794 -3.3075 2.2995
4.8563 -3.1901 2.2995
4.9303 -3.0710 2.2995
5.0013 -2.9501 2.2995
5.0694 -2.8275 2.2995
5.1344 -2.7034 2.2995
5.1964 -2.5778 2.2995
5.2553 -2.4507 2.2995
5.3111 -2.3223 2.2995
5.3637 -2.1926 2.2995
5.4132 -2.0617 2.2995
5.4594 -1.9297 2.2995
5.5025 -1.7967 2.2995
5.5423 -1.6627 2.2995
5.5788 -1.5278 2.2995
5.6120 -1.3921 2.2995
5.6419 -1.2557 2.2995
5.6685 -1.1186 2.2995
5.6917 -0.9810 2.2995
5.7117 -0.8429 2.2995
5.7282 -0.7044 2.2995
5.7414 -0.5656 2.2995
5.7512 -0.4265 2.2995
5.7577 -0.2873 2.2995
5.7608 -0.1481 2.2995
5.7606 -0.0088 2.2995
5.7570 0.1304 2.2995
5.7500 0.2694 2.2995
5.7397 0.4081 2.2995
5.7260 0.5465 2.2995
5.7090 0.6845 2.2995
5.6887 0.8220 2.2995
5.6651 0.9589 2.2995
5.6382 1.0952 2.2995
5.6081 1.2308 2.2995
5.5747 1.3655 2.2995
5.5381 1.4994 2.2995
5.4983 1.6323 2.2995
5.4553 1.7641 2.2995
5.4092 1.8949 2.2995
5.3599 2.0244 2.2995
5.3076 2.1527 2.2995
5.2522 2.2797 2.2995
5.1938 2.4053 2.2995
5.1325 2.5294 2.2995
5.0681 2.6519 2.2995
5.0009 2.7729 2.2995
4.9308 2.8921 2.2995
4.8579 3.0096 2.2995
4.7822 3.1254 2.2995
4.7038 3.2392 2.2995
4.6227 3.3511 2.2995
4.5390 3.4609 2.2995
4.4527 3.5688 2.2995
4.3053 3.6252 2.2687
4.1990 3.7130 2.2599
4.1787 3.8792 2.2995
3.7274 3.6321 2.0995
3.6364 3.7193 2.0989
3.8833 4.1690 2.2995
3.7804 4.2608 2.2995
3.6753 4.3501 2.2995
3.5682 4.4368 2.2995
3.4590 4.5209 2.2995
3.3478 4.6023 2.2995
3.2348 4.6811 2.2995
3.1199 4.7571 2.2995
3.0033 4.8304 2.2995
2.8850 4.9008 2.2995
2.7650 4.9684 2.2995
2.6435 5.0331 2.2995
2.5205 5.0948 2.2995
2.3961 5.1536 2.2995
2.2703 5.2094 2.2995
2.1432 5.2622 2.2995
2.0149 5.3119 2.2995
1.9564 5.5599 2.3859
1.8337 5.6443 2.4026
1.6964 5.6865 2.4026
1.5580 5.7254 2.4026
1.4188 5.7610 2.4026
1.2788 5.7933 2.4026
1.1381 5.8222 2.4026
0.9968 5.8478 2.4026
0.8548 5.8700 2.4026
0.7124 5.8888 2.4026
0.5696 5.9042 2.4026
0.4264 5.9162 2.4026
0.2830 5.9247 2.4026
0.1395 5.9299 2.4026
-0.0041 5.9316 2.4026
-0.1478 5.9299 2.4026
-0.2913 5.9248 2.4026
-0.4347 5.9162 2.4026
-0.5779 5.9042 2.4026
-0.7207 5.8889 2.4026
-0.8632 5.8701 2.4026
-1.0051 5.8479 2.4026
-1.1465 5.8223 2.4026
-1.2873 5.7934 2.4026
-1.4274 5.7611 2.4026
-1.5666 5.7255 2.4026
-1.7050 5.6866 2.4026
-1.8424 5.6443 2.4026
-1.9788 5.5988 2.4026
-2.1141 5.5501 2.4026
-2.2482 5.4981 2.4026
-2.3810 5.4430 2.4026
-2.5125 5.3846 2.4026
-2.6426 5.3232 2.4026
-2.7712 5.2586 2.4026
-2.8982 5.1910 2.4026
-3.0236 5.1203 2.4026
-3.1474 5.0467 2.4026
-3.2693 4.9701 2.4026
-3.3894 4.8906 2.4026
-3.5076 4.8082 2.4026
-3.6238 4.7230 2.4026
-3.7379 4.6351 2.4026
-3.8500 4.5444 2.4026
-3.9598 4.4510 2.4026
-4.0675 4.3550 2.4026
-4.1728 4.2564 2.4026
-4.2757 4.1554 2.4026
-4.3762 4.0518 2.4026
-4.4743 3.9459 2.4026
-4.5698 3.8376 2.4026
-4.6627 3.7270 2.4026
-4.7529 3.6142 2.4026
-4.8405 3.4993 2.4026
-4.9253 3.3822 2.4026
-5.0072 3.2631 2.4026
-5.0863 3.1421 2.4026
-5.1625 3.0191 2.4026
-5.2358 2.8943 2.4026
-5.3060 2.7678 2.4026
-5.3732 2.6395 2.4026
-5.4373 2.5097 2.4026
-5.4984 2.3783 2.4026
-5.5562 2.2454 2.4026
-5.6108 2.1111 2.4026
-5.6623 1.9756 2.4026
-5.7104 1.8387 2.4026
-5.7553 1.7008 2.4026
-5.7968 1.5617 2.4026
-5.8350 1.4216 2.4026
-5.8698 1.2806 2.4026
-5.9012 1.1388 2.4026
-5.9292 0.9962 2.4026
-5.9538 0.8529 2.4026
-5.9749 0.7091 2.4026
-5.9925 0.5647 2.4026
-6.0066 0.4198 2.4026
-6.0173 0.2747 2.4026
-6.0244 0.1293 2.4026
-6.0280 -0.0163 2.4026
-6.0281 -0.1620 2.4026
-6.0247 -0.3077 2.4026
-6.0177 -0.4534 2.4026
-6.0072 -0.5988 2.4026
-5.9932 -0.7440 2.4026
-5.9757 -0.8889 2.4026
-5.9547 -1.0333 2.4026
-5.9301 -1.1773 2.4026
-5.9021 -1.3206 2.4026
-5.8706 -1.4633 2.4026
-5.8357 -1.6052 2.4026
-5.7973 -1.7463 2.4026
-5.7554 -1.8864 2.4026
-5.7102 -2.0255 2.4026
-5.6616 -2.1635 2.4026
-5.6096 -2.3004 2.4026
-5.5543 -2.4360 2.4026
-5.4957 -2.5702 2.4026
-5.4339 -2.7030 2.4026
-5.3688 -2.8343 2.4026
-5.3005 -2.9640 2.4026
-5.2291 -3.0921 2.4026
-5.1545 -3.2184 2.4026
-5.0769 -3.3428 2.4026
-4.9963 -3.4654 2.4026
-4.9126 -3.5861 2.4026
-4.8262 -3.7047 2.4026
-4.7370 -3.8214 2.4028
-4.4979 -3.8116 2.4028
-4.4060 -3.9203 2.4029
-4.3115 -4.0267 2.4030
-4.2143 -4.1308 2.4031
-4.1147 -4.2325 2.4032
-4.0125 -4.3317 2.4033
-3.9078 -4.4284 2.4034
-3.8008 -4.5225 2.4034
-3.6915 -4.6139 2.4035
-3.5799 -4.7027 2.4035
-3.4662 -4.7888 2.4036
-3.3504 -4.8720 2.4036
-3.2326 -4.9525 2.4036
-3.1129 -5.0301 2.4037
-2.9914 -5.1049 2.4039
-2.8681 -5.1767 2.4040
-2.7430 -5.2455 2.4042
-2.6162 -5.3113 2.4043
-2.4879 -5.3739 2.4044
-2.3580 -5.4333 2.4046
-2.2267 -5.4896 2.4047
-2.0940 -5.5424 2.4047
-1.9599 -5.5919 2.4047
-1.8247 -5.6380 2.4047
-1.6883 -5.6808 2.4047
-1.5510 -5.7203 2.4046
-1.4127 -5.7564 2.4046
-1.2735 -5.7891 2.4046
-1.1336 -5.8184 2.4045
-0.9930 -5.8442 2.4045
-0.8518 -5.8666 2.4045
-0.7102 -5.8855 2.4044
-0.5680 -5.9009 2.4044
-0.4256 -5.9127 2.4043
-0.2829 -5.9210 2.4042
-0.1401 -5.9258 2.4041
0.0029 -5.9271 2.4039
0.1458 -5.9249 2.4038
0.2886 -5.9192 2.4037
0.4312 -5.9101 2.4036
0.5735 -5.8974 2.4035
0.7155 -5.8812 2.4034
0.8570 -5.8616 2.4033
0.9979 -5.8386 2.4032
1.1383 -5.8121 2.4031
1.2779 -5.7821 2.4030
1.4168 -5.7488 2.4029
1.5547 -5.7121 2.4028
1.6918 -5.6720 2.4027
1.8278 -5.6287 2.4026
1.9453 -5.5327 2.3813
2.0065 -5.2951 2.2995
2.1333 -5.2444 2.2995
2.2588 -5.1906 2.2995
2.3829 -5.1337 2.2995
2.5056 -5.0739 2.2995
2.6267 -5.0110 2.2995
2.7463 -4.9453 2.2995
2.8642 -4.8766 2.2995
2.4017 -3.8721 1.8530
2.4209 -3.7007 1.7988
2.4354 -3.5339 1.7461
2.4086 -3.3205 1.6693
2.4162 -3.1673 1.6215
3.5329 -4.4066 2.2995
3.6373 -4.3190 2.2995
2.5678 -2.9039 1.5790
2.6798 -2.8871 1.6050
3.9371 -4.0415 2.2995
4.0324 -3.9443 2.2995
4.1252 -3.8447 2.2995
4.2156 -3.7430 2.2995
4.3034 -3.6391 2.2995
4.3887 -3.5332 2.2995
4.4714 -3.4252 2.2995
4.5513 -3.3153 2.2995
4.6286 -3.2035 2.2995
4.7031 -3.0899 2.2995
4.7748 -2.9745 2.2995
4.8436 -2.8575 2.2995
4.9096 -2.7388 2.2995
4.9726 -2.6186 2.2995
5.0327 -2.4970 2.2995
5.0898 -2.3740 2.2995
5.1439 -2.2496 2.2995
5.1949 -2.1240 2.2995
5.2429 -1.9973 2.2995
5.2877 -1.8694 2.2995
5.3295 -1.7406 2.2995
5.3680 -1.6108 2.2995
5.4034 -1.4802 2.2995
5.4357 -1.3487 2.2995
5.4647 -1.2166 2.2995
5.4905 -1.0839 2.2995
5.5131 -0.9506 2.2995
5.5325 -0.8168 2.2995
5.5486 -0.6827 2.2995
5.5614 -0.5482 2.2995
5.5710 -0.4135 2.2995
5.5773 -0.2787 2.2995
5.5804 -0.1438 2.2995
5.5802 -0.0089 2.2995
5.5767 0.1259 2.2995
5.5700 0.2606 2.2995
5.5601 0.3950 2.2995
5.5469 0.5290 2.2995
5.5305 0.6627 2.2995
5.5109 0.7959 2.2995
5.4881 0.9286 2.2995
5.4621 1.0606 2.2995
5.4330 1.1920 2.2995
5.4007 1.3225 2.2995
5.3652 1.4522 2.2995
5.3267 1.5810 2.2995
5.2851 1.7087 2.2995
5.2405 1.8354 2.2995
5.1928 1.9609 2.2995
5.1422 2.0853 2.2995
5.0886 2.2083 2.2995
5.0320 2.3300 2.2995
4.9726 2.4502 2.2995
4.9103 2.5690 2.2995
4.8453 2.6862 2.2995
4.7774 2.8018 2.2995
4.7068 2.9157 2.2995
4.6335 3.0278 2.2995
4.5576 3.1381 2.2995
4.4790 3.2465 2.2995
4.3979 3.3530 2.2995
4.3143 3.4575 2.2995
4.2282 3.5599 2.2995
4.1398 3.6603 2.2995
4.0489 3.7584 2.2995
3.7051 3.6101 2.1538
3.6143 3.6963 2.1529
3.7628 4.0393 2.2995
3.6631 4.1283 2.2995
3.5613 4.2148 2.2995
3.4575 4.2988 2.2995
3.3517 4.3803 2.2995
3.2440 4.4593 2.2995
3.1345 4.5356 2.2995
3.0232 4.6093 2.2995
2.9103 4.6803 2.2995
2.7956 4.7486 2.2995
2.6794 4.8141 2.2995
2.5616 4.8768 2.2995
2.4424 4.9367 2.2995
2.3219 4.9937 2.2995
2.2297 5.1160 2.3306
2.0768 5.0989 2.2995
1.9757 5.2082 2.3268
1.9091 5.4251 2.4026
1.7770 5.4692 2.4026
1.6438 5.5101 2.4026
1.5098 5.5479 2.4026
1.3749 5.5824 2.4026
1.2393 5.6137 2.4026
1.1029 5.6417 2.4026
0.9659 5.6665 2.4026
0.8284 5.6880 2.4026
0.6903 5.7062 2.4026
0.5519 5.7211 2.4026
0.4132 5.7328 2.4026
0.2743 5.7411 2.4026
0.1352 5.7461 2.4026
-0.0040 5.7477 2.4026
-0.1432 5.7461 2.4026
-0.2823 5.7411 2.4026
-0.4213 5.7328 2.4026
-0.5600 5.7212 2.4026
-0.6985 5.7063 2.4026
-0.8365 5.6881 2.4026
-0.9741 5.6666 2.4026
-1.1111 5.6418 2.4026
-1.2475 5.6137 2.4026
-1.3832 5.5824 2.4026
-1.5182 5.5479 2.4026
-1.6522 5.5101 2.4026
-1.7854 5.4692 2.4026
-1.9175 5.4251 2.4026
-2.0486 5.3778 2.4026
-2.1786 5.3275 2.4026
-2.3073 5.2740 2.4026
-2.4347 5.2174 2.4026
-2.5607 5.1578 2.4026
-2.6853 5.0952 2.4026
-2.8084 5.0297 2.4026
-2.9299 4.9612 2.4026
-3.0498 4.8898 2.4026
-3.1679 4.8156 2.4026
-3.2843 4.7385 2.4026
-3.3988 4.6586 2.4026
-3.5114 4.5761 2.4026
-3.6219 4.4908 2.4026
-3.7305 4.4029 2.4026
-3.8369 4.3124 2.4026
-3.9412 4.2194 2.4026
-4.0432 4.1239 2.4026
-4.1429 4.0259 2.4026
-4.2403 3.9255 2.4026
-4.3352 3.8228 2.4026
-4.4277 3.7179 2.4026
-4.5177 3.6107 2.4026
-4.6051 3.5014 2.4026
-4.6899 3.3900 2.4026
-4.7720 3.2766 2.4026
-4.8514 3.1611 2.4026
-4.9280 3.0438 2.4026
-5.0018 2.9247 2.4026
-5.0727 2.8037 2.4026
-5.1407 2.6811 2.4026
-5.2057 2.5568 2.4026
-5.2678 2.4310 2.4026
-5.3269 2.3037 2.4026
-5.3829 2.1750 2.4026
-5.4358 2.0449 2.4026
-5.4855 1.9135 2.4026
-5.5321 1.7809 2.4026
-5.5755 1.6472 2.4026
-5.6157 1.5125 2.4026
-5.6526 1.3768 2.4026
-5.6863 1.2402 2.4026
-5.7167 1.1028 2.4026
-5.7438 0.9647 2.4026
-5.7675 0.8258 2.4026
-5.7879 0.6865 2.4026
-5.8049 0.5466 2.4026
-5.8185 0.4063 2.4026
-5.8287 0.2657 2.4026
-5.8356 0.1248 2.4026
-5.8390 -0.0162 2.4026
-5.8391 -0.1573 2.4026
-5.8357 -0.2985 2.4026
-5.8289 -0.4395 2.4026
-5.8187 -0.5804 2.4026
-5.8051 -0.7211 2.4026
-5.7880 -0.8614 2.4026
-5.7676 -1.0013 2.4026
-5.7438 -1.1407 2.4026
-5.7166 -1.2795 2.4026
-5.6860 -1.4177 2.4026
-5.6521 -1.5551 2.4026
-5.6149 -1.6917 2.4026
-5.5743 -1.8274 2.4026
-5.5304 -1.9622 2.4026
-5.4833 -2.0958 2.4026
-5.4329 -2.2283 2.4026
-5.3793 -2.3596 2.4026
-5.3225 -2.4896 2.4026
-5.2626 -2.6182 2.4026
-5.1995 -2.7453 2.4026
-5.1333 -2.8709 2.4026
-5.0641 -2.9949 2.4026
-4.9919 -3.1172 2.4026
-4.9167 -3.2377 2.4026
-4.8385 -3.3564 2.4026
-4.7575 -3.4732 2.4026
-4.6736 -3.5880 2.4026
-4.5870 -3.7008 2.4026
-4.3586 -3.6940 2.4026
-4.2695 -3.7993 2.4027
-4.1779 -3.9023 2.4029
-4.0838 -4.0032 2.4030
-3.9871 -4.1017 2.4031
-3.8881 -4.1979 2.4032
-3.7868 -4.2916 2.4033
-3.6831 -4.3829 2.4034
-3.5772 -4.4715 2.4035
-3.4691 -4.5575 2.4035
-3.3589 -4.6409 2.4036
-3.2467 -4.7215 2.4036
-3.1325 -4.7995 2.4037
-3.0165 -4.8746 2.4037
-2.8986 -4.9468 2.4038
-2.7790 -5.0163 2.4039
-2.6578 -5.0830 2.4040
-2.5350 -5.1466 2.4041
-2.4106 -5.2073 2.4043
-2.2848 -5.2649 2.4044
-2.1575 -5.3193 2.4045
-2.0288 -5.3703 2.4045
-1.8989 -5.4183 2.4045
-1.7679 -5.4630 2.4045
-1.6358 -5.5045 2.4044
-1.5027 -5.5427 2.4044
-1.3687 -5.5777 2.4044
-1.2339 -5.6093 2.4044
-1.0984 -5.6377 2.4043
-0.9621 -5.6627 2.4043
-0.8253 -5.6844 2.4042
-0.6881 -5.7027 2.4042
-0.5504 -5.7176 2.4041
-0.4124 -5.7291 2.4041
-0.2741 -5.7373 2.4040
-0.1357 -5.7421 2.4040
0.0028 -5.7434 2.4039
0.1412 -5.7414 2.4038
0.2796 -5.7359 2.4037
0.4178 -5.7271 2.4036
0.5557 -5.7148 2.4035
0.6932 -5.6992 2.4034
0.8304 -5.6802 2.4033
0.9670 -5.6579 2.4032
1.1030 -5.6322 2.4031
1.2383 -5.6032 2.4030
1.3728 -5.5709 2.4029
1.5065 -5.5354 2.4028
1.6393 -5.4966 2.4027
1.7711 -5.4546 2.4026
1.9018 -5.4095 2.4026
1.9723 -5.2054 2.3327
2.0671 -5.0822 2.2995
2.2242 -5.1114 2.3367
2.3090 -4.9750 2.2995
2.4279 -4.9170 2.2995
2.5453 -4.8562 2.2995
2.6612 -4.7925 2.2995
2.7755 -4.7260 2.2995
2.8881 -4.6567 2.2995
2.4041 -3.6754 1.8434
2.4253 -3.5195 1.7944
2.4376 -3.3609 1.7434
2.4106 -3.1603 1.6695
2.4166 -3.0145 1.6231
2.4448 -2.9033 1.5950
2.5186 -2.8486 1.5982
2.6796 -2.8871 1.6560
3.8153 -3.9169 2.2995
3.9077 -3.8227 2.2995
3.9977 -3.7263 2.2995
4.0853 -3.6278 2.2995
4.1705 -3.5271 2.2995
4.2532 -3.4245 2.2995
4.3333 -3.3199 2.2995
4.4109 -3.2134 2.2995
4.4858 -3.1050 2.2995
4.5580 -2.9950 2.2995
4.6275 -2.8832 2.2995
4.6943 -2.7698 2.2995
4.7582 -2.6548 2.2995
4.8194 -2.5383 2.2995
4.8777 -2.4204 2.2995
4.9331 -2.3012 2.2995
4.9855 -2.1807 2.2995
5.0350 -2.0590 2.2995
5.0816 -1.9362 2.2995
5.1251 -1.8123 2.2995
5.1656 -1.6874 2.2995
5.2030 -1.5617 2.2995
5.2374 -1.4350 2.2995
5.2687 -1.3077 2.2995
5.2968 -1.1796 2.2995
5.3219 -1.0510 2.2995
5.3438 -0.9218 2.2995
5.3627 -0.7921 2.2995
5.3783 -0.6621 2.2995
5.3908 -0.5318 2.2995
5.4002 -0.4012 2.2995
5.4063 -0.2705 2.2995
5.4094 -0.1398 2.2995
5.4092 -0.0090 2.2995
5.4060 0.1217 2.2995
5.3995 0.2522 2.2995
5.3899 0.3825 2.2995
5.3772 0.5125 2.2995
5.3614 0.6421 2.2995
5.3424 0.7712 2.2995
5.3203 0.8998 2.2995
5.2952 1.0278 2.2995
5.2670 1.1552 2.2995
5.2357 1.2817 2.2995
5.2014 1.4075 2.2995
5.1641 1.5323 2.2995
5.1238 1.6562 2.2995
5.0806 1.7790 2.2995
5.0344 1.9008 2.2995
4.9854 2.0213 2.2995
4.9334 2.1406 2.2995
4.8787 2.2586 2.2995
4.8211 2.3752 2.2995
4.7608 2.4904 2.2995
4.6977 2.6040 2.2995
4.6319 2.7161 2.2995
4.5635 2.8265 2.2995
4.4925 2.9353 2.2995
4.4189 3.0423 2.2995
4.3428 3.1474 2.2995
4.2642 3.2507 2.2995
4.1831 3.3520 2.2995
4.0997 3.4514 2.2995
4.0140 3.5487 2.2995
3.9259 3.6439 2.2995
3.7054 3.6100 2.2214
3.6144 3.6960 2.2204
3.6486 3.9163 2.2995
3.5519 4.0026 2.2995
3.4532 4.0865 2.2995
3.3526 4.1680 2.2995
3.2500 4.2471 2.2995
3.1456 4.3237 2.2995
3.0395 4.3977 2.2995
2.9316 4.4692 2.2995
2.8220 4.5381 2.2995
2.7108 4.6043 2.2995
2.5982 4.6678 2.2995
2.4840 4.7286 2.2995
2.3684 4.7867 2.2995
2.2515 4.8420 2.2995
2.1333 4.8945 2.2995
2.0139 4.9441 2.2995
1.9563 5.1567 2.3759
1.8512 5.2604 2.4026
1.7231 5.3032 2.4026
1.5941 5.3429 2.4026
1.4641 5.3795 2.4026
1.3333 5.4130 2.4026
1.2017 5.4433 2.4026
1.0695 5.4705 2.4026
0.9366 5.4946 2.4026
0.8033 5.5154 2.4026
0.6694 5.5331 2.4026
0.5352 5.5476 2.4026
0.4007 5.5588 2.4026
0.2659 5.5669 2.4026
0.1310 5.5717 2.4026
-0.0039 5.5733 2.4026
-0.1389 5.5717 2.4026
-0.2738 5.5669 2.4026
-0.4086 5.5588 2.4026
-0.5431 5.5476 2.4026
-0.6773 5.5331 2.4026
-0.8112 5.5154 2.4026
-0.9446 5.4946 2.4026
-1.0775 5.4705 2.4026
-1.2097 5.4433 2.4026
-1.3413 5.4130 2.4026
-1.4722 5.3795 2.4026
-1.6022 5.3428 2.4026
-1.7313 5.3031 2.4026
-1.8595 5.2603 2.4026
-1.9866 5.2145 2.4026
-2.1125 5.1656 2.4026
-2.2374 5.1137 2.4026
-2.3609 5.0589 2.4026
-2.4831 5.0011 2.4026
-2.6039 4.9404 2.4026
-2.7233 4.8768 2.4026
-2.8411 4.8103 2.4026
-2.9573 4.7411 2.4026
-3.0718 4.6691 2.4026
-3.1846 4.5943 2.4026
-3.2956 4.5168 2.4026
-3.4048 4.4368 2.4026
-3.5120 4.3541 2.4026
-3.6172 4.2688 2.4026
-3.7204 4.1810 2.4026
-3.8214 4.0908 2.4026
-3.9203 3.9981 2.4026
-4.0170 3.9031 2.4026
-4.1114 3.8058 2.4026
-4.2034 3.7062 2.4026
-4.2931 3.6044 2.4026
-4.3803 3.5005 2.4026
-4.4650 3.3945 2.4026
-4.5471 3.2864 2.4026
-4.6267 3.1764 2.4026
-4.7036 3.0645 2.4026
-4.7779 2.9507 2.4026
-4.8494 2.8351 2.4026
-4.9181 2.7179 2.4026
-4.9840 2.5990 2.4026
-5.0470 2.4785 2.4026
-5.1072 2.3565 2.4026
-5.1644 2.2330 2.4026
-5.2186 2.1082 2.4026
-5.2698 1.9820 2.4026
-5.3180 1.8547 2.4026
-5.3631 1.7261 2.4026
-5.4052 1.5965 2.4026
-5.4441 1.4659 2.4026
-5.4798 1.3343 2.4026
-5.5124 1.2019 2.4026
-5.5418 1.0687 2.4026
-5.5680 0.9347 2.4026
-5.5909 0.8002 2.4026
-5.6106 0.6651 2.4026
-5.6271 0.5294 2.4026
-5.6402 0.3935 2.4026
-5.6501 0.2572 2.4026
-5.6567 0.1206 2.4026
-5.6600 -0.0161 2.4026
-5.6600 -0.1529 2.4026
-5.6566 -0.2897 2.4026
-5.6500 -0.4264 2.4026
-5.6400 -0.5630 2.4026
-5.6268 -0.6993 2.4026
-5.6102 -0.8353 2.4026
-5.5904 -0.9709 2.4026
-5.5672 -1.1060 2.4026
-5.5408 -1.2406 2.4026
-5.5111 -1.3745 2.4026
-5.4782 -1.5077 2.4026
-5.4420 -1.6401 2.4026
-5.4027 -1.7716 2.4026
-5.3601 -1.9021 2.4026
-5.3144 -2.0316 2.4026
-5.2655 -2.1600 2.4026
-5.2135 -2.2873 2.4026
-5.1584 -2.4132 2.4026
-5.1003 -2.5378 2.4026
-5.0391 -2.6610 2.4026
-4.9749 -2.7827 2.4026
-4.9078 -2.9029 2.4026
-4.8378 -3.0213 2.4026
-4.7648 -3.1381 2.4026
-4.6891 -3.2531 2.4026
-4.6105 -3.3663 2.4026
-4.5292 -3.4775 2.4026
-4.4452 -3.5867 2.4026
-4.2266 -3.5825 2.4026
-4.1401 -3.6844 2.4026
-4.0512 -3.7844 2.4027
-3.9599 -3.8821 2.4028
-3.8662 -3.9776 2.4030
-3.7701 -4.0708 2.4031
-3.6718 -4.1617 2.4032
-3.5713 -4.2502 2.4033
-3.4686 -4.3361 2.4034
-3.3639 -4.4196 2.4035
-3.2571 -4.5005 2.4036
-3.1483 -4.5788 2.4036
-3.0376 -4.6543 2.4037
-2.9250 -4.7271 2.4037
-2.8107 -4.7972 2.4038
-2.6947 -4.8644 2.4038
-2.5770 -4.9288 2.4039
-2.4579 -4.9905 2.4040
-2.3373 -5.0493 2.4041
-2.2153 -5.1051 2.4042
-2.0918 -5.1577 2.4043
-1.9671 -5.2072 2.4043
-1.8411 -5.2537 2.4043
-1.7141 -5.2970 2.4042
-1.5860 -5.3372 2.4042
-1.4570 -5.3743 2.4042
-1.3271 -5.4082 2.4042
-1.1964 -5.4389 2.4041
-1.0649 -5.4663 2.4041
-0.9329 -5.4906 2.4041
-0.8002 -5.5116 2.4040
-0.6671 -5.5293 2.4040
-0.5336 -5.5438 2.4039
-0.3998 -5.5550 2.4039
-0.2658 -5.5629 2.4038
-0.1316 -5.5675 2.4038
0.0027 -5.5689 2.4037
0.1369 -5.5669 2.4036
0.2711 -5.5616 2.4035
0.4050 -5.5531 2.4035
0.5388 -5.5413 2.4034
0.6721 -5.5262 2.4033
0.8051 -5.5078 2.4032
0.9375 -5.4862 2.4031
1.0694 -5.4613 2.4030
1.2006 -5.4333 2.4029
1.3311 -5.4020 2.4028
1.4607 -5.3675 2.4027
1.5895 -5.3300 2.4027
1.7173 -5.2894 2.4026
1.8441 -5.2457 2.4026
1.9553 -5.1609 2.3850
2.0044 -4.9283 2.2995
2.1223 -4.8778 2.2995
2.2468 -4.8415 2.3076
2.3542 -4.7682 2.2995
2.4681 -4.7092 2.2995
2.5805 -4.6475 2.2995
2.6913 -4.5831 2.2995
2.8005 -4.5159 2.2995
2.5769 -3.9400 2.0377
2.4064 -3.4923 1.8361
2.4289 -3.3492 1.7915
2.4397 -3.1988 1.7424
2.4125 -3.0097 1.6710
2.4162 -2.8696 1.6255
2.4431 -2.7634 1.5987
2.6793 -2.8871 1.7076
3.6999 -3.7988 2.2995
3.7895 -3.7074 2.2995
3.8768 -3.6140 2.2995
3.9618 -3.5184 2.2995
4.0444 -3.4209 2.2995
4.1246 -3.3213 2.2995
4.2023 -3.2199 2.2995
4.2776 -3.1167 2.2995
4.3503 -3.0116 2.2995
4.4203 -2.9049 2.2995
4.4878 -2.7965 2.2995
4.5526 -2.6865 2.2995
4.6147 -2.5751 2.2995
4.6740 -2.4621 2.2995
4.7306 -2.3478 2.2995
4.7843 -2.2322 2.2995
4.8352 -2.1154 2.2995
4.8833 -1.9974 2.2995
4.9284 -1.8782 2.2995
4.9707 -1.7581 2.2995
5.0100 -1.6370 2.2995
5.0464 -1.5150 2.2995
5.0798 -1.3922 2.2995
5.1101 -1.2687 2.2995
5.1375 -1.1445 2.2995
5.1619 -1.0197 2.2995
5.1832 -0.8944 2.2995
5.2015 -0.7687 2.2995
5.2167 -0.6426 2.2995
5.2289 -0.5162 2.2995
5.2380 -0.3896 2.2995
5.2441 -0.2628 2.2995
5.2471 -0.1359 2.2995
5.2470 -0.0091 2.2995
5.2438 0.1177 2.2995
5.2376 0.2443 2.2995
5.2284 0.3707 2.2995
5.2161 0.4968 2.2995
5.2008 0.6225 2.2995
5.1824 0.7478 2.2995
5.1611 0.8725 2.2995
5.1367 0.9967 2.2995
5.1094 1.1202 2.2995
5.0791 1.2430 2.2995
5.0459 1.3650 2.2995
5.0097 1.4862 2.2995
4.9707 1.6063 2.2995
4.9288 1.7255 2.2995
4.8841 1.8436 2.2995
4.8365 1.9606 2.2995
4.7862 2.0764 2.2995
4.7331 2.1908 2.2995
4.6773 2.3040 2.2995
4.6188 2.4157 2.2995
4.5576 2.5260 2.2995
4.4938 2.6348 2.2995
4.4275 2.7419 2.2995
4.3586 2.8475 2.2995
4.2872 2.9513 2.2995
4.2134 3.0533 2.2995
4.1372 3.1535 2.2995
4.0586 3.2519 2.2995
3.9777 3.3483 2.2995
3.8945 3.4427 2.2995
3.8091 3.5351 2.2995
3.7215 3.6254 2.2995
3.6318 3.7135 2.2995
3.5401 3.7995 2.2995
3.4463 3.8832 2.2995
3.3505 3.9647 2.2995
3.2529 4.0438 2.2995
3.1534 4.1205 2.2995
3.0522 4.1948 2.2995
2.9491 4.2667 2.2995
2.8445 4.3361 2.2995
2.7382 4.4029 2.2995
2.6303 4.4672 2.2995
2.5210 4.5289 2.2995
2.4102 4.5879 2.2995
2.2981 4.6443 2.2995
2.1847 4.6979 2.2995
2.0700 4.7488 2.2995
1.9762 4.8512 2.3255
1.9196 5.0595 2.4026
1.7963 5.1040 2.4026
1.6720 5.1455 2.4026
1.5467 5.1840 2.4026
1.4206 5.2195 2.4026
1.2937 5.2520 2.4026
1.1661 5.2815 2.4026
1.0377 5.3079 2.4026
0.9088 5.3313 2.4026
0.7794 5.3515 2.4026
0.6496 5.3686 2.4026
0.5193 5.3827 2.4026
0.3888 5.3936 2.4026
0.2580 5.4014 2.4026
0.1271 5.4061 2.4026
-0.0038 5.4077 2.4026
-0.1348 5.4061 2.4026
-0.2657 5.4014 2.4026
-0.3965 5.3936 2.4026
-0.5270 5.3827 2.4026
-0.6573 5.3686 2.4026
-0.7871 5.3515 2.4026
-0.9166 5.3312 2.4026
-1.0455 5.3079 2.4026
-1.1739 5.2815 2.4026
-1.3016 5.2520 2.4026
-1.4285 5.2195 2.4026
-1.5547 5.1839 2.4026
-1.6800 5.1454 2.4026
-1.8043 5.1038 2.4026
-1.9276 5.0593 2.4026
-2.0499 5.0119 2.4026
-2.1709 4.9615 2.4026
-2.2908 4.9083 2.4026
-2.4094 4.8522 2.4026
-2.5266 4.7932 2.4026
-2.6424 4.7315 2.4026
-2.7567 4.6670 2.4026
-2.8694 4.5998 2.4026
-2.9805 4.5299 2.4026
-3.0900 4.4573 2.4026
-3.1977 4.3822 2.4026
-3.3035 4.3044 2.4026
-3.4075 4.2242 2.4026
-3.5096 4.1414 2.4026
-3.6097 4.0562 2.4026
-3.7077 3.9687 2.4026
-3.8036 3.8787 2.4026
-3.8974 3.7865 2.4026
-3.9890 3.6921 2.4026
-4.0782 3.5954 2.4026
-4.1652 3.4966 2.4026
-4.2498 3.3958 2.4026
-4.3319 3.2929 2.4026
-4.4116 3.1880 2.4026
-4.4888 3.0813 2.4026
-4.5633 2.9727 2.4026
-4.6353 2.8623 2.4026
-4.7047 2.7502 2.4026
-4.7713 2.6364 2.4026
-4.8352 2.5210 2.4026
-4.8963 2.4041 2.4026
-4.9546 2.2857 2.4026
-5.0100 2.1659 2.4026
-5.0626 2.0448 2.4026
-5.1123 1.9224 2.4026
-5.1590 1.7988 2.4026
-5.2027 1.6741 2.4026
-5.2434 1.5484 2.4026
-5.2811 1.4216 2.4026
-5.3158 1.2940 2.4026
-5.3473 1.1655 2.4026
-5.3758 1.0363 2.4026
-5.4011 0.9063 2.4026
-5.4234 0.7758 2.4026
-5.4424 0.6447 2.4026
-5.4583 0.5132 2.4026
-5.4710 0.3813 2.4026
-5.4806 0.2490 2.4026
-5.4869 0.1166 2.4026
-5.4900 -0.0160 2.4026
-5.4900 -0.1487 2.4026
-5.4867 -0.2814 2.4026
-5.4802 -0.4140 2.4026
-5.4705 -0.5464 2.4026
-5.4576 -0.6787 2.4026
-5.4415 -0.8105 2.4026
-5.4222 -0.9421 2.4026
-5.3997 -1.0731 2.4026
-5.3740 -1.2036 2.4026
-5.3452 -1.3335 2.4026
-5.3132 -1.4626 2.4026
-5.2781 -1.5910 2.4026
-5.2399 -1.7186 2.4026
-5.1985 -1.8452 2.4026
-5.1541 -1.9708 2.4026
-5.1067 -2.0953 2.4026
-5.0562 -2.2186 2.4026
-5.0027 -2.3408 2.4026
-4.9463 -2.4616 2.4026
-4.8870 -2.5810 2.4026
-4.8247 -2.6990 2.4026
-4.7595 -2.8155 2.4026
-4.6916 -2.9304 2.4026
-4.6208 -3.0437 2.4026
-4.5473 -3.1552 2.4026
-4.4711 -3.2649 2.4026
-4.3922 -3.3727 2.4026
-4.3107 -3.4786 2.4026
-4.1013 -3.4767 2.4026
-4.0173 -3.5755 2.4026
-3.9308 -3.6723 2.4026
-3.8422 -3.7671 2.4027
-3.7512 -3.8597 2.4028
-3.6580 -3.9502 2.4029
-3.5626 -4.0383 2.4030
-3.4651 -4.1241 2.4031
-3.3654 -4.2075 2.4032
-3.2638 -4.2885 2.4033
-3.1601 -4.3669 2.4034
-3.0546 -4.4428 2.4035
-2.9472 -4.5162 2.4036
-2.8380 -4.5869 2.4037
-2.7271 -4.6549 2.4037
-2.6146 -4.7202 2.4038
-2.5004 -4.7827 2.4039
-2.3848 -4.8424 2.4039
-2.2677 -4.8992 2.4040
-2.1492 -4.9533 2.4041
-2.0294 -5.0042 2.4041
-1.9084 -5.0523 2.4041
-1.7862 -5.0973 2.4041
-1.6630 -5.1393 2.4040
-1.5387 -5.1783 2.4040
-1.4135 -5.2143 2.4040
-1.2875 -5.2472 2.4040
-1.1607 -5.2769 2.4039
-1.0332 -5.3036 2.4039
-0.9050 -5.3271 2.4039
-0.7764 -5.3475 2.4038
-0.6472 -5.3647 2.4038
-0.5177 -5.3787 2.4037
-0.3879 -5.3896 2.4037
-0.2579 -5.3973 2.4036
-0.1277 -5.4018 2.4036
0.0026 -5.4031 2.4035
0.1328 -5.4012 2.4034
0.2630 -5.3961 2.4034
0.3929 -5.3878 2.4033
0.5227 -5.3763 2.4032
0.6521 -5.3617 2.4031
0.7810 -5.3439 2.4030
0.9096 -5.3229 2.4030
1.0375 -5.2989 2.4029
1.1648 -5.2718 2.4028
1.2914 -5.2415 2.4028
1.4172 -5.2083 2.4027
1.5422 -5.1719 2.4027
1.6662 -5.1325 2.4026
1.7892 -5.0901 2.4026
1.9111 -5.0448 2.4026
1.9763 -4.8597 2.3368
2.0592 -4.7331 2.2995
2.1724 -4.6814 2.2995
2.2843 -4.6269 2.2995
2.3948 -4.5697 2.2995
2.5038 -4.5098 2.2995
2.6113 -4.4473 2.2995
2.7173 -4.3822 2.2995
2.5769 -3.9403 2.1001
2.6960 -3.9129 2.1200
2.4093 -3.3224 1.8314
2.4318 -3.1887 1.7899
2.4416 -3.0463 1.7429
2.4144 -2.8677 1.6739
2.4161 -2.7331 1.6293
2.4406 -2.6302 1.6030
3.5902 -3.6865 2.2995
3.6771 -3.5979 2.2995
3.7619 -3.5072 2.2995
3.8444 -3.4145 2.2995
3.9246 -3.3199 2.2995
4.0024 -3.2233 2.2995
4.0779 -3.1249 2.2995
4.1509 -3.0248 2.2995
4.2215 -2.9229 2.2995
4.2895 -2.8193 2.2995
4.3550 -2.7141 2.2995
4.4179 -2.6074 2.2995
4.4782 -2.4993 2.2995
4.5358 -2.3897 2.2995
4.5907 -2.2788 2.2995
4.6429 -2.1666 2.2995
4.6924 -2.0532 2.2995
4.7391 -1.9387 2.2995
4.7829 -1.8232 2.2995
4.8240 -1.7066 2.2995
4.8622 -1.5891 2.2995
4.8975 -1.4707 2.2995
4.9300 -1.3515 2.2995
4.9595 -1.2317 2.2995
4.9861 -1.1111 2.2995
5.0098 -0.9900 2.2995
5.0305 -0.8684 2.2995
5.0483 -0.7464 2.2995
5.0632 -0.6240 2.2995
5.0750 -0.5013 2.2995
5.0839 -0.3784 2.2995
5.0898 -0.2554 2.2995
5.0928 -0.1323 2.2995
5.0927 -0.0092 2.2995
5.0897 0.1138 2.2995
5.0837 0.2367 2.2995
5.0748 0.3594 2.2995
5.0629 0.4818 2.2995
5.0481 0.6039 2.2995
5.0303 0.7255 2.2995
5.0096 0.8466 2.2995
4.9860 0.9671 2.2995
4.9596 1.0870 2.2995
4.9302 1.2062 2.2995
4.8980 1.3247 2.2995
4.8630 1.4423 2.2995
4.8251 1.5589 2.2995
4.7845 1.6746 2.2995
4.7411 1.7893 2.2995
4.6949 1.9029 2.2995
4.6461 2.0152 2.2995
4.5946 2.1264 2.2995
4.5405 2.2363 2.2995
4.4837 2.3447 2.2995
4.4244 2.4518 2.2995
4.3625 2.5574 2.2995
4.2981 2.6615 2.2995
4.2313 2.7639 2.2995
4.1620 2.8647 2.2995
4.0904 2.9638 2.2995
4.0164 3.0611 2.2995
3.9401 3.1566 2.2995
3.8616 3.2502 2.2995
3.7809 3.3419 2.2995
3.6980 3.4316 2.2995
3.6130 3.5193 2.2995
3.5259 3.6049 2.2995
3.4369 3.6884 2.2995
3.3458 3.7697 2.2995
3.2529 3.8488 2.2995
3.1581 3.9256 2.2995
3.0615 4.0001 2.2995
2.9632 4.0723 2.2995
2.8632 4.1421 2.2995
2.7616 4.2095 2.2995
2.6584 4.2744 2.2995
2.5537 4.3368 2.2995
2.4476 4.3967 2.2995
2.3401 4.4540 2.2995
2.2428 4.5321 2.3114
2.1211 4.5609 2.2995
2.0098 4.6103 2.2995
1.9576 4.8052 2.3726
1.8637 4.9120 2.4026
1.7440 4.9551 2.4026
1.6233 4.9955 2.4026
1.5017 5.0329 2.4026
1.3793 5.0674 2.4026
1.2561 5.0990 2.4026
1.1321 5.1276 2.4026
1.0075 5.1532 2.4026
0.8824 5.1759 2.4026
0.7567 5.1956 2.4026
0.6307 5.2122 2.4026
0.5042 5.2258 2.4026
0.3775 5.2365 2.4026
0.2505 5.2441 2.4026
0.1234 5.2486 2.4026
-0.0037 5.2501 2.4026
-0.1309 5.2486 2.4026
-0.2580 5.2440 2.4026
-0.3850 5.2364 2.4026
-0.5117 5.2258 2.4026
-0.6382 5.2122 2.4026
-0.7643 5.1955 2.4026
-0.8900 5.1758 2.4026
-1.0151 5.1532 2.4026
-1.1398 5.1275 2.4026
-1.2637 5.0989 2.4026
-1.3870 5.0673 2.4026
-1.5095 5.0328 2.4026
-1.6311 4.9953 2.4026
-1.7518 4.9550 2.4026
-1.8716 4.9117 2.4026
-1.9902 4.8657 2.4026
-2.1078 4.8167 2.4026
-2.2242 4.7650 2.4026
-2.3393 4.7105 2.4026
-2.4531 4.6533 2.4026
-2.5655 4.5934 2.4026
-2.6764 4.5307 2.4026
-2.7859 4.4654 2.4026
-2.8937 4.3975 2.4026
-3.0000 4.3271 2.4026
-3.1045 4.2541 2.4026
-3.2073 4.1786 2.4026
-3.3082 4.1006 2.4026
-3.4073 4.0203 2.4026
-3.5044 3.9375 2.4026
-3.5996 3.8525 2.4026
-3.6927 3.7652 2.4026
-3.7837 3.6756 2.4026
-3.8725 3.5839 2.4026
-3.9592 3.4901 2.4026
-4.0436 3.3942 2.4026
-4.1256 3.2962 2.4026
-4.2054 3.1963 2.4026
-4.2827 3.0945 2.4026
-4.3576 2.9908 2.4026
-4.4299 2.8854 2.4026
-4.4998 2.7782 2.4026
-4.5670 2.6693 2.4026
-4.6317 2.5589 2.4026
-4.6937 2.4468 2.4026
-4.7530 2.3333 2.4026
-4.8095 2.2184 2.4026
-4.8633 2.1021 2.4026
-4.9143 1.9845 2.4026
-4.9625 1.8657 2.4026
-5.0078 1.7457 2.4026
-5.0502 1.6246 2.4026
-5.0897 1.5026 2.4026
-5.1262 1.3795 2.4026
-5.1598 1.2556 2.4026
-5.1904 1.1309 2.4026
-5.2180 1.0055 2.4026
-5.2425 0.8793 2.4026
-5.2640 0.7526 2.4026
-5.2825 0.6254 2.4026
-5.2979 0.4977 2.4026
-5.3102 0.3697 2.4026
-5.3194 0.2413 2.4026
-5.3255 0.1128 2.4026
-5.3285 -0.0159 2.4026
-5.3284 -0.1447 2.4026
-5.3251 -0.2735 2.4026
-5.3188 -0.4022 2.4026
-5.3093 -0.5307 2.4026
-5.2967 -0.6590 2.4026
-5.2811 -0.7870 2.4026
-5.2623 -0.9147 2.4026
-5.2404 -1.0418 2.4026
-5.2155 -1.1685 2.4026
-5.1874 -1.2945 2.4026
-5.1564 -1.4198 2.4026
-5.1222 -1.5444 2.4026
-5.0851 -1.6682 2.4026
-5.0450 -1.7910 2.4026
-5.0018 -1.9129 2.4026
-4.9558 -2.0337 2.4026
-4.9067 -2.1534 2.4026
-4.8548 -2.2719 2.4026
-4.8000 -2.3892 2.4026
-4.7424 -2.5050 2.4026
-4.6819 -2.6195 2.4026
-4.6187 -2.7326 2.4026
-4.5527 -2.8440 2.4026
-4.4840 -2.9539 2.4026
-4.4126 -3.0621 2.4026
-4.3386 -3.1685 2.4026
-4.2621 -3.2731 2.4026
-4.1829 -3.3759 2.4026
-3.9821 -3.3760 2.4026
-3.9004 -3.4719 2.4026
-3.8165 -3.5658 2.4026
-3.7302 -3.6577 2.4026
-3.6419 -3.7476 2.4027
-3.5514 -3.8353 2.4028
-3.4587 -3.9209 2.4029
-3.3640 -4.0042 2.4030
-3.2673 -4.0851 2.4031
-3.1685 -4.1637 2.4032
-3.0679 -4.2398 2.4033
-2.9654 -4.3135 2.4033
-2.8611 -4.3847 2.4034
-2.7551 -4.4533 2.4035
-2.6475 -4.5193 2.4036
-2.5382 -4.5826 2.4037
-2.4274 -4.6433 2.4037
-2.3151 -4.7013 2.4038
-2.2015 -4.7565 2.4039
-2.0865 -4.8089 2.4039
-1.9702 -4.8584 2.4040
-1.8526 -4.9050 2.4039
-1.7340 -4.9486 2.4039
-1.6143 -4.9894 2.4038
-1.4937 -5.0272 2.4038
-1.3722 -5.0621 2.4038
-1.2498 -5.0940 2.4038
-1.1267 -5.1229 2.4038
-1.0030 -5.1488 2.4037
-0.8786 -5.1716 2.4037
-0.7537 -5.1914 2.4036
-0.6283 -5.2081 2.4036
-0.5026 -5.2217 2.4036
-0.3766 -5.2323 2.4035
-0.2503 -5.2397 2.4034
-0.1240 -5.2441 2.4034
0.0025 -5.2454 2.4033
0.1289 -5.2435 2.4033
0.2552 -5.2386 2.4032
0.3814 -5.2306 2.4031
0.5074 -5.2195 2.4031
0.6330 -5.2054 2.4030
0.7582 -5.1882 2.4030
0.8830 -5.1679 2.4029
1.0072 -5.1447 2.4029
1.1308 -5.1184 2.4028
1.2537 -5.0890 2.4028
1.3759 -5.0567 2.4027
1.4972 -5.0215 2.4027
1.6176 -4.9832 2.4027
1.7370 -4.9421 2.4026
1.8554 -4.8981 2.4026
1.9608 -4.8221 2.3882
1.9992 -4.5955 2.2995
2.1090 -4.5453 2.2995
2.2420 -4.5418 2.3248
2.3250 -4.4369 2.2995
2.4308 -4.3788 2.2995
2.5353 -4.3181 2.2995
2.6382 -4.2549 2.2995
2.5769 -3.9407 2.1631
2.6957 -3.9129 2.1833
2.4212 -3.3391 1.8956
2.4125 -3.1637 1.8289
2.4339 -3.0370 1.7895
2.4435 -2.9026 1.7449
2.4171 -2.7345 1.6789
2.4177 -2.6057 1.6355
2.4375 -2.5032 1.6080
3.5702 -3.4937 2.2995
3.6525 -3.4056 2.2995
3.7326 -3.3157 2.2995
3.8105 -3.2238 2.2995
3.8862 -3.1301 2.2995
3.9595 -3.0345 2.2995
4.0304 -2.9373 2.2995
4.0989 -2.8384 2.2995
4.1650 -2.7378 2.2995
4.2287 -2.6357 2.2995
4.2898 -2.5322 2.2995
4.3483 -2.4272 2.2995
4.4043 -2.3208 2.2995
4.4577 -2.2131 2.2995
4.5084 -2.1042 2.2995
4.5565 -1.9941 2.2995
4.6018 -1.8829 2.2995
4.6444 -1.7707 2.2995
4.6843 -1.6575 2.2995
4.7215 -1.5434 2.2995
4.7558 -1.4285 2.2995
4.7873 -1.3128 2.2995
4.8161 -1.1964 2.2995
4.8419 -1.0794 2.2995
4.8650 -0.9618 2.2995
4.8852 -0.8437 2.2995
4.9025 -0.7252 2.2995
4.9169 -0.6064 2.2995
4.9285 -0.4872 2.2995
4.9372 -0.3679 2.2995
4.9429 -0.2484 2.2995
4.9458 -0.1288 2.2995
4.9459 -0.0093 2.2995
4.9430 0.1102 2.2995
4.9372 0.2296 2.2995
4.9286 0.3487 2.2995
4.9171 0.4676 2.2995
4.9027 0.5861 2.2995
4.8855 0.7042 2.2995
4.8654 0.8219 2.2995
4.8426 0.9389 2.2995
4.8169 1.0554 2.2995
4.7884 1.1712 2.2995
4.7572 1.2862 2.2995
4.7232 1.4005 2.2995
4.6864 1.5138 2.2995
4.6470 1.6262 2.2995
4.6049 1.7376 2.2995
4.5601 1.8479 2.2995
4.5127 1.9570 2.2995
4.4627 2.0650 2.2995
4.4102 2.1717 2.2995
4.3551 2.2771 2.2995
4.2975 2.3812 2.2995
4.2374 2.4837 2.2995
4.1749 2.5848 2.2995
4.1100 2.6844 2.2995
4.0428 2.7823 2.2995
3.9732 2.8786 2.2995
3.9013 2.9731 2.2995
3.8273 3.0659 2.2995
3.7510 3.1568 2.2995
3.6726 3.2459 2.2995
3.5921 3.3331 2.2995
3.5096 3.4183 2.2995
3.4250 3.5014 2.2995
3.3385 3.5825 2.2995
3.2501 3.6615 2.2995
3.1599 3.7384 2.2995
3.0678 3.8130 2.2995
2.9740 3.8855 2.2995
2.8785 3.9556 2.2995
2.7814 4.0234 2.2995
2.6827 4.0889 2.2995
2.5825 4.1519 2.2995
2.4808 4.2126 2.2995
2.3777 4.2708 2.2995
2.2732 4.3265 2.2995
2.1675 4.3797 2.2995
2.0605 4.4303 2.2995
1.9757 4.5318 2.3269
1.9257 4.7266 2.4026
1.8105 4.7714 2.4026
1.6942 4.8134 2.4026
1.5770 4.8525 2.4026
1.4589 4.8889 2.4026
1.3399 4.9224 2.4026
1.2202 4.9531 2.4026
1.0998 4.9809 2.4026
0.9788 5.0058 2.4026
0.8572 5.0279 2.4026
0.7351 5.0470 2.4026
0.6126 5.0632 2.4026
0.4898 5.0764 2.4026
0.3667 5.0867 2.4026
0.2434 5.0941 2.4026
0.1199 5.0985 2.4026
-0.0036 5.1000 2.4026
-0.1272 5.0985 2.4026
-0.2507 5.0941 2.4026
-0.3740 5.0867 2.4026
-0.4971 5.0764 2.4026
-0.6200 5.0631 2.4026
-0.7425 5.0469 2.4026
-0.8646 5.0278 2.4026
-0.9862 5.0058 2.4026
-1.1072 4.9808 2.4026
-1.2277 4.9530 2.4026
-1.3474 4.9223 2.4026
-1.4664 4.8887 2.4026
-1.5846 4.8524 2.4026
-1.7018 4.8131 2.4026
-1.8181 4.7711 2.4026
-1.9334 4.7263 2.4026
-2.0476 4.6788 2.4026
-2.1606 4.6286 2.4026
-2.2725 4.5756 2.4026
-2.3830 4.5200 2.4026
-2.4922 4.4617 2.4026
-2.5999 4.4009 2.4026
-2.7062 4.3374 2.4026
-2.8110 4.2715 2.4026
-2.9142 4.2030 2.4026
-3.0157 4.1321 2.4026
-3.1155 4.0587 2.4026
-3.2136 3.9830 2.4026
-3.3098 3.9049 2.4026
-3.4042 3.8245 2.4026
-3.4966 3.7419 2.4026
-3.5870 3.6570 2.4026
-3.6754 3.5700 2.4026
-3.7616 3.4809 2.4026
-3.8458 3.3897 2.4026
-3.9277 3.2965 2.4026
-4.0074 3.2014 2.4026
-4.0848 3.1043 2.4026
-4.1599 3.0054 2.4026
-4.2326 2.9047 2.4026
-4.3029 2.8023 2.4026
-4.3707 2.6981 2.4026
-4.4360 2.5923 2.4026
-4.4987 2.4850 2.4026
-4.5589 2.3762 2.4026
-4.6165 2.2659 2.4026
-4.6714 2.1543 2.4026
-4.7236 2.0413 2.4026
-4.7731 1.9271 2.4026
-4.8198 1.8117 2.4026
-4.8638 1.6951 2.4026
-4.9049 1.5775 2.4026
-4.9432 1.4590 2.4026
-4.9787 1.3395 2.4026
-5.0113 1.2191 2.4026
-5.0409 1.0980 2.4026
-5.0677 0.9761 2.4026
-5.0915 0.8536 2.4026
-5.1123 0.7306 2.4026
-5.1302 0.6070 2.4026
-5.1451 0.4830 2.4026
-5.1570 0.3587 2.4026
-5.1659 0.2340 2.4026
-5.1718 0.1092 2.4026
-5.1747 -0.0158 2.4026
-5.1745 -0.1409 2.4026
-5.1713 -0.2659 2.4026
-5.1651 -0.3909 2.4026
-5.1559 -0.5158 2.4026
-5.1436 -0.6403 2.4026
-5.1284 -0.7646 2.4026
-5.1101 -0.8886 2.4026
-5.0888 -1.0121 2.4026
-5.0645 -1.1350 2.4026
-5.0373 -1.2574 2.4026
-5.0071 -1.3791 2.4026
-4.9739 -1.5000 2.4026
-4.9378 -1.6202 2.4026
-4.8988 -1.7395 2.4026
-4.8569 -1.8578 2.4026
-4.8121 -1.9751 2.4026
-4.7645 -2.0913 2.4026
-4.7140 -2.2064 2.4026
-4.6608 -2.3202 2.4026
-4.6048 -2.4327 2.4026
-4.5460 -2.5439 2.4026
-4.4846 -2.6536 2.4026
-4.4205 -2.7618 2.4026
-4.3538 -2.8685 2.4026
-4.2845 -2.9735 2.4026
-4.2126 -3.0768 2.4026
-4.1382 -3.1783 2.4026
-4.0613 -3.2781 2.4026
-3.8685 -3.2800 2.4026
-3.7891 -3.3731 2.4026
-3.7075 -3.4644 2.4026
-3.6237 -3.5536 2.4026
-3.5377 -3.6408 2.4026
-3.4498 -3.7259 2.4027
-3.3597 -3.8090 2.4028
-3.2677 -3.8899 2.4029
-3.1737 -3.9685 2.4029
-3.0778 -4.0448 2.4030
-2.9800 -4.1187 2.4031
-2.8805 -4.1903 2.4032
-2.7792 -4.2594 2.4033
-2.6762 -4.3260 2.4034
-2.5716 -4.3901 2.4034
-2.4654 -4.4516 2.4035
-2.3578 -4.5105 2.4036
-2.2487 -4.5668 2.4036
-2.1383 -4.6204 2.4037
-2.0266 -4.6713 2.4038
-1.9137 -4.7194 2.4038
-1.7996 -4.7648 2.4039
-1.6844 -4.8073 2.4039
-1.5681 -4.8468 2.4038
-1.4509 -4.8835 2.4038
-1.3329 -4.9174 2.4037
-1.2140 -4.9483 2.4037
-1.0944 -4.9763 2.4036
-0.9742 -5.0014 2.4036
-0.8534 -5.0236 2.4036
-0.7321 -5.0428 2.4035
-0.6103 -5.0590 2.4035
-0.4882 -5.0723 2.4034
-0.3658 -5.0825 2.4034
-0.2432 -5.0898 2.4033
-0.1204 -5.0941 2.4033
0.0024 -5.0953 2.4032
0.1252 -5.0936 2.4032
0.2479 -5.0888 2.4032
0.3705 -5.0811 2.4031
0.4928 -5.0704 2.4031
0.6148 -5.0567 2.4030
0.7365 -5.0400 2.4030
0.8577 -5.0203 2.4029
0.9784 -4.9977 2.4029
1.0984 -4.9722 2.4028
1.2178 -4.9437 2.4028
1.3365 -4.9124 2.4028
1.4543 -4.8781 2.4027
1.5713 -4.8410 2.4027
1.6873 -4.8010 2.4026
1.8023 -4.7583 2.4026
1.9162 -4.7128 2.4026
1.9786 -4.5487 2.3429
2.0487 -4.4156 2.2995
2.1542 -4.3643 2.2995
2.2604 -4.3141 2.3015
2.3613 -4.2539 2.2995
2.4627 -4.1950 2.2995
2.5627 -4.1336 2.2995
2.5769 -3.9410 2.2267
2.6954 -3.9129 2.2474
2.8531 -3.9352 2.2995
2.4106 -3.1615 1.8812
2.4150 -3.0137 1.8278
2.4354 -2.8932 1.7903
2.4452 -2.7666 1.7483
2.4228 -2.6116 1.6872
2.4192 -2.4847 1.6428
2.4337 -2.3818 1.6136
3.5483 -3.3088 2.2995
3.6262 -3.2214 2.2995
3.7018 -3.1322 2.2995
3.7753 -3.0412 2.2995
3.8466 -2.9484 2.2995
3.9155 -2.8539 2.2995
3.9821 -2.7578 2.2995
4.0464 -2.6602 2.2995
4.1082 -2.5610 2.2995
4.1676 -2.4604 2.2995
4.2245 -2.3584 2.2995
4.2790 -2.2551 2.2995
4.3308 -2.1505 2.2995
4.3801 -2.0447 2.2995
4.4269 -1.9378 2.2995
4.4710 -1.8298 2.2995
4.5124 -1.7207 2.2995
4.5512 -1.6108 2.2995
4.5873 -1.4999 2.2995
4.6207 -1.3883 2.2995
4.6514 -1.2759 2.2995
4.6793 -1.1628 2.2995
4.7045 -1.0491 2.2995
4.7269 -0.9349 2.2995
4.7466 -0.8201 2.2995
4.7635 -0.7050 2.2995
4.7775 -0.5895 2.2995
4.7888 -0.4738 2.2995
4.7973 -0.3578 2.2995
4.8029 -0.2417 2.2995
4.8058 -0.1255 2.2995
4.8058 -0.0094 2.2995
4.8031 0.1067 2.2995
4.7975 0.2227 2.2995
4.7891 0.3385 2.2995
4.7780 0.4540 2.2995
4.7641 0.5692 2.2995
4.7474 0.6840 2.2995
4.7279 0.7983 2.2995
4.7057 0.9121 2.2995
4.6808 1.0253 2.2995
4.6532 1.1378 2.2995
4.6229 1.2496 2.2995
4.5899 1.3606 2.2995
4.5542 1.4707 2.2995
4.5159 1.5800 2.2995
4.4750 1.6882 2.2995
4.4315 1.7954 2.2995
4.3855 1.9015 2.2995
4.3369 2.0065 2.2995
4.2859 2.1102 2.2995
4.2324 2.2127 2.2995
4.1764 2.3138 2.2995
4.1181 2.4135 2.2995
4.0574 2.5117 2.2995
3.9943 2.6085 2.2995
3.9290 2.7037 2.2995
3.8614 2.7972 2.2995
3.7916 2.8891 2.2995
3.7197 2.9793 2.2995
3.6456 3.0677 2.2995
3.5694 3.1543 2.2995
3.4912 3.2391 2.2995
3.4110 3.3219 2.2995
3.3288 3.4027 2.2995
3.2447 3.4816 2.2995
3.1588 3.5584 2.2995
3.0712 3.6331 2.2995
2.9817 3.7057 2.2995
2.8905 3.7760 2.2995
2.7977 3.8442 2.2995
2.7034 3.9102 2.2995
2.6074 3.9738 2.2995
2.5100 4.0351 2.2995
2.4112 4.0941 2.2995
2.3110 4.1507 2.2995
2.2337 4.2509 2.3247
2.1067 4.2565 2.2995
2.0027 4.3058 2.2995
1.9577 4.4904 2.3723
1.8717 4.5938 2.4026
1.7597 4.6373 2.4026
1.6467 4.6781 2.4026
1.5328 4.7162 2.4026
1.4180 4.7516 2.4026
1.3024 4.7842 2.4026
1.1860 4.8140 2.4026
1.0690 4.8410 2.4026
0.9514 4.8652 2.4026
0.8332 4.8866 2.4026
0.7145 4.9052 2.4026
0.5955 4.9210 2.4026
0.4761 4.9338 2.4026
0.3564 4.9439 2.4026
0.2365 4.9510 2.4026
0.1165 4.9553 2.4026
-0.0036 4.9568 2.4026
-0.1236 4.9553 2.4026
-0.2437 4.9510 2.4026
-0.3635 4.9438 2.4026
-0.4832 4.9338 2.4026
-0.6026 4.9209 2.4026
-0.7217 4.9052 2.4026
-0.8404 4.8865 2.4026
-0.9586 4.8651 2.4026
-1.0762 4.8409 2.4026
-1.1933 4.8138 2.4026
-1.3097 4.7840 2.4026
-1.4253 4.7513 2.4026
-1.5401 4.7160 2.4026
-1.6541 4.6778 2.4026
-1.7672 4.6370 2.4026
-1.8792 4.5935 2.4026
-1.9902 4.5472 2.4026
-2.1001 4.4984 2.4026
-2.2087 4.4469 2.4026
-2.3161 4.3928 2.4026
-2.4223 4.3362 2.4026
-2.5270 4.2770 2.4026
-2.6303 4.2153 2.4026
-2.7321 4.1512 2.4026
-2.8324 4.0846 2.4026
-2.9311 4.0157 2.4026
-3.0281 3.9444 2.4026
-3.1233 3.8707 2.4026
-3.2168 3.7948 2.4026
-3.3085 3.7167 2.4026
-3.3983 3.6363 2.4026
-3.4862 3.5539 2.4026
-3.5720 3.4693 2.4026
-3.6559 3.3826 2.4026
-3.7376 3.2940 2.4026
-3.8172 3.2034 2.4026
-3.8947 3.1109 2.4026
-3.9699 3.0166 2.4026
-4.0428 2.9204 2.4026
-4.1134 2.8225 2.4026
-4.1817 2.7230 2.4026
-4.2476 2.6217 2.4026
-4.3110 2.5189 2.4026
-4.3720 2.4146 2.4026
-4.4304 2.3089 2.4026
-4.4863 2.2017 2.4026
-4.5396 2.0932 2.4026
-4.5903 1.9833 2.4026
-4.6384 1.8723 2.4026
-4.6838 1.7602 2.4026
-4.7265 1.6469 2.4026
-4.7664 1.5326 2.4026
-4.8036 1.4174 2.4026
-4.8380 1.3013 2.4026
-4.8696 1.1843 2.4026
-4.8984 1.0666 2.4026
-4.9244 0.9482 2.4026
-4.9475 0.8291 2.4026
-4.9677 0.7095 2.4026
-4.9850 0.5895 2.4026
-4.9995 0.4690 2.4026
-5.0110 0.3481 2.4026
-5.0196 0.2270 2.4026
-5.0253 0.1057 2.4026
-5.0280 -0.0157 2.4026
-5.0279 -0.1373 2.4026
-5.0247 -0.2588 2.4026
-5.0187 -0.3802 2.4026
-5.0096 -0.5015 2.4026
-4.9977 -0.6225 2.4026
-4.9828 -0.7433 2.4026
-4.9650 -0.8637 2.4026
-4.9443 -0.9837 2.4026
-4.9207 -1.1031 2.4026
-4.8942 -1.2220 2.4026
-4.8648 -1.3402 2.4026
-4.8325 -1.4578 2.4026
-4.7974 -1.5745 2.4026
-4.7595 -1.6904 2.4026
-4.7187 -1.8053 2.4026
-4.6752 -1.9193 2.4026
-4.6289 -2.0322 2.4026
-4.5798 -2.1439 2.4026
-4.5281 -2.2545 2.4026
-4.4736 -2.3638 2.4026
-4.4165 -2.4718 2.4026
-4.3568 -2.5783 2.4026
-4.2945 -2.6834 2.4026
-4.2296 -2.7870 2.4026
-4.1623 -2.8890 2.4026
-4.0924 -2.9894 2.4026
-4.0202 -3.0880 2.4026
-3.9455 -3.1849 2.4026
-3.7600 -3.1884 2.4026
-3.6829 -3.2789 2.4026
-3.6036 -3.3675 2.4026
-3.5221 -3.4543 2.4026
-3.4385 -3.5390 2.4026
-3.3529 -3.6216 2.4026
-3.2653 -3.7023 2.4026
-3.1758 -3.7808 2.4027
-3.0845 -3.8572 2.4028
-2.9912 -3.9313 2.4029
-2.8962 -4.0032 2.4030
-2.7994 -4.0727 2.4031
-2.7009 -4.1398 2.4031
-2.6009 -4.2046 2.4032
-2.4992 -4.2668 2.4033
-2.3960 -4.3266 2.4034
-2.2914 -4.3839 2.4034
-2.1854 -4.4385 2.4035
-2.0781 -4.4906 2.4035
-1.9695 -4.5400 2.4036
-1.8598 -4.5868 2.4037
-1.7489 -4.6309 2.4037
-1.6370 -4.6722 2.4038
-1.5240 -4.7108 2.4038
-1.4101 -4.7465 2.4038
-1.2954 -4.7794 2.4037
-1.1799 -4.8095 2.4037
-1.0637 -4.8367 2.4036
-0.9468 -4.8611 2.4036
-0.8294 -4.8826 2.4035
-0.7115 -4.9013 2.4035
-0.5932 -4.9170 2.4035
-0.4745 -4.9299 2.4034
-0.3555 -4.9399 2.4034
-0.2364 -4.9469 2.4033
-0.1171 -4.9511 2.4033
0.0023 -4.9523 2.4032
0.1217 -4.9506 2.4032
0.2409 -4.9460 2.4032
0.3600 -4.9385 2.4031
0.4789 -4.9281 2.4031
0.5975 -4.9148 2.4030
0.7158 -4.8986 2.4030
0.8335 -4.8795 2.4029
0.9508 -4.8576 2.4029
1.0675 -4.8328 2.4029
1.1836 -4.8051 2.4028
1.2989 -4.7746 2.4028
1.4134 -4.7413 2.4027
1.5271 -4.7053 2.4027
1.6399 -4.6665 2.4027
1.7516 -4.6249 2.4026
1.8624 -4.5807 2.4026
1.9658 -4.5196 2.3950
1.9978 -4.3063 2.3072
2.0937 -4.2420 2.2995
2.1950 -4.1896 2.2995
2.2950 -4.1347 2.2995
2.3936 -4.0775 2.2995
2.4907 -4.0179 2.2995
2.5769 -3.9414 2.2911
2.6805 -3.8916 2.2995
2.7730 -3.8251 2.2995
2.8639 -3.7563 2.2995
2.4125 -3.0109 1.8786
2.4168 -2.8714 1.8279
2.4362 -2.7567 1.7921
2.4469 -2.6377 1.7531
2.4294 -2.4954 1.6973
2.4207 -2.3693 1.6512
2.4293 -2.2656 1.6197
2.4568 -2.1829 1.6029
3.5981 -3.0448 2.2995
3.6696 -2.9563 2.2995
3.7388 -2.8662 2.2995
3.8059 -2.7744 2.2995
3.8706 -2.6810 2.2995
3.9331 -2.5861 2.2995
3.9932 -2.4897 2.2995
4.0510 -2.3919 2.2995
4.1064 -2.2928 2.2995
4.1593 -2.1924 2.2995
4.2098 -2.0907 2.2995
4.2577 -1.9879 2.2995
4.3032 -1.8840 2.2995
4.3461 -1.7790 2.2995
4.3864 -1.6730 2.2995
4.4242 -1.5661 2.2995
4.4593 -1.4584 2.2995
4.4918 -1.3499 2.2995
4.5216 -1.2406 2.2995
4.5488 -1.1307 2.2995
4.5734 -1.0202 2.2995
4.5952 -0.9091 2.2995
4.6143 -0.7976 2.2995
4.6307 -0.6857 2.2995
4.6444 -0.5734 2.2995
4.6554 -0.4609 2.2995
4.6637 -0.3482 2.2995
4.6692 -0.2353 2.2995
4.6720 -0.1224 2.2995
4.6721 -0.0094 2.2995
4.6695 0.1034 2.2995
4.6641 0.2162 2.2995
4.6560 0.3288 2.2995
4.6452 0.4411 2.2995
4.6317 0.5530 2.2995
4.6155 0.6646 2.2995
4.5966 0.7758 2.2995
4.5751 0.8864 2.2995
4.5509 0.9965 2.2995
4.5241 1.1059 2.2995
4.4946 1.2146 2.2995
4.4626 1.3225 2.2995
4.4279 1.4296 2.2995
4.3907 1.5358 2.2995
4.3510 1.6411 2.2995
4.3088 1.7454 2.2995
4.2640 1.8485 2.2995
4.2168 1.9506 2.2995
4.1672 2.0515 2.2995
3.5448 2.9827 2.2995
4.1152 2.1511 2.2995
4.0609 2.2494 2.2995
3.4708 3.0669 2.2995
4.0041 2.3464 2.2995
3.9451 2.4419 2.2995
3.3947 3.1493 2.2995
3.8838 2.5360 2.2995
3.3168 3.2298 2.2995
3.8203 2.6286 2.2995
3.2369 3.3085 2.2995
3.7547 2.7196 2.2995
3.6868 2.8090 2.2995
3.1552 3.3851 2.2995
3.6169 2.8967 2.2995
3.0717 3.4598 2.2995
2.7206 3.7379 2.2995
2.9864 3.5325 2.2995
2.6288 3.8020 2.2995
2.5355 3.8639 2.2995
2.8994 3.6031 2.2995
2.4408 3.9236 2.2995
2.3447 3.9809 2.2995
2.8108 3.6716 2.2995
2.2494 4.0398 2.3017
1.8202 4.4669 2.4026
2.1486 4.0886 2.2995
2.0486 4.1389 2.2995
1.7112 4.5092 2.4026
1.9741 4.2439 2.3309
1.6014 4.5489 2.4026
1.9281 4.4220 2.4026
1.4906 4.5860 2.4026
0.6948 4.7698 2.4026
0.5791 4.7851 2.4026
1.3789 4.6203 2.4026
0.4629 4.7977 2.4026
1.2665 4.6521 2.4026
0.3466 4.8074 2.4026
1.1533 4.6811 2.4026
0.2300 4.8144 2.4026
1.0395 4.7074 2.4026
0.1133 4.8186 2.4026
-0.0035 4.8199 2.4026
0.9251 4.7309 2.4026
-0.1203 4.8185 2.4026
-0.2370 4.8143 2.4026
0.8102 4.7517 2.4026
-0.3535 4.8074 2.4026
-0.4699 4.7976 2.4026
-1.6086 4.5486 2.4026
-1.7185 4.5089 2.4026
-0.5860 4.7850 2.4026
-1.8274 4.4665 2.4026
-1.9354 4.4216 2.4026
-0.7018 4.7697 2.4026
-2.0422 4.3740 2.4026
-0.8172 4.7516 2.4026
-2.1478 4.3239 2.4026
-2.2523 4.2714 2.4026
-0.9322 4.7308 2.4026
-2.3555 4.2163 2.4026
-1.0466 4.7072 2.4026
-2.4573 4.1587 2.4026
-2.5578 4.0987 2.4026
-1.1604 4.6809 2.4026
-2.6568 4.0363 2.4026
-1.2736 4.6518 2.4026
-2.7543 3.9716 2.4026
-2.8502 3.9045 2.4026
-1.3861 4.6201 2.4026
-2.9445 3.8351 2.4026
-1.4977 4.5857 2.4026
-3.0371 3.7635 2.4026
-3.1280 3.6897 2.4026
-3.5548 3.2888 2.4026
-3.2172 3.6137 2.4026
-3.6343 3.2026 2.4026
-3.3045 3.5355 2.4026
-3.3899 3.4553 2.4026
-3.7117 3.1145 2.4026
-3.4733 3.3731 2.4026
-4.2509 2.3474 2.4026
-3.7870 3.0245 2.4026
-4.3077 2.2445 2.4026
-3.8601 2.9328 2.4026
-4.3620 2.1403 2.4026
-3.9310 2.8393 2.4026
-4.4138 2.0348 2.4026
-3.9996 2.7441 2.4026
-4.4631 1.9280 2.4026
-4.0660 2.6472 2.4026
-4.5098 1.8201 2.4026
-4.5539 1.7110 2.4026
-4.1300 2.5488 2.4026
-4.5953 1.6009 2.4026
-4.6342 1.4897 2.4026
