ply
format ascii 1.0
element vertex 2172
property float32 x
property float32 y
property float32 z
end_header
-9.9688 1.1908 2.2994
-10.0012 0.9502 2.2994
-10.0278 0.7087 2.2994
-10.0487 0.4665 2.2994
-10.0636 0.2236 2.2994
-10.0727 -0.0196 2.2994
-10.0760 -0.2632 2.2994
-10.0733 -0.5069 2.2994
-10.0648 -0.7506 2.2994
-10.0503 -0.9942 2.2994
-10.0300 -1.2376 2.2994
-10.0037 -1.4805 2.2994
-9.9715 -1.7229 2.2994
-9.9335 -1.9645 2.2994
-9.8896 -2.2054 2.2994
-9.8398 -2.4452 2.2994
-6.5941 -1.8088 1.5497
-9.7227 -2.9213 2.2994
-9.6554 -3.1573 2.2994
-9.5824 -3.3917 2.2994
-9.5036 -3.6244 2.2994
-9.4191 -3.8553 2.2994
-9.3290 -4.0842 2.2994
-9.2333 -4.3109 2.2994
-9.1320 -4.5353 2.2994
-9.0252 -4.7574 2.2994
-8.9129 -4.9769 2.2994
-8.7953 -5.1937 2.2994
-8.6722 -5.4076 2.2994
-8.5440 -5.6186 2.2994
-8.4105 -5.8265 2.2994
-8.2719 -6.0312 2.2994
-6.7351 -5.1643 1.9053
-7.9797 -6.4303 2.2994
-6.9266 -5.8638 2.1411
-7.2881 -6.4782 2.2994
-7.1330 -6.6555 2.2994
-7.3117 -7.1601 2.4109
-7.1152 -7.3124 2.4025
-6.9402 -7.4859 2.4027
-6.7609 -7.6551 2.4029
-6.5774 -7.8199 2.4030
-6.3898 -7.9802 2.4032
-6.1982 -8.1359 2.4033
-6.0027 -8.2869 2.4035
-5.8036 -8.4331 2.4037
-5.6007 -8.5744 2.4038
-5.3944 -8.7107 2.4040
-5.1847 -8.8419 2.4042
-4.9717 -8.9680 2.4043
-4.7556 -9.0888 2.4045
-4.5366 -9.2043 2.4047
-4.3146 -9.3143 2.4048
-4.0900 -9.4189 2.4050
-3.8627 -9.5180 2.4052
-3.6330 -9.6114 2.4053
-3.4010 -9.6991 2.4055
-3.1665 -9.7800 2.4054
-2.9300 -9.8547 2.4052
-2.6916 -9.9236 2.4050
-2.4515 -9.9865 2.4048
-2.2100 -10.0435 2.4046
-1.9671 -10.0945 2.4045
-1.7230 -10.1395 2.4043
-1.4779 -10.1784 2.4041
-1.2319 -10.2112 2.4039
-0.9851 -10.2380 2.4037
-0.7378 -10.2586 2.4036
-0.4900 -10.2731 2.4034
-0.2420 -10.2814 2.4032
0.0062 -10.2836 2.4030
0.2543 -10.2796 2.4028
0.5022 -10.2695 2.4027
0.7498 -10.2533 2.4025
0.9926 -10.1870 2.3920
1.1929 -9.7889 2.3048
1.4253 -9.7337 2.2994
1.6596 -9.6955 2.2994
1.8928 -9.6515 2.2994
2.1249 -9.6018 2.2994
2.3557 -9.5464 2.2994
2.5849 -9.4853 2.2994
2.2938 -7.6813 1.8753
2.3565 -7.2483 1.7833
2.3696 -6.7316 1.6701
2.4186 -6.3753 1.5960
3.7042 -9.0959 2.2994
3.9216 -9.0016 2.2994
4.1366 -8.9020 2.2994
4.3491 -8.7972 2.2994
4.5588 -8.6872 2.2994
4.7657 -8.5720 2.2994
4.9696 -8.4518 2.2994
5.1704 -8.3267 2.2994
5.3681 -8.1967 2.2994
5.5623 -8.0618 2.2994
5.7609 -7.9330 2.3025
5.9484 -7.7887 2.3025
6.1323 -7.6398 2.3025
6.3124 -7.4865 2.3025
6.4885 -7.3289 2.3025
6.6607 -7.1671 2.3025
6.8287 -7.0011 2.3025
6.9926 -6.8312 2.3025
7.1522 -6.6573 2.3025
7.3073 -6.4797 2.3025
7.4580 -6.2983 2.3025
7.6042 -6.1135 2.3025
7.7457 -5.9251 2.3025
7.8824 -5.7335 2.3025
8.0144 -5.5386 2.3025
8.1415 -5.3407 2.3025
8.3309 -5.1816 2.3212
8.4490 -4.9763 2.3212
8.5620 -4.7682 2.3212
8.6697 -4.5575 2.3212
8.7723 -4.3443 2.3212
8.8696 -4.1289 2.3212
8.9615 -3.9112 2.3212
9.0480 -3.6915 2.3212
9.1292 -3.4698 2.3212
9.2048 -3.2464 2.3212
9.2750 -3.0213 2.3212
9.3396 -2.7947 2.3212
9.3986 -2.5668 2.3212
9.4521 -2.3376 2.3212
9.4999 -2.1073 2.3212
9.5421 -1.8760 2.3212
9.5787 -1.6439 2.3212
9.6096 -1.4112 2.3212
9.6349 -1.1778 2.3212
9.6544 -0.9441 2.3212
9.6683 -0.7102 2.3212
9.6766 -0.4761 2.3212
9.6791 -0.2420 2.3212
9.6760 -0.0080 2.3212
9.6673 0.2257 2.3212
9.6530 0.4589 2.3212
9.6330 0.6916 2.3212
9.6074 0.9236 2.3212
9.5763 1.1548 2.3212
9.5396 1.3850 2.3212
9.4974 1.6142 2.3212
9.4498 1.8421 2.3212
9.3967 2.0687 2.3212
9.3383 2.2938 2.3212
9.2744 2.5173 2.3212
9.2053 2.7391 2.3212
9.1309 2.9591 2.3212
9.0513 3.1771 2.3212
8.9666 3.3929 2.3212
8.8768 3.6066 2.3212
8.7819 3.8180 2.3212
8.6821 4.0269 2.3212
8.5773 4.2332 2.3212
8.4677 4.4369 2.3212
8.3534 4.6378 2.3212
8.1678 4.7967 2.3025
8.0451 4.9902 2.3025
7.9179 5.1805 2.3025
7.7862 5.3677 2.3025
7.6503 5.5516 2.3025
4.7390 3.6171 1.4529
4.6478 3.7288 1.4529
4.6646 3.9314 1.4882
4.2339 3.7473 1.3799
4.1075 3.8165 1.3691
4.4566 4.3463 1.5207
4.3500 4.4527 1.5213
4.1914 4.5033 1.5042
4.0331 4.5491 1.4871
3.8303 4.5368 1.4529
5.8835 7.3210 2.2992
5.7025 7.4583 2.2992
5.5184 7.5913 2.2992
5.3312 7.7198 2.2992
5.1411 7.8437 2.2992
4.9481 7.9631 2.2992
4.7525 8.0779 2.2992
4.5543 8.1880 2.2992
4.3535 8.2933 2.2992
4.1504 8.3938 2.2992
3.9450 8.4895 2.2992
3.7375 8.5802 2.2992
3.5280 8.6660 2.2992
3.3165 8.7469 2.2992
2.9501 8.3874 2.1858
2.8882 8.8933 2.2992
2.6717 8.9590 2.2992
2.4537 9.0194 2.2992
2.2344 9.0747 2.2992
2.0139 9.1248 2.2992
1.8727 9.5815 2.4025
1.6401 9.6229 2.4025
1.4067 9.6588 2.4025
1.1724 9.6892 2.4025
0.9376 9.7140 2.4025
0.7022 9.7333 2.4025
0.4664 9.7470 2.4025
0.2304 9.7552 2.4025
-0.0057 9.7578 2.4025
-0.2418 9.7549 2.4025
-0.4778 9.7464 2.4025
-0.7136 9.7323 2.4025
-0.9489 9.7126 2.4025
-1.1837 9.6874 2.4025
-1.4179 9.6567 2.4025
-1.6513 9.6205 2.4025
-1.8838 9.5787 2.4025
-2.1153 9.5315 2.4025
-2.3457 9.4788 2.4025
-2.5747 9.4207 2.4025
-2.8024 9.3572 2.4025
-3.0286 9.2883 2.4025
-3.2530 9.2141 2.4025
-3.4758 9.1346 2.4025
-3.6966 9.0499 2.4025
-3.9154 8.9599 2.4025
-4.1321 8.8648 2.4025
-4.3465 8.7645 2.4025
-4.5586 8.6592 2.4025
-4.7681 8.5488 2.4025
-4.9751 8.4336 2.4025
-5.1793 8.3134 2.4025
-5.3807 8.1883 2.4025
-5.5791 8.0585 2.4025
-5.7745 7.9240 2.4025
-5.9667 7.7849 2.4025
-6.0796 7.5468 2.3728
-6.0894 7.1954 2.3071
-6.2433 7.0253 2.2994
-6.4140 6.8751 2.2994
-6.5812 6.7208 2.2994
-6.7448 6.5625 2.2994
-6.9047 6.4003 2.2994
-7.0607 6.2343 2.2994
-7.2128 6.0646 2.2994
-7.3609 5.8912 2.2994
-7.5049 5.7142 2.2994
-7.6447 5.5338 2.2994
-7.7802 5.3500 2.2994
-7.9114 5.1629 2.2994
-8.0381 4.9727 2.2994
-8.1603 4.7794 2.2994
-8.2780 4.5832 2.2994
-8.3910 4.3841 2.2994
-8.4993 4.1822 2.2994
-8.6027 3.9778 2.2994
-8.7014 3.7707 2.2994
-8.7950 3.5613 2.2994
-8.8837 3.3496 2.2994
-8.9674 3.1357 2.2994
-9.0459 2.9197 2.2994
-9.1193 2.7018 2.2994
-9.1875 2.4821 2.2994
-9.2504 2.2606 2.2994
-9.3080 2.0376 2.2994
-9.3603 1.8132 2.2994
-9.4072 1.5874 2.2994
-9.4487 1.3604 2.2994
-9.4847 1.1323 2.2994
-9.5152 0.9034 2.2994
-9.5403 0.6736 2.2994
-9.5598 0.4431 2.2994
-9.5737 0.2121 2.2994
-9.5821 -0.0193 2.2994
-9.5849 -0.2510 2.2994
-9.5821 -0.4828 2.2994
-9.5736 -0.7146 2.2994
-9.5596 -0.9463 2.2994
-9.5399 -1.1778 2.2994
-9.5147 -1.4088 2.2994
-9.4838 -1.6392 2.2994
-9.4473 -1.8691 2.2994
-9.4052 -2.0980 2.2994
-9.3576 -2.3260 2.2994
-6.5956 -1.8097 1.6299
-9.2457 -2.7786 2.2994
-9.1815 -3.0030 2.2994
-9.1118 -3.2258 2.2994
-9.0366 -3.4470 2.2994
-8.9560 -3.6664 2.2994
-8.8701 -3.8839 2.2994
-8.7788 -4.0994 2.2994
-8.6822 -4.3126 2.2994
-8.5804 -4.5236 2.2994
-8.4735 -4.7322 2.2994
-8.3614 -4.9381 2.2994
-8.2442 -5.1414 2.2994
-8.1221 -5.3418 2.2994
-7.9950 -5.5393 2.2994
-7.8630 -5.7338 2.2994
-7.7263 -5.9250 2.2994
-7.5849 -6.1129 2.2994
-6.9264 -5.8642 2.2475
-6.9424 -6.1716 2.2994
-6.8298 -6.3732 2.3113
-6.9403 -6.7970 2.4025
-6.7775 -6.9660 2.4026
-6.6106 -7.1310 2.4027
-6.4397 -7.2920 2.4029
-6.2647 -7.4488 2.4030
-6.0859 -7.6014 2.4032
-5.9033 -7.7495 2.4033
-5.7170 -7.8931 2.4035
-5.5272 -8.0322 2.4037
-5.3340 -8.1667 2.4038
-5.1374 -8.2963 2.4040
-4.9376 -8.4212 2.4041
-4.7347 -8.5411 2.4043
-4.5288 -8.6560 2.4045
-4.3201 -8.7659 2.4046
-4.1087 -8.8705 2.4048
-3.8947 -8.9700 2.4050
-3.6783 -9.0642 2.4051
-3.4595 -9.1530 2.4053
-3.2386 -9.2364 2.4054
-3.0154 -9.3140 2.4055
-2.7901 -9.3851 2.4053
-2.5631 -9.4506 2.4051
-2.3345 -9.5105 2.4049
-2.1045 -9.5647 2.4048
-1.8732 -9.6132 2.4046
-1.6408 -9.6560 2.4044
-1.4073 -9.6930 2.4042
-1.1730 -9.7243 2.4040
-0.9381 -9.7497 2.4039
-0.7025 -9.7693 2.4037
-0.4666 -9.7831 2.4035
-0.2304 -9.7910 2.4033
0.0059 -9.7931 2.4032
0.2422 -9.7894 2.4030
0.4783 -9.7798 2.4028
0.7140 -9.7644 2.4027
0.9493 -9.7432 2.4025
1.1855 -9.7292 2.4055
1.3696 -9.3539 2.3204
1.5803 -9.2327 2.2994
1.8024 -9.1909 2.2994
2.0234 -9.1436 2.2994
2.2431 -9.0909 2.2994
2.4614 -9.0327 2.2994
2.4771 -8.2956 2.1267
2.3365 -7.1875 1.8568
2.3944 -6.8028 1.7722
2.3910 -6.3030 1.6569
2.4715 -6.0695 1.6111
2.6584 -6.1024 1.6368
3.9393 -8.4780 2.2994
4.1416 -8.3782 2.2994
4.3414 -8.2736 2.2994
4.5385 -8.1640 2.2994
4.7328 -8.0497 2.2994
4.9241 -7.9306 2.2994
5.1124 -7.8069 2.2994
5.2975 -7.6786 2.2994
5.4793 -7.5459 2.2994
5.6578 -7.4087 2.2994
5.8406 -7.2770 2.3025
6.0122 -7.1312 2.3025
6.1801 -6.9812 2.3025
6.3442 -6.8272 2.3025
6.5044 -6.6693 2.3025
6.6606 -6.5075 2.3025
6.8128 -6.3421 2.3025
6.9607 -6.1729 2.3025
7.1044 -6.0004 2.3025
7.2438 -5.8243 2.3025
7.3787 -5.6451 2.3025
7.5092 -5.4626 2.3025
7.6351 -5.2771 2.3025
7.7563 -5.0887 2.3025
7.8729 -4.8974 2.3025
7.9847 -4.7034 2.3025
8.0916 -4.5069 2.3025
8.1937 -4.3079 2.3025
8.3584 -4.1400 2.3212
8.4513 -3.9348 2.3212
8.5391 -3.7275 2.3212
8.6218 -3.5182 2.3212
8.6993 -3.3071 2.3212
8.7716 -3.0943 2.3212
8.8387 -2.8799 2.3212
8.9005 -2.6640 2.3212
8.9570 -2.4468 2.3212
9.0082 -2.2284 2.3212
9.0541 -2.0090 2.3212
9.0945 -1.7887 2.3212
9.1296 -1.5675 2.3212
9.1593 -1.3457 2.3212
9.1837 -1.1233 2.3212
9.2026 -0.9006 2.3212
9.2161 -0.6776 2.3212
9.2242 -0.4544 2.3212
9.2269 -0.2313 2.3212
9.2242 -0.0083 2.3212
9.2162 0.2145 2.3212
9.2027 0.4368 2.3212
9.1839 0.6587 2.3212
9.1598 0.8799 2.3212
9.1304 1.1004 2.3212
9.0957 1.3199 2.3212
9.0557 1.5385 2.3212
9.0105 1.7558 2.3212
8.9602 1.9719 2.3212
8.9047 2.1867 2.3212
8.8440 2.3999 2.3212
8.7784 2.6115 2.3212
8.7076 2.8213 2.3212
8.6320 3.0292 2.3212
8.5514 3.2352 2.3212
8.4659 3.4390 2.3212
8.3757 3.6407 2.3212
8.2137 3.8090 2.3025
8.1148 4.0043 2.3025
8.0114 4.1971 2.3025
7.9034 4.3873 2.3025
7.7909 4.5748 2.3025
7.6740 4.7594 2.3025
7.5529 4.9411 2.3025
7.4275 5.1197 2.3025
7.2979 5.2952 2.3025
4.5208 3.4502 1.4529
4.6154 3.7024 1.5124
4.6537 3.9218 1.5563
4.2306 3.7439 1.4453
4.1043 3.8131 1.4339
4.4472 4.3367 1.5906
4.3408 4.4429 1.5912
4.1815 4.4923 1.5728
4.0238 4.5381 1.5550
3.7880 4.4863 1.5059
3.5474 4.4138 1.4529
5.4411 7.1159 2.2992
5.2655 7.2428 2.2992
5.0870 7.3655 2.2992
4.9057 7.4839 2.2992
4.7216 7.5980 2.2992
4.5350 7.7076 2.2992
4.3459 7.8127 2.2992
4.1544 7.9133 2.2992
3.9606 8.0094 2.2992
3.7647 8.1007 2.2992
3.5667 8.1874 2.2992
3.3668 8.2694 2.2992
3.1650 8.3466 2.2992
2.9503 8.3874 2.2906
2.7563 8.4866 2.2992
2.5497 8.5493 2.2992
2.3417 8.6070 2.2992
2.1324 8.6598 2.2992
1.9664 8.9089 2.3523
1.7873 9.1435 2.4025
1.5653 9.1831 2.4025
1.3425 9.2174 2.4025
1.1189 9.2464 2.4025
0.8948 9.2702 2.4025
0.6701 9.2886 2.4025
0.4452 9.3018 2.4025
0.2199 9.3096 2.4025
-0.0054 9.3121 2.4025
-0.2308 9.3092 2.4025
-0.4560 9.3011 2.4025
-0.6810 9.2876 2.4025
-0.9056 9.2689 2.4025
-1.1297 9.2448 2.4025
-1.3532 9.2155 2.4025
-1.5760 9.1808 2.4025
-1.7979 9.1410 2.4025
-2.0188 9.0958 2.4025
-2.2386 9.0455 2.4025
-2.4572 8.9900 2.4025
-2.6745 8.9293 2.4025
-2.8902 8.8635 2.4025
-3.1045 8.7926 2.4025
-3.3170 8.7167 2.4025
-3.5277 8.6357 2.4025
-3.7365 8.5498 2.4025
-3.9432 8.4589 2.4025
-4.1478 8.3631 2.4025
-4.3501 8.2625 2.4025
-4.5500 8.1571 2.4025
-4.7474 8.0470 2.4025
-4.9422 7.9322 2.4025
-5.1343 7.8128 2.4025
-5.3236 7.6888 2.4025
-5.5099 7.5603 2.4025
-5.6932 7.4274 2.4025
-5.8734 7.2902 2.4025
-6.0503 7.1487 2.4025
-6.0801 6.8411 2.3469
-6.1196 6.5590 2.2994
-6.2791 6.4116 2.2994
-6.4350 6.2605 2.2994
-6.5874 6.1056 2.2994
-6.7361 5.9471 2.2994
-6.8811 5.7850 2.2994
-7.0222 5.6195 2.2994
-7.1594 5.4506 2.2994
-7.2926 5.2783 2.2994
-7.4218 5.1029 2.2994
-7.5467 4.9244 2.2994
-7.6675 4.7428 2.2994
-7.7839 4.5583 2.2994
-7.8959 4.3710 2.2994
-8.0035 4.1810 2.2994
-8.1066 3.9884 2.2994
-8.2051 3.7932 2.2994
-8.2989 3.5957 2.2994
-8.3881 3.3959 2.2994
-8.4724 3.1939 2.2994
-8.5520 2.9898 2.2994
-8.6266 2.7838 2.2994
-8.6964 2.5759 2.2994
-8.7612 2.3663 2.2994
-8.8209 2.1551 2.2994
-8.8757 1.9423 2.2994
-8.9253 1.7283 2.2994
-8.9697 1.5129 2.2994
-9.0091 1.2965 2.2994
-9.0432 1.0790 2.2994
-9.0720 0.8606 2.2994
-9.0956 0.6415 2.2994
-9.1140 0.4218 2.2994
-9.1270 0.2016 2.2994
-9.1347 -0.0191 2.2994
-9.1371 -0.2399 2.2994
-9.1342 -0.4609 2.2994
-9.1259 -0.6819 2.2994
-9.1123 -0.9027 2.2994
-9.0933 -1.1233 2.2994
-9.0690 -1.3434 2.2994
-9.0393 -1.5631 2.2994
-9.0043 -1.7820 2.2994
-8.9639 -2.0002 2.2994
-8.9183 -2.2175 2.2994
-8.8674 -2.4337 2.2994
-8.8111 -2.6487 2.2994
-8.7497 -2.8624 2.2994
-8.6830 -3.0747 2.2994
-8.6112 -3.2853 2.2994
-8.5342 -3.4943 2.2994
-8.4520 -3.7015 2.2994
-8.3649 -3.9067 2.2994
-8.2726 -4.1098 2.2994
-8.1754 -4.3107 2.2994
-8.0733 -4.5093 2.2994
-6.5778 -3.8853 1.8986
-7.8545 -4.8990 2.2994
-7.7380 -5.0898 2.2994
-6.5899 -4.5664 1.9894
-7.4908 -5.4630 2.2994
-7.3604 -5.6450 2.2994
-7.2254 -5.8239 2.2994
-6.7637 -5.7271 2.2994
-6.6356 -5.8995 2.3025
-6.7998 -6.3458 2.4109
-6.6243 -6.4882 2.4025
-6.4688 -6.6494 2.4027
-6.3094 -6.8068 2.4028
-6.1461 -6.9603 2.4030
-5.9790 -7.1098 2.4031
-5.8082 -7.2552 2.4032
-5.6338 -7.3964 2.4034
-5.4560 -7.5334 2.4035
-5.2747 -7.6660 2.4037
-5.0902 -7.7941 2.4038
-4.9025 -7.9177 2.4040
-4.7118 -8.0367 2.4041
-4.5181 -8.1510 2.4043
-4.3216 -8.2606 2.4045
-4.1224 -8.3652 2.4046
-3.9206 -8.4650 2.4048
-3.7163 -8.5598 2.4049
-3.5098 -8.6495 2.4051
-3.3010 -8.7342 2.4052
-3.0901 -8.8137 2.4054
-2.8773 -8.8880 2.4055
-2.6623 -8.9558 2.4054
-2.4457 -9.0183 2.4052
-2.2275 -9.0754 2.4050
-2.0080 -9.1271 2.4048
-1.7873 -9.1733 2.4047
-1.5655 -9.2141 2.4045
-1.3428 -9.2494 2.4043
-1.1193 -9.2792 2.4041
-0.8951 -9.3035 2.4040
-0.6703 -9.3222 2.4038
-0.4452 -9.3354 2.4036
-0.2198 -9.3430 2.4035
0.0056 -9.3450 2.4033
0.2311 -9.3415 2.4031
0.4563 -9.3324 2.4030
0.6813 -9.3178 2.4028
0.9058 -9.2976 2.4027
1.1297 -9.2719 2.4025
1.3530 -9.2410 2.4025
1.5161 -8.8582 2.3120
1.7197 -8.7700 2.2994
1.9306 -8.7249 2.2994
2.1403 -8.6747 2.2994
2.3486 -8.6193 2.2994
2.4769 -8.2956 2.2287
2.7608 -8.4931 2.2994
2.3695 -6.7325 1.8380
2.4183 -6.3756 1.7563
2.3981 -5.8896 1.6383
2.6581 -6.1024 1.7152
3.7589 -8.0905 2.2994
3.9521 -7.9954 2.2994
4.1428 -7.8956 2.2994
4.3309 -7.7911 2.2994
4.5163 -7.6821 2.2994
4.6990 -7.5686 2.2994
4.8787 -7.4507 2.2994
5.0554 -7.3284 2.2994
5.2290 -7.2018 2.2994
5.3994 -7.0710 2.2994
5.5665 -6.9362 2.2994
5.7301 -6.7973 2.2994
5.8982 -6.6634 2.3025
6.0549 -6.5165 2.3025
6.2079 -6.3659 2.3025
6.3571 -6.2116 2.3025
6.5025 -6.0538 2.3025
6.6438 -5.8925 2.3025
6.7811 -5.7279 2.3025
6.9143 -5.5600 2.3025
7.0432 -5.3890 2.3025
7.1679 -5.2149 2.3025
7.2882 -5.0380 2.3025
7.4041 -4.8582 2.3025
7.5156 -4.6757 2.3025
7.6224 -4.4907 2.3025
7.7247 -4.3031 2.3025
7.8223 -4.1132 2.3025
7.9153 -3.9211 2.3025
8.0034 -3.7269 2.3025
8.0868 -3.5306 2.3025
8.1653 -3.3325 2.3025
8.3060 -3.1582 2.3212
8.3752 -2.9551 2.3212
8.4395 -2.7504 2.3212
8.4987 -2.5444 2.3212
8.5529 -2.3370 2.3212
8.6020 -2.1286 2.3212
8.6460 -1.9191 2.3212
8.6849 -1.7087 2.3212
8.7186 -1.4975 2.3212
8.7472 -1.2858 2.3212
8.7707 -1.0734 2.3212
8.7889 -0.8607 2.3212
8.8021 -0.6478 2.3212
8.8100 -0.4347 2.3212
8.8128 -0.2216 2.3212
8.8105 -0.0085 2.3212
8.8030 0.2042 2.3212
8.7904 0.4167 2.3212
8.7727 0.6286 2.3212
8.7499 0.8399 2.3212
8.7220 1.0505 2.3212
8.6890 1.2603 2.3212
8.6511 1.4691 2.3212
8.6081 1.6768 2.3212
8.5602 1.8833 2.3212
8.5074 2.0885 2.3212
8.4497 2.2922 2.3212
8.3871 2.4945 2.3212
8.3198 2.6950 2.3212
8.1811 2.8704 2.3025
8.1049 3.0657 2.3025
8.0241 3.2589 2.3025
7.9387 3.4502 2.3025
7.8488 3.6392 2.3025
7.7545 3.8259 2.3025
7.6558 4.0102 2.3025
7.5527 4.1920 2.3025
7.4454 4.3712 2.3025
7.3339 4.5478 2.3025
7.2182 4.7216 2.3025
7.0985 4.8924 2.3025
6.9749 5.0602 2.3025
4.3208 3.2971 1.4529
4.5990 3.6887 1.5767
4.6427 3.9121 1.6244
4.2273 3.7406 1.5109
4.1011 3.8098 1.4990
4.4378 4.3271 1.6605
4.3317 4.4331 1.6611
4.1717 4.4813 1.6415
4.0108 4.5230 1.6214
3.7746 4.4700 1.5698
3.3911 4.2188 1.4529
5.2014 6.8017 2.2992
5.0336 6.9232 2.2992
4.8630 7.0406 2.2992
4.6897 7.1539 2.2992
4.5138 7.2630 2.2992
4.3355 7.3679 2.2992
4.1547 7.4685 2.2992
3.9717 7.5648 2.2992
3.7865 7.6567 2.2992
3.5992 7.7441 2.2992
3.4100 7.8271 2.2992
3.2188 7.9055 2.2992
3.0260 7.9794 2.2992
2.8314 8.0487 2.2992
2.6353 8.1133 2.2992
2.4378 8.1733 2.2992
2.2389 8.2286 2.2992
2.0388 8.2792 2.2992
1.9201 8.6988 2.4025
1.7088 8.7417 2.4025
1.4966 8.7796 2.4025
1.2836 8.8124 2.4025
1.0699 8.8402 2.4025
0.8555 8.8629 2.4025
0.6408 8.8806 2.4025
0.4256 8.8932 2.4025
0.2103 8.9006 2.4025
-0.0052 8.9030 2.4025
-0.2207 8.9003 2.4025
-0.4360 8.8925 2.4025
-0.6511 8.8797 2.4025
-0.8659 8.8617 2.4025
-1.0802 8.8387 2.4025
-1.2938 8.8106 2.4025
-1.5068 8.7774 2.4025
-1.7190 8.7393 2.4025
-1.9302 8.6961 2.4025
-2.1404 8.6479 2.4025
-2.3493 8.5948 2.4025
-2.5571 8.5367 2.4025
-2.7633 8.4738 2.4025
-2.9681 8.4059 2.4025
-3.1713 8.3332 2.4025
-3.3727 8.2557 2.4025
-3.5723 8.1735 2.4025
-3.7699 8.0865 2.4025
-3.9654 7.9949 2.4025
-4.1588 7.8986 2.4025
-4.3499 7.7978 2.4025
-4.5386 7.6924 2.4025
-4.7248 7.5825 2.4025
-4.9083 7.4683 2.4025
-5.0892 7.3497 2.4025
-5.2673 7.2267 2.4025
-5.4424 7.0996 2.4025
-5.6145 6.9683 2.4025
-5.7836 6.8329 2.4025
-5.9494 6.6934 2.4025
-6.0777 6.5134 2.3890
-6.0829 6.2107 2.3304
-6.1509 5.9835 2.2994
-6.2965 5.8354 2.2994
-6.4385 5.6838 2.2994
-6.5769 5.5287 2.2994
-6.7117 5.3704 2.2994
-6.8427 5.2088 2.2994
-6.9699 5.0441 2.2994
-7.0932 4.8764 2.2994
-7.2124 4.7056 2.2994
-7.3277 4.5320 2.2994
-7.4388 4.3556 2.2994
-7.5457 4.1765 2.2994
-7.6483 3.9949 2.2994
-7.7467 3.8107 2.2994
-7.8406 3.6241 2.2994
-7.9301 3.4353 2.2994
-8.0151 3.2443 2.2994
-8.0955 3.0512 2.2994
-8.1713 2.8561 2.2994
-8.2425 2.6592 2.2994
-8.3089 2.4605 2.2994
-8.3706 2.2602 2.2994
-8.4275 2.0583 2.2994
-8.4796 1.8551 2.2994
-8.5268 1.6505 2.2994
-8.5691 1.4447 2.2994
-8.6064 1.2379 2.2994
-8.6388 1.0301 2.2994
-8.6661 0.8215 2.2994
-8.6885 0.6122 2.2994
-8.7058 0.4023 2.2994
-8.7180 0.1919 2.2994
-8.7252 -0.0188 2.2994
-8.7272 -0.2298 2.2994
-8.7242 -0.4408 2.2994
-8.7161 -0.6519 2.2994
-8.7028 -0.8628 2.2994
-8.6845 -1.0734 2.2994
-8.6610 -1.2836 2.2994
-8.6324 -1.4933 2.2994
-8.5988 -1.7024 2.2994
-8.5600 -1.9107 2.2994
-8.5162 -2.1181 2.2994
-8.4674 -2.3245 2.2994
-8.4135 -2.5298 2.2994
-8.3546 -2.7338 2.2994
-8.2907 -2.9364 2.2994
-8.2219 -3.1375 2.2994
-8.1482 -3.3369 2.2994
-8.0696 -3.5346 2.2994
-7.9862 -3.7305 2.2994
-6.5778 -3.2683 1.9150
-7.8050 -4.1160 2.2994
-7.7073 -4.3055 2.2994
-7.6050 -4.4927 2.2994
-7.4981 -4.6773 2.2994
-7.3866 -4.8594 2.2994
-6.5859 -4.5641 2.0828
-7.1504 -5.2154 2.2994
-7.0257 -5.3890 2.2994
-6.8968 -5.5596 2.2994
-6.4677 -5.4770 2.2994
-6.6098 -5.8772 2.3986
-6.4792 -6.0473 2.4025
-6.3343 -6.2048 2.4026
-6.1856 -6.3588 2.4028
-6.0330 -6.5092 2.4029
-5.8768 -6.6559 2.4030
-5.7169 -6.7987 2.4032
-5.5535 -6.9377 2.4033
-5.3867 -7.0726 2.4035
-5.2165 -7.2034 2.4036
-5.0432 -7.3300 2.4038
-4.8667 -7.4524 2.4039
-4.6871 -7.5705 2.4041
-4.5047 -7.6841 2.4042
-4.3194 -7.7933 2.4043
-4.1315 -7.8979 2.4045
-3.9410 -7.9979 2.4046
-3.7481 -8.0931 2.4048
-3.5527 -8.1837 2.4049
-3.3552 -8.2694 2.4051
-3.1556 -8.3502 2.4052
-2.9540 -8.4261 2.4054
-2.7505 -8.4970 2.4055
-2.5450 -8.5618 2.4054
-2.3379 -8.6215 2.4052
-2.1294 -8.6760 2.4050
-1.9195 -8.7254 2.4049
-1.7086 -8.7697 2.4047
-1.4966 -8.8087 2.4045
-1.2836 -8.8424 2.4044
-1.0699 -8.8709 2.4042
-0.8556 -8.8941 2.4041
-0.6408 -8.9120 2.4039
-0.4256 -8.9246 2.4037
-0.2102 -8.9319 2.4036
0.0054 -8.9339 2.4034
0.2209 -8.9305 2.4033
0.4363 -8.9219 2.4031
0.6513 -8.9079 2.4029
0.8659 -8.8886 2.4028
1.0800 -8.8640 2.4026
1.2933 -8.8342 2.4025
1.5047 -8.7923 2.4005
1.6439 -8.3839 2.2994
1.8776 -8.4862 2.3394
2.0459 -8.2929 2.2994
2.2451 -8.2400 2.2994
2.4429 -8.1821 2.2994
2.6391 -8.1195 2.2994
2.5733 -7.3121 2.0881
2.3967 -6.3189 1.8208
2.4253 -5.9570 1.7332
2.4024 -5.5156 1.6216
3.5935 -7.7349 2.2994
2.5753 -5.2105 1.5673
3.9605 -7.5488 2.2994
4.1404 -7.4490 2.2994
4.3177 -7.3449 2.2994
4.4924 -7.2364 2.2994
4.6642 -7.1238 2.2994
4.8333 -7.0069 2.2994
4.9993 -6.8860 2.2994
5.1623 -6.7611 2.2994
5.3221 -6.6322 2.2994
5.4787 -6.4995 2.2994
5.6318 -6.3631 2.2994
5.7816 -6.2230 2.2994
5.9358 -6.0874 2.3025
6.0785 -5.9400 2.3025
6.2176 -5.7892 2.3025
6.3529 -5.6351 2.3025
6.4843 -5.4778 2.3025
6.6117 -5.3173 2.3025
6.7352 -5.1539 2.3025
6.8545 -4.9876 2.3025
6.9697 -4.8184 2.3025
7.0807 -4.6466 2.3025
7.1874 -4.4722 2.3025
7.2898 -4.2953 2.3025
7.3878 -4.1160 2.3025
7.4813 -3.9345 2.3025
7.5703 -3.7508 2.3025
7.6548 -3.5651 2.3025
7.7347 -3.3775 2.3025
7.8099 -3.1881 2.3025
7.8805 -2.9970 2.3025
7.9464 -2.8043 2.3025
8.0075 -2.6102 2.3025
8.0639 -2.4148 2.3025
8.1155 -2.2181 2.3025
8.1623 -2.0203 2.3025
8.2042 -1.8216 2.3025
8.3084 -1.6352 2.3212
8.3409 -1.4333 2.3212
8.3685 -1.2307 2.3212
8.3911 -1.0276 2.3212
8.4088 -0.8241 2.3212
8.4215 -0.6203 2.3212
8.4293 -0.4165 2.3212
8.4322 -0.2126 2.3212
8.4302 -0.0088 2.3212
8.4232 0.1948 2.3212
8.4113 0.3981 2.3212
8.3946 0.6009 2.3212
8.3730 0.8032 2.3212
8.3464 1.0047 2.3212
8.3151 1.2055 2.3212
8.2121 1.3940 2.3025
8.1715 1.5912 2.3025
8.1263 1.7873 2.3025
8.0763 1.9821 2.3025
8.0217 2.1756 2.3025
7.9625 2.3676 2.3025
7.8987 2.5580 2.3025
7.8304 2.7468 2.3025
7.7577 2.9337 2.3025
7.6805 3.1188 2.3025
7.5989 3.3019 2.3025
7.5131 3.4829 2.3025
7.4229 3.6617 2.3025
7.3286 3.8382 2.3025
7.2301 4.0124 2.3025
7.1275 4.1840 2.3025
7.0209 4.3531 2.3025
6.9103 4.5195 2.3025
6.7958 4.6832 2.3025
6.6776 4.8440 2.3025
4.1367 3.1563 1.4529
4.5825 3.6752 1.6410
4.6318 3.9024 1.6926
4.2240 3.7373 1.5769
4.0979 3.8064 1.5644
4.4214 4.3107 1.7279
4.3145 4.4151 1.7280
4.1603 4.4686 1.7097
3.9961 4.5060 1.6872
3.3451 3.9610 1.4529
3.2687 4.0661 1.4625
4.9810 6.5129 2.2994
4.8203 6.6293 2.2993
4.6570 6.7417 2.2993
4.4909 6.8500 2.2992
4.3225 6.9546 2.2992
4.1518 7.0551 2.2992
3.9787 7.1515 2.2992
3.8035 7.2438 2.2992
3.6262 7.3318 2.2992
3.4468 7.4157 2.2992
3.2656 7.4952 2.2992
3.0826 7.5704 2.2992
2.8979 7.6412 2.2992
2.7116 7.7076 2.2992
2.5239 7.7696 2.2992
2.3347 7.8271 2.2992
2.1443 7.8801 2.2992
1.9730 8.0113 2.3232
1.8390 8.3305 2.4025
1.6366 8.3716 2.4025
1.4334 8.4079 2.4025
1.2294 8.4394 2.4025
1.0246 8.4660 2.4025
0.8194 8.4878 2.4025
0.6137 8.5047 2.4025
0.4077 8.5168 2.4025
0.2014 8.5240 2.4025
-0.0050 8.5262 2.4025
-0.2114 8.5237 2.4025
-0.4176 8.5162 2.4025
-0.6236 8.5038 2.4025
-0.8293 8.4866 2.4025
-1.0345 8.4645 2.4025
-1.2392 8.4376 2.4025
-1.4431 8.4058 2.4025
-1.6463 8.3693 2.4025
-1.8486 8.3279 2.4025
-2.0499 8.2817 2.4025
-2.2500 8.2308 2.4025
-2.4489 8.1751 2.4025
-2.6465 8.1148 2.4025
-2.8426 8.0497 2.4025
-3.0371 7.9801 2.4025
-3.2300 7.9058 2.4025
-3.4211 7.8270 2.4025
-3.6103 7.7436 2.4025
-3.7975 7.6558 2.4025
-3.9827 7.5635 2.4025
-4.1656 7.4668 2.4025
-4.3463 7.3658 2.4025
-4.5245 7.2606 2.4025
-4.7002 7.1511 2.4025
-4.8734 7.0374 2.4025
-5.0438 6.9196 2.4025
-5.2115 6.7977 2.4025
-5.3762 6.6719 2.4025
-5.5380 6.5422 2.4025
-5.6967 6.4085 2.4025
-5.8522 6.2712 2.4025
-6.0045 6.1301 2.4025
-6.0775 5.9115 2.3728
-6.0843 5.6381 2.3206
-6.1645 5.4413 2.2994
-6.2970 5.2928 2.2994
-6.4259 5.1411 2.2994
-6.5512 4.9864 2.2994
-6.6729 4.8286 2.2994
-6.7907 4.6679 2.2994
-6.9048 4.5043 2.2994
-7.0150 4.3380 2.2994
-7.1212 4.1691 2.2994
-7.2234 3.9976 2.2994
-7.3215 3.8236 2.2994
-7.4155 3.6472 2.2994
-7.5053 3.4686 2.2994
-7.5908 3.2877 2.2994
-7.6720 3.1048 2.2994
-7.7488 2.9199 2.2994
-7.8212 2.7331 2.2994
-7.8891 2.5446 2.2994
-7.9525 2.3544 2.2994
-8.0114 2.1626 2.2994
-8.0657 1.9694 2.2994
-8.1153 1.7748 2.2994
-8.1603 1.5790 2.2994
-8.2006 1.3820 2.2994
-8.2361 1.1841 2.2994
-8.2669 0.9852 2.2994
-8.2929 0.7856 2.2994
-8.3141 0.5853 2.2994
-8.3304 0.3844 2.2994
-8.3420 0.1831 2.2994
-8.3486 -0.0186 2.2994
-8.3504 -0.2204 2.2994
-8.3473 -0.4224 2.2994
-8.3393 -0.6243 2.2994
-8.3264 -0.8260 2.2994
-8.3087 -1.0275 2.2994
-8.2860 -1.2286 2.2994
-8.2585 -1.4292 2.2994
-8.2261 -1.6292 2.2994
-8.1889 -1.8285 2.2994
-8.1468 -2.0268 2.2994
-8.0999 -2.2242 2.2994
-6.5917 -1.9825 1.8833
-6.5778 -2.1528 1.8926
-6.5778 -2.3302 1.9072
-7.8644 -3.0016 2.2994
-7.7937 -3.1923 2.2994
-7.7183 -3.3814 2.2994
-6.5778 -3.0731 1.9801
-7.5538 -3.7539 2.2994
-7.4647 -3.9372 2.2994
-7.3712 -4.1183 2.2994
-7.2732 -4.2972 2.2994
-7.1708 -4.4737 2.2994
-7.0640 -4.6478 2.2994
-6.5855 -4.5645 2.1778
-6.8379 -4.9880 2.2994
-6.7185 -5.1539 2.2994
-6.5951 -5.3170 2.2994
-6.4368 -5.4515 2.3891
-6.3411 -5.6388 2.4025
-6.2060 -5.7929 2.4026
-6.0672 -5.9437 2.4027
-5.9246 -6.0912 2.4029
-5.7783 -6.2350 2.4030
-5.6286 -6.3754 2.4031
-5.4753 -6.5121 2.4033
-5.3188 -6.6450 2.4034
-5.1589 -6.7741 2.4036
-4.9959 -6.8993 2.4037
-4.8298 -7.0205 2.4038
-4.6607 -7.1377 2.4040
-4.4887 -7.2506 2.4041
-4.3139 -7.3594 2.4043
-4.1365 -7.4638 2.4044
-3.9565 -7.5639 2.4045
-3.7740 -7.6595 2.4047
-3.5892 -7.7506 2.4048
-3.4021 -7.8372 2.4050
-3.2129 -7.9192 2.4051
-3.0217 -7.9965 2.4053
-2.8286 -8.0691 2.4054
-2.6337 -8.1369 2.4055
-2.4369 -8.1989 2.4054
-2.2386 -8.2560 2.4052
-2.0389 -8.3082 2.4051
-1.8380 -8.3555 2.4049
-1.6360 -8.3978 2.4047
-1.4330 -8.4352 2.4046
-1.2291 -8.4675 2.4044
-1.0245 -8.4948 2.4043
-0.8193 -8.5170 2.4041
-0.6136 -8.5342 2.4040
-0.4075 -8.5462 2.4038
-0.2012 -8.5532 2.4036
0.0052 -8.5551 2.4035
0.2115 -8.5519 2.4033
0.4177 -8.5437 2.4032
0.6237 -8.5303 2.4030
0.8292 -8.5119 2.4029
1.0341 -8.4884 2.4027
1.2384 -8.4599 2.4026
1.4420 -8.4263 2.4025
1.6276 -8.3015 2.3776
1.7671 -7.9872 2.2994
1.9863 -8.0517 2.3313
2.1498 -7.8906 2.2994
2.3391 -7.8353 2.2994
2.5271 -7.7754 2.2994
2.5731 -7.3120 2.1805
2.8982 -7.6417 2.2994
2.4133 -5.9279 1.8010
2.4071 -5.5268 1.6967
2.4102 -5.1884 1.6105
2.5618 -5.1835 1.6281
3.7926 -7.2293 2.2994
3.9649 -7.1339 2.2994
4.1347 -7.0342 2.2994
4.3020 -6.9305 2.2994
4.4667 -6.8226 2.2994
4.6286 -6.7109 2.2994
4.7877 -6.5951 2.2994
4.9439 -6.4756 2.2994
5.0970 -6.3523 2.2994
5.2470 -6.2253 2.2994
5.3938 -6.0947 2.2994
5.5373 -5.9606 2.2994
5.6774 -5.8230 2.2994
5.8140 -5.6821 2.2994
5.9551 -5.5454 2.3025
6.0848 -5.3979 2.3025
6.2108 -5.2473 2.3025
6.3329 -5.0937 2.3025
6.4513 -4.9372 2.3025
6.5657 -4.7780 2.3025
6.6762 -4.6161 2.3025
6.7826 -4.4516 2.3025
6.8850 -4.2846 2.3025
6.9832 -4.1152 2.3025
7.0772 -3.9435 2.3025
7.1669 -3.7697 2.3025
7.2523 -3.5939 2.3025
7.3334 -3.4160 2.3025
7.4101 -3.2363 2.3025
7.4823 -3.0549 2.3025
7.5501 -2.8719 2.3025
7.6134 -2.6874 2.3025
7.6721 -2.5015 2.3025
7.7263 -2.3142 2.3025
7.7759 -2.1258 2.3025
7.8209 -1.9364 2.3025
7.8612 -1.7460 2.3025
7.8969 -1.5548 2.3025
7.9279 -1.3629 2.3025
7.9543 -1.1703 2.3025
7.9760 -0.9773 2.3025
7.9930 -0.7839 2.3025
8.0053 -0.5903 2.3025
8.0129 -0.3965 2.3025
8.0158 -0.2026 2.3025
8.0140 -0.0089 2.3025
8.0076 0.1847 2.3025
7.9965 0.3779 2.3025
7.9807 0.5707 2.3025
7.9603 0.7630 2.3025
7.9353 0.9547 2.3025
7.9057 1.1456 2.3025
7.8715 1.3356 2.3025
7.8328 1.5247 2.3025
7.7895 1.7126 2.3025
7.7418 1.8994 2.3025
7.6896 2.0849 2.3025
7.6330 2.2690 2.3025
7.5720 2.4516 2.3025
7.5067 2.6326 2.3025
7.4371 2.8119 2.3025
7.3633 2.9894 2.3025
7.2852 3.1651 2.3025
7.2030 3.3386 2.3025
7.1168 3.5102 2.3025
7.0264 3.6795 2.3025
6.9321 3.8465 2.3025
6.8339 4.0111 2.3025
6.7318 4.1733 2.3025
6.6259 4.3330 2.3025
6.5162 4.4899 2.3025
6.4029 4.6442 2.3025
4.3131 3.2905 1.5798
3.9076 3.1335 1.4592
3.8125 3.2118 1.4529
3.7321 3.3017 1.4529
4.0947 3.8030 1.6301
4.3928 4.2824 1.7902
4.2834 4.3828 1.7889
3.3904 3.6413 1.4529
3.3001 3.7209 1.4529
3.2409 3.8372 1.4678
4.9284 6.1303 2.2994
4.7770 6.2457 2.2994
4.6230 6.3574 2.2994
4.4664 6.4653 2.2993
4.3074 6.5695 2.2993
4.1459 6.6698 2.2993
3.9821 6.7663 2.2993
3.8161 6.8586 2.2992
3.6480 6.9471 2.2992
3.4780 7.0317 2.2992
3.3060 7.1121 2.2992
3.1322 7.1885 2.2992
2.9567 7.2607 2.2992
2.7796 7.3286 2.2992
2.6009 7.3924 2.2992
2.4208 7.4519 2.2992
2.2394 7.5071 2.2992
2.0568 7.5580 2.2992
1.9571 7.9460 2.4025
1.7639 7.9901 2.4025
1.5699 8.0295 2.4025
1.3749 8.0644 2.4025
1.1792 8.0946 2.4025
0.9829 8.1202 2.4025
0.7860 8.1411 2.4025
0.5887 8.1573 2.4025
0.3910 8.1689 2.4025
0.1932 8.1758 2.4025
-0.0048 8.1780 2.4025
-0.2027 8.1755 2.4025
-0.4006 8.1683 2.4025
-0.5982 8.1565 2.4025
-0.7955 8.1400 2.4025
-0.9923 8.1188 2.4025
-1.1886 8.0929 2.4025
-1.3843 8.0624 2.4025
-1.5792 8.0273 2.4025
-1.7732 7.9875 2.4025
-1.9662 7.9432 2.4025
-2.1582 7.8943 2.4025
-2.3490 7.8409 2.4025
-2.5384 7.7830 2.4025
-2.7265 7.7205 2.4025
-2.9131 7.6537 2.4025
-3.0981 7.5824 2.4025
-3.2814 7.5067 2.4025
-3.4628 7.4267 2.4025
-3.6424 7.3424 2.4025
-3.8199 7.2538 2.4025
-3.9953 7.1610 2.4025
-4.1685 7.0641 2.4025
-4.3394 6.9630 2.4025
-4.5079 6.8579 2.4025
-4.6740 6.7488 2.4025
-4.8374 6.6358 2.4025
-4.9981 6.5188 2.4025
-5.1560 6.3981 2.4025
-5.3111 6.2735 2.4025
-5.4633 6.1453 2.4025
-5.6123 6.0135 2.4025
-5.7583 5.8781 2.4025
-5.9010 5.7392 2.4025
-6.0404 5.5969 2.4025
-6.0771 5.3636 2.3638
-6.0844 5.1136 2.3169
-6.1619 4.9294 2.2994
-6.2820 4.7809 2.2994
-6.3985 4.6295 2.2994
-6.5114 4.4753 2.2994
-6.6207 4.3184 2.2994
-6.7262 4.1589 2.2994
-6.8279 3.9968 2.2994
-6.9258 3.8323 2.2994
-7.0197 3.6654 2.2994
-7.1097 3.4963 2.2994
-7.1956 3.3249 2.2994
-7.2775 3.1515 2.2994
-7.3552 2.9760 2.2994
-7.4287 2.7987 2.2994
-7.4979 2.6196 2.2994
-7.5629 2.4388 2.2994
-7.6235 2.2564 2.2994
-7.6798 2.0725 2.2994
-7.7317 1.8873 2.2994
-7.7791 1.7007 2.2994
-7.8221 1.5130 2.2994
-7.8605 1.3242 2.2994
-7.8944 1.1344 2.2994
-7.9237 0.9437 2.2994
-7.9485 0.7524 2.2994
-7.9686 0.5604 2.2994
-7.9841 0.3678 2.2994
-7.9950 0.1749 2.2994
-8.0012 -0.0184 2.2994
-8.0027 -0.2118 2.2994
-7.9996 -0.4053 2.2994
-7.9918 -0.5988 2.2994
-7.9793 -0.7922 2.2994
-7.9621 -0.9852 2.2994
-7.9402 -1.1779 2.2994
-7.9137 -1.3701 2.2994
-7.8824 -1.5617 2.2994
-7.8466 -1.7526 2.2994
-7.8061 -1.9426 2.2994
-7.7610 -2.1317 2.2994
-7.7112 -2.3198 2.2994
-7.6569 -2.5066 2.2994
-7.5981 -2.6922 2.2994
-7.5347 -2.8764 2.2994
-7.4668 -3.0590 2.2994
-7.3945 -3.2401 2.2994
-6.5820 -3.0756 2.0682
-7.2366 -3.5968 2.2994
-7.1511 -3.7723 2.2994
-7.0613 -3.9458 2.2994
-6.9673 -4.1171 2.2994
-6.8691 -4.2861 2.2994
-6.7667 -4.4527 2.2994
-6.5852 -4.5648 2.2734
-6.5498 -4.7784 2.2994
-6.4354 -4.9373 2.2994
-6.3329 -5.1062 2.3051
-6.2091 -5.2592 2.4025
-6.0831 -5.4100 2.4026
-5.9534 -5.5578 2.4027
-5.8201 -5.7023 2.4029
-5.6833 -5.8436 2.4030
-5.5429 -5.9816 2.4031
-5.3992 -6.1162 2.4033
-5.2521 -6.2472 2.4034
-5.1018 -6.3746 2.4035
-4.9484 -6.4983 2.4036
-4.7919 -6.6183 2.4038
-4.6325 -6.7344 2.4039
-4.4703 -6.8466 2.4040
-4.3052 -6.9549 2.4042
-4.1376 -7.0591 2.4043
-3.9673 -7.1592 2.4044
-3.7946 -7.2551 2.4046
-3.6196 -7.3467 2.4047
-3.4423 -7.4341 2.4049
-3.2628 -7.5171 2.4050
-3.0814 -7.5956 2.4051
-2.8980 -7.6697 2.4053
-2.7128 -7.7392 2.4054
-2.5258 -7.8041 2.4055
-2.3370 -7.8635 2.4054
-2.1469 -7.9183 2.4052
-1.9554 -7.9683 2.4051
-1.7627 -8.0137 2.4049
-1.5689 -8.0542 2.4048
-1.3743 -8.0900 2.4046
-1.1787 -8.1210 2.4045
-0.9825 -8.1472 2.4043
-0.7857 -8.1685 2.4042
-0.5884 -8.1849 2.4040
-0.3908 -8.1965 2.4039
-0.1930 -8.2032 2.4037
0.0050 -8.2051 2.4036
0.2029 -8.2021 2.4034
0.4006 -8.1941 2.4033
0.5981 -8.1814 2.4031
0.7952 -8.1637 2.4030
0.9918 -8.1413 2.4028
1.1877 -8.1139 2.4027
1.3829 -8.0818 2.4026
1.5772 -8.0450 2.4025
1.7410 -7.8698 2.3622
1.8787 -7.6163 2.2994
2.0849 -7.6532 2.3253
2.2433 -7.5148 2.2994
2.4235 -7.4573 2.2994
2.5729 -7.3120 2.2734
2.7794 -7.3292 2.2994
2.3981 -5.8909 1.8661
2.4232 -5.5644 1.7810
2.3940 -5.1538 1.6680
2.4169 -4.8907 1.6016
3.6374 -6.9340 2.2994
3.8027 -6.8426 2.2994
3.9656 -6.7471 2.2994
4.1261 -6.6476 2.2994
4.2841 -6.5443 2.2994
4.4395 -6.4371 2.2994
4.5921 -6.3262 2.2994
4.7419 -6.2116 2.2994
4.8889 -6.0934 2.2994
5.0328 -5.9717 2.2994
5.1737 -5.8465 2.2994
5.3114 -5.7179 2.2994
5.4459 -5.5861 2.2994
5.5770 -5.4510 2.2994
5.7048 -5.3128 2.2994
5.8291 -5.1716 2.2994
5.9578 -5.0341 2.3025
6.0752 -4.8869 2.3025
6.1888 -4.7369 2.3025
6.2987 -4.5842 2.3025
6.4047 -4.4289 2.3025
6.5070 -4.2712 2.3025
6.6053 -4.1110 2.3025
6.6996 -3.9486 2.3025
6.7899 -3.7840 2.3025
6.8761 -3.6173 2.3025
6.9581 -3.4486 2.3025
7.0361 -3.2780 2.3025
7.1098 -3.1057 2.3025
7.1792 -2.9317 2.3025
7.2444 -2.7562 2.3025
7.3053 -2.5792 2.3025
7.3618 -2.4008 2.3025
7.4139 -2.2212 2.3025
7.4616 -2.0405 2.3025
7.5049 -1.8587 2.3025
7.5438 -1.6761 2.3025
7.5782 -1.4926 2.3025
7.6081 -1.3084 2.3025
7.6336 -1.1237 2.3025
7.6545 -0.9385 2.3025
7.6710 -0.7529 2.3025
7.6830 -0.5670 2.3025
7.6904 -0.3811 2.3025
7.6934 -0.1950 2.3025
7.6918 -0.0091 2.3025
7.6858 0.1767 2.3025
7.6753 0.3622 2.3025
7.6603 0.5473 2.3025
7.6409 0.7318 2.3025
7.6170 0.9158 2.3025
7.5887 1.0991 2.3025
7.5561 1.2815 2.3025
7.5190 1.4630 2.3025
7.4777 1.6435 2.3025
7.4320 1.8229 2.3025
7.3820 2.0010 2.3025
7.3279 2.1778 2.3025
7.2695 2.3531 2.3025
7.2069 2.5270 2.3025
7.1402 2.6991 2.3025
7.0694 2.8696 2.3025
6.9946 3.0382 2.3025
6.9159 3.2050 2.3025
6.8331 3.3697 2.3025
6.7465 3.5323 2.3025
6.6561 3.6928 2.3025
6.5619 3.8509 2.3025
6.4639 4.0067 2.3025
6.3624 4.1600 2.3025
6.2572 4.3109 2.3025
6.1485 4.4591 2.3025
6.0363 4.6046 2.3025
4.0009 3.2080 1.5559
3.8354 3.2307 1.5221
3.6273 3.2086 1.4704
3.5425 3.2898 1.4685
3.4598 3.3725 1.4681
3.3771 3.4552 1.4687
3.3185 3.5638 1.4808
3.3487 3.7753 1.5351
3.3516 3.9680 1.5805
4.7333 5.8870 2.2994
4.5880 5.9979 2.2994
4.4401 6.1053 2.2994
4.2898 6.2091 2.2994
4.1370 6.3092 2.2993
3.9820 6.4056 2.2993
3.8248 6.4983 2.2993
3.6654 6.5872 2.2993
3.5040 6.6723 2.2993
3.3407 6.7536 2.2993
3.1755 6.8307 2.2992
3.0086 6.9041 2.2992
2.8400 6.9735 2.2992
2.6699 7.0388 2.2992
2.4983 7.1001 2.2992
2.3253 7.1573 2.2992
2.1511 7.2104 2.2992
1.9784 7.2693 2.3024
1.8799 7.6320 2.4025
1.6944 7.6744 2.4025
1.5080 7.7123 2.4025
1.3207 7.7458 2.4025
1.1327 7.7749 2.4025
0.9441 7.7994 2.4025
0.7550 7.8196 2.4025
0.5655 7.8352 2.4025
0.3756 7.8463 2.4025
0.1856 7.8529 2.4025
-0.0046 7.8550 2.4025
-0.1947 7.8527 2.4025
-0.3848 7.8458 2.4025
-0.5746 7.8344 2.4025
-0.7641 7.8185 2.4025
-0.9532 7.7981 2.4025
-1.1417 7.7733 2.4025
-1.3297 7.7439 2.4025
-1.5169 7.7102 2.4025
-1.7032 7.6720 2.4025
-1.8887 7.6294 2.4025
-2.0731 7.5824 2.4025
-2.2563 7.5310 2.4025
-2.4383 7.4753 2.4025
-2.6189 7.4153 2.4025
-2.7981 7.3510 2.4025
-2.9758 7.2825 2.4025
-3.1518 7.2097 2.4025
-3.3261 7.1328 2.4025
-3.4985 7.0518 2.4025
-3.6690 6.9667 2.4025
-3.8375 6.8775 2.4025
-4.0038 6.7843 2.4025
-4.1679 6.6872 2.4025
-4.3297 6.5862 2.4025
-4.4891 6.4813 2.4025
-4.6460 6.3727 2.4025
-4.8003 6.2603 2.4025
-4.9519 6.1442 2.4025
-5.1008 6.0246 2.4025
-5.2469 5.9013 2.4025
-5.3899 5.7747 2.4025
-5.5300 5.6445 2.4025
-5.6670 5.5111 2.4025
-5.8009 5.3744 2.4025
-5.9314 5.2344 2.4025
-6.0587 5.0914 2.4025
-6.0769 4.8608 2.3614
-6.0840 4.6296 2.3190
-6.1442 4.4450 2.2994
-6.2683 4.3077 2.3052
-6.3574 4.1462 2.2994
-6.4586 3.9929 2.2994
-6.5562 3.8372 2.2994
-6.6500 3.6792 2.2994
-6.7401 3.5189 2.2994
-6.8264 3.3564 2.2994
-6.9088 3.1918 2.2994
-6.9872 3.0252 2.2994
-7.0617 2.8568 2.2994
-7.1321 2.6865 2.2994
-7.1985 2.5145 2.2994
-7.2608 2.3408 2.2994
-7.3188 2.1657 2.2994
-7.3727 1.9891 2.2994
-7.4224 1.8112 2.2994
-7.4678 1.6321 2.2994
-7.5088 1.4518 2.2994
-7.5456 1.2706 2.2994
-7.5780 1.0884 2.2994
-7.6060 0.9054 2.2994
-7.6296 0.7216 2.2994
-7.6488 0.5373 2.2994
-7.6635 0.3525 2.2994
-7.6738 0.1673 2.2994
-7.6796 -0.0182 2.2994
-7.6809 -0.2038 2.2994
-7.6777 -0.3896 2.2994
-7.6701 -0.5753 2.2994
-7.6579 -0.7608 2.2994
-7.6413 -0.9461 2.2994
-7.6201 -1.1310 2.2994
-7.5945 -1.3154 2.2994
-7.5644 -1.4992 2.2994
-7.5298 -1.6824 2.2994
-7.4908 -1.8647 2.2994
-7.4474 -2.0461 2.2994
-7.3995 -2.2265 2.2994
-7.3473 -2.4058 2.2994
-7.2906 -2.5838 2.2994
-7.2297 -2.7605 2.2994
-7.1644 -2.9357 2.2994
-7.0949 -3.1093 2.2994
-6.5815 -3.0759 2.1554
-6.9431 -3.4515 2.2994
-6.8610 -3.6198 2.2994
-6.7747 -3.7862 2.2994
-6.6844 -3.9505 2.2994
-6.5900 -4.1125 2.2994
-6.4917 -4.2723 2.2994
-6.3895 -4.4297 2.2994
-6.2834 -4.5847 2.2994
-6.2893 -4.8258 2.3425
-6.3176 -5.0944 2.3971
-5.9648 -5.0529 2.4025
-5.8435 -5.1975 2.4026
-5.7190 -5.3394 2.4028
-5.5910 -5.4784 2.4030
-5.4594 -5.6140 2.4031
-5.3245 -5.7465 2.4032
-5.1864 -5.8757 2.4034
-5.0451 -6.0014 2.4035
-4.9007 -6.1238 2.4036
-4.7532 -6.2425 2.4037
-4.6029 -6.3577 2.4039
-4.4497 -6.4691 2.4040
-4.2938 -6.5769 2.4041
-4.1352 -6.6807 2.4042
-3.9741 -6.7807 2.4044
-3.8105 -6.8768 2.4045
-3.6446 -6.9688 2.4046
-3.4764 -7.0567 2.4048
-3.3061 -7.1405 2.4049
-3.1337 -7.2202 2.4050
-2.9594 -7.2955 2.4052
-2.7833 -7.3666 2.4053
-2.6054 -7.4334 2.4054
-2.4258 -7.4954 2.4055
-2.2445 -7.5525 2.4054
-2.0618 -7.6051 2.4052
-1.8779 -7.6532 2.4051
-1.6928 -7.6967 2.4049
-1.5068 -7.7356 2.4048
-1.3198 -7.7700 2.4046
-1.1320 -7.7998 2.4045
-0.9436 -7.8249 2.4043
-0.7546 -7.8453 2.4042
-0.5651 -7.8611 2.4041
-0.3753 -7.8723 2.4039
-0.1853 -7.8788 2.4038
0.0048 -7.8805 2.4036
0.1948 -7.8776 2.4035
0.3848 -7.8701 2.4033
0.5744 -7.8578 2.4032
0.7637 -7.8409 2.4031
0.9525 -7.8194 2.4029
1.1407 -7.7932 2.4028
1.3282 -7.7624 2.4027
1.5148 -7.7270 2.4025
1.7005 -7.6871 2.4025
1.8439 -7.4755 2.3498
1.9800 -7.2685 2.2994
2.1544 -7.2176 2.2994
2.3275 -7.1625 2.2994
2.4992 -7.1031 2.2994
2.6694 -7.0395 2.2994
2.8379 -6.9718 2.2994
2.3968 -5.5042 1.8342
2.4174 -5.2047 1.7537
2.3923 -4.8414 1.6506
2.4239 -4.6211 1.5954
3.6523 -6.5724 2.2994
3.8088 -6.4808 2.2994
3.9630 -6.3853 2.2994
4.1148 -6.2862 2.2994
4.2641 -6.1833 2.2994
4.4107 -6.0769 2.2994
4.5547 -5.9669 2.2994
4.6958 -5.8534 2.2994
4.8342 -5.7365 2.2994
4.9695 -5.6164 2.2994
5.1019 -5.4929 2.2994
5.2311 -5.3663 2.2994
5.3572 -5.2367 2.2994
5.4800 -5.1040 2.2994
5.5994 -4.9684 2.2994
5.7155 -4.8299 2.2994
5.8281 -4.6887 2.2994
5.9372 -4.5449 2.2994
6.0509 -4.4044 2.3025
6.1529 -4.2553 2.3025
6.2512 -4.1038 2.3025
6.3457 -3.9500 2.3025
6.4364 -3.7941 2.3025
6.5233 -3.6360 2.3025
6.6062 -3.4759 2.3025
6.6852 -3.3138 2.3025
6.7602 -3.1500 2.3025
6.8311 -2.9845 2.3025
6.8980 -2.8174 2.3025
6.9607 -2.6488 2.3025
7.0193 -2.4788 2.3025
7.0737 -2.3074 2.3025
7.1239 -2.1349 2.3025
7.1699 -1.9612 2.3025
7.2117 -1.7866 2.3025
7.2492 -1.6111 2.3025
7.2824 -1.4349 2.3025
7.3112 -1.2579 2.3025
7.3359 -1.0804 2.3025
7.3561 -0.9024 2.3025
7.3721 -0.7241 2.3025
7.3837 -0.5455 2.3025
7.3910 -0.3668 2.3025
7.3940 -0.1880 2.3025
7.3926 -0.0093 2.3025
7.3870 0.1693 2.3025
7.3770 0.3476 2.3025
7.3627 0.5255 2.3025
7.3442 0.7029 2.3025
7.3214 0.8798 2.3025
7.2944 1.0559 2.3025
7.2631 1.2313 2.3025
7.2276 1.4058 2.3025
7.1880 1.5793 2.3025
7.1442 1.7518 2.3025
7.0963 1.9230 2.3025
7.0444 2.0930 2.3025
6.9883 2.2616 2.3025
6.9283 2.4288 2.3025
6.8643 2.5943 2.3025
6.7964 2.7583 2.3025
6.7246 2.9204 2.3025
6.6490 3.0808 2.3025
6.5696 3.2392 2.3025
6.4864 3.3956 2.3025
6.3995 3.5499 2.3025
6.3091 3.7020 2.3025
6.2150 3.8519 2.3025
6.1174 3.9994 2.3025
6.0164 4.1445 2.3025
5.9040 4.2813 2.2994
5.7964 4.4211 2.2994
4.0395 3.2386 1.6337
3.8699 3.2594 1.5971
3.7178 3.2884 1.5674
3.6137 3.3556 1.5578
3.5292 3.4398 1.5574
3.4451 3.5243 1.5580
3.3990 3.6498 1.5772
3.3706 3.7996 1.6067
3.4026 4.0280 1.6685
4.5519 5.6609 2.2994
4.4122 5.7676 2.2994
4.2700 5.8709 2.2994
4.1255 5.9708 2.2994
3.9787 6.0672 2.2994
3.8296 6.1600 2.2993
3.6784 6.2492 2.2993
3.5252 6.3348 2.2993
3.3700 6.4166 2.2993
3.2130 6.4948 2.2993
3.0541 6.5692 2.2993
2.8936 6.6398 2.2993
2.7315 6.7065 2.2992
2.5679 6.7694 2.2992
2.4028 6.8283 2.2992
2.2365 6.8833 2.2992
2.0689 6.9344 2.2992
1.9664 7.2247 2.3793
1.8081 7.3400 2.4025
1.6297 7.3808 2.4025
1.4504 7.4173 2.4025
1.2703 7.4495 2.4025
1.0895 7.4775 2.4025
0.9081 7.5012 2.4025
0.7262 7.5205 2.4025
0.5439 7.5356 2.4025
0.3613 7.5463 2.4025
0.1785 7.5527 2.4025
-0.0044 7.5547 2.4025
-0.1873 7.5524 2.4025
-0.3701 7.5458 2.4025
-0.5527 7.5348 2.4025
-0.7349 7.5195 2.4025
-0.9168 7.4999 2.4025
-1.0982 7.4760 2.4025
-1.2789 7.4477 2.4025
-1.4590 7.4153 2.4025
-1.6382 7.3785 2.4025
-1.8166 7.3375 2.4025
-1.9939 7.2922 2.4025
-2.1701 7.2428 2.4025
-2.3451 7.1892 2.4025
-2.5189 7.1314 2.4025
-2.6912 7.0696 2.4025
-2.8621 7.0036 2.4025
-3.0313 6.9336 2.4025
-3.1989 6.8596 2.4025
-3.3647 6.7816 2.4025
-3.5286 6.6997 2.4025
-3.6906 6.6138 2.4025
-3.8506 6.5242 2.4025
-4.0084 6.4307 2.4025
-4.1639 6.3335 2.4025
-4.3172 6.2326 2.4025
-4.4680 6.1280 2.4025
-4.6164 6.0199 2.4025
-4.7621 5.9082 2.4025
-4.9053 5.7931 2.4025
-5.0456 5.6745 2.4025
-5.1832 5.5526 2.4025
-5.3178 5.4274 2.4025
-5.4495 5.2990 2.4025
-5.5781 5.1675 2.4025
-5.7036 5.0329 2.4025
-5.8259 4.8952 2.4025
-5.9449 4.7547 2.4025
-6.0606 4.6113 2.4025
-6.0767 4.3956 2.3651
-6.0824 4.1794 2.3263
-6.1127 3.9861 2.2994
-6.2099 3.8386 2.2994
-6.3036 3.6889 2.2994
-6.3938 3.5369 2.2994
-6.4803 3.3827 2.2994
-6.5631 3.2264 2.2994
-6.6422 3.0681 2.2994
-6.7175 2.9079 2.2994
-6.7890 2.7459 2.2994
-6.8566 2.5822 2.2994
-6.9203 2.4168 2.2994
-6.9800 2.2498 2.2994
-7.0357 2.0814 2.2994
-7.0874 1.9116 2.2994
-7.1350 1.7406 2.2994
-7.1785 1.5683 2.2994
-7.2179 1.3950 2.2994
-7.2531 1.2208 2.2994
-7.2841 1.0456 2.2994
-7.3109 0.8697 2.2994
-7.3334 0.6931 2.2994
-7.3517 0.5159 2.2994
-7.3657 0.3383 2.2994
-7.3755 0.1603 2.2994
-7.3809 -0.0180 2.2994
-7.3820 -0.1964 2.2994
-7.3788 -0.3749 2.2994
-7.3713 -0.5534 2.2994
-7.3595 -0.7317 2.2994
-7.3434 -0.9097 2.2994
-7.3230 -1.0874 2.2994
-7.2982 -1.2646 2.2994
-7.2691 -1.4413 2.2994
-7.2358 -1.6172 2.2994
-7.1982 -1.7924 2.2994
-6.5944 -1.8123 2.1188
-7.1102 -2.1400 2.2994
-7.0598 -2.3122 2.2994
-7.0053 -2.4832 2.2994
-6.9466 -2.6529 2.2994
-6.8838 -2.8212 2.2994
-6.8168 -2.9880 2.2994
-6.5810 -3.0762 2.2432
-6.6708 -3.3167 2.2994
-6.5918 -3.4784 2.2994
-6.5088 -3.6381 2.2994
-6.4219 -3.7959 2.2994
-6.3311 -3.9515 2.2994
-6.2366 -4.1050 2.2994
-6.2216 -4.3139 2.3306
-6.2476 -4.5591 2.3799
-6.1965 -4.7552 2.4025
-6.0825 -4.9054 2.4025
-5.7375 -4.8609 2.4026
-5.6207 -4.9999 2.4027
-5.5006 -5.1361 2.4027
-5.3773 -5.2695 2.4028
-5.2509 -5.4001 2.4031
-5.1213 -5.5277 2.4033
-4.9884 -5.6519 2.4034
-4.8524 -5.7728 2.4036
-4.7134 -5.8904 2.4037
-4.5716 -6.0046 2.4038
-4.4270 -6.1153 2.4040
-4.2796 -6.2224 2.4041
-4.1296 -6.3259 2.4042
-3.9770 -6.4258 2.4043
-3.8220 -6.5219 2.4045
-3.6647 -6.6142 2.4046
-3.5051 -6.7026 2.4047
-3.3433 -6.7871 2.4048
-3.1795 -6.8676 2.4050
-3.0137 -6.9441 2.4051
-2.8460 -7.0165 2.4052
-2.6766 -7.0848 2.4054
-2.5055 -7.1490 2.4055
-2.3327 -7.2084 2.4055
-2.1583 -7.2633 2.4053
-1.9827 -7.3138 2.4052
-1.8058 -7.3600 2.4051
-1.6279 -7.4019 2.4049
-1.4490 -7.4393 2.4048
-1.2691 -7.4724 2.4046
-1.0886 -7.5010 2.4045
-0.9074 -7.5252 2.4044
-0.7256 -7.5449 2.4042
-0.5434 -7.5601 2.4041
-0.3609 -7.5708 2.4040
-0.1782 -7.5770 2.4038
0.0046 -7.5787 2.4037
0.1874 -7.5760 2.4036
0.3700 -7.5687 2.4034
0.5524 -7.5570 2.4033
0.7344 -7.5407 2.4032
0.9160 -7.5200 2.4030
1.0969 -7.4949 2.4029
1.2772 -7.4653 2.4028
1.4567 -7.4313 2.4026
1.6353 -7.3929 2.4025
1.8129 -7.3503 2.4025
1.9040 -6.9901 2.2994
2.0718 -6.9413 2.2994
2.2383 -6.8883 2.2994
2.4034 -6.8312 2.2994
2.5670 -6.7701 2.2994
2.7291 -6.7050 2.2994
2.6571 -6.1023 2.1144
2.4038 -5.1758 1.8133
2.4220 -4.9019 1.7377
2.3940 -4.5646 1.6385
3.5124 -6.3212 2.2994
3.6630 -6.2331 2.2994
3.8113 -6.1414 2.2994
3.9573 -6.0461 2.2994
4.1009 -5.9472 2.2994
4.2420 -5.8449 2.2994
4.3805 -5.7392 2.2994
4.5163 -5.6301 2.2994
4.6494 -5.5178 2.2994
4.7796 -5.4023 2.2994
4.9070 -5.2836 2.2994
5.0313 -5.1619 2.2994
5.1526 -5.0372 2.2994
5.2708 -4.9097 2.2994
5.3858 -4.7793 2.2994
5.4975 -4.6462 2.2994
5.6059 -4.5105 2.2994
5.7110 -4.3722 2.2994
5.8125 -4.2314 2.2994
5.9106 -4.0883 2.2994
6.0132 -3.9481 2.3025
6.1042 -3.8002 2.3025
6.1916 -3.6502 2.3025
6.2752 -3.4982 2.3025
6.3551 -3.3443 2.3025
6.4312 -3.1884 2.3025
6.5034 -3.0309 2.3025
6.5717 -2.8717 2.3025
6.6362 -2.7110 2.3025
6.6966 -2.5488 2.3025
6.7531 -2.3853 2.3025
6.8056 -2.2205 2.3025
6.8540 -2.0545 2.3025
6.8984 -1.8875 2.3025
6.9387 -1.7195 2.3025
6.9748 -1.5507 2.3025
7.0069 -1.3811 2.3025
7.0348 -1.2109 2.3025
7.0586 -1.0401 2.3025
7.0783 -0.8688 2.3025
7.0937 -0.6973 2.3025
7.1050 -0.5254 2.3025
7.1122 -0.3534 2.3025
7.1152 -0.1814 2.3025
7.1140 -0.0094 2.3025
7.1087 0.1624 2.3025
7.0992 0.3340 2.3025
7.0856 0.5052 2.3025
7.0679 0.6760 2.3025
7.0461 0.8462 2.3025
7.0202 1.0157 2.3025
6.9902 1.1845 2.3025
6.9562 1.3525 2.3025
6.9182 1.5195 2.3025
6.8761 1.6855 2.3025
6.8301 1.8504 2.3025
6.7802 2.0140 2.3025
6.7264 2.1763 2.3025
6.6688 2.3372 2.3025
6.6073 2.4967 2.3025
6.5420 2.6545 2.3025
6.4730 2.8106 2.3025
6.4003 2.9650 2.3025
6.3239 3.1176 2.3025
6.2440 3.2682 2.3025
6.1605 3.4168 2.3025
6.0735 3.5633 2.3025
5.9830 3.7076 2.3025
5.8812 3.8445 2.2994
5.7842 3.9840 2.2994
5.6839 4.1211 2.2994
5.5804 4.2558 2.2994
4.1209 3.3034 1.7311
3.8963 3.2814 1.6703
3.7428 3.3101 1.6389
3.6333 3.3734 1.6268
3.5483 3.4581 1.6263
3.4637 3.5430 1.6269
3.4211 3.6732 1.6488
3.3929 3.8245 1.6799
3.4912 4.1325 1.7781
4.3827 5.4500 2.2994
4.2483 5.5528 2.2994
4.1114 5.6523 2.2994
3.9723 5.7486 2.2994
3.8310 5.8414 2.2994
3.6875 5.9309 2.2994
3.5420 6.0168 2.2993
3.3945 6.0993 2.2993
3.2451 6.1782 2.2993
3.0939 6.2535 2.2993
2.9409 6.3252 2.2993
2.7864 6.3932 2.2993
2.6303 6.4575 2.2993
2.4728 6.5181 2.2992
2.3139 6.5749 2.2992
2.1537 6.6279 2.2992
1.9923 6.6771 2.2992
1.9120 7.0243 2.4025
1.7411 7.0677 2.4025
1.5693 7.1070 2.4025
1.3967 7.1422 2.4025
1.2233 7.1732 2.4025
1.0492 7.2002 2.4025
0.8745 7.2230 2.4025
0.6993 7.2416 2.4025
0.5237 7.2561 2.4025
0.3479 7.2665 2.4025
0.1719 7.2726 2.4025
-0.0042 7.2746 2.4025
-0.1804 7.2724 2.4025
-0.3564 7.2660 2.4025
-0.5322 7.2554 2.4025
-0.7077 7.2407 2.4025
-0.8829 7.2218 2.4025
-1.0575 7.1987 2.4025
-1.2316 7.1715 2.4025
-1.4049 7.1402 2.4025
-1.5775 7.1048 2.4025
-1.7493 7.0653 2.4025
-1.9200 7.0217 2.4025
-2.0897 6.9740 2.4025
-2.2583 6.9224 2.4025
-2.4256 6.8667 2.4025
-2.5915 6.8071 2.4025
-2.7560 6.7435 2.4025
-2.9190 6.6761 2.4025
-3.0803 6.6048 2.4025
-3.2399 6.5296 2.4025
-3.3978 6.4507 2.4025
-3.5537 6.3680 2.4025
-3.7077 6.2816 2.4025
-3.8596 6.1915 2.4025
-4.0094 6.0979 2.4025
-4.1569 6.0007 2.4025
-4.3021 5.8999 2.4025
-4.4449 5.7958 2.4025
-4.5852 5.6882 2.4025
-4.7229 5.5772 2.4025
-4.8581 5.4630 2.4025
-4.9904 5.3456 2.4025
-5.1200 5.2250 2.4025
-5.2467 5.1013 2.4025
-5.3705 4.9746 2.4025
-5.4912 4.8449 2.4025
-5.6089 4.7124 2.4025
-5.7234 4.5770 2.4025
-5.8347 4.4389 2.4025
-5.9426 4.2981 2.4025
-6.0473 4.1547 2.4025
-6.0764 3.9619 2.3743
-6.0797 3.7576 2.3384
-6.0868 3.5615 2.3064
-6.1550 3.4043 2.2994
-6.2382 3.2558 2.2994
-6.3178 3.1053 2.2994
-6.3938 2.9529 2.2994
-6.4662 2.7987 2.2994
-6.5349 2.6427 2.2994
-6.5999 2.4850 2.2994
-6.6611 2.3257 2.2994
-6.7185 2.1650 2.2994
-6.7720 2.0029 2.2994
-6.8216 1.8394 2.2994
-6.8673 1.6747 2.2994
-6.9091 1.5090 2.2994
-6.9468 1.3421 2.2994
-6.9806 1.1744 2.2994
-7.0103 1.0058 2.2994
-7.0360 0.8365 2.2994
-7.0576 0.6665 2.2994
-7.0750 0.4960 2.2994
-7.0884 0.3250 2.2994
-7.0977 0.1537 2.2994
-7.1028 -0.0179 2.2994
-7.1037 -0.1895 2.2994
-7.1005 -0.3613 2.2994
-7.0932 -0.5330 2.2994
-7.0817 -0.7046 2.2994
-7.0661 -0.8759 2.2994
-7.0463 -1.0468 2.2994
-7.0223 -1.2173 2.2994
-6.9942 -1.3873 2.2994
-6.9620 -1.5566 2.2994
-6.9257 -1.7251 2.2994
-6.5939 -1.8126 2.2020
-6.8408 -2.0594 2.2994
-6.7923 -2.2251 2.2994
-6.7397 -2.3896 2.2994
-6.6831 -2.5528 2.2994
-6.6226 -2.7147 2.2994
-6.5581 -2.8751 2.2994
-6.4896 -3.0340 2.2994
-6.4174 -3.1912 2.2994
-6.3412 -3.3467 2.2994
-6.2613 -3.5003 2.2994
-6.1776 -3.6520 2.2994
-6.1586 -3.8443 2.3252
-6.1827 -4.0700 2.3697
-6.1693 -4.2781 2.4025
-6.0667 -4.4276 2.4025
-5.9605 -4.5746 2.4025
-5.8508 -4.7191 2.4026
-5.5254 -4.6817 2.4027
-5.4129 -4.8156 2.4027
-5.2971 -4.9466 2.4028
-5.1781 -5.0749 2.4028
-5.0561 -5.2003 2.4029
-4.9312 -5.3231 2.4031
-4.8033 -5.4427 2.4033
-4.6724 -5.5592 2.4035
-4.5387 -5.6726 2.4037
-4.4022 -5.7825 2.4039
-4.2628 -5.8891 2.4040
-4.1209 -5.9922 2.4041
-3.9764 -6.0918 2.4043
-3.8295 -6.1879 2.4044
-3.6802 -6.2804 2.4045
-3.5287 -6.3692 2.4046
-3.3750 -6.4543 2.4048
-3.2192 -6.5356 2.4049
-3.0614 -6.6131 2.4050
-2.9017 -6.6867 2.4051
-2.7403 -6.7563 2.4053
-2.5771 -6.8220 2.4054
-2.4123 -6.8837 2.4055
-2.2459 -6.9408 2.4054
-2.0780 -6.9935 2.4053
-1.9089 -7.0422 2.4052
-1.7386 -7.0867 2.4050
-1.5673 -7.1269 2.4049
-1.3950 -7.1630 2.4048
-1.2219 -7.1948 2.4046
-1.0481 -7.2224 2.4045
-0.8736 -7.2456 2.4044
-0.6986 -7.2646 2.4043
-0.5232 -7.2792 2.4041
-0.3475 -7.2896 2.4040
-0.1716 -7.2956 2.4039
0.0044 -7.2973 2.4037
0.1804 -7.2946 2.4036
0.3562 -7.2876 2.4035
0.5318 -7.2764 2.4033
0.7071 -7.2608 2.4032
0.8819 -7.2409 2.4031
1.0561 -7.2167 2.4030
1.2297 -7.1882 2.4028
1.4025 -7.1554 2.4027
1.5745 -7.1185 2.4026
1.7454 -7.0773 2.4025
1.8808 -6.9053 2.3590
1.9947 -6.6835 2.2994
2.1697 -6.6776 2.3150
2.3140 -6.5777 2.2994
2.4716 -6.5189 2.2994
2.6276 -6.4563 2.2994
2.6569 -6.1023 2.1959
2.3940 -5.1550 1.8756
2.4107 -4.8793 1.7963
2.4130 -4.6011 1.7152
2.3969 -4.3141 1.6297
