ply
format ascii 1.0
element vertex 2174
property float32 x
property float32 y
property float32 z
end_header
-2.1953 7.2675 2.4025
-2.3722 7.2177 2.4025
-2.5481 7.1636 2.4025
-2.7228 7.1054 2.4025
-2.8961 7.0429 2.4025
-3.0680 6.9763 2.4025
-3.2384 6.9055 2.4025
-3.4072 6.8306 2.4025
-3.5743 6.7516 2.4025
-3.7396 6.6687 2.4025
-3.9029 6.5817 2.4025
-4.0643 6.4907 2.4025
-4.2235 6.3958 2.4025
-4.3805 6.2971 2.4025
-4.5353 6.1945 2.4025
-4.6876 6.0882 2.4025
-4.8374 5.9782 2.4025
-4.9847 5.8645 2.4025
-5.1293 5.7471 2.4025
-5.2712 5.6263 2.4025
-5.4101 5.5019 2.4025
-5.5462 5.3742 2.4025
-5.6792 5.2431 2.4025
-5.8091 5.1087 2.4025
-5.9359 4.9711 2.4025
-6.0593 4.8303 2.4025
-6.1794 4.6865 2.4025
-6.2961 4.5397 2.4025
-6.4092 4.3900 2.4025
-6.5188 4.2375 2.4025
-6.6247 4.0823 2.4025
-6.7269 3.9244 2.4025
-6.8252 3.7639 2.4025
-6.8140 3.5460 2.3658
-6.7107 3.2889 2.2998
-6.7923 3.1279 2.2994
-6.8713 2.9654 2.2994
-6.9463 2.8009 2.2994
-7.0173 2.6345 2.2994
-6.8060 2.3694 2.2091
-7.1471 2.2964 2.2994
-7.2059 2.1249 2.2994
-7.2604 1.9519 2.2994
-7.3107 1.7775 2.2994
-7.3568 1.6017 2.2994
-7.3985 1.4248 2.2994
-7.4359 1.2469 2.2994
-6.1694 0.8821 1.8993
-6.1513 0.7286 1.8865
-7.5217 0.7074 2.2994
-7.5415 0.5262 2.2994
-7.5568 0.3444 2.2994
-7.5675 0.1622 2.2994
-7.5738 -0.0203 2.2994
-7.5756 -0.2030 2.2994
-7.5728 -0.3858 2.2994
-7.5655 -0.5686 2.2994
-7.5537 -0.7512 2.2994
-7.5374 -0.9335 2.2994
-7.5165 -1.1155 2.2994
-7.4912 -1.2970 2.2994
-7.4613 -1.4779 2.2994
-6.0871 -1.3589 1.8846
-7.3880 -1.8373 2.2994
-7.3447 -2.0157 2.2994
-7.2969 -2.1930 2.2994
-7.2448 -2.3691 2.2994
-7.1882 -2.5439 2.2994
-6.6489 -2.5349 2.1450
-6.5050 -2.6613 2.1180
-6.9926 -3.0595 2.2994
-6.9188 -3.2280 2.2994
-6.8409 -3.3947 2.2994
-6.7719 -3.5663 2.3038
-6.6726 -3.7221 2.2994
-6.8782 -4.0570 2.4027
-6.7791 -4.2220 2.4025
-6.6769 -4.3851 2.4026
-6.5707 -4.5456 2.4028
-6.4604 -4.7034 2.4029
-6.3462 -4.8584 2.4030
-6.2282 -5.0106 2.4032
-5.8698 -4.9599 2.4034
-5.7492 -5.1003 2.4035
-5.6251 -5.2377 2.4036
-5.4976 -5.3720 2.4037
-5.3667 -5.5030 2.4039
-5.2327 -5.6308 2.4040
-5.0955 -5.7552 2.4041
-4.9553 -5.8761 2.4043
-4.8121 -5.9934 2.4044
-4.6660 -6.1072 2.4045
-4.5171 -6.2173 2.4046
-4.3656 -6.3236 2.4048
-4.2114 -6.4261 2.4049
-4.0548 -6.5247 2.4050
-3.8958 -6.6194 2.4051
-3.7345 -6.7100 2.4053
-3.5710 -6.7966 2.4054
-3.4054 -6.8791 2.4055
-3.2378 -6.9572 2.4055
-3.0681 -7.0305 2.4054
-2.8967 -7.0997 2.4053
-2.7237 -7.1645 2.4051
-2.5492 -7.2250 2.4050
-2.3733 -7.2811 2.4049
-2.1962 -7.3327 2.4048
-2.0179 -7.3800 2.4046
-1.8385 -7.4228 2.4045
-1.6583 -7.4611 2.4044
-1.4772 -7.4949 2.4042
-1.2954 -7.5242 2.4041
-1.1130 -7.5490 2.4040
-0.9302 -7.5693 2.4038
-0.7471 -7.5850 2.4037
-0.5637 -7.5962 2.4036
-0.3801 -7.6029 2.4035
-0.1966 -7.6050 2.4034
-0.0132 -7.6026 2.4032
0.1700 -7.5957 2.4031
0.3529 -7.5843 2.4030
0.5353 -7.5684 2.4029
0.7171 -7.5480 2.4028
0.8983 -7.5232 2.4027
1.0787 -7.4940 2.4026
1.2582 -7.4604 2.4025
1.4383 -7.4305 2.4050
1.5758 -7.2046 2.3452
1.7147 -7.0233 2.3006
1.8825 -6.9758 2.3009
2.0490 -6.9242 2.3013
2.2142 -6.8687 2.3016
2.3779 -6.8092 2.3020
2.5400 -6.7458 2.3023
2.7004 -6.6785 2.3027
2.8591 -6.6073 2.3031
3.0159 -6.5324 2.3035
2.9775 -6.0605 2.1635
3.3234 -6.3711 2.3042
3.4739 -6.2848 2.3045
3.6222 -6.1949 2.3048
3.1306 -5.0692 1.9151
3.1542 -4.8418 1.8589
3.2029 -4.6662 1.8221
3.2571 -4.5077 1.7919
3.3022 -4.3451 1.7599
3.3330 -4.1724 1.7235
3.3494 -3.9914 1.6830
3.3762 -3.8313 1.6508
3.4073 -3.6833 1.6234
3.4503 -3.5535 1.6038
5.0696 -4.9749 2.3018
5.1831 -4.8461 2.3014
5.2934 -4.7146 2.3010
5.4004 -4.5807 2.3005
5.5040 -4.4444 2.3001
5.6042 -4.3057 2.2997
5.7014 -4.1651 2.2994
5.7958 -4.0229 2.2994
5.8867 -3.8784 2.2994
5.9740 -3.7320 2.2994
6.0577 -3.5836 2.2994
6.1378 -3.4334 2.2994
6.2142 -3.2814 2.2994
6.2870 -3.1277 2.2994
6.3559 -2.9724 2.2994
6.4211 -2.8157 2.2994
6.4825 -2.6575 2.2994
6.5401 -2.4980 2.2994
6.5938 -2.3374 2.2994
6.6437 -2.1755 2.2994
6.6896 -2.0127 2.2994
6.7317 -1.8489 2.2994
6.7698 -1.6842 2.2994
6.8039 -1.5189 2.2994
6.8342 -1.3528 2.2994
6.8604 -1.1862 2.2994
6.8827 -1.0191 2.2994
6.9010 -0.8516 2.2994
6.9153 -0.6838 2.2994
6.9256 -0.5159 2.2994
6.9320 -0.3478 2.2994
6.9344 -0.1797 2.2994
6.9328 -0.0117 2.2994
6.9272 0.1561 2.2994
6.9177 0.3237 2.2994
6.9042 0.4909 2.2994
6.8868 0.6577 2.2994
6.8655 0.8239 2.2994
6.8403 0.9896 2.2994
6.8112 1.1545 2.2994
6.7782 1.3186 2.2994
6.7414 1.4818 2.2994
6.7008 1.6441 2.2994
6.6564 1.8052 2.2994
6.6082 1.9653 2.2994
6.5563 2.1241 2.2994
6.5007 2.2816 2.2994
6.4414 2.4377 2.2994
6.3785 2.5923 2.2994
6.3120 2.7454 2.2994
6.2419 2.8968 2.2994
6.1683 3.0465 2.2994
6.0913 3.1944 2.2994
6.0108 3.3404 2.2994
5.9269 3.4844 2.2994
5.8397 3.6264 2.2994
5.7492 3.7663 2.2994
5.6554 3.9041 2.2994
5.5585 4.0396 2.2994
5.4584 4.1727 2.2994
5.3552 4.3035 2.2994
5.2490 4.4318 2.2994
5.1398 4.5576 2.2994
5.0277 4.6807 2.2994
4.9127 4.8012 2.2994
4.7950 4.9190 2.2994
4.6745 5.0340 2.2994
4.5513 5.1462 2.2994
4.4256 5.2554 2.2994
4.2973 5.3616 2.2994
4.1665 5.4649 2.2994
4.0334 5.5650 2.2994
3.8979 5.6620 2.2994
3.7601 5.7559 2.2994
3.6202 5.8464 2.2994
3.4782 5.9337 2.2994
2.3660 4.2704 1.6317
2.2271 4.2601 1.6063
2.1522 4.3718 1.6278
2.0867 4.5114 1.6600
2.0253 4.6727 1.7003
1.9641 4.8505 1.7466
1.8875 5.0070 1.7853
1.8017 5.1544 1.8211
1.7182 5.3267 1.8660
1.9583 6.6156 2.2994
1.7982 6.6639 2.2994
1.6369 6.7083 2.2994
1.4090 6.4490 2.1972
1.3112 6.7858 2.2994
1.1469 6.8188 2.2994
0.9819 6.8480 2.2994
0.8205 6.9103 2.3118
0.6497 6.8946 2.2994
0.4880 6.9862 2.3241
0.3295 7.2359 2.4025
0.1543 7.2459 2.4025
-0.0213 7.2517 2.4025
-0.1970 7.2533 2.4025
-0.3728 7.2508 2.4025
-0.5486 7.2441 2.4025
-0.7243 7.2333 2.4025
-0.8998 7.2183 2.4025
-1.0749 7.1991 2.4025
-1.2498 7.1758 2.4025
-1.4241 7.1482 2.4025
-1.5977 7.1166 2.4025
-1.7708 7.0808 2.4025
-1.9430 7.0409 2.4025
-2.1143 6.9968 2.4025
-2.2847 6.9486 2.4025
-2.4539 6.8964 2.4025
-2.6220 6.8401 2.4025
-2.7888 6.7798 2.4025
-2.9543 6.7155 2.4025
-3.1182 6.6472 2.4025
-3.2806 6.5749 2.4025
-3.4414 6.4987 2.4025
-3.6004 6.4186 2.4025
-3.7575 6.3347 2.4025
-3.9127 6.2470 2.4025
-4.0658 6.1555 2.4025
-4.2169 6.0603 2.4025
-4.3657 5.9614 2.4025
-4.5122 5.8589 2.4025
-4.6563 5.7528 2.4025
-4.7979 5.6432 2.4025
-4.9369 5.5302 2.4025
-5.0732 5.4137 2.4025
-5.2068 5.2939 2.4025
-5.3376 5.1708 2.4025
-5.4655 5.0445 2.4025
-5.5903 4.9150 2.4025
-5.7121 4.7825 2.4025
-5.8307 4.6469 2.4025
-5.9461 4.5084 2.4025
-6.0581 4.3671 2.4025
-6.1668 4.2229 2.4025
-6.2720 4.0761 2.4025
-6.3737 3.9266 2.4025
-6.4718 3.7746 2.4025
-6.5663 3.6201 2.4025
-6.6570 3.4633 2.4025
-6.6961 3.2808 2.3855
-6.5982 3.0376 2.3220
-6.6098 2.8517 2.2994
-6.6818 2.6934 2.2994
-6.7499 2.5333 2.2994
-6.8056 2.3684 2.2965
-6.8744 2.2080 2.2994
-6.9307 2.0430 2.2994
-6.9830 1.8765 2.2994
-7.0312 1.7087 2.2994
-7.0753 1.5397 2.2994
-7.1153 1.3696 2.2994
-6.1974 1.0386 1.9928
-7.1826 1.0262 2.2994
-7.2100 0.8533 2.2994
-7.2331 0.6796 2.2994
-7.2519 0.5053 2.2994
-7.2664 0.3305 2.2994
-6.0391 0.1289 1.9083
-6.0139 -0.0166 1.8988
-7.2841 -0.1958 2.2994
-7.2813 -0.3715 2.2994
-5.9931 -0.4509 1.8945
-6.0064 -0.5978 1.9017
-6.0199 -0.7460 1.9101
-7.2266 -1.0730 2.2994
-7.2021 -1.2474 2.2994
-7.1732 -1.4213 2.2994
-7.1400 -1.5945 2.2994
-7.1026 -1.7668 2.2994
-7.0608 -1.9382 2.2994
-7.0148 -2.1086 2.2994
-6.9646 -2.2779 2.2994
-6.9101 -2.4459 2.2994
-6.6438 -2.5333 2.2297
-6.5003 -2.6597 2.2017
-6.7218 -2.9414 2.2994
-6.6509 -3.1033 2.2994
-6.5759 -3.2635 2.2994
-6.4969 -3.4218 2.2994
-6.6223 -3.6943 2.3741
-6.6109 -3.8997 2.4025
-6.5165 -4.0587 2.4026
-6.4182 -4.2154 2.4027
-6.3161 -4.3696 2.4028
-6.2101 -4.5213 2.4030
-6.1003 -4.6703 2.4031
-5.9869 -4.8165 2.4032
-5.6492 -4.7736 2.4034
-5.5331 -4.9087 2.4035
-5.4137 -5.0409 2.4036
-5.2910 -5.1701 2.4037
-5.1651 -5.2962 2.4039
-5.0361 -5.4192 2.4040
-4.9041 -5.5388 2.4041
-4.7691 -5.6552 2.4042
-4.6313 -5.7682 2.4043
-4.4908 -5.8776 2.4045
-4.3475 -5.9836 2.4046
-4.2017 -6.0859 2.4047
-4.0534 -6.1846 2.4048
-3.9027 -6.2795 2.4050
-3.7497 -6.3706 2.4051
-3.5945 -6.4579 2.4052
-3.4372 -6.5413 2.4053
-3.2779 -6.6207 2.4054
-3.1167 -6.6961 2.4055
-2.9535 -6.7671 2.4055
-2.7886 -6.8337 2.4054
-2.6221 -6.8962 2.4052
-2.4542 -6.9545 2.4051
-2.2849 -7.0085 2.4050
-2.1145 -7.0584 2.4049
-1.9429 -7.1040 2.4047
-1.7703 -7.1453 2.4046
-1.5968 -7.1823 2.4045
-1.4225 -7.2149 2.4043
-1.2476 -7.2433 2.4042
-1.0720 -7.2673 2.4041
-0.8961 -7.2869 2.4040
-0.7198 -7.3022 2.4038
-0.5432 -7.3131 2.4037
-0.3666 -7.3197 2.4036
-0.1899 -7.3219 2.4035
-0.0134 -7.3198 2.4034
0.1630 -7.3133 2.4032
0.3391 -7.3025 2.4031
0.5147 -7.2873 2.4030
0.6898 -7.2679 2.4029
0.8643 -7.2442 2.4028
1.0380 -7.2162 2.4027
1.2109 -7.1840 2.4026
1.3828 -7.1475 2.4025
1.5537 -7.1072 2.4025
1.6956 -6.9482 2.3635
1.8203 -6.7482 2.3114
1.9730 -6.6698 2.3018
2.1447 -6.6556 2.3158
2.2897 -6.5591 2.3025
2.4459 -6.4982 2.3028
2.6005 -6.4335 2.3032
2.7534 -6.3651 2.3035
2.9045 -6.2930 2.3039
2.9764 -6.0600 2.2460
3.2008 -6.1378 2.3046
3.3458 -6.0548 2.3048
3.4888 -5.9683 2.3051
3.6285 -5.8770 2.3048
3.7659 -5.7823 2.3045
3.2080 -4.6749 1.8950
3.2408 -4.4864 1.8512
3.2846 -4.3231 1.8175
3.3317 -4.1718 1.7887
3.3709 -4.0180 1.7585
3.3959 -3.8547 1.7238
3.4077 -3.6847 1.6855
3.4310 -3.5345 1.6555
3.4564 -3.3927 1.6291
3.4937 -3.2673 1.6102
5.0989 -4.5425 2.3006
5.2021 -4.4137 2.3002
5.3022 -4.2825 2.2998
5.3990 -4.1491 2.2994
5.4934 -4.0142 2.2994
5.5845 -3.8772 2.2994
5.6722 -3.7381 2.2994
5.7565 -3.5971 2.2994
5.8374 -3.4542 2.2994
5.9147 -3.3095 2.2994
5.9885 -3.1631 2.2994
6.0588 -3.0150 2.2994
6.1254 -2.8655 2.2994
6.1884 -2.7144 2.2994
6.2477 -2.5621 2.2994
6.3034 -2.4084 2.2994
6.3553 -2.2536 2.2994
6.4035 -2.0977 2.2994
6.4479 -1.9407 2.2994
6.4886 -1.7829 2.2994
6.5255 -1.6242 2.2994
6.5586 -1.4648 2.2994
6.5878 -1.3047 2.2994
6.6133 -1.1441 2.2994
6.6349 -0.9831 2.2994
6.6527 -0.8216 2.2994
6.6666 -0.6599 2.2994
6.6767 -0.4979 2.2994
6.6830 -0.3359 2.2994
6.6854 -0.1738 2.2994
6.6840 -0.0118 2.2994
6.6787 0.1500 2.2994
6.6697 0.3116 2.2994
6.6568 0.4728 2.2994
6.6401 0.6336 2.2994
6.6197 0.7940 2.2994
6.5955 0.9537 2.2994
6.5675 1.1127 2.2994
6.5358 1.2710 2.2994
6.5004 1.4284 2.2994
6.4613 1.5849 2.2994
6.4185 1.7403 2.2994
6.3722 1.8947 2.2994
6.3222 2.0479 2.2994
6.2686 2.1998 2.2994
6.2115 2.3503 2.2994
6.1509 2.4995 2.2994
6.0868 2.6471 2.2994
6.0193 2.7932 2.2994
5.9484 2.9376 2.2994
5.8741 3.0802 2.2994
5.7965 3.2211 2.2994
5.7156 3.3600 2.2994
5.6316 3.4970 2.2994
5.5443 3.6320 2.2994
5.4539 3.7648 2.2994
5.3604 3.8955 2.2994
5.2639 4.0239 2.2994
5.1644 4.1501 2.2994
5.0619 4.2738 2.2994
4.9566 4.3951 2.2994
4.8485 4.5139 2.2994
4.7376 4.6301 2.2994
4.6241 4.7438 2.2994
4.5079 4.8547 2.2994
4.3891 4.9628 2.2994
4.2678 5.0681 2.2994
2.8519 3.5583 1.5824
4.0179 5.2701 2.2994
3.8895 5.3667 2.2994
3.7588 5.4603 2.2994
3.6259 5.5507 2.2994
3.4909 5.6380 2.2994
2.3463 4.0030 1.6086
2.2764 4.1090 1.6281
2.2154 4.2381 1.6571
2.1563 4.3805 1.6914
2.1026 4.5464 1.7348
2.0346 4.6948 1.7716
1.9560 4.8313 1.8041
1.8755 4.9758 1.8399
1.8021 5.1564 1.8893
2.0412 6.3292 2.2994
1.8879 6.3792 2.2994
1.7335 6.4256 2.2994
1.5779 6.4684 2.2994
1.4087 6.4497 2.2790
1.2638 6.5430 2.2994
1.1054 6.5747 2.2994
0.9511 6.6367 2.3112
0.7863 6.6269 2.2994
0.6303 6.6947 2.3158
0.4844 6.9435 2.3958
0.3171 6.9763 2.4025
0.1481 6.9857 2.4025
-0.0211 6.9912 2.4025
-0.1905 6.9927 2.4025
-0.3600 6.9901 2.4025
-0.5295 6.9835 2.4025
-0.6989 6.9729 2.4025
-0.8681 6.9583 2.4025
-1.0369 6.9397 2.4025
-1.2054 6.9170 2.4025
-1.3734 6.8903 2.4025
-1.5408 6.8597 2.4025
-1.7076 6.8250 2.4025
-1.8735 6.7863 2.4025
-2.0386 6.7437 2.4025
-2.2028 6.6972 2.4025
-2.3659 6.6467 2.4025
-2.5278 6.5922 2.4025
-2.6886 6.5339 2.4025
-2.8479 6.4718 2.4025
-3.0059 6.4058 2.4025
-3.1623 6.3360 2.4025
-3.3172 6.2624 2.4025
-3.4703 6.1850 2.4025
-3.6216 6.1040 2.4025
-3.7711 6.0193 2.4025
-3.9186 5.9310 2.4025
-4.0640 5.8391 2.4025
-4.2073 5.7437 2.4025
-4.3483 5.6447 2.4025
-4.4870 5.5424 2.4025
-4.6233 5.4366 2.4025
-4.7572 5.3275 2.4025
-4.8884 5.2152 2.4025
-5.0170 5.0996 2.4025
-5.1428 4.9809 2.4025
-5.2658 4.8591 2.4025
-5.3860 4.7342 2.4025
-5.5031 4.6064 2.4025
-5.6172 4.4757 2.4025
-5.7282 4.3422 2.4025
-5.8360 4.2059 2.4025
-5.9406 4.0669 2.4025
-6.0417 3.9254 2.4025
-6.1395 3.7813 2.4025
-6.2339 3.6348 2.4025
-6.3246 3.4860 2.4025
-6.4118 3.3348 2.4025
-6.4954 3.1815 2.4025
-6.5752 3.0261 2.4025
-6.4914 2.7997 2.3447
-6.4350 2.5931 2.2994
-6.5005 2.4389 2.2994
-6.5622 2.2829 2.2994
-6.6200 2.1255 2.2994
-6.6741 1.9666 2.2994
-6.7243 1.8062 2.2994
-6.7705 1.6446 2.2994
-6.8128 1.4819 2.2994
-6.8511 1.3180 2.2994
-6.2029 1.0389 2.0715
-6.9157 0.9874 2.2994
-6.9419 0.8209 2.2994
-6.9639 0.6537 2.2994
-6.9819 0.4859 2.2994
-6.9958 0.3176 2.2994
-7.0054 0.1490 2.2994
-7.0110 -0.0200 2.2994
-5.9889 -0.1615 1.9638
-5.9901 -0.3061 1.9650
-7.0025 -0.5273 2.2994
-6.9913 -0.6963 2.2994
-6.9759 -0.8650 2.2994
-6.9564 -1.0334 2.2994
-6.9327 -1.2013 2.2994
-6.9048 -1.3686 2.2994
-6.8728 -1.5352 2.2994
-6.8366 -1.7011 2.2994
-6.1152 -1.6790 2.0690
-6.7519 -2.0300 2.2994
-6.7035 -2.1929 2.2994
-6.6510 -2.3545 2.2994
-6.5945 -2.5149 2.2994
-6.4957 -2.6582 2.2859
-6.4696 -2.8313 2.2994
-6.4012 -2.9871 2.2994
-6.3529 -3.1531 2.3081
-6.4716 -3.4087 2.3798
-6.4499 -3.5984 2.4025
-6.3628 -3.7535 2.4026
-6.2719 -3.9066 2.4027
-6.1773 -4.0573 2.4028
-6.0789 -4.2057 2.4029
-5.9768 -4.3516 2.4030
-5.8711 -4.4950 2.4031
-5.7619 -4.6357 2.4032
-5.4433 -4.5997 2.4034
-5.3314 -4.7298 2.4035
-5.2163 -4.8572 2.4036
-5.0981 -4.9816 2.4037
-4.9768 -5.1031 2.4038
-4.8525 -5.2215 2.4040
-4.7253 -5.3368 2.4041
-4.5953 -5.4489 2.4042
-4.4625 -5.5577 2.4043
-4.3271 -5.6632 2.4044
-4.1891 -5.7653 2.4045
-4.0487 -5.8639 2.4047
-3.9058 -5.9590 2.4048
-3.7606 -6.0505 2.4049
-3.6132 -6.1383 2.4050
-3.4637 -6.2224 2.4051
-3.3122 -6.3028 2.4052
-3.1587 -6.3794 2.4053
-3.0034 -6.4521 2.4055
-2.8464 -6.5209 2.4056
-2.6876 -6.5852 2.4054
-2.5272 -6.6454 2.4053
-2.3654 -6.7016 2.4052
-2.2023 -6.7538 2.4050
-2.0381 -6.8020 2.4049
-1.8728 -6.8460 2.4048
-1.7065 -6.8859 2.4047
-1.5393 -6.9217 2.4045
-1.3714 -6.9533 2.4044
-1.2029 -6.9807 2.4043
-1.0338 -7.0040 2.4042
-0.8642 -7.0230 2.4041
-0.6943 -7.0379 2.4039
-0.5242 -7.0485 2.4038
-0.3539 -7.0550 2.4037
-0.1837 -7.0573 2.4036
-0.0135 -7.0554 2.4035
0.1565 -7.0493 2.4034
0.3262 -7.0390 2.4033
0.4955 -7.0246 2.4032
0.6643 -7.0060 2.4031
0.8324 -6.9833 2.4030
0.9999 -6.9564 2.4028
1.1666 -6.9255 2.4027
1.3323 -6.8905 2.4026
1.4971 -6.8515 2.4025
1.6608 -6.8087 2.4025
1.8099 -6.7124 2.3848
1.9261 -6.5140 2.3318
2.0552 -6.3803 2.3026
2.2073 -6.3252 2.3030
2.3579 -6.2665 2.3033
2.5070 -6.2042 2.3036
2.6545 -6.1383 2.3040
2.8002 -6.0690 2.3043
2.9441 -5.9960 2.3047
3.0860 -5.9195 2.3049
3.2258 -5.8392 2.3051
3.3629 -5.7545 2.3048
3.4977 -5.6667 2.3045
3.6303 -5.5756 2.3042
3.3338 -4.8594 2.0425
3.8883 -5.3841 2.3036
3.2783 -4.3160 1.8814
3.3135 -4.1502 1.8449
3.3540 -3.9988 1.8145
3.3951 -3.8547 1.7872
3.4289 -3.7085 1.7587
3.4527 -3.5577 1.7276
3.4633 -3.4003 1.6926
3.4792 -3.2546 1.6627
3.5003 -3.1191 1.6375
3.5281 -2.9941 1.6175
3.5598 -2.8760 1.6009
5.2074 -4.0029 2.2994
5.2986 -3.8728 2.2994
5.3866 -3.7408 2.2994
3.7553 -2.4754 1.5782
3.8889 -2.4307 1.6104
5.6310 -3.3330 2.2994
5.7057 -3.1934 2.2994
5.7771 -3.0522 2.2994
5.8450 -2.9095 2.2994
5.9094 -2.7652 2.2994
5.9703 -2.6196 2.2994
6.0277 -2.4726 2.2994
6.0815 -2.3244 2.2994
6.1318 -2.1751 2.2994
6.1784 -2.0247 2.2994
6.2214 -1.8733 2.2994
6.2608 -1.7210 2.2994
6.2965 -1.5679 2.2994
6.3286 -1.4141 2.2994
6.3570 -1.2597 2.2994
6.3817 -1.1047 2.2994
6.4026 -0.9493 2.2994
6.4199 -0.7935 2.2994
6.4335 -0.6374 2.2994
6.4434 -0.4811 2.2994
6.4495 -0.3247 2.2994
6.4520 -0.1683 2.2994
6.4507 -0.0120 2.2994
6.4457 0.1442 2.2994
6.4371 0.3002 2.2994
6.4248 0.4558 2.2994
6.4088 0.6111 2.2994
6.3891 0.7658 2.2994
6.3659 0.9200 2.2994
6.3389 1.0735 2.2994
6.3084 1.2263 2.2994
6.2743 1.3783 2.2994
6.2367 1.5294 2.2994
6.1955 1.6795 2.2994
6.1508 1.8285 2.2994
6.1026 1.9764 2.2994
6.0509 2.1231 2.2994
5.9959 2.2684 2.2994
5.9374 2.4124 2.2994
5.8756 2.5550 2.2994
5.8105 2.6960 2.2994
5.7420 2.8354 2.2994
5.6704 2.9731 2.2994
5.5955 3.1091 2.2994
5.5175 3.2433 2.2994
5.4363 3.3756 2.2994
5.3521 3.5059 2.2994
5.2648 3.6342 2.2994
5.1746 3.7603 2.2994
5.0814 3.8844 2.2994
4.9854 4.0061 2.2994
4.8865 4.1256 2.2994
4.7848 4.2427 2.2994
4.6805 4.3574 2.2994
4.5734 4.4696 2.2994
4.4638 4.5793 2.2994
4.3516 4.6864 2.2994
4.2369 4.7908 2.2994
4.1198 4.8925 2.2994
2.8437 3.5482 1.6346
2.6632 3.4934 1.5789
3.7545 5.1807 2.2994
2.5193 3.6599 1.5966
2.4556 3.7594 1.6133
2.3922 3.8638 1.6324
2.3352 3.9845 1.6587
2.2802 4.1162 1.6896
2.2304 4.2672 1.7285
2.1687 4.4062 1.7625
2.0974 4.5357 1.7929
2.0211 4.6644 1.8234
1.9484 4.8132 1.8620
2.2621 6.0024 2.2994
1.9150 5.4806 2.0804
1.9699 6.1092 2.2994
1.8219 6.1575 2.2994
1.6728 6.2022 2.2994
1.5226 6.2434 2.2994
1.3714 6.2811 2.2994
1.2193 6.3152 2.2994
1.0722 6.3805 2.3120
0.9127 6.3727 2.2994
0.7619 6.4252 2.3099
0.6254 6.6480 2.3827
0.4682 6.7200 2.4025
0.3055 6.7328 2.4025
0.1424 6.7419 2.4025
-0.0210 6.7470 2.4025
-0.1845 6.7483 2.4025
-0.3481 6.7457 2.4025
-0.5117 6.7392 2.4025
-0.6751 6.7289 2.4025
-0.8383 6.7146 2.4025
-1.0013 6.6965 2.4025
-1.1638 6.6745 2.4025
-1.3260 6.6486 2.4025
-1.4875 6.6189 2.4025
-1.6483 6.5853 2.4025
-1.8085 6.5479 2.4025
-1.9677 6.5066 2.4025
-2.1261 6.4615 2.4025
-2.2834 6.4126 2.4025
-2.4396 6.3600 2.4025
-2.5946 6.3036 2.4025
-2.7483 6.2434 2.4025
-2.9007 6.1796 2.4025
-3.0515 6.1121 2.4025
-3.2008 6.0410 2.4025
-3.3485 5.9662 2.4025
-3.4944 5.8879 2.4025
-3.6385 5.8061 2.4025
-3.7807 5.7207 2.4025
-3.9209 5.6319 2.4025
-4.0590 5.5397 2.4025
-4.1949 5.4442 2.4025
-4.3286 5.3453 2.4025
-4.4600 5.2432 2.4025
-4.5889 5.1378 2.4025
-4.7154 5.0294 2.4025
-4.8393 4.9178 2.4025
-4.9605 4.8031 2.4025
-5.0790 4.6855 2.4025
-5.1948 4.5650 2.4025
-5.3076 4.4416 2.4025
-5.4175 4.3155 2.4025
-5.5244 4.1866 2.4025
-5.6282 4.0551 2.4025
-5.7288 3.9210 2.4025
-5.8263 3.7844 2.4025
-5.9204 3.6454 2.4025
-6.0112 3.5040 2.4025
-6.0986 3.3604 2.4025
-6.1825 3.2146 2.4025
-6.2629 3.0667 2.4025
-6.3397 2.9168 2.4025
-6.4129 2.7650 2.4025
-6.3901 2.5742 2.3683
-6.3082 2.3659 2.3144
-6.3265 2.2002 2.2994
-6.3822 2.0483 2.2994
-6.4341 1.8951 2.2994
-6.4823 1.7405 2.2994
-6.5268 1.5847 2.2994
-6.5674 1.4278 2.2994
-6.6042 1.2698 2.2994
-6.2036 1.0383 2.1492
-6.6661 0.9511 2.2994
-6.6912 0.7906 2.2994
-6.7124 0.6294 2.2994
-6.7296 0.4677 2.2994
-6.7428 0.3055 2.2994
-6.7520 0.1430 2.2994
-6.7572 -0.0198 2.2994
-6.7584 -0.1828 2.2994
-5.9800 -0.3061 2.0354
-6.7487 -0.5088 2.2994
-6.7378 -0.6716 2.2994
-6.7228 -0.8341 2.2994
-6.7039 -0.9963 2.2994
-6.6809 -1.1581 2.2994
-6.6540 -1.3193 2.2994
-6.6230 -1.4799 2.2994
-6.5881 -1.6397 2.2994
-6.1149 -1.6793 2.1469
-6.5063 -1.9566 2.2994
-6.4596 -2.1135 2.2994
-6.4089 -2.2692 2.2994
-6.3544 -2.4237 2.2994
-6.2961 -2.5768 2.2994
-6.2340 -2.7285 2.2994
-6.2218 -2.9037 2.3194
-6.3299 -3.1420 2.3867
-6.2952 -3.3161 2.4025
-6.2150 -3.4676 2.4026
-6.1311 -3.6171 2.4027
-6.0435 -3.7645 2.4028
-5.9523 -3.9097 2.4029
-5.8574 -4.0526 2.4030
-5.7590 -4.1932 2.4031
-5.6571 -4.3313 2.4032
-5.5519 -4.4668 2.4033
-5.2505 -4.4368 2.4034
-5.1425 -4.5623 2.4035
-5.0315 -4.6851 2.4036
-4.9175 -4.8051 2.4038
-4.8005 -4.9223 2.4039
-4.6806 -5.0365 2.4040
-4.5580 -5.1477 2.4041
-4.4326 -5.2558 2.4042
-4.3045 -5.3608 2.4043
-4.1739 -5.4625 2.4044
-4.0409 -5.5610 2.4045
-3.9054 -5.6561 2.4047
-3.7676 -5.7478 2.4048
-3.6276 -5.8361 2.4049
-3.4855 -5.9208 2.4050
-3.3413 -6.0020 2.4051
-3.1952 -6.0796 2.4052
-3.0472 -6.1535 2.4053
-2.8975 -6.2237 2.4054
-2.7461 -6.2901 2.4055
-2.5929 -6.3523 2.4055
-2.4382 -6.4105 2.4054
-2.2822 -6.4648 2.4052
-2.1250 -6.5153 2.4051
-1.9666 -6.5618 2.4050
-1.8071 -6.6043 2.4049
-1.6467 -6.6429 2.4047
-1.4855 -6.6775 2.4046
-1.3236 -6.7081 2.4045
-1.1610 -6.7347 2.4044
-0.9979 -6.7573 2.4043
-0.8343 -6.7758 2.4041
-0.6704 -6.7902 2.4040
-0.5063 -6.8006 2.4039
-0.3421 -6.8070 2.4038
-0.1778 -6.8093 2.4037
-0.0136 -6.8076 2.4036
0.1504 -6.8018 2.4035
0.3141 -6.7921 2.4034
0.4775 -6.7783 2.4033
0.6403 -6.7604 2.4032
0.8026 -6.7386 2.4031
0.9642 -6.7129 2.4029
1.1251 -6.6832 2.4028
1.2850 -6.6496 2.4027
1.4440 -6.6121 2.4026
1.6020 -6.5708 2.4026
1.7588 -6.5257 2.4025
1.9144 -6.4770 2.4025
2.0265 -6.2936 2.3535
2.1367 -6.1252 2.3107
2.2754 -6.0493 2.3037
2.4395 -6.0391 2.3233
2.5617 -5.9257 2.3044
2.7024 -5.8588 2.3047
2.8413 -5.7884 2.3050
2.9780 -5.7140 2.3050
3.1124 -5.6356 2.3047
3.2448 -5.5541 2.3044
3.3751 -5.4694 2.3042
3.5031 -5.3816 2.3039
3.3336 -4.8604 2.1161
3.7521 -5.1970 2.3032
3.8731 -5.1002 2.3029
3.9916 -5.0007 2.3025
3.3463 -3.9907 1.8756
3.3757 -3.8337 1.8410
3.4121 -3.6912 1.8130
3.4498 -3.5556 1.7882
3.4820 -3.4195 1.7628
3.5049 -3.2794 1.7351
3.5113 -3.1297 1.7016
3.5195 -2.9875 1.6713
3.5368 -2.8580 1.6475
3.5539 -2.7326 1.6254
3.5808 -2.6179 1.6095
3.6054 -2.5044 1.5940
3.6724 -2.4215 1.5985
3.8877 -2.4306 1.6673
5.4372 -3.2191 2.2994
5.5095 -3.0845 2.2994
5.5785 -2.9482 2.2994
5.6442 -2.8104 2.2994
5.7066 -2.6711 2.2994
5.7655 -2.5305 2.2994
5.8211 -2.3886 2.2994
5.8732 -2.2456 2.2994
5.9219 -2.1013 2.2994
5.9670 -1.9561 2.2994
6.0087 -1.8099 2.2994
6.0469 -1.6629 2.2994
6.0815 -1.5150 2.2994
6.1126 -1.3665 2.2994
6.1401 -1.2174 2.2994
6.1640 -1.0677 2.2994
6.1844 -0.9176 2.2994
6.2012 -0.7671 2.2994
6.2144 -0.6163 2.2994
6.2241 -0.4653 2.2994
6.2301 -0.3143 2.2994
6.2326 -0.1632 2.2994
6.2315 -0.0121 2.2994
6.2268 0.1388 2.2994
6.2185 0.2895 2.2994
6.2067 0.4399 2.2994
6.1914 0.5899 2.2994
6.1725 0.7394 2.2994
6.1501 0.8884 2.2994
6.1241 1.0367 2.2994
6.0947 1.1844 2.2994
6.0619 1.3312 2.2994
6.0255 1.4772 2.2994
5.9858 1.6222 2.2994
5.9427 1.7663 2.2994
5.8962 1.9092 2.2994
5.8463 2.0509 2.2994
5.7932 2.1914 2.2994
5.7367 2.3306 2.2994
5.6771 2.4683 2.2994
5.6141 2.6046 2.2994
5.5481 2.7394 2.2994
5.4788 2.8725 2.2994
5.4065 3.0039 2.2994
5.3311 3.1336 2.2994
5.2528 3.2614 2.2994
5.1714 3.3873 2.2994
5.0871 3.5113 2.2994
4.9999 3.6333 2.2994
4.9099 3.7531 2.2994
4.8171 3.8708 2.2994
4.7215 3.9863 2.2994
4.6233 4.0995 2.2994
4.5224 4.2103 2.2994
4.4190 4.3187 2.2994
4.3130 4.4247 2.2994
4.2046 4.5282 2.2994
4.0938 4.6291 2.2994
3.9806 4.7273 2.2994
2.8435 3.5482 1.6916
2.6138 3.4287 1.6038
2.5548 3.5255 1.6194
2.4997 3.6317 1.6396
2.4469 3.7463 1.6638
2.3973 3.8724 1.6932
2.3511 4.0118 1.7284
2.2939 4.1413 1.7593
2.2284 4.2638 1.7875
2.1570 4.3830 1.8145
2.0863 4.5122 1.8461
2.0213 4.6655 1.8876
2.3245 5.7430 2.2994
2.1852 5.7994 2.2994
1.9146 5.4804 2.1532
1.9028 5.9025 2.2994
1.7598 5.9490 2.2994
1.6157 5.9922 2.2994
1.4706 6.0320 2.2994
1.3245 6.0683 2.2994
1.1850 6.1400 2.3140
1.0298 6.1306 2.2994
0.8838 6.1740 2.3059
0.7557 6.3770 2.3731
0.6087 6.4757 2.4025
0.4518 6.4917 2.4025
0.2945 6.5041 2.4025
0.1369 6.5127 2.4025
-0.0209 6.5175 2.4025
-0.1788 6.5187 2.4025
-0.3368 6.5161 2.4025
-0.4948 6.5097 2.4025
-0.6527 6.4996 2.4025
-0.8104 6.4857 2.4025
-0.9678 6.4681 2.4025
-1.1248 6.4467 2.4025
-1.2814 6.4216 2.4025
-1.4374 6.3927 2.4025
-1.5927 6.3601 2.4025
-1.7473 6.3238 2.4025
-1.9011 6.2839 2.4025
-2.0540 6.2402 2.4025
-2.2059 6.1928 2.4025
-2.3568 6.1419 2.4025
-2.5064 6.0873 2.4025
-2.6548 6.0291 2.4025
-2.8019 5.9673 2.4025
-2.9475 5.9020 2.4025
-3.0916 5.8331 2.4025
-3.2341 5.7608 2.4025
-3.3749 5.6851 2.4025
-3.5140 5.6059 2.4025
-3.6512 5.5234 2.4025
-3.7865 5.4375 2.4025
-3.9197 5.3484 2.4025
-4.0509 5.2560 2.4025
-4.1799 5.1604 2.4025
-4.3066 5.0617 2.4025
-4.4310 4.9598 2.4025
-4.5530 4.8550 2.4025
-4.6725 4.7471 2.4025
-4.7894 4.6363 2.4025
-4.9037 4.5227 2.4025
-5.0153 4.4062 2.4025
-5.1241 4.2870 2.4025
-5.2301 4.1652 2.4025
-5.3332 4.0407 2.4025
-5.4332 3.9136 2.4025
-5.5303 3.7841 2.4025
-5.6242 3.6522 2.4025
-5.7149 3.5179 2.4025
-5.8024 3.3814 2.4025
-5.8866 3.2427 2.4025
-5.9675 3.1019 2.4025
-6.0449 2.9591 2.4025
-6.1189 2.8144 2.4025
-6.1894 2.6678 2.4025
-6.2563 2.5194 2.4025
-6.2937 2.3597 2.3926
-6.2150 2.1606 2.3406
-6.1592 1.9760 2.2994
-6.2092 1.8281 2.2994
-6.2556 1.6789 2.2994
-6.2983 1.5286 2.2994
-6.3374 1.3771 2.2994
-6.3727 1.2246 2.2994
-6.2042 1.0378 2.2275
-6.4323 0.9171 2.2994
-6.4563 0.7622 2.2994
-6.4766 0.6067 2.2994
-6.4931 0.4507 2.2994
-6.5057 0.2942 2.2994
-6.5145 0.1374 2.2994
-6.5194 -0.0197 2.2994
-6.5204 -0.1769 2.2994
-5.9801 -0.3066 2.1098
-6.5108 -0.4913 2.2994
-6.5002 -0.6484 2.2994
-6.4857 -0.8052 2.2994
-6.4674 -0.9617 2.2994
-6.4451 -1.1177 2.2994
-6.4190 -1.2732 2.2994
-6.3891 -1.4280 2.2994
-6.3553 -1.5821 2.2994
-6.1147 -1.6796 2.2255
-6.2763 -1.8878 2.2994
-6.2312 -2.0391 2.2994
-6.1822 -2.1893 2.2994
-6.1296 -2.3383 2.2994
-6.0733 -2.4860 2.2994
-6.0963 -2.6686 2.3311
-6.1968 -2.8923 2.3949
-6.1462 -3.0511 2.4025
-6.0725 -3.1990 2.4026
-5.9951 -3.3451 2.4027
-5.9141 -3.4893 2.4027
-5.8296 -3.6315 2.4028
-5.7415 -3.7715 2.4029
-5.6500 -3.9093 2.4030
-5.5551 -4.0448 2.4031
-5.4568 -4.1780 2.4032
-5.3553 -4.3087 2.4033
-5.0695 -4.2840 2.4035
-4.9653 -4.4051 2.4036
-4.8581 -4.5237 2.4037
-4.7480 -4.6395 2.4038
-4.6351 -4.7526 2.4039
-4.5193 -4.8629 2.4040
-4.4009 -4.9702 2.4041
-4.2799 -5.0746 2.4042
-4.1562 -5.1759 2.4043
-4.0302 -5.2742 2.4044
-3.9017 -5.3692 2.4045
-3.7709 -5.4611 2.4047
-3.6379 -5.5496 2.4048
-3.5028 -5.6349 2.4049
-3.3656 -5.7167 2.4050
-3.2264 -5.7951 2.4051
-3.0853 -5.8700 2.4052
-2.9425 -5.9414 2.4053
-2.7980 -6.0092 2.4054
-2.6518 -6.0734 2.4055
-2.5040 -6.1337 2.4055
-2.3547 -6.1900 2.4054
-2.2041 -6.2425 2.4053
-2.0523 -6.2913 2.4052
-1.8994 -6.3363 2.4050
-1.7455 -6.3775 2.4049
-1.5907 -6.4148 2.4048
-1.4350 -6.4483 2.4047
-1.2786 -6.4780 2.4046
-1.1217 -6.5037 2.4045
-0.9642 -6.5256 2.4043
-0.8063 -6.5436 2.4042
-0.6480 -6.5577 2.4041
-0.4895 -6.5678 2.4040
-0.3309 -6.5741 2.4039
-0.1723 -6.5764 2.4038
-0.0138 -6.5749 2.4037
0.1446 -6.5694 2.4036
0.3028 -6.5601 2.4035
0.4605 -6.5469 2.4034
0.6178 -6.5298 2.4033
0.7746 -6.5089 2.4032
0.9307 -6.4841 2.4031
1.0861 -6.4556 2.4030
1.2406 -6.4233 2.4029
1.3942 -6.3872 2.4028
1.5468 -6.3474 2.4027
1.6983 -6.3040 2.4026
1.8485 -6.2568 2.4025
1.9976 -6.2063 2.4025
2.1238 -6.0905 2.3784
2.2255 -5.9186 2.3332
2.3369 -5.7872 2.3045
2.4745 -5.7258 2.3048
2.6215 -5.6853 2.3149
2.7442 -5.5922 2.3049
2.8760 -5.5197 2.3046
3.0058 -5.4442 2.3043
3.1338 -5.3655 2.3040
3.2596 -5.2838 2.3037
3.3833 -5.1991 2.3034
3.3334 -4.8613 2.1904
3.6241 -5.0210 2.3028
3.7411 -4.9277 2.3025
3.8556 -4.8316 2.3021
3.9677 -4.7329 2.3018
4.0773 -4.6316 2.3015
3.4036 -3.6829 1.8718
3.4305 -3.5367 1.8404
3.4639 -3.4025 1.8149
3.4971 -3.2729 1.7917
3.5263 -3.1439 1.7685
3.5461 -3.0109 1.7427
3.5533 -2.8721 1.7128
3.5548 -2.7339 1.6824
3.5647 -2.6068 1.6580
3.5753 -2.4842 1.6356
3.5936 -2.3701 1.6185
3.6162 -2.2615 1.6047
5.2549 -3.1120 2.2994
5.3249 -2.9819 2.2994
5.3917 -2.8503 2.2994
5.4553 -2.7171 2.2994
5.5157 -2.5826 2.2994
3.7987 -1.6678 1.5674
3.9102 -1.6051 1.5980
5.6771 -2.1713 2.2994
5.7242 -2.0320 2.2994
5.7680 -1.8916 2.2994
5.8084 -1.7503 2.2994
5.8454 -1.6082 2.2994
5.8790 -1.4653 2.2994
5.9092 -1.3217 2.2994
5.9359 -1.1775 2.2994
5.9592 -1.0328 2.2994
5.9790 -0.8877 2.2994
5.9953 -0.7422 2.2994
6.0082 -0.5964 2.2994
6.0176 -0.4505 2.2994
6.0236 -0.3044 2.2994
6.0261 -0.1583 2.2994
6.0251 -0.0122 2.2994
6.0206 0.1337 2.2994
6.0127 0.2794 2.2994
6.0014 0.4248 2.2994
5.9866 0.5699 2.2994
5.9684 0.7145 2.2994
5.9468 0.8586 2.2994
5.9218 1.0020 2.2994
5.8935 1.1448 2.2994
5.8617 1.2869 2.2994
5.8267 1.4281 2.2994
5.7883 1.5684 2.2994
5.7466 1.7076 2.2994
5.7017 1.8459 2.2994
5.6536 1.9830 2.2994
5.6022 2.1189 2.2994
5.5477 2.2535 2.2994
5.4900 2.3867 2.2994
5.4292 2.5185 2.2994
5.3653 2.6489 2.2994
5.2984 2.7776 2.2994
5.2285 2.9048 2.2994
5.1556 3.0302 2.2994
5.0798 3.1538 2.2994
5.0012 3.2757 2.2994
4.9196 3.3956 2.2994
3.3081 2.4038 1.5731
4.7483 3.6295 2.2994
4.6585 3.7433 2.2994
4.5661 3.8550 2.2994
4.4711 3.9645 2.2994
4.3735 4.0717 2.2994
4.2735 4.1766 2.2994
4.1710 4.2791 2.2994
4.0661 4.3791 2.2994
2.7538 3.1140 1.5995
2.7009 3.2076 1.6133
2.6456 3.3014 1.6276
2.5983 3.4085 1.6486
2.5497 3.5186 1.6713
2.5078 3.6436 1.7010
2.4652 3.7746 1.7335
2.4106 3.8941 1.7607
2.3494 4.0093 1.7861
2.2827 4.1216 1.8106
2.2151 4.2388 1.8375
2.1517 4.3727 1.8720
2.5127 5.4351 2.2994
2.3808 5.4959 2.2994
2.2475 5.5536 2.2994
2.1128 5.6082 2.2994
1.9142 5.4803 2.2265
1.8397 5.7078 2.2994
1.7014 5.7527 2.2994
1.5620 5.7944 2.2994
1.4216 5.8328 2.2994
1.2902 5.9133 2.3172
1.1382 5.8996 2.2994
0.9971 5.9389 2.3036
0.8767 6.1278 2.3669
0.7392 6.2424 2.4025
0.5880 6.2614 2.4025
0.4363 6.2768 2.4025
0.2842 6.2886 2.4025
0.1318 6.2969 2.4025
-0.0208 6.3015 2.4025
-0.1735 6.3025 2.4025
-0.3263 6.2999 2.4025
-0.4790 6.2936 2.4025
-0.6317 6.2837 2.4025
-0.7841 6.2702 2.4025
-0.9363 6.2530 2.4025
-1.0881 6.2322 2.4025
-1.2394 6.2078 2.4025
-1.3902 6.1798 2.4025
-1.5404 6.1482 2.4025
-1.6898 6.1130 2.4025
-1.8385 6.0742 2.4025
-1.9862 6.0319 2.4025
-2.1330 5.9860 2.4025
-2.2788 5.9366 2.4025
-2.4234 5.8837 2.4025
-2.5668 5.8273 2.4025
-2.7089 5.7675 2.4025
-2.8496 5.7042 2.4025
-2.9888 5.6376 2.4025
-3.1265 5.5676 2.4025
-3.2625 5.4942 2.4025
-3.3969 5.4176 2.4025
-3.5294 5.3377 2.4025
-3.6601 5.2546 2.4025
-3.7888 5.1683 2.4025
-3.9155 5.0789 2.4025
-4.0400 4.9864 2.4025
-4.1624 4.8909 2.4025
-4.2825 4.7924 2.4025
-4.4003 4.6910 2.4025
-4.5157 4.5866 2.4025
-4.6286 4.4795 2.4025
-4.7389 4.3696 2.4025
-4.8466 4.2570 2.4025
-4.9517 4.1417 2.4025
-5.0540 4.0238 2.4025
-5.1534 3.9034 2.4025
-5.2500 3.7806 2.4025
-5.3436 3.6554 2.4025
-5.4342 3.5279 2.4025
-5.5217 3.3981 2.4025
-5.6062 3.2661 2.4025
-5.6874 3.1321 2.4025
-5.7654 2.9960 2.4025
-5.8401 2.8580 2.4025
-5.9114 2.7181 2.4025
-5.9794 2.5764 2.4025
-6.0439 2.4331 2.4025
-6.1049 2.2881 2.4025
-6.1625 2.1416 2.4025
-6.1412 1.9695 2.3734
-6.0927 1.7931 2.3358
-6.0454 1.6218 2.3005
-6.0837 1.4758 2.2994
-6.1412 1.3338 2.3068
-6.1554 1.1822 2.2994
-6.1858 1.0341 2.2994
-6.2126 0.8852 2.2994
-6.2357 0.7356 2.2994
-6.2552 0.5854 2.2994
-6.2710 0.4347 2.2994
-6.2831 0.2836 2.2994
-6.2914 0.1321 2.2994
-6.2961 -0.0195 2.2994
-6.2970 -0.1713 2.2994
-5.9801 -0.3071 2.1847
-6.2875 -0.4750 2.2994
-6.2772 -0.6266 2.2994
-6.2631 -0.7780 2.2994
-6.2453 -0.9291 2.2994
-6.2237 -1.0797 2.2994
-6.1985 -1.2299 2.2994
-6.1695 -1.3794 2.2994
-6.1368 -1.5281 2.2994
-6.1004 -1.6761 2.2994
-6.0604 -1.8232 2.2994
-6.0167 -1.9693 2.2994
-5.9694 -2.1143 2.2994
-5.9583 -2.2733 2.3149
-5.9910 -2.4526 2.3492
-6.0727 -2.6586 2.4050
-6.0022 -2.8018 2.4025
-5.9346 -2.9463 2.4026
-5.8634 -3.0891 2.4027
-5.7887 -3.2302 2.4027
-5.7104 -3.3693 2.4028
-5.6288 -3.5066 2.4029
-5.5438 -3.6417 2.4030
-5.4554 -3.7748 2.4031
-5.3637 -3.9056 2.4032
-5.2688 -4.0341 2.4033
-5.1707 -4.1603 2.4034
-4.8994 -4.1402 2.4035
-4.7986 -4.2573 2.4036
-4.6950 -4.3718 2.4037
-4.5886 -4.4837 2.4038
-4.4795 -4.5930 2.4039
-4.3676 -4.6995 2.4040
-4.2532 -4.8033 2.4041
-4.1362 -4.9041 2.4042
-4.0168 -5.0021 2.4043
-3.8949 -5.0970 2.4044
-3.7708 -5.1889 2.4045
-3.6445 -5.2777 2.4047
-3.5160 -5.3632 2.4048
-3.3854 -5.4456 2.4049
-3.2528 -5.5247 2.4050
-3.1183 -5.6005 2.4051
-2.9820 -5.6729 2.4052
-2.8440 -5.7420 2.4053
-2.7044 -5.8075 2.4054
-2.5632 -5.8696 2.4055
-2.4204 -5.9281 2.4056
-2.2762 -5.9825 2.4054
-2.1307 -6.0333 2.4053
-1.9840 -6.0806 2.4052
-1.8362 -6.1241 2.4051
-1.6875 -6.1640 2.4050
-1.5379 -6.2002 2.4049
-1.3875 -6.2326 2.4047
-1.2364 -6.2614 2.4046
-1.0847 -6.2864 2.4045
-0.9325 -6.3076 2.4044
-0.7798 -6.3251 2.4043
-0.6269 -6.3388 2.4042
-0.4737 -6.3487 2.4041
-0.3205 -6.3549 2.4040
-0.1671 -6.3572 2.4039
-0.0139 -6.3558 2.4038
0.1392 -6.3506 2.4037
0.2921 -6.3417 2.4035
0.4446 -6.3290 2.4034
0.5966 -6.3126 2.4033
0.7482 -6.2925 2.4032
0.8991 -6.2688 2.4031
1.0493 -6.2413 2.4031
1.1987 -6.2102 2.4030
1.3473 -6.1754 2.4029
1.4948 -6.1371 2.4028
1.6413 -6.0952 2.4027
1.7866 -6.0497 2.4026
1.9307 -6.0008 2.4025
2.0735 -5.9485 2.4025
2.2187 -5.9027 2.4065
2.3100 -5.7224 2.3566
2.4085 -5.5750 2.3208
2.5231 -5.4735 2.3048
2.6764 -5.4558 2.3254
2.7797 -5.3367 2.3042
2.9054 -5.2637 2.3039
3.0291 -5.1878 2.3036
3.1509 -5.1089 2.3033
3.2706 -5.0272 2.3030
3.3331 -4.8623 2.2653
3.5036 -4.8552 2.3024
3.6167 -4.7651 2.3021
3.7276 -4.6724 2.3018
3.8361 -4.5771 2.3015
3.9422 -4.4792 2.3011
4.0457 -4.3789 2.3008
3.5824 -3.6942 1.9874
3.4560 -3.3956 1.8725
3.4789 -3.2567 1.8430
3.5064 -3.1269 1.8183
3.5357 -3.0028 1.7966
3.5627 -2.8805 1.7757
3.5794 -2.7536 1.7516
3.5876 -2.6243 1.7252
3.5840 -2.4909 1.6952
3.5855 -2.3654 1.6695
3.5956 -2.2492 1.6495
3.6025 -2.1340 1.6297
3.6192 -2.0274 1.6157
3.6354 -1.9224 1.6028
5.2772 -2.6292 2.2994
5.3357 -2.4991 2.2994
3.7018 -1.6258 1.5789
3.9102 -1.6056 1.6518
5.4922 -2.1013 2.2994
5.5379 -1.9665 2.2994
5.5804 -1.8307 2.2994
5.6195 -1.6941 2.2994
5.6555 -1.5565 2.2994
5.6881 -1.4183 2.2994
5.7173 -1.2794 2.2994
5.7433 -1.1399 2.2994
5.7659 -0.9999 2.2994
5.7852 -0.8595 2.2994
5.8011 -0.7187 2.2994
5.8136 -0.5777 2.2994
5.8228 -0.4364 2.2994
5.8287 -0.2951 2.2994
5.8312 -0.1537 2.2994
5.8303 -0.0123 2.2994
5.8261 0.1289 2.2994
5.8185 0.2699 2.2994
5.8076 0.4106 2.2994
5.7934 0.5510 2.2994
5.7758 0.6910 2.2994
5.7550 0.8304 2.2994
5.7309 0.9693 2.2994
5.7035 1.1075 2.2994
5.6728 1.2450 2.2994
5.6390 1.3817 2.2994
5.6019 1.5175 2.2994
5.5616 1.6523 2.2994
5.5182 1.7861 2.2994
5.4716 1.9189 2.2994
5.4220 2.0504 2.2994
5.3692 2.1807 2.2994
5.3134 2.3097 2.2994
5.2546 2.4373 2.2994
5.1928 2.5635 2.2994
5.1281 2.6881 2.2994
5.0604 2.8112 2.2994
4.9899 2.9326 2.2994
4.9166 3.0523 2.2994
4.8404 3.1703 2.2994
4.7615 3.2863 2.2994
3.3081 2.4037 1.6254
3.1557 2.4121 1.5789
4.5088 3.6230 2.2994
4.4194 3.7311 2.2994
4.3274 3.8370 2.2994
4.2330 3.9408 2.2994
2.8746 2.8094 1.5981
2.8271 2.9004 1.6103
2.7782 2.9921 1.6233
2.7341 3.0918 1.6408
2.6912 3.1962 1.6609
2.6479 3.3042 1.6830
2.6103 3.4244 1.7113
2.5697 3.5464 1.7404
2.5193 3.6605 1.7656
2.4612 3.7686 1.7882
2.3990 3.8756 1.8105
2.3350 3.9850 1.8343
2.2760 4.1098 1.8654
2.2325 4.2724 1.9136
2.5578 5.1985 2.2994
2.4316 5.2603 2.2994
2.3039 5.3191 2.2994
2.1748 5.3749 2.2994
2.0445 5.4277 2.2994
1.9128 5.4774 2.2994
1.7801 5.5240 2.2994
1.6462 5.5674 2.2994
1.5112 5.6077 2.2994
1.3886 5.6991 2.3215
1.2386 5.6787 2.2994
1.1028 5.7183 2.3030
0.9892 5.8946 2.3627
0.8607 6.0191 2.4025
0.7148 6.0409 2.4025
0.5685 6.0592 2.4025
0.4217 6.0740 2.4025
0.2745 6.0854 2.4025
0.1270 6.0933 2.4025
-0.0206 6.0976 2.4025
-0.1684 6.0985 2.4025
-0.3163 6.0959 2.4025
-0.4641 6.0897 2.4025
-0.6118 6.0800 2.4025
-0.7593 6.0668 2.4025
-0.9065 6.0501 2.4025
-1.0534 6.0299 2.4025
-1.1998 6.0062 2.4025
-1.3457 5.9790 2.4025
-1.4910 5.9483 2.4025
-1.6355 5.9141 2.4025
-1.7793 5.8765 2.4025
-1.9223 5.8354 2.4025
-2.0643 5.7909 2.4025
-2.2053 5.7430 2.4025
-2.3451 5.6917 2.4025
-2.4838 5.6371 2.4025
-2.6212 5.5791 2.4025
-2.7573 5.5178 2.4025
-2.8919 5.4532 2.4025
-3.0250 5.3854 2.4025
-3.1566 5.3143 2.4025
-3.2865 5.2401 2.4025
-3.4146 5.1627 2.4025
-3.5409 5.0822 2.4025
-3.6654 4.9986 2.4025
-3.7878 4.9121 2.4025
-3.9082 4.8225 2.4025
-4.0265 4.7300 2.4025
-4.1426 4.6346 2.4025
-4.2564 4.5364 2.4025
-4.3679 4.4354 2.4025
-4.4770 4.3317 2.4025
-4.5836 4.2253 2.4025
-4.6877 4.1163 2.4025
-4.7892 4.0047 2.4025
-4.8880 3.8907 2.4025
-4.9841 3.7742 2.4025
-5.0773 3.6553 2.4025
-5.1678 3.5342 2.4025
-5.2553 3.4108 2.4025
-5.3398 3.2852 2.4025
-5.4213 3.1575 2.4025
-5.4997 3.0279 2.4025
-5.5750 2.8963 2.4025
-5.6471 2.7628 2.4025
-5.7160 2.6274 2.4025
-5.7816 2.4904 2.4025
-5.8439 2.3518 2.4025
-5.9028 2.2116 2.4025
-5.9583 2.0699 2.4025
-6.0103 1.9268 2.4025
-6.0588 1.7824 2.4025
-6.0329 1.6178 2.3745
-5.9870 1.4517 2.3406
-5.9421 1.2899 2.3088
-5.9507 1.1423 2.2994
-5.9800 0.9991 2.2994
-6.0058 0.8551 2.2994
-6.0281 0.7105 2.2994
-6.0468 0.5653 2.2994
-6.0620 0.4196 2.2994
-6.0735 0.2736 2.2994
-6.0815 0.1272 2.2994
-6.0859 -0.0194 2.2994
-6.0867 -0.1661 2.2994
-5.9802 -0.3076 2.2602
-6.0774 -0.4596 2.2994
-6.0673 -0.6062 2.2994
-6.0536 -0.7525 2.2994
-6.0363 -0.8985 2.2994
-6.0154 -1.0440 2.2994
-5.9909 -1.1891 2.2994
-5.9628 -1.3336 2.2994
-5.9312 -1.4773 2.2994
-5.8960 -1.6203 2.2994
-5.8572 -1.7624 2.2994
-5.8768 -1.9238 2.3238
-5.9086 -2.0931 2.3549
-5.9397 -2.2665 2.3877
-5.9214 -2.4244 2.4025
-5.8629 -2.5670 2.4025
-5.8010 -2.7082 2.4026
-5.7356 -2.8478 2.4027
-5.6667 -2.9858 2.4027
-5.5945 -3.1220 2.4028
-5.5188 -3.2565 2.4029
-5.4399 -3.3891 2.4030
-5.3577 -3.5197 2.4031
-5.2722 -3.6482 2.4032
-5.1836 -3.7746 2.4033
-5.0919 -3.8988 2.4034
-4.9971 -4.0207 2.4034
-4.7389 -4.0047 2.4036
-4.6415 -4.1179 2.4037
-4.5413 -4.2287 2.4038
-4.4384 -4.3369 2.4039
-4.3328 -4.4426 2.4040
-4.2246 -4.5456 2.4041
-4.1139 -4.6459 2.4042
-4.0008 -4.7435 2.4043
-3.8853 -4.8382 2.4043
-3.7675 -4.9300 2.4044
-3.6475 -5.0189 2.4046
-3.5253 -5.1047 2.4047
-3.4010 -5.1875 2.4048
-3.2747 -5.2672 2.4049
-3.1465 -5.3438 2.4050
-3.0165 -5.4171 2.4051
-2.8847 -5.4872 2.4052
-2.7512 -5.5539 2.4053
-2.6162 -5.6174 2.4054
-2.4796 -5.6775 2.4055
-2.3416 -5.7341 2.4056
-2.2021 -5.7869 2.4055
-2.0614 -5.8362 2.4054
-1.9195 -5.8819 2.4053
-1.7767 -5.9241 2.4051
-1.6328 -5.9627 2.4050
-1.4881 -5.9978 2.4049
-1.3426 -6.0293 2.4048
-1.1965 -6.0572 2.4047
-1.0498 -6.0814 2.4046
-0.9026 -6.1020 2.4045
-0.7549 -6.1190 2.4044
-0.6070 -6.1323 2.4043
-0.4588 -6.1420 2.4042
-0.3106 -6.1480 2.4040
-0.1623 -6.1504 2.4039
-0.0140 -6.1492 2.4038
0.1341 -6.1443 2.4037
0.2820 -6.1357 2.4036
0.4295 -6.1236 2.4035
0.5767 -6.1078 2.4034
0.7233 -6.0885 2.4033
0.8693 -6.0656 2.4032
1.0147 -6.0391 2.4031
1.1593 -6.0091 2.4031
1.3030 -5.9756 2.4030
1.4458 -5.9386 2.4029
1.5875 -5.8982 2.4028
1.7282 -5.8543 2.4027
1.8677 -5.8071 2.4026
2.0059 -5.7565 2.4026
2.1427 -5.7026 2.4025
2.2782 -5.6455 2.4025
2.3942 -5.5436 2.3846
2.4619 -5.3425 2.3245
2.5657 -5.2316 2.3041
2.7246 -5.2322 2.3342
2.8106 -5.0935 2.3035
2.9304 -5.0202 2.3032
3.0483 -4.9440 2.3029
3.1642 -4.8650 2.3026
3.2781 -4.7832 2.3024
3.3898 -4.6988 2.3021
3.4994 -4.6118 2.3018
3.6068 -4.5221 2.3014
3.7118 -4.4300 2.3011
3.8146 -4.3354 2.3008
3.9149 -4.2384 2.3005
3.5823 -3.6950 2.0534
4.1082 -4.0375 2.2998
4.2010 -3.9337 2.2995
3.4998 -3.1219 1.8751
3.5192 -2.9896 1.8475
3.5408 -2.8635 1.8233
3.5659 -2.7439 1.8027
3.5883 -2.6255 1.7826
3.6031 -2.5049 1.7606
3.6135 -2.3846 1.7382
3.6124 -2.2603 1.7120
3.6067 -2.1371 1.6854
3.6084 -2.0219 1.6640
3.6124 -1.9108 1.6451
3.6158 -1.8020 1.6274
3.6286 -1.7001 1.6152
3.6407 -1.5994 1.6039
3.9102 -1.6061 1.7061
5.3174 -2.0352 2.2994
5.3618 -1.9047 2.2994
5.4030 -1.7732 2.2994
5.4411 -1.6409 2.2994
5.4759 -1.5078 2.2994
5.5076 -1.3739 2.2994
5.5360 -1.2394 2.2994
5.5612 -1.1044 2.2994
5.5832 -0.9688 2.2994
3.9033 -0.5803 1.6021
5.6175 -0.6965 2.2994
5.6297 -0.5599 2.2994
5.6387 -0.4232 2.2994
5.6444 -0.2863 2.2994
5.6469 -0.1493 2.2994
5.6462 -0.0125 2.2994
5.6421 0.1243 2.2994
5.6349 0.2609 2.2994
3.8566 0.2724 1.5767
5.6107 0.5332 2.2994
5.5938 0.6688 2.2994
5.5736 0.8038 2.2994
5.5503 0.9384 2.2994
5.5239 1.0723 2.2994
5.4943 1.2054 2.2994
5.4615 1.3378 2.2994
5.4256 1.4694 2.2994
5.3867 1.6000 2.2994
5.3447 1.7296 2.2994
5.2996 1.8582 2.2994
5.2515 1.9856 2.2994
3.6194 1.4698 1.6003
5.1464 2.2368 2.2994
5.0895 2.3605 2.2994
5.0297 2.4827 2.2994
4.9670 2.6035 2.2994
4.9015 2.7227 2.2994
4.8332 2.8403 2.2994
4.7622 2.9563 2.2994
4.6885 3.0706 2.2994
4.6120 3.1830 2.2994
3.3082 2.4037 1.6781
3.0718 2.3479 1.5868
4.3672 3.5091 2.2994
2.9816 2.5172 1.6016
2.9383 2.6053 1.6119
2.8936 2.6938 1.6228
2.8528 2.7881 1.6374
2.8146 2.8876 1.6552
2.7753 2.9890 1.6742
2.7425 3.1013 1.6992
2.7092 3.2177 1.7263
2.6664 3.3275 1.7498
2.6187 3.4355 1.7725
2.5633 3.5377 1.7924
2.5060 3.6414 1.8134
2.4467 3.7467 1.8354
2.3919 3.8645 1.8638
2.3480 4.0075 1.9045
2.3809 4.2995 2.0148
2.5980 4.9724 2.2994
2.4771 5.0351 2.2994
2.3549 5.0950 2.2994
2.2312 5.1519 2.2994
2.1062 5.2060 2.2994
1.9799 5.2570 2.2994
1.8523 5.3051 2.2994
1.7237 5.3502 2.2994
1.5940 5.3922 2.2994
1.4800 5.4930 2.3256
1.3317 5.4671 2.2994
1.2015 5.5104 2.3038
1.0941 5.6759 2.3603
0.9737 5.8050 2.4025
0.8331 5.8293 2.4025
0.6918 5.8503 2.4025
0.5501 5.8680 2.4025
0.4079 5.8823 2.4025
0.2653 5.8932 2.4025
0.1225 5.9008 2.4025
-0.0205 5.9049 2.4025
-0.1637 5.9057 2.4025
-0.3069 5.9030 2.4025
-0.4500 5.8970 2.4025
-0.5931 5.8875 2.4025
-0.7359 5.8747 2.4025
-0.8784 5.8584 2.4025
-1.0206 5.8387 2.4025
-1.1624 5.8157 2.4025
-1.3036 5.7892 2.4025
-1.4443 5.7594 2.4025
-1.5843 5.7262 2.4025
-1.7235 5.6897 2.4025
-1.8619 5.6498 2.4025
-1.9993 5.6066 2.4025
-2.1358 5.5601 2.4025
-2.2712 5.5104 2.4025
-2.4054 5.4574 2.4025
-2.5384 5.4011 2.4025
-2.6701 5.3417 2.4025
-2.8004 5.2790 2.4025
-2.9292 5.2132 2.4025
-3.0565 5.1444 2.4025
-3.1822 5.0724 2.4025
-3.3062 4.9974 2.4025
-3.4284 4.9194 2.4025
-3.5488 4.8384 2.4025
-3.6672 4.7545 2.4025
-3.7837 4.6677 2.4025
-3.8981 4.5781 2.4025
-4.0104 4.4856 2.4025
-4.1206 4.3905 2.4025
-4.2284 4.2926 2.4025
-4.3339 4.1922 2.4025
-4.4370 4.0891 2.4025
-4.5376 3.9835 2.4025
-4.6358 3.8755 2.4025
-4.7313 3.7650 2.4025
-4.8242 3.6522 2.4025
-4.9144 3.5371 2.4025
-5.0018 3.4197 2.4025
-5.0864 3.3003 2.4025
-5.1681 3.1787 2.4025
-5.2469 3.0551 2.4025
-5.3226 2.9295 2.4025
-5.3954 2.8021 2.4025
-5.4651 2.6729 2.4025
-5.5316 2.5419 2.4025
-5.5950 2.4093 2.4025
-5.6552 2.2751 2.4025
-5.7123 2.1395 2.4026
-5.7658 2.0023 2.4026
-5.8160 1.8638 2.4025
-5.8628 1.7240 2.4025
-5.9062 1.5831 2.4025
-5.9462 1.4411 2.4025
-5.9300 1.2866 2.3813
-5.8863 1.1293 2.3508
-5.8434 0.9757 2.3222
-5.8108 0.8268 2.2994
-5.8322 0.6868 2.2994
-5.8503 0.5464 2.2994
-5.8648 0.4054 2.2994
-5.8932 0.2649 2.3061
-5.8880 0.1226 2.3011
-5.8878 -0.0193 2.2994
-5.8884 -0.1612 2.2994
-5.8856 -0.3032 2.2994
-5.8793 -0.4451 2.2994
-5.8694 -0.5869 2.2994
-5.8561 -0.7284 2.2994
-5.8468 -0.8707 2.3023
-5.8190 -1.0104 2.2994
-5.7953 -1.1507 2.2994
-5.7680 -1.2904 2.2994
-5.7666 -1.4367 2.3111
-5.7987 -1.5940 2.3379
-5.8297 -1.7545 2.3659
-5.8594 -1.9185 2.3953
-5.8307 -2.0658 2.4025
-5.7809 -2.2062 2.4025
-5.7278 -2.3455 2.4025
-5.6712 -2.4834 2.4026
-5.6113 -2.6199 2.4027
-5.5480 -2.7549 2.4027
-5.4813 -2.8883 2.4028
-5.4114 -3.0201 2.4029
-5.3382 -3.1501 2.4030
-5.2619 -3.2783 2.4031
-5.1823 -3.4046 2.4031
-5.0996 -3.5289 2.4032
-5.0139 -3.6512 2.4033
-4.9252 -3.7713 2.4034
-4.8335 -3.8891 2.4035
-4.5874 -3.8767 2.4036
-4.4931 -3.9863 2.4037
-4.3961 -4.0935 2.4038
-4.2965 -4.1983 2.4039
-4.1943 -4.3005 2.4040
-4.0896 -4.4003 2.4041
-3.9825 -4.4974 2.4042
-3.8730 -4.5918 2.4043
-3.7612 -4.6834 2.4044
-3.6472 -4.7723 2.4045
-3.5310 -4.8583 2.4046
-3.4127 -4.9415 2.4047
-3.2924 -5.0216 2.4048
-3.1702 -5.0988 2.4048
-3.0461 -5.1729 2.4049
-2.9203 -5.2438 2.4050
-2.7927 -5.3117 2.4051
-2.6635 -5.3764 2.4052
-2.5328 -5.4378 2.4053
-2.4006 -5.4960 2.4054
-2.2671 -5.5509 2.4055
-2.1322 -5.6022 2.4055
-1.9960 -5.6499 2.4054
-1.8587 -5.6942 2.4053
-1.7204 -5.7351 2.4052
-1.5812 -5.7726 2.4051
-1.4411 -5.8066 2.4050
-1.3003 -5.8372 2.4049
-1.1588 -5.8642 2.4047
-1.0168 -5.8877 2.4046
-0.8743 -5.9078 2.4045
-0.7314 -5.9243 2.4044
-0.5882 -5.9373 2.4043
-0.4448 -5.9467 2.4042
-0.3012 -5.9526 2.4041
-0.1576 -5.9550 2.4040
-0.0141 -5.9539 2.4039
0.1293 -5.9492 2.4038
0.2725 -5.9411 2.4037
0.4153 -5.9294 2.4036
0.5578 -5.9143 2.4035
0.6998 -5.8957 2.4034
0.8412 -5.8736 2.4033
0.9820 -5.8481 2.4032
1.1220 -5.8191 2.4031
1.2611 -5.7868 2.4031
1.3994 -5.7511 2.4030
1.5367 -5.7120 2.4029
1.6730 -5.6696 2.4028
1.8081 -5.6240 2.4027
1.9419 -5.5751 2.4027
2.0745 -5.5230 2.4026
2.2056 -5.4676 2.4025
2.3354 -5.4093 2.4025
2.4488 -5.3158 2.3881
2.5113 -5.1224 2.3292
2.6033 -5.0009 2.3034
2.7211 -4.9327 2.3031
2.8419 -4.8699 2.3067
2.9513 -4.7880 2.3026
3.0636 -4.7116 2.3023
3.1739 -4.6326 2.3020
3.2823 -4.5509 2.3017
3.3885 -4.4667 2.3014
3.4925 -4.3800 2.3011
3.5944 -4.2909 2.3008
3.6940 -4.1994 2.3005
3.7912 -4.1055 2.3002
3.5821 -3.6958 2.1200
3.9786 -3.9111 2.2995
4.0689 -3.8110 2.2994
4.1570 -3.7090 2.2994
4.2425 -3.6050 2.2994
3.5364 -2.8607 1.8799
3.5519 -2.7339 1.8537
3.5663 -2.6100 1.8290
3.5863 -2.4939 1.8090
3.6056 -2.3800 1.7903
3.6236 -2.2680 1.7727
3.6311 -2.1522 1.7515
3.6344 -2.0370 1.7300
3.6261 -1.9186 1.7045
3.6177 -1.8035 1.6806
3.6171 -1.6952 1.6619
3.6184 -1.5902 1.6453
3.6197 -1.4873 1.6301
3.6282 -1.3891 1.6193
3.6370 -1.2925 1.6098
3.6449 -1.1967 1.6009
5.2721 -1.5906 2.2994
5.3059 -1.4616 2.2994
5.3367 -1.3319 2.2994
5.3644 -1.2016 2.2994
5.3889 -1.0707 2.2994
5.4103 -0.9394 2.2994
3.7275 -0.5546 1.5789
5.4436 -0.6755 2.2994
5.4556 -0.5432 2.2994
5.4643 -0.4106 2.2994
5.4700 -0.2779 2.2994
5.4724 -0.1452 2.2994
5.4718 -0.0126 2.2994
5.4680 0.1200 2.2994
5.4610 0.2524 2.2994
3.7422 0.2640 1.5786
5.4377 0.5163 2.2994
5.4213 0.6477 2.2994
5.4019 0.7787 2.2994
5.3794 0.9091 2.2994
5.3537 1.0388 2.2994
5.3251 1.1679 2.2994
5.2934 1.2963 2.2994
5.2587 1.4238 2.2994
5.2209 1.5504 2.2994
5.1803 1.6761 2.2994
5.1366 1.8007 2.2994
5.0901 1.9243 2.2994
3.4612 1.4054 1.5789
4.9883 2.1678 2.2994
4.9331 2.2877 2.2994
4.8751 2.4062 2.2994
4.8144 2.5233 2.2994
4.7509 2.6388 2.2994
4.6848 2.7529 2.2994
4.6159 2.8653 2.2994
3.1531 2.0649 1.5954
3.1156 2.1501 1.6025
3.0766 2.2354 1.6101
3.0367 2.3210 1.6183
2.9959 2.4072 1.6273
2.9617 2.5003 1.6413
2.9265 2.5948 1.6563
2.8901 2.6906 1.6722
2.8592 2.7944 1.6931
2.8303 2.9037 1.7171
2.7976 3.0131 1.7411
2.7560 3.1166 1.7617
2.7098 3.2185 1.7814
2.6574 3.3164 1.7992
2.6033 3.4155 1.8180
2.5495 3.5189 1.8394
2.4995 3.6321 1.8661
2.4603 3.7677 1.9042
2.8601 4.6211 2.2994
2.7476 4.6900 2.2994
2.3808 4.2997 2.0787
2.5179 4.8196 2.2994
2.4007 4.8804 2.2994
2.2822 4.9384 2.2994
2.1623 4.9935 2.2994
2.0411 5.0459 2.2994
1.9186 5.0953 2.2994
1.7950 5.1419 2.2994
1.6703 5.1856 2.2994
1.5446 5.2263 2.2994
1.4179 5.2640 2.2994
1.2928 5.3092 2.3040
1.1924 5.4705 2.3598
1.0789 5.5993 2.4025
0.9432 5.6260 2.4025
0.8069 5.6496 2.4025
0.6700 5.6699 2.4025
0.5326 5.6869 2.4025
0.3948 5.7007 2.4025
0.2566 5.7112 2.4025
0.1182 5.7185 2.4025
-0.0204 5.7224 2.4025
-0.1592 5.7231 2.4025
-0.2979 5.7204 2.4025
-0.4367 5.7145 2.4025
-0.5753 5.7053 2.4025
-0.7137 5.6927 2.4025
-0.8518 5.6769 2.4025
-0.9896 5.6577 2.4025
-1.1270 5.6353 2.4025
-1.2639 5.6096 2.4025
-1.4001 5.5806 2.4025
-1.5357 5.5483 2.4025
-1.6706 5.5129 2.4025
-1.8047 5.4741 2.4025
-1.9378 5.4322 2.4025
-2.0700 5.3870 2.4025
-2.2012 5.3387 2.4025
-2.3312 5.2873 2.4025
-2.4600 5.2327 2.4025
-2.5876 5.1750 2.4025
-2.7138 5.1142 2.4025
-2.8385 5.0504 2.4025
-2.9618 4.9835 2.4025
-3.0835 4.9137 2.4025
-3.2036 4.8410 2.4025
-3.3219 4.7653 2.4025
-3.4385 4.6867 2.4025
-3.5532 4.6054 2.4025
-3.6659 4.5212 2.4025
-3.7767 4.4343 2.4025
-3.8854 4.3447 2.4025
-3.9920 4.2525 2.4025
-4.0964 4.1576 2.4025
-4.1985 4.0602 2.4025
-4.2983 3.9603 2.4025
-4.3957 3.8579 2.4025
-4.4907 3.7532 2.4025
-4.5831 3.6461 2.4025
-4.6730 3.5368 2.4025
-4.7603 3.4252 2.4025
-4.8448 3.3116 2.4025
-4.9267 3.1958 2.4025
-5.0057 3.0780 2.4025
-5.0819 2.9582 2.4025
-5.1552 2.8366 2.4025
-5.2256 2.7131 2.4025
-5.2929 2.5879 2.4025
-5.3573 2.4610 2.4025
-5.4188 2.3326 2.4026
-5.4772 2.2027 2.4027
-5.5321 2.0712 2.4027
-5.5838 1.9384 2.4026
-5.6323 1.8042 2.4026
-5.6775 1.6689 2.4026
-5.7194 1.5324 2.4025
-5.7580 1.3948 2.4025
-5.7933 1.2563 2.4025
-5.8252 1.1169 2.4025
-5.8316 0.9731 2.3934
-5.7898 0.8232 2.3661
-5.7486 0.6764 2.3407
-5.7237 0.5340 2.3234
-5.7190 0.3948 2.3158
-5.7141 0.2563 2.3094
-5.7091 0.1184 2.3044
-5.7039 -0.0192 2.3008
-5.7011 -0.1566 2.2994
-5.6983 -0.2940 2.2994
-5.6921 -0.4314 2.2994
-5.6825 -0.5686 2.2994
-5.6750 -0.7063 2.3016
-5.6687 -0.8446 2.3057
-5.6624 -0.9836 2.3112
-5.6929 -1.1308 2.3332
-5.7238 -1.2809 2.3570
-5.7536 -1.4339 2.3819
-5.7821 -1.5898 2.4080
-5.7307 -1.7251 2.4025
-5.6893 -1.8632 2.4025
-5.6446 -2.0002 2.4025
-5.5965 -2.1362 2.4026
-5.5450 -2.2709 2.4027
-5.4902 -2.4044 2.4027
-5.4321 -2.5365 2.4028
-5.3708 -2.6672 2.4028
-5.3062 -2.7963 2.4029
-5.2385 -2.9238 2.4030
-5.1676 -3.0497 2.4031
-5.0937 -3.1738 2.4031
-5.0167 -3.2960 2.4032
-4.9366 -3.4163 2.4033
-4.8536 -3.5346 2.4034
-4.7677 -3.6508 2.4035
-4.6790 -3.7649 2.4036
-4.4441 -3.7557 2.4037
-4.3527 -3.8618 2.4038
-4.2588 -3.9656 2.4039
-4.1623 -4.0671 2.4040
-4.0633 -4.1662 2.4040
-3.9619 -4.2627 2.4041
-3.8581 -4.3568 2.4042
-3.7520 -4.4482 2.4043
-3.6437 -4.5371 2.4044
-3.5333 -4.6231 2.4045
-3.4208 -4.7065 2.4046
-3.3062 -4.7870 2.4047
