ply
format ascii 1.0
element vertex 2036
property float32 x
property float32 y
property float32 z
end_header
-41.3736 13.4090 0.8670
-41.6565 12.3968 0.8583
-41.8856 11.3710 0.8492
-42.3835 10.4135 0.8461
-43.0772 9.4866 0.8473
-44.2213 8.6240 0.8577
-47.8675 8.1399 0.9161
-49.2093 7.1494 0.9299
-49.5969 5.9861 0.9261
-49.5681 4.7708 0.9152
-29.0292 2.0876 0.5304
-51.1683 2.4389 0.9258
-52.8055 1.2394 0.9468
-54.3108 -0.0379 0.9658
-56.9335 -1.4156 1.0048
-57.5569 -2.8238 1.0090
-32.7789 -2.4031 0.5712
-80.0080 -7.8131 1.3870
-78.4734 -9.5822 1.3544
-5.9445 -0.8721 0.1022
-74.8981 -12.8437 1.2845
-73.5114 -14.4422 1.2582
-56.0413 -12.4234 0.9582
-26.5141 -6.5535 0.4532
-22.3462 -6.0998 0.3822
-45.9982 -13.7585 0.7880
-50.4484 -16.4275 0.8664
-49.3141 -17.3867 0.8498
-48.5545 -18.4494 0.8404
-47.9119 -19.5425 0.8337
-36.1812 -15.7877 0.6335
-35.6347 -16.5853 0.6285
-34.8544 -17.2586 0.6199
-32.3438 -17.0004 0.5807
-32.7752 -18.2511 0.5946
-30.8629 -18.1767 0.5664
-54.8541 -34.1175 1.0195
-32.6772 -21.4360 0.6158
-32.5457 -22.4929 0.6225
-61.6681 -44.8595 1.1988
-23.6554 -18.0975 0.4679
-68.4999 -57.8588 2.4025
-32.1350 -28.5013 1.1512
-31.4491 -29.2804 1.1521
-64.0458 -62.5848 2.4025
-59.1228 -60.6345 2.2741
-49.4334 -53.2105 1.9523
-21.2522 -24.0142 0.8630
-20.6812 -24.5388 0.8649
-20.0999 -25.0530 0.8671
-31.6495 -41.4623 1.4107
-30.6473 -42.2265 1.4139
-29.6476 -42.9971 1.4185
-29.8634 -45.6309 1.4846
-13.0102 -20.9679 0.6735
-27.1912 -46.2824 1.4691
-26.3006 -47.3493 1.4867
-26.1631 -49.9051 1.5515
-23.4634 -47.5124 1.4638
-18.7996 -40.5047 1.2378
-20.6558 -47.4748 1.4403
-19.4179 -47.7508 1.4394
-18.4297 -48.6574 1.4586
-17.9565 -51.1022 1.5246
-16.6705 -51.3784 1.5268
-15.6618 -52.5628 1.5570
-14.8095 -54.4785 1.6099
-8.4723 -34.4315 1.0158
-7.8878 -35.7586 1.0540
-7.2684 -37.2014 1.0964
-6.3024 -36.9838 1.0906
-4.8088 -33.0173 0.9749
-4.1754 -34.4925 1.0205
-3.4871 -36.0959 1.0708
-2.5536 -35.3325 1.0517
-1.7830 -37.1274 1.1096
-0.8746 -36.6987 1.1019
0.0139 -41.3126 1.2473
0.8151 -33.2657 1.0105
1.7229 -35.3803 1.0819
2.7565 -37.7879 1.1641
3.9456 -40.5576 1.2595
6.7473 -55.4252 1.7363
8.2716 -56.5255 1.7873
9.4155 -55.0278 1.7574
4.3138 -21.9998 0.7101
4.8277 -21.8156 0.7122
5.2532 -21.2867 0.7032
5.6748 -20.8191 0.6965
6.2235 -20.8344 0.7063
9.5161 -29.2599 1.0058
10.0862 -28.6410 0.9989
10.7121 -28.2225 0.9995
11.2939 -27.7177 0.9973
11.8645 -27.2169 0.9957
8.5293 -18.3430 0.6828
8.9461 -18.0832 0.6853
9.3244 -17.7551 0.6856
9.6601 -17.3620 0.6836
10.0289 -17.0421 0.6847
16.6305 -26.7593 1.0979
26.0385 -39.7231 1.6657
27.0258 -39.1332 1.6784
28.1490 -38.7241 1.7002
29.4278 -38.4921 1.7316
30.6395 -38.1310 1.7590
30.9397 -36.6543 1.7356
31.0650 -35.0483 1.7051
31.3325 -33.6745 1.6849
31.8175 -32.5803 1.6782
32.7568 -31.9595 1.6967
35.4824 -32.9832 1.8068
36.2879 -32.1329 1.8185
36.8880 -31.1069 1.8209
37.1380 -29.8123 1.8076
25.5652 -19.5255 1.2280
38.3115 -27.8209 1.8177
39.0755 -26.9579 1.8327
40.9071 -26.7860 1.8981
42.5694 -26.4272 1.9557
43.7586 -25.7217 1.9919
43.9722 -24.4371 1.9846
43.8010 -22.9745 1.9615
43.3432 -21.4151 1.9271
42.5451 -19.7564 1.8793
41.9176 -18.2469 1.8407
41.3851 -16.8374 1.8077
40.9418 -15.5147 1.7800
40.6383 -14.2864 1.7596
40.2782 -13.0750 1.7378
39.3652 -11.7349 1.6933
38.9505 -10.5933 1.6714
38.9061 -9.5777 1.6663
38.2124 -8.4330 1.6343
38.6856 -7.5618 1.6531
38.8646 -6.6259 1.6601
39.3220 -5.7296 1.6798
39.9464 -4.8378 1.7076
40.6546 -3.9292 1.7398
41.1979 -2.9787 1.7658
41.4431 -1.9910 1.7801
42.0298 -1.0018 1.8099
43.0287 0.0147 1.8585
42.8125 1.0497 1.8557
42.8403 2.0874 1.8643
42.8696 3.1290 1.8740
43.4821 4.2325 1.9102
44.2018 5.3839 1.9524
45.2474 6.6248 2.0104
46.4195 7.9468 2.0757
48.1672 9.4498 2.1687
50.7323 11.2329 2.3011
51.2135 12.6455 2.3413
53.3884 14.5604 2.4613
52.9160 15.8153 2.4613
52.4201 17.0577 2.4613
38.1193 13.4316 1.8077
20.9912 7.9718 1.0059
50.7965 20.7095 2.4613
23.5061 10.2527 1.1522
26.5483 12.3518 1.3173
26.7559 13.2444 1.3447
29.9619 15.7442 1.5261
17.5043 9.7451 0.9041
18.4714 10.8766 0.9682
24.8433 15.4493 1.3223
24.5174 16.0812 1.3260
23.9111 16.5238 1.3150
23.4491 17.0565 1.3124
22.9889 17.5870 1.3103
15.2918 12.2957 0.8884
14.9809 12.6540 0.8878
40.8637 36.2450 2.4725
24.1296 22.4676 1.4920
39.0894 38.2023 2.4725
38.1736 39.1556 2.4725
35.4127 38.1256 2.3513
18.8157 21.2657 1.2821
15.9643 18.9467 1.1177
12.4705 15.5480 0.8983
12.1481 15.9197 0.9016
30.7065 42.3233 2.3513
29.7139 43.1105 2.3513
28.7047 43.8796 2.3513
27.3405 44.0847 2.3225
13.4758 22.9493 1.1895
12.8584 23.1626 1.1820
12.2463 23.3741 1.1751
12.2638 24.8508 1.2316
22.0351 47.5119 2.3225
16.9769 39.0518 1.8841
15.0849 37.1294 1.7690
13.2480 35.0120 1.6483
13.8517 39.4642 1.8368
16.3474 50.4446 2.3225
9.5173 31.9850 1.4575
9.7446 35.9014 1.6200
7.3299 29.8404 1.3340
6.5583 29.7900 1.3201
7.0175 35.9987 1.5821
4.6812 27.5427 1.2011
4.0010 27.5581 1.1931
5.9716 49.5222 2.1295
5.1726 53.8086 2.2993
2.1691 30.2166 1.2837
1.4496 30.4994 1.2888
0.6797 29.1405 1.2254
-0.0281 33.0682 1.3846
-0.8291 33.1261 1.3816
-1.5625 31.7372 1.3192
-3.4076 46.3657 1.9217
-3.5479 36.2603 1.4993
-4.2954 35.1194 1.4493
-6.0981 41.5074 1.7106
-7.3707 42.9278 1.7675
-9.8994 50.3293 2.0715
-10.2305 46.0999 1.8976
-4.0124 16.2168 0.6680
-12.1426 44.4412 1.8328
-14.0021 46.7703 1.9322
-17.1915 52.7491 2.1842
-19.5912 55.5204 2.3056
-20.7357 54.5275 2.2722
-22.6595 55.5101 2.3225
-24.1148 55.2222 2.3213
-11.6598 25.0331 1.0578
-27.0586 54.6061 2.3213
-28.5338 54.2471 2.3213
-30.0102 53.8538 2.3213
-19.9643 33.8743 1.4718
-32.9814 52.9906 2.3225
-34.1149 51.9691 2.2994
-35.3083 51.0538 2.2822
-37.3802 51.3513 2.3211
-40.2104 52.5236 2.4025
-41.7242 51.8553 2.4025
-43.2325 51.1485 2.4025
-37.2731 41.9962 2.0018
-46.2279 49.6173 2.4025
-45.6647 46.6977 2.2994
-47.0755 45.8689 2.2993
-48.9663 45.4574 2.3225
-50.3702 44.5439 2.3225
-14.5559 12.2584 0.6531
-53.1384 42.5998 2.3225
-54.4997 41.5685 2.3225
-55.8452 40.4986 2.3225
-23.6576 16.2991 0.9610
-24.2039 15.8269 0.9612
-24.7577 15.3482 0.9620
-25.3263 14.8659 0.9637
-25.8987 14.3721 0.9658
-26.4814 13.8695 0.9686
-27.0765 13.3576 0.9721
-27.6841 12.8354 0.9763
-28.3053 12.3014 0.9813
-28.9389 11.7541 0.9870
-29.5914 11.1941 0.9936
-30.2613 10.6192 1.0010
-30.9412 10.0249 1.0090
-31.6479 9.4154 1.0182
-32.3767 8.7867 1.0284
-33.1378 8.1391 1.0399
-33.9193 7.4670 1.0523
-34.7249 6.7692 1.0658
-35.5659 6.0453 1.0806
-36.4377 5.2910 1.0968
-37.3502 4.5051 1.1145
-38.3073 3.6842 1.1340
-39.3058 2.8239 1.1551
-40.3525 1.9206 1.1780
-41.4550 0.9702 1.2031
-42.6255 -0.0324 1.2306
-32.6662 -0.8143 0.9388
-42.0169 -2.0639 1.2030
-32.7791 -2.4051 0.9356
-40.3820 -3.9458 1.1499
-39.6096 -4.8388 1.1260
-5.9441 -0.8724 0.1688
-38.1351 -6.5414 1.0830
-37.4307 -7.3556 1.0636
-36.7418 -8.1468 1.0455
-26.5033 -6.5521 0.7557
-35.4234 -9.6711 1.0130
-34.7800 -10.4045 0.9983
-34.1567 -11.1238 0.9849
-33.5461 -11.8286 0.9725
-32.9462 -12.5199 0.9610
-32.3570 -13.1991 0.9505
-31.7796 -13.8682 0.9409
-31.2086 -14.5263 0.9321
-30.6371 -15.1712 0.9239
-30.0794 -15.8110 0.9168
-29.5295 -16.4444 0.9104
-28.9852 -17.0714 0.9049
-54.8474 -34.1143 1.7355
-72.2569 -47.4012 2.3197
-69.1414 -47.7857 2.2543
-61.6594 -44.8537 2.0440
-68.1508 -52.1390 2.2994
-66.8821 -53.7787 2.2994
-48.4438 -40.9183 2.4025
-32.1334 -28.4996 1.6276
-31.4476 -29.2786 1.6287
-45.3114 -44.2769 2.4025
-44.2025 -45.3317 2.4025
-42.7369 -46.0010 2.3843
-20.5179 -23.1837 1.1767
-19.3842 -22.9990 1.1443
-18.8933 -23.5481 1.1499
-32.1718 -42.1444 2.0221
-30.5641 -42.1096 1.9873
-30.2679 -43.8940 2.0396
-30.4167 -46.4731 2.1282
-28.7805 -46.3807 2.0954
-27.3780 -46.5963 2.0787
-27.2537 -49.0609 2.1631
-29.7229 -56.6896 2.4725
-23.6741 -47.9339 2.0699
-18.7990 -40.4986 1.7330
-20.7864 -47.7688 2.0272
-19.5549 -48.0808 2.0252
-22.3864 -59.0945 2.4725
-18.5470 -52.7736 2.1951
-16.8208 -51.8320 2.1448
-15.8686 -53.2457 2.1937
-15.0481 -55.3430 2.2718
-8.4748 -34.4326 1.4093
-7.8894 -35.7550 1.4602
-7.2701 -37.1974 1.5168
-6.2837 -36.8589 1.5018
-4.8105 -33.0133 1.3449
-4.1774 -34.4880 1.4058
-3.4892 -36.0908 1.4729
-2.5558 -35.3272 1.4445
-1.7855 -37.1215 1.5218
-0.8759 -36.6364 1.5068
0.0106 -41.3050 1.7054
0.8122 -33.2591 1.3794
1.7196 -35.3726 1.4746
2.7527 -37.7789 1.5841
3.9411 -40.5471 1.7112
6.6311 -54.5103 2.3169
7.9103 -54.0901 2.3169
9.1729 -53.6388 2.3169
4.3120 -22.0013 0.9589
4.8249 -21.8124 0.9599
5.2515 -21.2881 0.9466
5.6731 -20.8206 0.9360
6.2202 -20.8306 0.9474
9.4962 -29.2082 1.3448
10.0839 -28.6431 1.3360
10.6900 -28.1726 1.3321
11.2708 -27.6687 1.3271
11.8247 -27.1330 1.3211
8.5277 -18.3443 0.9073
8.9445 -18.0846 0.9093
9.3228 -17.7565 0.9082
9.6586 -17.3634 0.9041
10.0274 -17.0435 0.9042
16.6172 -26.7440 1.4467
25.8980 -39.5176 2.1814
26.8548 -38.8942 2.1927
27.9325 -38.4344 2.2147
29.0839 -38.0504 2.2432
30.0119 -37.3578 2.2551
30.6858 -36.3610 2.2497
31.5051 -35.5522 2.2567
31.6150 -33.9851 2.2155
32.2102 -32.9892 2.2110
33.7758 -32.9603 2.2736
34.6262 -32.1938 2.2883
35.2658 -31.2342 2.2904
35.8654 -30.2507 2.2915
36.5060 -29.3110 2.2968
25.5627 -19.5276 1.5851
37.6900 -27.3753 2.3055
38.3628 -26.4718 2.3169
38.8242 -25.4276 2.3169
39.2603 -24.3781 2.3169
39.6713 -23.3243 2.3169
40.0574 -22.2665 2.3169
40.4186 -21.2052 2.3169
40.7549 -20.1410 2.3169
41.0668 -19.0745 2.3169
41.1662 -17.9242 2.3064
40.4930 -16.4787 2.2543
39.8487 -15.1046 2.2058
39.1368 -13.7624 2.1553
37.8717 -12.2974 2.0762
37.2908 -11.1199 2.0363
36.9750 -10.0593 2.0122
36.9083 -9.0891 2.0029
36.9174 -8.1503 1.9988
37.0408 -7.2433 2.0020
37.1903 -6.3434 2.0076
37.4919 -5.4658 2.0225
37.9265 -4.5960 2.0456
38.4976 -3.7235 2.0771
39.3094 -2.8449 2.1227
40.3023 -1.9389 2.1792
41.2568 -0.9862 2.2350
42.2883 0.0117 2.2963
42.8135 1.0471 2.3315
42.8428 2.0849 2.3409
42.8835 3.1275 2.3522
43.3019 4.2124 2.3855
43.8706 5.3411 2.4287
44.2215 6.4722 2.4613
43.9623 7.5239 2.4613
43.6823 8.5678 2.4613
43.3816 9.6033 2.4613
43.0603 10.6304 2.4613
42.7189 11.6486 2.4613
42.3574 12.6578 2.4613
41.9762 13.6576 2.4613
38.0931 13.4208 2.2551
20.9917 7.9712 1.2554
40.7156 16.5981 2.4613
23.5065 10.2521 1.4372
26.5488 12.3512 1.6426
26.7539 13.2426 1.6762
29.9624 15.7437 1.9021
17.5045 9.7449 1.1267
18.4716 10.8764 1.2063
24.8435 15.4490 1.6473
24.5181 16.0813 1.6518
23.9113 16.5237 1.6379
23.4492 17.0564 1.6345
22.9889 17.5869 1.6319
15.2918 12.2957 1.1064
14.9809 12.6541 1.1057
32.8105 29.1022 2.4725
24.1295 22.4678 1.8583
31.3817 30.6700 2.4725
30.6434 31.4324 2.4725
29.8894 32.1800 2.4725
18.8154 21.2660 1.5976
15.9640 18.9471 1.3930
12.4702 15.5483 1.1197
12.1478 15.9200 1.1240
24.6221 33.9390 2.3513
23.8198 34.5611 2.3513
23.0041 35.1676 2.3513
22.1750 35.7584 2.3513
13.4748 22.9496 1.4852
12.8574 23.1629 1.4763
12.2453 23.3744 1.4682
12.2668 24.8597 1.5399
17.6192 37.9947 2.3225
16.7258 38.4790 2.3225
15.0835 37.1311 2.2143
13.2466 35.0137 2.0642
13.8483 39.4613 2.3012
13.0379 40.2398 2.3225
9.5158 31.9867 1.8282
9.7416 35.8988 2.0330
7.3274 29.8383 1.6752
6.5567 29.7918 1.6590
7.0155 36.0010 1.9896
4.6789 27.5408 1.5113
3.9994 27.5600 1.5025
5.1653 42.8609 2.3225
4.1399 43.0990 2.3225
2.1667 30.2145 1.6200
1.4473 30.5019 1.6281
0.6775 29.1430 1.5493
-0.0307 33.0659 1.7517
-0.8318 33.1292 1.7498
-1.5650 31.7350 1.6720
-3.2499 44.1690 2.3225
-3.5514 36.2643 1.9041
-4.2981 35.1169 1.8421
-6.1014 41.5045 2.1763
-7.3741 42.9249 2.2511
-8.7094 44.2585 2.3225
-9.8144 44.2055 2.3225
-4.0107 16.2035 0.8528
-12.0338 44.0265 2.3225
-13.1403 43.8764 2.3213
-14.2552 43.7252 2.3213
-15.3715 43.5486 2.3213
-16.4886 43.3465 2.3213
-17.6063 43.1189 2.3213
-18.7238 42.8654 2.3213
-11.6623 25.0321 1.3644
-20.9559 42.2798 2.3213
-21.8913 41.6086 2.3025
-22.9935 41.2524 2.3025
-20.1399 34.1645 1.9248
-19.1653 30.7856 1.7520
-26.2419 39.9668 2.2993
-28.2993 40.9103 2.3811
-29.6810 40.7658 2.4025
-30.8018 40.2254 2.4025
-31.9151 39.6562 2.4025
-33.0204 39.0585 2.4025
-34.1167 38.4319 2.4025
-35.2034 37.7767 2.4025
-34.7229 35.5012 2.2994
-35.7422 34.8190 2.2994
-36.7499 34.1094 2.2994
-38.1243 33.7076 2.3225
-14.5560 12.2560 0.8643
-37.9596 30.4251 2.1989
-35.9335 27.4019 2.0327
-34.8141 25.2417 1.9250
-23.6600 16.2973 1.2799
-24.2063 15.8251 1.2822
-24.7602 15.3464 1.2854
-25.3282 14.8637 1.2896
-25.9006 14.3700 1.2946
-26.4833 13.8673 1.3004
-27.0787 13.3556 1.3072
-27.6863 12.8333 1.3150
-28.3075 12.2994 1.3238
-28.9411 11.7520 1.3336
-29.5936 11.1920 1.3447
-30.2635 10.6170 1.3569
-30.9443 10.0230 1.3700
-31.6510 9.4134 1.3847
-32.3799 8.7846 1.4007
-33.1398 8.1367 1.4185
-33.9213 7.4646 1.4377
-34.7275 6.7669 1.4584
-35.5686 6.0429 1.4810
-36.4413 5.2888 1.5055
-37.3540 4.5028 1.5321
-28.9797 2.7850 1.1809
-39.3083 2.8213 1.5924
-40.3558 1.9180 1.6264
-29.1291 0.6798 1.1686
-42.6279 -0.0351 1.7036
-42.8782 -1.0715 1.7082
-42.0149 -2.0664 1.6696
-33.6636 -2.4720 1.3353
-40.3808 -3.9480 1.6000
-39.6079 -4.8408 1.5687
-5.9437 -0.8726 0.2355
-38.1333 -6.5431 1.5122
-37.4291 -7.3572 1.4868
-36.7403 -8.1482 1.4629
-26.4933 -6.5509 1.0582
-28.4465 -7.7676 1.1404
-34.7797 -10.4059 1.4011
-34.1565 -11.1252 1.3834
-33.5459 -11.8299 1.3671
-32.9457 -12.5210 1.3520
-32.3566 -13.2001 1.3381
-31.7786 -13.8688 1.3255
-31.2077 -14.5268 1.3140
-30.6446 -15.1758 1.3035
-30.0874 -15.8160 1.2941
-29.5374 -16.4495 1.2857
-28.9930 -17.0766 1.2784
-51.9508 -32.3137 2.3225
-51.1900 -33.5819 2.3225
-50.3911 -34.8274 2.3225
-49.0622 -35.6904 2.2994
-48.1981 -36.8744 2.2994
-47.2989 -38.0322 2.2994
-37.4652 -31.6449 2.4025
-32.1317 -28.4979 2.1043
-31.4461 -29.2768 2.1056
-35.0504 -34.2495 2.4025
-34.1972 -35.0699 2.4025
-33.3212 -35.8652 2.4025
-20.5200 -23.1853 1.5205
-19.3888 -23.0035 1.4786
-18.8978 -23.5526 1.4854
-28.3339 -37.1151 2.2993
-27.3989 -37.7468 2.2993
-26.6500 -38.6450 2.3169
-25.6751 -39.2258 2.3169
-24.6852 -39.7781 2.3169
-23.6813 -40.3015 2.3169
-22.6644 -40.7957 2.3169
-21.6353 -41.2604 2.3169
-20.5951 -41.6954 2.3169
-18.7984 -40.4925 2.2284
-18.4852 -42.4749 2.3169
-17.4174 -42.8192 2.3169
-16.3424 -43.1332 2.3169
-15.2611 -43.4166 2.3169
-14.1745 -43.6695 2.3169
-13.0837 -43.8919 2.3169
-11.9894 -44.0836 2.3169
-8.4773 -34.4337 1.8031
-7.8910 -35.7513 1.8666
-7.2719 -37.1933 1.9375
-6.2935 -36.9018 1.9192
-4.8123 -33.0092 1.7152
-4.1793 -34.4835 1.7914
-3.4914 -36.0858 1.8754
-2.5581 -35.3220 1.8376
-1.7881 -37.1156 1.9342
-0.8791 -36.6529 1.9146
0.0073 -41.2974 2.1637
0.8093 -33.2524 1.7485
1.7163 -35.3649 1.8675
2.7489 -37.7700 2.0043
3.9366 -40.5365 2.1631
5.2456 -43.1518 2.3169
6.2640 -42.8593 2.3169
7.2713 -42.5419 2.3169
4.3102 -22.0028 1.2080
4.8221 -21.8091 1.2079
5.2498 -21.2896 1.1902
5.6714 -20.8221 1.1757
6.1549 -20.6191 1.1768
9.4938 -29.2103 1.6860
10.0815 -28.6451 1.6734
10.6876 -28.1746 1.6669
11.2685 -27.6708 1.6590
11.8224 -27.1350 1.6499
8.5261 -18.3457 1.1321
8.9429 -18.0860 1.1334
9.3212 -17.7578 1.1310
9.6571 -17.3647 1.1249
10.0258 -17.0448 1.1239
13.2199 -21.2811 1.4294
22.1681 -33.8336 2.3169
22.8900 -33.1590 2.3169
23.5930 -32.4703 2.3169
24.2766 -31.7678 2.3169
24.9408 -31.0520 2.3169
25.5854 -30.3237 2.3169
26.2103 -29.5833 2.3169
26.8152 -28.8314 2.3169
27.4002 -28.0686 2.3169
27.9650 -27.2954 2.3169
28.5097 -26.5124 2.3169
29.0340 -25.7201 2.3169
29.5380 -24.9190 2.3169
30.0218 -24.1097 2.3169
25.5602 -19.5298 1.9426
30.9277 -22.4683 2.3169
31.3501 -21.6374 2.3169
31.7521 -20.8002 2.3169
32.1335 -19.9572 2.3169
32.4946 -19.1091 2.3169
32.8353 -18.2561 2.3169
33.1556 -17.3988 2.3169
33.4557 -16.5376 2.3169
33.7355 -15.6731 2.3169
33.9951 -14.8055 2.3169
34.2348 -13.9355 2.3169
34.4542 -13.0633 2.3169
34.6538 -12.1894 2.3169
34.8335 -11.3142 2.3169
35.8617 -10.6971 2.3744
35.5237 -9.6677 2.3426
35.2984 -8.6957 2.3198
35.2544 -7.7861 2.3102
35.3576 -6.9171 2.3116
35.4837 -6.0551 2.3158
35.7928 -5.2209 2.3331
36.2997 -4.4015 2.3645
37.0754 -3.5887 2.4146
37.9633 -2.7502 2.4733
38.8477 -1.8716 2.5331
37.6934 -0.9035 2.4613
37.6214 0.0080 2.4613
37.5303 0.9155 2.4613
37.4199 1.8188 2.4613
37.2908 2.7175 2.4613
37.1429 3.6112 2.4613
36.9764 4.4998 2.4613
36.7914 5.3828 2.4613
36.5883 6.2600 2.4613
36.3671 7.1311 2.4613
36.1279 7.9958 2.4613
35.8709 8.8538 2.4613
35.5964 9.7049 2.4613
35.3046 10.5486 2.4613
34.9954 11.3848 2.4613
34.6692 12.2132 2.4613
20.9922 7.9707 1.5052
33.9665 13.8456 2.4613
23.5070 10.2515 1.7224
26.5493 12.3506 1.9684
26.7519 13.2408 2.0081
29.9629 15.7432 2.2786
17.5048 9.7446 1.3496
18.4719 10.8761 1.4448
24.8438 15.4487 1.9728
24.5188 16.0814 1.9780
23.9115 16.5235 1.9613
23.4493 17.0562 1.9571
22.9890 17.5868 1.9539
15.2918 12.2957 1.3246
14.9809 12.6541 1.3238
27.4033 24.3063 2.4725
24.1293 22.4680 2.2251
26.2075 25.6137 2.4725
25.5892 26.2486 2.4725
24.9575 26.8709 2.4725
18.8151 21.2664 1.9134
15.9636 18.9474 1.6686
12.4700 15.5486 1.3415
12.1474 15.9204 1.3468
20.5457 28.3216 2.3513
19.8726 28.8358 2.3513
19.1882 29.3362 2.3513
18.4928 29.8228 2.3513
13.4739 22.9499 1.7812
12.8565 23.1633 1.7710
12.2442 23.3748 1.7617
12.2699 24.8686 1.8489
14.8559 32.0396 2.3513
14.0737 32.3819 2.3472
13.1679 32.4201 2.3225
12.4008 32.7832 2.3225
11.6247 33.1307 2.3225
10.8399 33.4623 2.3225
9.5143 31.9884 2.1995
9.2451 34.0772 2.3225
7.3250 29.8362 2.0167
6.5551 29.7936 1.9984
6.7937 34.8752 2.3225
4.6767 27.5389 1.8218
3.9977 27.5619 1.8123
4.2780 35.5193 2.3225
3.4264 35.6987 2.3225
2.1643 30.2124 1.9567
1.4451 30.5044 1.9678
0.6753 29.1456 1.8736
-0.0334 33.0636 2.1192
-0.8346 33.1325 2.1185
-1.5675 31.7328 2.0252
-2.6845 36.4421 2.3225
-3.5549 36.2684 2.3095
-4.3009 35.1145 2.2353
-5.3654 36.4753 2.3225
-6.2646 36.4470 2.3225
-7.1623 36.3790 2.3213
-8.0650 36.3106 2.3213
-4.0090 16.1902 1.0375
-9.8743 36.1126 2.3213
-10.7800 35.9828 2.3213
-11.6857 35.8322 2.3213
-12.5912 35.6608 2.3213
-13.4958 35.4683 2.3213
-14.3992 35.2546 2.3213
-15.1773 34.7369 2.3025
-11.4541 24.5788 1.6412
-12.0588 24.3233 1.6372
-17.8204 33.8627 2.2993
-15.8779 28.4796 1.9521
-19.5792 33.2057 2.2993
-19.1590 30.7685 2.1539
-22.2768 33.9203 2.4025
-23.1772 33.4982 2.4025
-24.0709 33.0534 2.4025
-24.9575 32.5862 2.4025
-25.8364 32.0963 2.4025
-26.7069 31.5838 2.4025
-27.5683 31.0489 2.4025
-28.4203 30.4915 2.4025
-29.2620 29.9117 2.4025
-28.8015 28.0519 2.2994
-29.5857 27.4543 2.2994
-30.3582 26.8357 2.2994
-14.5561 12.2536 1.0756
-32.1392 25.7547 2.3191
-31.7293 24.1909 2.2380
-31.1515 22.5814 2.1498
-21.7753 14.9957 1.4716
-20.3148 13.2781 1.3456
-24.7626 15.3446 1.6090
-25.3301 14.8616 1.6159
-25.9026 14.3678 1.6236
-26.4853 13.8652 1.6325
-27.0809 13.3536 1.6426
-27.6886 12.8312 1.6540
-28.3098 12.2973 1.6667
-28.9433 11.7499 1.6806
-29.5958 11.1898 1.6962
-30.2657 10.6148 1.7132
-30.9474 10.0210 1.7314
-31.6541 9.4114 1.7516
-32.3831 8.7826 1.7735
-33.1418 8.1343 1.7976
-33.9233 7.4622 1.8235
-34.7302 6.7646 1.8514
-35.5713 6.0405 1.8818
-36.4450 5.2865 1.9146
-37.3578 4.5005 1.9501
-38.3122 3.6791 1.9886
-39.3108 2.8187 2.0302
-40.3590 1.9154 2.0752
-40.4892 0.9422 2.0741
-32.6105 -0.0291 1.6654
-40.7429 -1.0207 2.0757
-40.7621 -2.0072 2.0730
-40.7686 -2.9961 2.0711
-40.3796 -3.9502 2.0505
-39.6062 -4.8428 2.0117
-5.9433 -0.8729 0.3022
-38.1316 -6.5448 1.9417
-37.4275 -7.3587 1.9102
-36.7388 -8.1497 1.8807
-26.4832 -6.5496 1.3607
-35.4207 -9.6735 1.8280
-34.7794 -10.4073 1.8042
-34.1563 -11.1265 1.7823
-33.5457 -11.8311 1.7620
-32.9452 -12.5220 1.7433
-32.3561 -13.2010 1.7261
-31.7776 -13.8694 1.7104
-31.2068 -14.5274 1.6961
-30.6438 -15.1763 1.6832
-30.0872 -15.8167 1.6715
-29.5372 -16.4501 1.6611
-28.9928 -17.0771 1.6520
-40.1950 -25.0022 2.3225
-39.6001 -25.9792 2.3225
-38.5898 -26.6715 2.2994
-37.9461 -27.6043 2.2994
-37.2757 -28.5183 2.2994
-36.5794 -29.4129 2.2994
-30.5371 -25.7931 2.4025
-29.9021 -26.5202 2.4025
-29.2472 -27.2292 2.4025
-28.5728 -27.9195 2.4025
-27.8798 -28.5907 2.4025
-27.1686 -29.2420 2.4025
-20.5222 -23.1870 1.8648
-19.3933 -23.0080 1.8134
-18.9023 -23.5572 1.8215
-23.1168 -30.2796 2.2993
-22.3587 -30.8012 2.2993
-21.5869 -31.3012 2.2993
-20.8024 -31.7793 2.2993
-20.1590 -32.4821 2.3169
-19.3447 -32.9186 2.3169
-18.5196 -33.3321 2.3169
-17.6843 -33.7223 2.3169
-16.8398 -34.0889 2.3169
-15.9866 -34.4318 2.3169
-15.1256 -34.7509 2.3169
-14.2575 -35.0460 2.3169
-13.3830 -35.3168 2.3169
-12.5028 -35.5635 2.3169
-11.6178 -35.7857 2.3169
-10.7286 -35.9838 2.3169
-9.8360 -36.1574 2.3169
-8.4798 -34.4348 2.1974
-8.0436 -36.4317 2.3169
-7.1451 -36.5324 2.3169
-6.2461 -36.6090 2.3169
-4.8140 -33.0051 2.0858
-4.1813 -34.4790 2.1773
-3.5530 -36.6949 2.3169
-2.5604 -35.3167 2.2310
-1.7677 -36.6340 2.3169
-0.8800 -36.5686 2.3169
0.0036 -36.4802 2.3169
0.8065 -33.2458 2.1179
1.7556 -36.2358 2.3169
2.6228 -36.0801 2.3169
3.4835 -35.9027 2.3169
4.3370 -35.7036 2.3169
5.1829 -35.4834 2.3169
6.0204 -35.2423 2.3169
4.3085 -22.0044 1.4574
4.8193 -21.8059 1.4560
5.2480 -21.2911 1.4341
5.6697 -20.8235 1.4158
6.1427 -20.5855 1.4137
9.4913 -29.2123 2.0277
10.0791 -28.6472 2.0112
10.6853 -28.1767 2.0021
11.2662 -27.6728 1.9914
11.8201 -27.1370 1.9792
8.5246 -18.3471 1.3571
8.9414 -18.0873 1.3579
9.3197 -17.7592 1.3542
9.6555 -17.3660 1.3460
10.0243 -17.0461 1.3439
12.8749 -20.7304 1.6638
17.7136 -27.0411 2.2113
18.3021 -26.5187 2.2113
18.8760 -25.9841 2.2113
19.4352 -25.4378 2.2113
19.9793 -24.8800 2.2113
20.5084 -24.3114 2.2113
21.0221 -23.7323 2.2113
21.5203 -23.1432 2.2113
22.0030 -22.5444 2.2113
22.4700 -21.9365 2.2113
22.9211 -21.3197 2.2113
23.3563 -20.6947 2.2113
23.8922 -20.1602 2.2221
24.4722 -19.6571 2.2381
25.0573 -19.1495 2.2555
25.6483 -18.6368 2.2744
26.2460 -18.1184 2.2948
26.8533 -17.5948 2.3169
27.1904 -16.8908 2.3169
27.5105 -16.1816 2.3169
27.8134 -15.4674 2.3169
28.0991 -14.7487 2.3169
28.3676 -14.0258 2.3169
28.6189 -13.2992 2.3169
28.8532 -12.5693 2.3169
29.0704 -11.8364 2.3169
29.2704 -11.1008 2.3169
29.4535 -10.3631 2.3169
29.6195 -9.6235 2.3169
29.7687 -8.8824 2.3169
29.9008 -8.1401 2.3169
30.0163 -7.3971 2.3169
30.1149 -6.6536 2.3169
30.1969 -5.9099 2.3169
32.1480 -5.4885 2.4613
32.2000 -4.6993 2.4613
32.2344 -3.9110 2.4613
32.2516 -3.1240 2.4613
32.2514 -2.3387 2.4613
32.2341 -1.5552 2.4613
32.1998 -0.7740 2.4613
32.1486 0.0047 2.4613
32.0806 0.7806 2.4613
31.9958 1.5532 2.4613
31.8945 2.3223 2.4613
31.7767 3.0876 2.4613
31.6426 3.8489 2.4613
31.4924 4.6058 2.4613
31.3261 5.3581 2.4613
31.1439 6.1054 2.4613
30.9459 6.8475 2.4613
30.7323 7.5841 2.4613
30.5032 8.3149 2.4613
30.2588 9.0397 2.4613
29.9992 9.7582 2.4613
29.7245 10.4702 2.4613
20.9927 7.9701 1.7554
29.2639 11.9276 2.4725
23.5075 10.2510 2.0081
26.5498 12.3500 2.2946
26.7498 13.2390 2.3404
27.8963 14.6566 2.4725
17.5050 9.7443 1.5728
18.4721 10.8758 1.6836
24.8440 15.4484 2.2987
24.5196 16.0815 2.3047
23.9116 16.5233 2.2851
23.4494 17.0561 2.2801
22.9891 17.5868 2.2763
15.2918 12.2957 1.5432
14.9809 12.6541 1.5423
23.5211 20.8631 2.4725
23.0132 21.4290 2.4725
22.4932 21.9839 2.4725
21.9614 22.5279 2.4725
21.4180 23.0607 2.4725
18.8148 21.2668 2.2298
15.9633 18.9478 1.9446
12.4697 15.5490 1.5635
12.1471 15.9208 1.5699
17.6234 24.2946 2.3513
17.0438 24.7326 2.3513
16.4545 25.1584 2.3513
15.8557 25.5720 2.3513
13.4730 22.9503 2.0776
12.8555 23.1636 2.0661
12.2432 23.3752 2.0557
11.9531 24.2291 2.1023
12.7253 27.4479 2.3513
12.0736 27.7835 2.3513
11.4138 28.1054 2.3513
10.7462 28.4135 2.3513
10.0710 28.7075 2.3513
9.2737 28.6329 2.3225
8.5925 28.8952 2.3225
7.9046 29.1430 2.3225
7.2101 29.3763 2.3225
6.5094 29.5949 2.3225
5.8028 29.7985 2.3225
4.6744 27.5369 2.1327
3.9960 27.5638 2.1226
3.6494 30.3185 2.3225
2.9214 30.4610 2.3225
2.1619 30.2103 2.2939
1.4429 30.5070 2.3080
0.6730 29.1481 2.1984
-0.0336 30.8721 2.3225
-0.7817 30.9345 2.3225
-1.5321 30.9638 2.3213
-2.2857 30.9930 2.3213
-3.0417 31.0056 2.3213
-3.7999 31.0013 2.3213
-4.5598 30.9801 2.3213
-5.3212 30.9418 2.3213
-6.0837 30.8861 2.3213
-6.8470 30.8133 2.3213
-4.0073 16.1768 1.2222
-8.3742 30.6152 2.3213
-9.1375 30.4897 2.3213
-9.8999 30.3465 2.3213
-10.5751 29.9417 2.3025
-11.3287 29.7644 2.3025
-12.0805 29.5693 2.3025
-12.8298 29.3563 2.3025
-11.5566 24.7924 1.9600
-12.1918 24.5854 1.9604
-15.0385 28.5695 2.2993
-15.7733 28.2852 2.2993
-16.5036 27.9829 2.2993
-18.0027 28.9049 2.4025
-18.7551 28.5515 2.4025
-19.5014 28.1794 2.4025
-20.2412 27.7886 2.4025
-20.9739 27.3791 2.4025
-21.6992 26.9511 2.4025
-22.4164 26.5043 2.4025
-23.1250 26.0392 2.4025
-23.8247 25.5558 2.4025
-24.5149 25.0541 2.4025
-24.1139 23.4815 2.2994
-24.7548 22.9668 2.2994
-25.3850 22.4349 2.2994
-14.5562 12.2512 1.2871
-26.6117 21.3208 2.2994
-26.5349 20.2264 2.2426
-26.7413 19.3805 2.2126
-21.7686 14.9880 1.7650
-20.3069 13.2701 1.6148
-19.0072 11.7755 1.4836
-17.9573 10.5334 1.3770
-16.9788 9.4157 1.2801
-26.4872 13.8630 1.9650
-27.0831 13.3515 1.9785
-27.6908 12.8292 1.9935
-28.3120 12.2952 2.0100
-28.9455 11.7477 2.0281
-29.5980 11.1877 2.0481
-30.2680 10.6126 2.0699
-30.9504 10.0191 2.0933
-31.6573 9.4094 2.1189
-32.3863 8.7806 2.1467
-33.1438 8.1319 2.1771
-33.8231 7.4372 2.2031
-34.0046 6.6204 2.1979
-34.1663 5.7991 2.1927
-34.3077 4.9738 2.1877
-28.9302 3.4830 1.8341
-34.4146 3.3023 2.1706
-33.9687 2.4332 2.1329
-34.2050 1.6210 2.1394
-32.5548 0.7554 2.0297
-34.9612 -0.0334 2.1741
-35.0966 -0.8815 2.1783
-35.1995 -1.7354 2.1819
-35.2217 -2.5905 2.1819
-35.2207 -3.4475 2.1819
-35.1967 -4.3056 2.1819
-5.9430 -0.8732 0.3689
-35.0786 -6.0226 2.1819
-34.9846 -6.8802 2.1819
-34.8669 -7.7361 2.1819
-26.4732 -6.5484 1.6634
-34.5609 -9.4402 2.1819
-22.8027 -6.8243 1.4472
-34.0577 -11.0958 2.1753
-33.5455 -11.8324 2.1574
-32.9137 -12.5112 2.1330
-32.3557 -13.2019 2.1145
-31.7766 -13.8700 2.0958
-31.2058 -14.5279 2.0787
-30.6429 -15.1767 2.0632
-30.0869 -15.8173 2.0493
-29.5370 -16.4507 2.0369
-27.4916 -16.1935 1.9211
-32.7709 -20.3848 2.3225
-31.9619 -20.9688 2.2994
-31.4569 -21.7420 2.2994
-30.9305 -22.5009 2.2994
-30.3830 -23.2451 2.2994
-29.8150 -23.9738 2.2994
-25.7661 -21.7632 2.4025
-25.2308 -22.3770 2.4025
-24.6790 -22.9759 2.4025
-24.1112 -23.5594 2.4025
-23.5278 -24.1271 2.4025
-22.9293 -24.6785 2.4025
-19.9765 -22.5697 2.1506
-19.3979 -23.0125 2.1487
-18.9068 -23.5618 2.1581
-20.1854 -26.4386 2.3779
-18.8810 -26.0089 2.2993
-18.2321 -26.4351 2.2993
-17.5725 -26.8432 2.2993
-16.9026 -27.2331 2.2993
-16.2230 -27.6042 2.2993
-15.6534 -28.1710 2.3169
-14.9508 -28.5069 2.3169
-14.2402 -28.8234 2.3169
-13.5221 -29.1203 2.3169
-12.7972 -29.3976 2.3169
-12.0660 -29.6549 2.3169
-11.3292 -29.8923 2.3169
-10.5873 -30.1096 2.3169
-9.8409 -30.3068 2.3169
-9.0907 -30.4837 2.3169
-8.3372 -30.6404 2.3169
-7.5811 -30.7770 2.3169
-6.8228 -30.8932 2.3169
-6.0631 -30.9893 2.3169
-5.3024 -31.0651 2.3169
-4.5414 -31.1209 2.3169
-3.7806 -31.1566 2.3169
-3.0206 -31.1724 2.3169
-2.2619 -31.1684 2.3169
-1.5052 -31.1446 2.3169
-0.7508 -31.1014 2.3169
0.0006 -31.0388 2.3169
0.7485 -30.9570 2.3169
1.4924 -30.8561 2.3169
2.2318 -30.7365 2.3169
2.9662 -30.5983 2.3169
3.6952 -30.4418 2.3169
4.4182 -30.2671 2.3169
5.1349 -30.0747 2.3169
4.3067 -22.0059 1.7072
4.8165 -21.8026 1.7044
5.2463 -21.2926 1.6784
5.6680 -20.8250 1.6562
6.1456 -20.6022 1.6543
8.9871 -27.6694 2.2446
9.5579 -27.1742 2.2286
10.1179 -26.6884 2.2142
10.7160 -26.3288 2.2113
11.3176 -25.9903 2.2113
8.5230 -18.3485 1.5825
8.9398 -18.0887 1.5827
9.3181 -17.7605 1.5776
9.6539 -17.3674 1.5674
10.0227 -17.0475 1.5643
12.8639 -20.7174 1.9344
15.2301 -23.2551 2.2113
16.4955 -23.9062 2.3169
17.0205 -23.4349 2.3169
17.5326 -22.9525 2.3169
18.0316 -22.4594 2.3169
18.5174 -21.9558 2.3169
18.9897 -21.4423 2.3169
19.4484 -20.9193 2.3169
19.8933 -20.3870 2.3169
20.3244 -19.8458 2.3169
20.7413 -19.2962 2.3169
21.1442 -18.7384 2.3169
21.5328 -18.1730 2.3169
21.9070 -17.6002 2.3169
22.2668 -17.0204 2.3169
22.6120 -16.4340 2.3169
22.9427 -15.8414 2.3169
23.2587 -15.2428 2.3169
23.5600 -14.6388 2.3169
23.8465 -14.0296 2.3169
24.1182 -13.4155 2.3169
24.3751 -12.7970 2.3169
24.6172 -12.1744 2.3169
24.8444 -11.5480 2.3169
25.0568 -10.9181 2.3169
25.2542 -10.2852 2.3169
25.4368 -9.6495 2.3169
25.6046 -9.0114 2.3169
25.7575 -8.3712 2.3169
25.8956 -7.7291 2.3169
26.0189 -7.0856 2.3169
26.1275 -6.4410 2.3169
26.2214 -5.7956 2.3169
26.3006 -5.1495 2.3169
26.3652 -4.5033 2.3169
26.4153 -3.8571 2.3169
26.4509 -3.2113 2.3169
26.4720 -2.5662 2.3169
26.4788 -1.9220 2.3169
26.4713 -1.2790 2.3169
28.0977 -0.6772 2.4613
28.0597 0.0023 2.4613
28.0068 0.6797 2.4613
27.9390 1.3545 2.4613
27.8565 2.0267 2.4613
27.7594 2.6957 2.4613
27.6477 3.3615 2.4613
27.5217 4.0236 2.4613
27.3814 4.6819 2.4613
27.2269 5.3361 2.4613
27.0582 5.9859 2.4613
26.8757 6.6311 2.4613
26.6794 7.2714 2.4613
26.4693 7.9065 2.4613
26.3657 8.5752 2.4725
26.1276 9.2021 2.4725
20.9933 7.9695 2.0060
25.6114 10.4380 2.4725
23.5080 10.2504 2.2944
25.0427 11.6482 2.4725
24.7391 12.2432 2.4725
24.4228 12.8310 2.4725
17.5053 9.7440 1.7964
18.4723 10.8756 1.9228
23.3996 14.5498 2.4725
23.0342 15.1070 2.4725
22.6569 15.6560 2.4725
22.2680 16.1966 2.4725
21.8673 16.7285 2.4725
15.2918 12.2957 1.7622
14.9808 12.6541 1.7611
20.5979 18.2703 2.4725
20.1527 18.7656 2.4725
19.6968 19.2512 2.4725
19.2304 19.7269 2.4725
18.7536 20.1925 2.4725
18.2666 20.6478 2.4725
15.9630 18.9482 2.2211
12.4694 15.5493 1.7860
12.1468 15.9211 1.7934
15.4254 21.2658 2.3513
14.9166 21.6471 2.3513
14.3993 22.0176 2.3513
13.8736 22.3770 2.3513
13.3398 22.7252 2.3513
12.7979 23.0620 2.3513
12.2422 23.3755 2.3501
11.6911 23.7007 2.3513
11.1266 24.0023 2.3513
10.5549 24.2918 2.3513
9.9763 24.5692 2.3513
9.3910 24.8341 2.3513
8.7992 25.0865 2.3513
8.2011 25.3261 2.3513
7.5970 25.5529 2.3513
6.9871 25.7667 2.3513
6.2938 25.6498 2.3225
5.6807 25.8348 2.3225
5.0626 26.0066 2.3225
4.4397 26.1649 2.3225
3.8123 26.3097 2.3225
3.1807 26.4407 2.3225
2.5452 26.5579 2.3225
1.9049 26.6469 2.3213
1.2625 26.7360 2.3213
0.6170 26.8109 2.3213
-0.0314 26.8715 2.3213
-0.6824 26.9177 2.3213
-1.3357 26.9494 2.3213
-1.9910 26.9664 2.3213
-2.6480 26.9687 2.3213
-3.3064 26.9562 2.3213
-3.9659 26.9286 2.3213
-4.6263 26.8861 2.3213
-5.2871 26.8286 2.3213
-3.7231 16.7475 1.4530
-4.0057 16.1640 1.4070
-4.5594 16.6625 1.4560
-7.8642 26.2322 2.3025
-8.5170 26.0991 2.3025
-9.1683 25.9507 2.3025
-9.8178 25.7870 2.3025
-10.4502 25.5717 2.2993
-8.6360 19.7550 1.7899
-11.6243 24.9310 2.2776
-12.3720 24.9424 2.2993
-13.0057 24.7018 2.2993
-13.6354 24.4457 2.2993
-14.9010 25.2599 2.4025
-15.5493 24.9601 2.4025
-16.1921 24.6443 2.4025
-16.8291 24.3126 2.4025
-17.4598 23.9649 2.4025
-18.0838 23.6013 2.4025
-18.7007 23.2220 2.4025
-19.3101 22.8269 2.4025
-19.9117 22.4162 2.4025
-20.5048 21.9901 2.4025
-21.0892 21.5486 2.4025
-21.6644 21.0919 2.4025
-21.2761 19.7353 2.2994
-21.6444 19.1252 2.2822
-14.5563 12.2487 1.4990
-22.8405 18.2956 2.2994
-23.3408 17.7880 2.2994
-23.5492 17.0634 2.2723
-21.7619 14.9802 2.0586
-20.3088 13.2685 1.8851
-19.0025 11.7700 1.7322
-17.9589 10.5320 1.6090
-16.9754 9.4117 1.4960
-16.1565 8.4540 1.4016
-15.4167 7.5983 1.3176
-26.4013 12.2288 2.2246
-26.7155 11.5989 2.2210
-27.0716 10.9843 2.2221
-27.4224 10.3624 2.2239
-27.7602 9.7305 2.2259
-28.0120 9.0652 2.2223
-28.2422 8.3918 2.2184
-28.4701 7.7162 2.2155
-28.5955 7.0134 2.2062
-28.7570 6.3208 2.2010
-28.8421 5.6129 2.1913
-28.9359 4.9091 2.1838
-29.0859 4.2145 2.1819
-29.2030 3.5137 2.1789
-29.2927 2.8087 2.1752
-29.4490 2.1074 2.1777
-29.5262 1.3972 2.1758
-29.6453 0.6859 2.1784
-29.6791 -0.0303 2.1760
-29.7616 -0.7493 2.1786
-29.7502 -1.4686 2.1757
-29.7960 -2.1933 2.1784
-29.8341 -2.9219 2.1819
-29.7589 -3.6420 2.1785
-5.9426 -0.8734 0.4357
-29.6230 -5.0875 2.1771
-29.4942 -5.8019 2.1741
-29.3964 -6.5238 2.1747
-26.3658 -6.5230 1.9590
-29.1155 -7.9541 2.1741
-28.9506 -8.6656 2.1741
-28.7663 -9.3730 2.1741
-28.4895 -10.0501 2.1685
-27.5878 -10.4877 2.1164
-27.1369 -11.0735 2.0997
-27.2346 -11.8884 2.1270
-29.4401 -13.7067 2.3225
-29.1219 -14.4242 2.3225
-23.3509 -12.2767 1.8841
-23.0688 -12.8487 1.8847
-25.2600 -14.8795 2.0914
-27.3809 -17.0325 2.2994
-26.9714 -17.6952 2.2994
-26.5439 -18.3466 2.2994
-26.0987 -18.9862 2.2994
-25.6362 -19.6136 2.2994
-26.2845 -21.1350 2.4025
-22.2797 -18.8184 2.4025
-21.8172 -19.3493 2.4025
-21.3405 -19.8675 2.4025
-20.8503 -20.3728 2.4025
-20.3467 -20.8645 2.4025
-19.8302 -21.3424 2.4025
-19.3013 -21.8061 2.4025
-18.7604 -22.2553 2.4025
-18.2078 -22.6897 2.4025
-17.6441 -23.1088 2.4025
-17.0697 -23.5125 2.4025
-15.8137 -22.9272 2.3047
-15.2077 -23.2293 2.2993
-14.6300 -23.5697 2.2993
-14.0439 -23.8943 2.2993
-13.4498 -24.2030 2.2993
-12.8482 -24.4954 2.2993
-12.2397 -24.7715 2.2993
-11.7137 -25.2230 2.3169
-11.0879 -25.4678 2.3169
-10.4565 -25.6957 2.3169
-9.8201 -25.9066 2.3169
-9.1791 -26.1004 2.3169
-8.5340 -26.2770 2.3169
-7.8853 -26.4363 2.3169
-7.2336 -26.5784 2.3169
-6.5793 -26.7032 2.3169
-5.9230 -26.8106 2.3169
-5.2650 -26.9007 2.3169
-4.6059 -26.9736 2.3169
-3.9462 -27.0292 2.3169
-3.2864 -27.0676 2.3169
-2.6269 -27.0888 2.3169
-1.9682 -27.0930 2.3169
-1.3108 -27.0802 2.3169
-0.6552 -27.0505 2.3169
-0.0017 -27.0042 2.3169
0.6492 -26.9411 2.3169
1.2970 -26.8617 2.3169
1.9412 -26.7658 2.3169
2.5815 -26.6539 2.3169
3.2175 -26.5260 2.3169
3.8487 -26.3823 2.3169
4.4749 -26.2231 2.3169
4.3049 -22.0074 1.9575
4.8137 -21.7994 1.9532
5.2446 -21.2941 1.9231
5.6663 -20.8265 1.8971
6.1485 -20.6190 1.8956
8.1022 -24.9532 2.3169
8.6819 -24.6913 2.3169
9.2536 -24.4158 2.3169
9.8171 -24.1270 2.3169
10.3719 -23.8250 2.3169
8.5214 -18.3498 1.8083
8.9382 -18.0901 1.8079
9.3165 -17.7619 1.8015
9.6524 -17.3687 1.7891
10.0212 -17.0488 1.7850
13.5049 -21.7547 2.3169
13.9920 -21.3693 2.3169
14.4685 -20.9732 2.3169
14.9342 -20.5668 2.3169
15.3888 -20.1503 2.3169
15.8323 -19.7241 2.3169
16.2643 -19.2884 2.3169
16.6848 -18.8436 2.3169
17.0935 -18.3901 2.3169
17.4904 -17.9281 2.3169
17.8753 -17.4580 2.3169
18.2480 -16.9801 2.3169
18.6085 -16.4947 2.3169
18.9566 -16.0021 2.3169
19.2922 -15.5027 2.3169
19.6153 -14.9967 2.3169
19.9256 -14.4846 2.3169
20.2232 -13.9666 2.3169
20.5080 -13.4430 2.3169
20.7800 -12.9143 2.3169
21.0389 -12.3805 2.3169
21.2849 -11.8422 2.3169
21.5179 -11.2995 2.3169
21.7377 -10.7529 2.3169
21.9445 -10.2025 2.3169
22.1382 -9.6488 2.3169
22.3186 -9.0920 2.3169
22.4860 -8.5324 2.3169
22.6402 -7.9704 2.3169
22.7813 -7.4061 2.3169
22.9092 -6.8399 2.3169
23.0239 -6.2721 2.3169
23.1256 -5.7030 2.3169
23.2141 -5.1329 2.3169
23.2896 -4.5619 2.3169
23.3521 -3.9905 2.3169
23.4016 -3.4189 2.3169
23.4381 -2.8473 2.3169
23.4617 -2.2761 2.3169
23.4725 -1.7054 2.3169
23.4705 -1.1356 2.3169
23.4557 -0.5669 2.3169
23.4283 0.0004 2.3169
23.3883 0.5661 2.3169
23.3357 1.1299 2.3169
23.2706 1.6916 2.3169
23.1933 2.2509 2.3169
24.5431 2.9826 2.4613
24.4349 3.5710 2.4613
24.3137 4.1561 2.4613
24.1798 4.7377 2.4613
24.0332 5.3155 2.4613
23.9412 5.9059 2.4682
23.8107 6.4884 2.4725
23.6258 7.0561 2.4725
23.4286 7.6190 2.4725
23.2193 8.1769 2.4725
20.9938 7.9689 2.2571
22.7644 9.2769 2.4725
22.5192 9.8185 2.4725
22.2623 10.3543 2.4725
21.9938 10.8839 2.4725
21.7139 11.4073 2.4725
17.5055 9.7437 2.0204
18.4725 10.8753 2.1625
20.8069 12.9373 2.4725
20.4826 13.4332 2.4725
20.1476 13.9218 2.4725
19.8020 14.4028 2.4725
19.4460 14.8761 2.4725
15.2918 12.2956 1.9816
14.9808 12.6542 1.9804
18.3169 16.2473 2.4725
17.9207 16.6875 2.4725
17.5149 17.1190 2.4725
17.0996 17.5415 2.4725
16.6750 17.9550 2.4725
16.2413 18.3591 2.4725
15.7987 18.7538 2.4725
12.4691 15.5496 2.0088
12.1465 15.9215 2.0173
13.7276 18.9262 2.3540
13.2584 19.2420 2.3513
12.7976 19.5697 2.3513
12.3292 19.8875 2.3513
11.8536 20.1951 2.3513
11.3709 20.4923 2.3513
10.8813 20.7791 2.3513
10.3851 21.0553 2.3513
9.8823 21.3207 2.3513
9.3733 21.5752 2.3513
8.8582 21.8186 2.3513
8.3372 22.0508 2.3513
7.8105 22.2717 2.3513
7.2785 22.4811 2.3513
6.7411 22.6789 2.3513
6.1988 22.8649 2.3513
5.5796 22.7451 2.3213
5.0350 22.9052 2.3213
4.4861 23.0533 2.3213
3.9332 23.1893 2.3213
3.3765 23.3131 2.3213
2.8162 23.4246 2.3213
2.2526 23.5236 2.3213
1.6860 23.6102 2.3213
1.1166 23.6840 2.3213
0.5446 23.7451 2.3213
-0.0297 23.7935 2.3213
-0.6061 23.8289 2.3213
-1.1841 23.8512 2.3213
-1.7637 23.8605 2.3213
-2.3445 23.8566 2.3213
-2.9263 23.8395 2.3213
-3.5086 23.8090 2.3213
-4.0914 23.7652 2.3213
-4.6743 23.7080 2.3213
-3.5258 15.8534 1.5569
-3.8538 15.5449 1.5320
-4.2425 15.4986 1.5338
-6.9441 23.1551 2.3025
-7.5076 22.9984 2.2993
-8.0793 22.8610 2.2993
-8.6488 22.7099 2.2993
-7.6568 18.7310 1.9103
-8.3788 19.1613 1.9697
-10.3422 22.1755 2.2993
-10.9005 21.9702 2.2993
-11.4551 21.7514 2.2993
-12.5449 22.4854 2.4025
-13.1159 22.2285 2.4025
-13.6819 21.9576 2.4025
-14.2428 21.6727 2.4025
-14.7982 21.3739 2.4025
-15.3476 21.0612 2.4025
-15.8907 20.7347 2.4025
-16.4273 20.3946 2.4025
-16.9568 20.0408 2.4025
-17.4791 19.6736 2.4025
-17.9935 19.2930 2.4025
-18.5000 18.8991 2.4025
-18.9980 18.4922 2.4025
-18.6510 17.2968 2.2994
-19.1104 16.8826 2.2994
-14.5022 12.2007 1.7048
-20.0016 16.0183 2.2994
-20.4326 15.5684 2.2994
-20.8536 15.1071 2.2994
-21.2640 14.6344 2.2994
-20.3107 13.2669 2.1558
-18.9978 11.7645 1.9809
-17.9605 10.5306 1.8413
-16.9719 9.4076 1.7122
-16.1579 8.4528 1.6051
-15.4140 7.5952 1.5090
-14.7608 6.8354 1.4252
-14.1735 6.1521 1.3506
-21.9794 8.9158 2.0686
-22.0628 8.3349 2.0523
-22.2564 7.7991 2.0476
-22.5516 7.2959 2.0534
-23.7773 7.0628 2.1442
-24.2515 6.5707 2.1674
-24.3507 5.9702 2.1582
-24.6622 5.4187 2.1691
-24.8929 4.8424 2.1741
-25.0526 4.2483 2.1741
-25.1972 3.6491 2.1741
-25.3265 3.0454 2.1741
-25.4403 2.4374 2.1741
-25.5387 1.8257 2.1741
-25.6212 1.2106 2.1741
-25.6879 0.5926 2.1741
-25.7384 -0.0280 2.1741
-25.7729 -0.6506 2.1741
-25.7911 -1.2748 2.1741
-25.7930 -1.9001 2.1741
-25.7784 -2.5262 2.1741
-25.7473 -3.1525 2.1741
-5.9422 -0.8737 0.5027
-25.6355 -4.4040 2.1741
-25.5548 -5.0283 2.1741
-25.4574 -5.6509 2.1741
-25.3435 -6.2713 2.1741
-25.2130 -6.8891 2.1741
-24.6260 -7.3722 2.1359
-24.5056 -7.9858 2.1394
-24.5286 -8.6538 2.1570
-24.4297 -9.2880 2.1655
-24.8683 -10.1486 2.2236
-25.0312 -10.9274 2.2594
-20.3336 -9.4675 1.8542
-20.5693 -10.1887 1.8963
-20.4510 -10.7526 1.9077
-22.5954 -12.5856 2.1344
-24.0187 -14.1489 2.2994
-23.6791 -14.7302 2.2994
-23.3239 -15.3025 2.2994
-22.9533 -15.8651 2.2994
-22.5678 -16.4177 2.2994
-22.1674 -16.9598 2.2994
-22.7279 -18.2752 2.4025
-19.6201 -16.5719 2.4025
-19.2130 -17.0396 2.4025
-18.7936 -17.4962 2.4025
-18.3623 -17.9415 2.4025
-17.9195 -18.3751 2.4025
-17.4654 -18.7967 2.4025
-17.0004 -19.2060 2.4025
-16.5249 -19.6027 2.4025
-16.0393 -19.9865 2.4025
-15.5439 -20.3572 2.4025
-15.0391 -20.7144 2.4025
-14.5253 -21.0580 2.4025
-13.5433 -20.6855 2.3237
-12.8934 -20.7705 2.2993
-12.3783 -21.0588 2.2993
-11.8561 -21.3332 2.2993
-11.3273 -21.5936 2.2993
-10.7922 -21.8397 2.2993
-10.2514 -22.0715 2.2993
-9.7052 -22.2889 2.2993
-9.2242 -22.6641 2.3169
-8.6642 -22.8536 2.3169
-8.1001 -23.0282 2.3169
-7.5322 -23.1879 2.3169
-6.9610 -23.3325 2.3169
-6.3870 -23.4621 2.3169
-5.8105 -23.5765 2.3169
-5.2320 -23.6759 2.3169
-4.6519 -23.7601 2.3169
-4.0707 -23.8292 2.3169
-3.4886 -23.8831 2.3169
-2.9062 -23.9221 2.3169
-2.3239 -23.9460 2.3169
-1.7421 -23.9549 2.3169
-1.1611 -23.9489 2.3169
-0.5814 -23.9280 2.3169
-0.0034 -23.8925 2.3169
0.5726 -23.8423 2.3169
1.1461 -23.7776 2.3169
1.7167 -23.6986 2.3169
2.2280 -23.0249 2.2599
2.7373 -22.5832 2.2267
3.2515 -22.3021 2.2104
3.7817 -22.1731 2.2104
4.3031 -22.0090 2.2082
4.8108 -21.7961 2.2023
5.2428 -21.2956 2.1684
5.6646 -20.8280 2.1385
6.1514 -20.6359 2.1378
6.8593 -21.1322 2.2104
7.7063 -21.9235 2.3169
8.2161 -21.6847 2.3169
8.7188 -21.4339 2.3169
9.2141 -21.1713 2.3169
8.5198 -18.3512 2.0346
8.9366 -18.0914 2.0336
9.3150 -17.7633 2.0258
9.6508 -17.3701 2.0114
10.0196 -17.0502 2.0062
12.0173 -19.3629 2.3169
12.4542 -19.0250 2.3169
12.8819 -18.6774 2.3169
13.3001 -18.3204 2.3169
13.7087 -17.9542 2.3169
14.1076 -17.5791 2.3169
14.4964 -17.1954 2.3169
14.8751 -16.8033 2.3169
15.2436 -16.4032 2.3169
15.6016 -15.9954 2.3169
15.9491 -15.5800 2.3169
16.2859 -15.1574 2.3169
16.6119 -14.7279 2.3169
16.9270 -14.2917 2.3169
17.2310 -13.8492 2.3169
17.5238 -13.4006 2.3169
17.8055 -12.9462 2.3169
18.0759 -12.4863 2.3169
18.3349 -12.0211 2.3169
18.5824 -11.5510 2.3169
18.8184 -11.0763 2.3169
19.0429 -10.5972 2.3169
19.2557 -10.1139 2.3169
19.4568 -9.6269 2.3169
19.6463 -9.1363 2.3169
19.8240 -8.6424 2.3169
19.9899 -8.1455 2.3169
20.1441 -7.6458 2.3169
20.2864 -7.1437 2.3169
20.4169 -6.6394 2.3169
20.5357 -6.1332 2.3169
20.6426 -5.6252 2.3169
20.7377 -5.1159 2.3169
20.8210 -4.6055 2.3169
20.8926 -4.0941 2.3169
20.9524 -3.5821 2.3169
21.0004 -3.0697 2.3169
21.0368 -2.5572 2.3169
21.0615 -2.0447 2.3169
21.0745 -1.5327 2.3169
21.0760 -1.0212 2.3169
21.0659 -0.5106 2.3169
21.0444 -0.0010 2.3169
21.0115 0.5072 2.3169
20.9671 1.0139 2.3169
20.9115 1.5189 2.3169
20.8446 2.0218 2.3169
20.7665 2.5225 2.3169
20.6774 3.0207 2.3169
20.5772 3.5163 2.3169
20.4660 4.0090 2.3169
20.3440 4.4986 2.3169
20.2113 4.9848 2.3169
20.1057 5.4779 2.3213
19.9513 5.9578 2.3213
21.0757 6.8529 2.4725
20.8889 7.3554 2.4725
20.6912 7.8533 2.4725
20.4826 8.3463 2.4725
20.2632 8.8342 2.4725
20.0332 9.3169 2.4725
19.7926 9.7941 2.4725
19.5416 10.2655 2.4725
17.5057 9.7435 2.2449
18.4728 10.8751 2.4028
18.7273 11.6439 2.4725
18.4359 12.0906 2.4725
18.1346 12.5307 2.4725
17.8238 12.9639 2.4725
17.5035 13.3900 2.4725
15.2918 12.2956 2.2016
14.9808 12.6542 2.2002
16.4870 14.6243 2.4725
16.1302 15.0204 2.4725
15.7646 15.4086 2.4725
15.3905 15.7886 2.4725
15.0079 16.1603 2.4725
14.6170 16.5236 2.4725
14.2180 16.8781 2.4725
12.4688 15.5500 2.2322
12.1462 15.9219 2.2418
12.9742 17.8884 2.4725
12.0189 17.4440 2.3689
11.5138 17.6078 2.3513
11.0916 17.8925 2.3513
10.6628 18.1679 2.3513
10.2278 18.4338 2.3513
9.7865 18.6902 2.3513
9.3393 18.9370 2.3513
8.7728 18.9292 2.3213
8.3200 19.1533 2.3213
7.8619 19.3674 2.3213
7.3986 19.5713 2.3213
6.9303 19.7651 2.3213
6.4573 19.9485 2.3213
5.9797 20.1215 2.3213
5.4978 20.2839 2.3213
5.0117 20.4357 2.3213
4.5217 20.5766 2.3213
4.0280 20.7067 2.3213
3.5308 20.8257 2.3213
3.0304 20.9338 2.3213
2.5268 21.0305 2.3213
2.0205 21.1160 2.3213
1.5116 21.1901 2.3213
1.0003 21.2528 2.3213
0.4869 21.3039 2.3213
-0.0283 21.3434 2.3213
-0.5453 21.3712 2.3213
-1.0636 21.3872 2.3213
-1.5830 21.3914 2.3213
-2.1034 21.3837 2.3213
-2.6243 21.3640 2.3213
-3.1202 21.1601 2.3025
-3.6374 21.1168 2.3025
-4.1545 21.0614 2.3025
-3.5520 15.9642 1.7509
-3.8731 15.6166 1.7193
-4.2648 15.5744 1.7221
-6.2071 20.6901 2.2993
-6.7186 20.5745 2.2993
-7.2283 20.4468 2.2993
-7.7359 20.3069 2.2993
-7.7541 18.9635 2.1634
-8.5571 19.5638 2.2501
-9.2436 19.8147 2.2993
-9.7401 19.6264 2.2993
-10.6926 20.2984 2.4025
-11.2037 20.0765 2.4025
-11.7105 19.8422 2.4025
-12.2128 19.5953 2.4025
-12.7101 19.3361 2.4025
-13.2022 19.0645 2.4025
-13.6887 18.7807 2.4025
-14.1694 18.4847 2.4025
-14.6439 18.1766 2.4025
-15.1119 17.8566 2.4025
-15.5731 17.5247 2.4025
-16.0272 17.1810 2.4025
-16.4738 16.8258 2.4025
-16.9126 16.4589 2.4025
-17.3434 16.0809 2.4025
-17.0035 15.0183 2.2994
-14.4967 12.1935 1.9158
-17.7868 14.2416 2.2994
-18.1651 13.8379 2.2994
-18.5344 13.4241 2.2994
-18.8940 13.0006 2.2994
-19.2439 12.5674 2.2994
-18.9931 11.7591 2.2301
-17.9621 10.5292 2.0741
-16.9684 9.4036 1.9285
-16.1593 8.4516 1.8090
-15.4113 7.5921 1.7007
-14.7584 6.8326 1.6067
-14.1714 6.1496 1.5230
-13.6401 5.5316 1.4482
-13.1564 4.9689 1.3810
-12.7138 4.4539 1.3202
-21.1173 6.8299 2.1708
-21.2824 6.3198 2.1673
-21.2353 5.7516 2.1437
-21.5790 5.2888 2.1608
-22.0621 4.8455 2.1928
-22.0494 4.2874 2.1767
-22.0272 3.7335 2.1611
-22.1368 3.2042 2.1599
-22.3706 2.6882 2.1721
-22.4872 2.1528 2.1741
-22.5693 1.6118 2.1741
-22.6375 1.0681 2.1741
-22.6918 0.5220 2.1741
-22.7479 -0.0262 2.1756
-22.7581 -0.5759 2.1741
-22.7784 -1.1272 2.1749
-22.8086 -1.6816 2.1780
-22.8078 -2.2364 2.1796
-22.7781 -2.7903 2.1797
-5.9418 -0.8739 0.5697
-22.7411 -3.9080 2.1864
-22.8802 -4.5032 2.2070
-22.9854 -5.1032 2.2260
-23.1009 -5.7174 2.2475
-23.2830 -6.3628 2.2773
-23.2168 -6.9513 2.2844
-23.1790 -7.5544 2.2959
-23.0933 -8.1483 2.3043
-22.9618 -8.7308 2.3097
-17.8349 -7.2790 1.8099
-17.7879 -7.7659 1.8224
-18.2088 -8.4788 1.8847
-18.7852 -9.3055 1.9660
-20.4916 -10.7745 2.1701
-21.4408 -11.9430 2.2994
-21.1545 -12.4621 2.2994
-20.8545 -12.9735 2.2994
-20.5409 -13.4769 2.2994
-20.2140 -13.9719 2.2994
-15.3270 -11.1503 1.7733
-19.5213 -14.9354 2.2994
-20.0147 -16.0936 2.4025
-17.5239 -14.8013 2.4025
-17.1604 -15.2191 2.4025
-16.7861 -15.6271 2.4025
-16.4013 -16.0251 2.4025
-16.0062 -16.4128 2.4025
-15.6011 -16.7899 2.4025
-15.1864 -17.1560 2.4025
-14.7623 -17.5112 2.4025
-14.3293 -17.8549 2.4025
-13.8875 -18.1870 2.4025
-13.4374 -18.5072 2.4025
-12.9793 -18.8154 2.4025
-12.5135 -19.1114 2.4025
-12.0112 -19.3479 2.3967
-11.0636 -18.8206 2.2993
-10.5979 -19.0675 2.2993
-10.1262 -19.3021 2.2993
-9.6490 -19.5241 2.2993
-9.1665 -19.7334 2.2993
-8.6791 -19.9299 2.2993
-8.1873 -20.1136 2.2993
-7.6918 -20.2856 2.2994
-7.1920 -20.4432 2.2994
-6.7396 -20.7440 2.3169
-6.2295 -20.8762 2.3169
-5.7168 -20.9951 2.3169
-5.2017 -21.1006 2.3169
-4.6847 -21.1927 2.3169
-4.1661 -21.2713 2.3169
-3.6463 -21.3365 2.3169
-3.1257 -21.3883 2.3169
-2.6046 -21.4267 2.3169
-2.0834 -21.4518 2.3169
-1.5625 -21.4634 2.3169
-1.0422 -21.4618 2.3169
-0.5228 -21.4471 2.3169
-0.0048 -21.4191 2.3169
0.5116 -21.3781 2.3169
1.0260 -21.3242 2.3169
1.5381 -21.2573 2.3169
2.0475 -21.1777 2.3169
2.5538 -21.0854 2.3169
3.0569 -20.9807 2.3169
3.5564 -20.8635 2.3169
4.0519 -20.7340 2.3169
4.5432 -20.5926 2.3169
5.0300 -20.4391 2.3169
5.4904 -20.1950 2.3079
5.9095 -19.8314 2.2863
6.3196 -19.4757 2.2665
6.7213 -19.1272 2.2485
7.1154 -18.7853 2.2321
7.5026 -18.4494 2.2174
7.9058 -18.1702 2.2104
8.3262 -17.9388 2.2104
8.7399 -17.6977 2.2104
9.1469 -17.4470 2.2104
9.5468 -17.1870 2.2104
9.9396 -16.9178 2.2104
10.3249 -16.6397 2.2104
10.7026 -16.3529 2.2104
11.6059 -16.8311 2.3169
11.9854 -16.5130 2.3169
12.3563 -16.1864 2.3169
12.7185 -15.8517 2.3169
13.0719 -15.5090 2.3169
13.4163 -15.1586 2.3169
13.7516 -14.8008 2.3169
14.0776 -14.4359 2.3169
14.3942 -14.0639 2.3169
14.7012 -13.6853 2.3169
14.9986 -13.3003 2.3169
15.2862 -12.9090 2.3169
15.5639 -12.5119 2.3169
15.8317 -12.1091 2.3169
16.0894 -11.7008 2.3169
16.3369 -11.2874 2.3169
16.5742 -10.8691 2.3169
16.8013 -10.4461 2.3169
17.0179 -10.0188 2.3169
17.2241 -9.5872 2.3169
17.4198 -9.1518 2.3169
17.6050 -8.7127 2.3169
17.7796 -8.2702 2.3169
17.9436 -7.8246 2.3169
18.0970 -7.3761 2.3169
18.2397 -6.9249 2.3169
18.3717 -6.4713 2.3169
18.4930 -6.0155 2.3169
18.6035 -5.5579 2.3169
18.7034 -5.0985 2.3169
18.7925 -4.6377 2.3169
18.8709 -4.1757 2.3169
18.9385 -3.7128 2.3169
18.9955 -3.2491 2.3169
19.0418 -2.7849 2.3169
19.0774 -2.3204 2.3169
19.1024 -1.8560 2.3169
19.1168 -1.3917 2.3169
19.1206 -0.9278 2.3169
19.1138 -0.4646 2.3169
19.0966 -0.0022 2.3169
19.0689 0.4591 2.3169
19.0308 0.9191 2.3169
18.9823 1.3776 2.3169
18.9236 1.8343 2.3169
18.8546 2.2892 2.3169
18.7755 2.7419 2.3169
18.6862 3.1922 2.3169
18.5870 3.6400 2.3169
18.5126 4.0927 2.3213
18.3933 4.5356 2.3213
18.2641 4.9753 2.3213
18.1252 5.4117 2.3213
17.9766 5.8445 2.3213
17.8185 6.2735 2.3213
17.6509 6.6986 2.3213
17.4738 7.1197 2.3213
17.2876 7.5363 2.3213
17.0921 7.9485 2.3213
16.8875 8.3560 2.3213
16.6740 8.7587 2.3213
16.4516 9.1563 2.3213
16.2204 9.5487 2.3213
15.9805 9.9357 2.3213
15.7321 10.3172 2.3213
15.4754 10.6929 2.3213
15.2103 11.0628 2.3213
14.9370 11.4266 2.3213
14.6557 11.7841 2.3213
14.3665 12.1353 2.3213
14.0695 12.4800 2.3213
13.7648 12.8179 2.3213
13.4526 13.1490 2.3213
13.1330 13.4731 2.3213
12.8062 13.7900 2.3213
12.4723 14.0996 2.3213
12.1315 14.4018 2.3213
11.7838 14.6963 2.3213
11.4295 14.9831 2.3213
11.0687 15.2620 2.3213
10.7015 15.5330 2.3213
10.3282 15.7957 2.3213
9.9488 16.0502 2.3213
9.5636 16.2963 2.3213
9.1727 16.5338 2.3213
8.7763 16.7626 2.3213
8.3745 16.9826 2.3213
7.9676 17.1937 2.3213
7.5556 17.3958 2.3213
7.1389 17.5887 2.3213
6.7175 17.7724 2.3213
6.2916 17.9467 2.3213
5.8615 18.1114 2.3213
5.4273 18.2667 2.3213
4.9893 18.4122 2.3213
4.5475 18.5479 2.3213
4.1023 18.6737 2.3213
3.6538 18.7895 2.3213
3.2022 18.8952 2.3213
2.7477 18.9908 2.3213
2.2906 19.0761 2.3213
1.8311 19.1512 2.3213
1.3693 19.2157 2.3213
0.9055 19.2699 2.3213
0.4399 19.3134 2.3213
-0.0273 19.3464 2.3213
-0.4958 19.3687 2.3213
-0.9654 19.3802 2.3213
-1.4243 19.2245 2.3025
-1.8917 19.2145 2.3025
-2.3594 19.1937 2.3025
-2.8273 19.1621 2.3025
-3.2952 19.1195 2.3025
-3.7628 19.0662 2.3025
