ply
format ascii 1.0
element vertex 2177
property float32 x
property float32 y
property float32 z
end_header
0.4329 -6.1030 2.4026
0.5797 -6.0883 2.4026
0.7260 -6.0700 2.4026
0.8718 -6.0481 2.4026
1.0170 -6.0227 2.4026
1.1615 -5.9938 2.4026
1.3051 -5.9613 2.4026
1.4478 -5.9254 2.4026
1.5896 -5.8860 2.4026
1.7303 -5.8432 2.4026
1.8547 -5.7498 2.3830
1.9273 -5.5156 2.3057
2.0532 -5.4501 2.2995
2.2001 -5.4384 2.3174
2.3115 -5.3393 2.2995
2.4384 -5.2793 2.2995
2.5638 -5.2162 2.2995
2.6876 -5.1501 2.2995
2.8096 -5.0811 2.2995
2.9299 -5.0092 2.2995
3.0484 -4.9343 2.2995
3.1649 -4.8567 2.2995
3.2795 -4.7763 2.2995
3.3921 -4.6932 2.2995
3.5025 -4.6074 2.2995
3.6108 -4.5190 2.2995
3.7169 -4.4281 2.2995
3.8207 -4.3346 2.2995
3.9221 -4.2387 2.2995
4.0211 -4.1405 2.2995
4.1177 -4.0399 2.2995
4.2118 -3.9371 2.2995
4.3034 -3.8320 2.2995
4.3923 -3.7249 2.2995
4.4786 -3.6157 2.2995
4.5622 -3.5044 2.2995
4.6430 -3.3913 2.2995
4.7211 -3.2763 2.2995
4.7963 -3.1595 2.2995
4.8686 -3.0410 2.2995
4.9381 -2.9208 2.2995
5.0046 -2.7991 2.2995
5.0681 -2.6758 2.2995
5.1286 -2.5511 2.2995
5.1861 -2.4250 2.2995
5.2405 -2.2977 2.2995
5.2918 -2.1692 2.2995
5.3401 -2.0395 2.2995
5.3851 -1.9087 2.2995
5.4270 -1.7770 2.2995
5.4657 -1.6443 2.2995
5.5012 -1.5109 2.2995
5.5335 -1.3766 2.2995
5.5626 -1.2417 2.2995
5.5884 -1.1062 2.2995
5.6109 -0.9702 2.2995
5.6302 -0.8337 2.2995
5.6462 -0.6969 2.2995
5.6589 -0.5597 2.2995
5.6684 -0.4224 2.2995
5.6746 -0.2849 2.2995
5.6774 -0.1474 2.2995
5.6770 -0.0099 2.2995
5.6734 0.1276 2.2995
5.6664 0.2648 2.2995
5.6562 0.4018 2.2995
5.6428 0.5385 2.2995
5.6261 0.6748 2.2995
5.6061 0.8106 2.2995
5.5829 0.9458 2.2995
5.5566 1.0804 2.2995
5.5270 1.2143 2.2995
5.4943 1.3475 2.2995
5.4585 1.4798 2.2995
3.8979 1.1588 1.6539
3.6925 1.1958 1.5790
5.3322 1.8708 2.2995
3.6652 1.3866 1.5950
3.6642 1.4886 1.6102
3.6613 1.5919 1.6258
3.6722 1.7036 1.6488
3.6841 1.8189 1.6738
3.7116 1.9457 1.7075
3.7378 2.0765 1.7425
3.7488 2.2031 1.7723
3.7464 2.3257 1.7976
3.7429 2.4511 1.8241
3.7492 2.5873 1.8575
3.7834 2.7486 1.9071
4.4797 3.4234 2.2995
3.9603 3.1814 2.0720
4.3079 3.6359 2.2995
4.2182 3.7390 2.2995
4.1261 3.8400 2.2995
4.0317 3.9387 2.2995
3.9350 4.0352 2.2995
3.8360 4.1294 2.2995
3.7348 4.2211 2.2995
3.6314 4.3105 2.2995
3.5260 4.3974 2.2995
3.4402 4.5102 2.3141
3.3090 4.5636 2.2995
3.1977 4.6428 2.2995
3.0920 4.7310 2.3051
3.0357 4.9002 2.3508
2.9824 5.0854 2.4040
2.8569 5.1537 2.4026
2.7315 5.2223 2.4026
2.6046 5.2879 2.4027
2.4762 5.3505 2.4028
2.3463 5.4101 2.4029
2.2150 5.4666 2.4030
2.0823 5.5200 2.4031
1.9484 5.5702 2.4031
1.8134 5.6173 2.4032
1.6772 5.6611 2.4033
1.5399 5.7017 2.4034
1.4017 5.7391 2.4035
1.2627 5.7732 2.4036
1.1228 5.8039 2.4038
0.9822 5.8314 2.4038
0.8409 5.8554 2.4039
0.6990 5.8762 2.4040
0.5567 5.8935 2.4041
0.4139 5.9075 2.4042
0.2708 5.9181 2.4044
0.1274 5.9253 2.4045
-0.0161 5.9291 2.4046
-0.1598 5.9294 2.4047
-0.3035 5.9263 2.4048
-0.4471 5.9199 2.4049
-0.5906 5.9099 2.4050
-0.7338 5.8966 2.4051
-0.8768 5.8798 2.4052
-1.0194 5.8597 2.4053
-1.1615 5.8361 2.4054
-1.3030 5.8091 2.4055
-1.4440 5.7787 2.4056
-1.5841 5.7445 2.4055
-1.7234 5.7069 2.4054
-1.8618 5.6659 2.4053
-1.9992 5.6217 2.4052
-2.1356 5.5742 2.4051
-2.2709 5.5233 2.4050
-2.4050 5.4693 2.4049
-2.5378 5.4120 2.4049
-2.6692 5.3515 2.4048
-2.7992 5.2879 2.4047
-2.9277 5.2211 2.4046
-3.0546 5.1513 2.4045
-3.1798 5.0784 2.4044
-3.3033 5.0024 2.4043
-3.4250 4.9235 2.4042
-3.5448 4.8417 2.4041
-3.6626 4.7570 2.4040
-3.7784 4.6694 2.4039
-3.8922 4.5790 2.4038
-4.0038 4.4858 2.4037
-4.1131 4.3900 2.4036
-4.2201 4.2915 2.4035
-4.3248 4.1904 2.4034
-4.4271 4.0868 2.4033
-4.5269 3.9806 2.4032
-4.6241 3.8721 2.4032
-4.7187 3.7612 2.4031
-4.8107 3.6480 2.4030
-4.8999 3.5325 2.4029
-4.9864 3.4149 2.4028
-5.0700 3.2952 2.4028
-5.1507 3.1734 2.4027
-5.2285 3.0497 2.4026
-5.3033 2.9240 2.4026
-5.3968 2.8078 2.4122
-5.3678 2.6301 2.3689
-5.3369 2.4570 2.3272
-5.3333 2.3010 2.2995
-5.3900 2.1727 2.2995
-5.4437 2.0430 2.2995
-5.4942 1.9120 2.2995
-5.5416 1.7798 2.2995
-5.5857 1.6463 2.2995
-5.4855 1.4739 2.2418
-5.6642 1.3763 2.2995
-5.6985 1.2399 2.2995
-5.7294 1.1025 2.2995
-5.7571 0.9645 2.2995
-5.7813 0.8257 2.2995
-5.8022 0.6863 2.2995
-5.8196 0.5464 2.2995
-5.8337 0.4061 2.2995
-5.8443 0.2654 2.2995
-5.8514 0.1244 2.2995
-5.8552 -0.0167 2.2995
-5.8554 -0.1579 2.2995
-5.8522 -0.2992 2.2995
-5.8455 -0.4404 2.2995
-5.8354 -0.5814 2.2995
-5.8218 -0.7221 2.2995
-5.8048 -0.8626 2.2995
-5.7843 -1.0026 2.2995
-5.7604 -1.1421 2.2995
-5.7330 -1.2810 2.2995
-5.7236 -1.4246 2.3081
-5.6681 -1.5567 2.2995
-5.6306 -1.6934 2.2995
-5.6137 -1.8370 2.3094
-5.6394 -1.9971 2.3384
-5.6656 -2.1614 2.3696
-5.6913 -2.3298 2.4026
-5.6348 -2.4668 2.4026
-5.5749 -2.6024 2.4026
-5.5117 -2.7365 2.4026
-5.4453 -2.8691 2.4026
-5.3755 -3.0000 2.4026
-5.3026 -3.1292 2.4026
-5.2265 -3.2565 2.4026
-5.1472 -3.3819 2.4026
-5.0649 -3.5054 2.4026
-4.9795 -3.6268 2.4026
-4.8912 -3.7461 2.4026
-4.8000 -3.8632 2.4026
-4.5560 -3.8514 2.4026
-4.4622 -3.9603 2.4026
-4.3657 -4.0668 2.4026
-4.2666 -4.1709 2.4026
-4.1650 -4.2726 2.4026
-4.0609 -4.3717 2.4026
-3.9544 -4.4682 2.4026
-3.8456 -4.5621 2.4026
-3.7345 -4.6533 2.4026
-3.6211 -4.7417 2.4026
-3.5057 -4.8272 2.4026
-3.3882 -4.9099 2.4026
-3.2686 -4.9897 2.4026
-3.1472 -5.0665 2.4026
-3.0239 -5.1403 2.4026
-2.8988 -5.2110 2.4026
-2.7721 -5.2786 2.4026
-2.6437 -5.3430 2.4026
-2.5139 -5.4043 2.4026
-2.3825 -5.4624 2.4026
-2.2498 -5.5172 2.4026
-2.1158 -5.5686 2.4026
-1.9806 -5.6168 2.4026
-1.8443 -5.6617 2.4026
-1.7070 -5.7031 2.4026
-1.5687 -5.7412 2.4026
-1.4295 -5.7758 2.4026
-1.2896 -5.8071 2.4026
-1.1490 -5.8348 2.4026
-1.0077 -5.8591 2.4026
-0.8660 -5.8799 2.4026
-0.7238 -5.8972 2.4026
-0.5812 -5.9110 2.4026
-0.4385 -5.9214 2.4026
-0.2955 -5.9282 2.4026
-0.1525 -5.9315 2.4026
-0.0094 -5.9313 2.4026
0.1335 -5.9276 2.4026
0.2763 -5.9204 2.4026
0.4188 -5.9097 2.4026
0.5609 -5.8955 2.4026
0.7026 -5.8779 2.4026
0.8438 -5.8568 2.4026
0.9844 -5.8322 2.4026
1.1243 -5.8043 2.4026
1.2633 -5.7729 2.4026
1.4016 -5.7382 2.4026
1.5389 -5.7001 2.4026
1.6752 -5.6587 2.4026
1.8104 -5.6140 2.4026
1.9120 -5.4736 2.3626
1.9880 -5.2783 2.2995
2.1137 -5.2262 2.2995
2.2490 -5.1962 2.3106
2.3611 -5.1131 2.2995
2.4825 -5.0521 2.2995
2.6024 -4.9882 2.2995
2.7207 -4.9214 2.2995
2.8372 -4.8518 2.2995
2.9520 -4.7794 2.2995
3.0649 -4.7043 2.2995
3.1760 -4.6265 2.2995
3.2850 -4.5460 2.2995
3.3920 -4.4630 2.2995
3.4970 -4.3775 2.2995
3.5998 -4.2894 2.2995
3.7003 -4.1990 2.2995
3.7987 -4.1062 2.2995
3.8946 -4.0111 2.2995
3.9883 -3.9137 2.2995
4.0795 -3.8141 2.2995
4.1682 -3.7125 2.2995
4.2544 -3.6087 2.2995
4.3381 -3.5029 2.2995
4.4191 -3.3953 2.2995
4.4975 -3.2857 2.2995
4.5731 -3.1743 2.2995
4.6461 -3.0612 2.2995
4.7162 -2.9464 2.2995
4.7836 -2.8301 2.2995
4.8481 -2.7122 2.2995
4.9097 -2.5928 2.2995
4.9684 -2.4720 2.2995
5.0242 -2.3499 2.2995
5.0770 -2.2266 2.2995
5.1268 -2.1021 2.2995
5.1735 -1.9764 2.2995
5.2173 -1.8498 2.2995
5.2579 -1.7222 2.2995
5.2955 -1.5937 2.2995
5.3300 -1.4644 2.2995
5.3613 -1.3343 2.2995
5.3895 -1.2036 2.2995
5.4146 -1.0723 2.2995
5.4365 -0.9405 2.2995
5.4553 -0.8083 2.2995
5.4709 -0.6757 2.2995
5.4833 -0.5428 2.2995
5.4925 -0.4097 2.2995
5.4985 -0.2765 2.2995
5.5014 -0.1432 2.2995
5.5011 -0.0100 2.2995
5.4976 0.1232 2.2995
5.4909 0.2562 2.2995
3.7655 0.2673 1.5797
5.4681 0.5214 2.2995
5.4519 0.6535 2.2995
5.4326 0.7851 2.2995
5.4102 0.9162 2.2995
5.3847 1.0467 2.2995
5.3561 1.1765 2.2995
5.3245 1.3055 2.2995
5.2898 1.4337 2.2995
3.8979 1.1586 1.7066
3.6302 1.1755 1.6018
3.6303 1.2735 1.6154
3.6324 1.3739 1.6311
3.6468 1.4814 1.6536
3.6596 1.5910 1.6768
3.6895 1.7114 1.7093
3.7153 1.8341 1.7417
3.7265 1.9534 1.7690
3.7276 2.0706 1.7931
3.7257 2.1894 1.8175
3.7278 2.3140 1.8456
3.7383 2.4480 1.8799
4.4982 3.1040 2.2995
4.4212 3.2118 2.2995
4.3416 3.3177 2.2995
3.9605 3.1814 2.1380
4.1750 3.5237 2.2995
4.0881 3.6236 2.2995
3.9989 3.7215 2.2995
3.9074 3.8172 2.2995
3.8136 3.9107 2.2995
3.7177 4.0020 2.2995
3.6196 4.0910 2.2995
3.5194 4.1776 2.2995
3.4504 4.3032 2.3218
3.3130 4.3436 2.2995
3.2069 4.4229 2.2995
3.1278 4.5416 2.3209
3.0740 4.7035 2.3647
3.0067 4.8536 2.4026
2.8885 4.9256 2.4026
2.7686 4.9949 2.4026
2.6472 5.0614 2.4027
2.5242 5.1249 2.4028
2.3997 5.1856 2.4029
2.2738 5.2433 2.4030
2.1465 5.2981 2.4030
2.0179 5.3498 2.4031
1.8881 5.3984 2.4032
1.7572 5.4440 2.4033
1.6252 5.4864 2.4034
1.4921 5.5258 2.4035
1.3582 5.5619 2.4036
1.2234 5.5949 2.4037
1.0878 5.6247 2.4038
0.9515 5.6512 2.4039
0.8146 5.6746 2.4040
0.6771 5.6946 2.4041
0.5391 5.7114 2.4042
0.4008 5.7248 2.4043
0.2621 5.7351 2.4044
0.1231 5.7420 2.4045
-0.0160 5.7455 2.4046
-0.1552 5.7458 2.4047
-0.2945 5.7428 2.4048
-0.4336 5.7364 2.4049
-0.5727 5.7267 2.4050
-0.7115 5.7138 2.4051
-0.8500 5.6974 2.4052
-0.9882 5.6778 2.4054
-1.1259 5.6549 2.4055
-1.2631 5.6287 2.4056
-1.3996 5.5991 2.4056
-1.5353 5.5658 2.4055
-1.6703 5.5293 2.4054
-1.8044 5.4896 2.4053
-1.9376 5.4467 2.4052
-2.0697 5.4005 2.4051
-2.2007 5.3513 2.4051
-2.3306 5.2988 2.4050
-2.4592 5.2432 2.4049
-2.5865 5.1846 2.4048
-2.7124 5.1229 2.4047
-2.8369 5.0581 2.4046
-2.9598 4.9904 2.4045
-3.0811 4.9197 2.4044
-3.2007 4.8461 2.4043
-3.3185 4.7696 2.4042
-3.4346 4.6902 2.4041
-3.5487 4.6080 2.4040
-3.6608 4.5231 2.4039
-3.7710 4.4355 2.4038
-3.8790 4.3452 2.4037
-3.9849 4.2523 2.4037
-4.0885 4.1568 2.4036
-4.1899 4.0588 2.4035
-4.2889 3.9584 2.4034
-4.3855 3.8555 2.4033
-4.4796 3.7503 2.4032
-4.5712 3.6429 2.4032
-4.6602 3.5332 2.4031
-4.7466 3.4213 2.4030
-4.8303 3.3073 2.4029
-4.9112 3.1913 2.4029
-4.9893 3.0733 2.4028
-5.0646 2.9534 2.4027
-5.1370 2.8317 2.4026
-5.2064 2.7081 2.4026
-5.2730 2.5830 2.4026
-5.3240 2.4504 2.3969
-5.2952 2.2839 2.3572
-5.2660 2.1221 2.3196
-5.2723 1.9781 2.2995
-5.3212 1.8512 2.2995
-5.3872 1.7296 2.3081
-5.4096 1.5939 2.2995
-5.4491 1.4636 2.2995
-5.4854 1.3324 2.2995
-5.5186 1.2002 2.2995
-5.5485 1.0672 2.2995
-5.5752 0.9335 2.2995
-5.5986 0.7991 2.2995
-5.6187 0.6642 2.2995
-5.6356 0.5287 2.2995
-5.6491 0.3928 2.2995
-5.6593 0.2566 2.2995
-5.6662 0.1201 2.2995
-5.6697 -0.0166 2.2995
-5.6699 -0.1533 2.2995
-5.6667 -0.2901 2.2995
-5.6602 -0.4268 2.2995
-5.6503 -0.5633 2.2995
-5.6371 -0.6996 2.2995
-5.6318 -0.8372 2.3041
-5.6007 -0.9711 2.2995
-5.5774 -1.1062 2.2995
-5.5509 -1.2407 2.2995
-5.5340 -1.3777 2.3049
-5.5556 -1.5262 2.3278
-5.5803 -1.6786 2.3537
-5.6054 -1.8345 2.3816
-5.6098 -1.9869 2.4026
-5.5617 -2.1220 2.4026
-5.5102 -2.2559 2.4026
-5.4555 -2.3886 2.4026
-5.3975 -2.5198 2.4026
-5.3363 -2.6497 2.4026
-5.2719 -2.7780 2.4026
-5.2044 -2.9047 2.4026
-5.1338 -3.0297 2.4026
-5.0600 -3.1530 2.4026
-4.9833 -3.2744 2.4026
-4.9036 -3.3940 2.4026
-4.8210 -3.5115 2.4026
-4.7355 -3.6269 2.4026
-4.6471 -3.7403 2.4026
-4.4142 -3.7316 2.4026
-4.3233 -3.8371 2.4026
-4.2298 -3.9403 2.4026
-4.1338 -4.0411 2.4026
-4.0354 -4.1396 2.4026
-3.9345 -4.2356 2.4026
-3.8314 -4.3291 2.4026
-3.7259 -4.4201 2.4026
-3.6183 -4.5084 2.4026
-3.5085 -4.5940 2.4026
-3.3966 -4.6769 2.4026
-3.2828 -4.7571 2.4026
-3.1670 -4.8344 2.4026
-3.0493 -4.9088 2.4026
-2.9299 -4.9803 2.4026
-2.8088 -5.0488 2.4026
-2.6860 -5.1143 2.4026
-2.5617 -5.1768 2.4026
-2.4358 -5.2361 2.4026
-2.3086 -5.2924 2.4026
-2.1801 -5.3455 2.4026
-2.0503 -5.3954 2.4026
-1.9193 -5.4421 2.4026
-1.7872 -5.4856 2.4026
-1.6542 -5.5258 2.4026
-1.5202 -5.5627 2.4026
-1.3854 -5.5963 2.4026
-1.2498 -5.6266 2.4026
-1.1136 -5.6536 2.4026
-0.9767 -5.6771 2.4026
-0.8394 -5.6973 2.4026
-0.7017 -5.7142 2.4026
-0.5636 -5.7276 2.4026
-0.4252 -5.7377 2.4026
-0.2867 -5.7443 2.4026
-0.1481 -5.7476 2.4026
-0.0095 -5.7474 2.4026
0.1290 -5.7439 2.4026
0.2673 -5.7370 2.4026
0.4054 -5.7267 2.4026
0.5431 -5.7130 2.4026
0.6804 -5.6959 2.4026
0.8172 -5.6756 2.4026
0.9535 -5.6519 2.4026
1.0890 -5.6248 2.4026
1.2238 -5.5945 2.4026
1.3578 -5.5609 2.4026
1.4909 -5.5241 2.4026
1.6229 -5.4841 2.4026
1.7540 -5.4408 2.4026
1.8838 -5.3944 2.4026
1.9650 -5.2188 2.3459
2.0480 -5.0652 2.2995
2.1686 -5.0119 2.2995
2.2939 -4.9688 2.3056
2.4056 -4.8966 2.2995
2.5218 -4.8347 2.2995
2.6364 -4.7701 2.2995
2.7494 -4.7027 2.2995
2.8607 -4.6326 2.2995
2.9702 -4.5598 2.2995
3.0778 -4.4845 2.2995
3.1836 -4.4066 2.2995
3.2874 -4.3262 2.2995
3.3891 -4.2433 2.2995
3.4888 -4.1581 2.2995
3.5863 -4.0704 2.2995
3.6817 -3.9805 2.2995
3.7748 -3.8884 2.2995
3.8656 -3.7941 2.2995
3.9541 -3.6976 2.2995
4.0401 -3.5991 2.2995
4.1238 -3.4986 2.2995
4.2049 -3.3961 2.2995
4.2835 -3.2918 2.2995
4.3595 -3.1856 2.2995
4.4330 -3.0777 2.2995
4.5037 -2.9681 2.2995
4.5718 -2.8568 2.2995
4.6372 -2.7441 2.2995
4.6998 -2.6298 2.2995
4.7596 -2.5141 2.2995
4.8166 -2.3970 2.2995
4.8707 -2.2787 2.2995
4.9219 -2.1591 2.2995
4.9703 -2.0384 2.2995
5.0157 -1.9167 2.2995
5.0581 -1.7939 2.2995
5.0976 -1.6702 2.2995
5.1341 -1.5456 2.2995
5.1676 -1.4203 2.2995
5.1981 -1.2942 2.2995
5.2255 -1.1675 2.2995
5.2499 -1.0402 2.2995
5.2712 -0.9124 2.2995
5.2894 -0.7842 2.2995
5.3046 -0.6556 2.2995
5.3167 -0.5268 2.2995
5.3257 -0.3977 2.2995
5.3316 -0.2685 2.2995
5.2941 -0.1382 2.2821
5.2938 -0.0100 2.2821
5.2905 0.1182 2.2821
5.3244 0.2481 2.2995
3.6483 0.2587 1.5784
5.3024 0.5053 2.2995
5.2868 0.6334 2.2995
5.2681 0.7610 2.2995
5.2464 0.8881 2.2995
5.2217 1.0147 2.2995
5.1941 1.1405 2.2995
3.5913 0.8803 1.5994
3.5939 0.9739 1.6110
3.5953 1.0684 1.6232
3.6045 1.1669 1.6401
3.6183 1.2691 1.6603
3.6360 1.3751 1.6836
3.6667 1.4893 1.7144
3.6910 1.6044 1.7438
3.7034 1.7177 1.7692
3.7060 1.8293 1.7914
3.7054 1.9421 1.8137
3.7065 2.0588 1.8385
3.7176 2.1845 1.8700
4.5043 2.7958 2.2995
4.4346 2.9038 2.2995
4.3624 3.0101 2.2995
4.2877 3.1147 2.2995
4.2105 3.2174 2.2995
3.9606 3.1814 2.2046
4.0490 3.4172 2.2995
3.9647 3.5141 2.2995
3.8782 3.6091 2.2995
3.7894 3.7019 2.2995
3.6985 3.7926 2.2995
3.6054 3.8812 2.2995
3.5103 3.9674 2.2995
3.4557 4.1021 2.3282
3.3140 4.1331 2.2995
3.2129 4.2124 2.2995
3.1549 4.3513 2.3327
3.1098 4.5155 2.3794
3.0288 4.6346 2.4026
2.9158 4.7071 2.4026
2.8012 4.7770 2.4026
2.6850 4.8442 2.4027
2.5672 4.9087 2.4028
2.4479 4.9703 2.4029
2.3271 5.0292 2.4029
2.2050 5.0851 2.4030
2.0815 5.1382 2.4031
1.9568 5.1883 2.4032
1.8309 5.2355 2.4033
1.7039 5.2796 2.4034
1.5758 5.3208 2.4035
1.4468 5.3588 2.4036
1.3169 5.3939 2.4037
1.1861 5.4258 2.4038
1.0546 5.4547 2.4039
0.9224 5.4804 2.4040
0.7896 5.5029 2.4041
0.6563 5.5223 2.4042
0.5225 5.5386 2.4043
0.3883 5.5516 2.4044
0.2538 5.5614 2.4045
0.1190 5.5681 2.4046
-0.0159 5.5715 2.4047
-0.1509 5.5717 2.4048
-0.2859 5.5687 2.4049
-0.4209 5.5624 2.4050
-0.5557 5.5530 2.4051
-0.6903 5.5403 2.4052
-0.8247 5.5245 2.4053
-0.9586 5.5054 2.4054
-1.0921 5.4831 2.4055
-1.2251 5.4576 2.4056
-1.3575 5.4287 2.4056
-1.4891 5.3964 2.4055
-1.6200 5.3610 2.4054
-1.7500 5.3224 2.4053
-1.8791 5.2807 2.4052
-2.0072 5.2359 2.4051
-2.1342 5.1881 2.4051
-2.2601 5.1372 2.4050
-2.3848 5.0832 2.4049
-2.5082 5.0263 2.4048
-2.6302 4.9664 2.4047
-2.7508 4.9036 2.4046
-2.8700 4.8379 2.4045
-2.9875 4.7693 2.4044
-3.1034 4.6978 2.4043
-3.2177 4.6236 2.4042
-3.3301 4.5466 2.4041
-3.4407 4.4669 2.4041
-3.5494 4.3845 2.4040
-3.6561 4.2995 2.4039
-3.7608 4.2119 2.4038
-3.8634 4.1218 2.4037
-3.9638 4.0292 2.4036
-4.0620 3.9342 2.4035
-4.1579 3.8367 2.4035
-4.2515 3.7370 2.4034
-4.3427 3.6350 2.4033
-4.4315 3.5308 2.4032
-4.5177 3.4244 2.4032
-4.6014 3.3159 2.4031
-4.6824 3.2054 2.4030
-4.7608 3.0929 2.4029
-4.8365 2.9785 2.4029
-4.9094 2.8622 2.4028
-4.9794 2.7442 2.4027
-5.0467 2.6244 2.4027
-5.1110 2.5030 2.4026
-5.1725 2.3801 2.4026
-5.2310 2.2557 2.4026
-5.2546 2.1169 2.3880
-5.2264 1.9603 2.3519
-5.2038 1.8099 2.3202
-5.2123 1.6730 2.3042
-5.2428 1.5442 2.2995
-5.2810 1.4180 2.2995
-5.3162 1.2908 2.2995
-5.3482 1.1627 2.2995
-5.3772 1.0338 2.2995
-5.4231 0.9076 2.3080
-5.4302 0.7746 2.3014
-5.4450 0.6432 2.2995
-5.4613 0.5119 2.2995
-5.4743 0.3802 2.2995
-5.4841 0.2482 2.2995
-5.4907 0.1159 2.2995
-5.5021 -0.0165 2.3028
-5.4942 -0.1490 2.2995
-5.4911 -0.2815 2.2995
-5.4847 -0.4139 2.2995
-5.4751 -0.5462 2.2995
-5.4622 -0.6783 2.2995
-5.4462 -0.8100 2.2995
-5.4651 -0.9480 2.3157
-5.4849 -1.0882 2.3338
-5.5054 -1.2308 2.3537
-5.5261 -1.3761 2.3753
-5.5475 -1.5243 2.3989
-5.5190 -1.6605 2.4026
-5.4788 -1.7934 2.4026
-5.4354 -1.9254 2.4026
-5.3888 -2.0563 2.4026
-5.3389 -2.1860 2.4026
-5.2858 -2.3145 2.4026
-5.2296 -2.4417 2.4026
-5.1703 -2.5675 2.4026
-5.1079 -2.6918 2.4026
-5.0424 -2.8145 2.4026
-4.9740 -2.9356 2.4026
-4.9025 -3.0550 2.4026
-4.8282 -3.1727 2.4026
-4.7509 -3.2885 2.4026
-4.6709 -3.4023 2.4026
-4.5880 -3.5142 2.4026
-4.5024 -3.6239 2.4026
-4.2797 -3.6180 2.4026
-4.1916 -3.7202 2.4026
-4.1009 -3.8203 2.4026
-4.0079 -3.9181 2.4026
-3.9124 -4.0135 2.4026
-3.8147 -4.1066 2.4026
-3.7147 -4.1973 2.4026
-3.6125 -4.2854 2.4026
-3.5081 -4.3711 2.4026
-3.4017 -4.4541 2.4026
-3.2932 -4.5345 2.4026
-3.1829 -4.6121 2.4026
-3.0706 -4.6871 2.4026
-2.9566 -4.7592 2.4026
-2.8408 -4.8285 2.4026
-2.7234 -4.8950 2.4026
-2.6044 -4.9585 2.4026
-2.4838 -5.0191 2.4026
-2.3619 -5.0767 2.4026
-2.2385 -5.1313 2.4026
-2.1139 -5.1828 2.4026
-1.9881 -5.2312 2.4026
-1.8611 -5.2765 2.4026
-1.7331 -5.3187 2.4026
-1.6041 -5.3577 2.4026
-1.4742 -5.3935 2.4026
-1.3435 -5.4261 2.4026
-1.2121 -5.4555 2.4026
-1.0800 -5.4817 2.4026
-0.9474 -5.5046 2.4026
-0.8142 -5.5242 2.4026
-0.6807 -5.5406 2.4026
-0.5468 -5.5537 2.4026
-0.4127 -5.5634 2.4026
-0.2784 -5.5699 2.4026
-0.1440 -5.5731 2.4026
-0.0096 -5.5730 2.4026
0.1247 -5.5697 2.4026
0.2588 -5.5630 2.4026
0.3927 -5.5531 2.4026
0.5262 -5.5399 2.4026
0.6594 -5.5234 2.4026
0.7920 -5.5037 2.4026
0.9241 -5.4808 2.4026
1.0556 -5.4546 2.4026
1.1863 -5.4253 2.4026
1.3163 -5.3928 2.4026
1.4453 -5.3572 2.4026
1.5734 -5.3184 2.4026
1.7005 -5.2765 2.4026
1.8264 -5.2316 2.4026
1.9512 -5.1836 2.4026
2.0137 -4.9816 2.3319
2.1027 -4.8607 2.2995
2.2183 -4.8063 2.2995
2.3353 -4.7547 2.3022
2.4453 -4.6892 2.2995
2.5565 -4.6265 2.2995
2.6661 -4.5612 2.2995
2.7741 -4.4933 2.2995
2.8803 -4.4228 2.2995
2.9847 -4.3498 2.2995
3.0873 -4.2743 2.2995
3.1880 -4.1963 2.2995
3.2868 -4.1160 2.2995
3.3835 -4.0334 2.2995
3.4781 -3.9485 2.2995
3.5707 -3.8613 2.2995
3.6610 -3.7720 2.2995
3.7492 -3.6805 2.2995
3.8350 -3.5870 2.2995
3.9185 -3.4915 2.2995
3.9997 -3.3941 2.2995
4.0785 -3.2947 2.2995
4.1548 -3.1935 2.2995
4.2286 -3.0906 2.2995
4.2999 -2.9859 2.2995
4.3686 -2.8797 2.2995
4.4347 -2.7718 2.2995
4.4982 -2.6624 2.2995
4.5589 -2.5516 2.2995
4.6170 -2.4394 2.2995
4.6724 -2.3259 2.2995
4.7249 -2.2111 2.2995
4.7747 -2.0951 2.2995
4.8217 -1.9781 2.2995
4.8658 -1.8599 2.2995
4.9070 -1.7408 2.2995
4.9454 -1.6208 2.2995
4.9809 -1.5000 2.2995
5.0134 -1.3784 2.2995
5.0430 -1.2561 2.2995
5.0697 -1.1331 2.2995
5.0934 -1.0096 2.2995
5.1141 -0.8857 2.2995
5.1319 -0.7613 2.2995
5.1467 -0.6365 2.2995
5.1585 -0.5115 2.2995
5.1672 -0.3863 2.2995
5.1344 -0.2590 2.2823
5.1371 -0.1345 2.2823
5.1369 -0.0101 2.2823
5.1338 0.1143 2.2823
5.1276 0.2385 2.2823
3.5412 0.2508 1.5790
5.1450 0.4899 2.2995
5.1299 0.6142 2.2995
5.1118 0.7381 2.2995
3.5467 0.6002 1.6020
3.5511 0.6898 1.6116
3.5549 0.7804 1.6219
3.5633 0.8732 1.6353
3.5774 0.9692 1.6526
3.5910 1.0669 1.6708
3.6139 1.1698 1.6945
3.6425 1.2774 1.7224
3.6638 1.3854 1.7482
3.6780 1.4937 1.7722
3.6812 1.6000 1.7922
3.6827 1.7079 1.8130
3.6840 1.8183 1.8351
3.6953 1.9367 1.8639
3.7322 2.0729 1.9077
4.0245 2.3647 2.0861
4.3711 2.7130 2.2995
4.3034 2.8178 2.2995
4.2334 2.9210 2.2995
4.1609 3.0224 2.2995
4.0860 3.1221 2.2995
3.9607 3.1814 2.2719
3.9292 3.3160 2.2995
3.8474 3.4101 2.2995
3.7635 3.5023 2.2995
3.6773 3.5924 2.2995
3.5891 3.6804 2.2995
3.4987 3.7663 2.2995
3.4599 3.9105 2.3356
3.3121 3.9316 2.2995
3.2159 4.0109 2.2995
3.1666 4.1518 2.3354
3.1376 4.3276 2.3907
3.0471 4.4245 2.4026
2.9391 4.4975 2.4026
2.8295 4.5680 2.4026
2.7183 4.6359 2.4027
2.6055 4.7011 2.4028
2.4912 4.7636 2.4029
2.3753 4.8235 2.4029
2.2581 4.8805 2.4030
2.1396 4.9348 2.4031
2.0197 4.9863 2.4032
1.8987 5.0349 2.4033
1.7765 5.0806 2.4034
1.6532 5.1234 2.4035
1.5289 5.1633 2.4035
1.4037 5.2002 2.4036
1.2776 5.2342 2.4037
1.1507 5.2652 2.4038
1.0231 5.2931 2.4039
0.8948 5.3180 2.4040
0.7659 5.3399 2.4041
0.6365 5.3587 2.4042
0.5066 5.3744 2.4043
0.3764 5.3870 2.4044
0.2459 5.3965 2.4045
0.1151 5.4029 2.4046
-0.0158 5.4061 2.4047
-0.1468 5.4063 2.4048
-0.2779 5.4033 2.4049
-0.4088 5.3972 2.4050
-0.5397 5.3880 2.4051
-0.6703 5.3756 2.4052
-0.8006 5.3601 2.4053
-0.9306 5.3416 2.4054
-1.0601 5.3199 2.4055
-1.1891 5.2951 2.4056
-1.3175 5.2669 2.4056
-1.4452 5.2356 2.4055
-1.5722 5.2011 2.4054
-1.6983 5.1636 2.4053
-1.8235 5.1231 2.4052
-1.9478 5.0796 2.4051
-2.0710 5.0332 2.4051
-2.1931 4.9837 2.4050
-2.3141 4.9313 2.4049
-2.4338 4.8760 2.4048
-2.5522 4.8179 2.4047
-2.6691 4.7569 2.4046
-2.7847 4.6930 2.4045
-2.8987 4.6264 2.4044
-3.0111 4.5571 2.4043
-3.1219 4.4850 2.4043
-3.2309 4.4102 2.4042
-3.3382 4.3329 2.4041
-3.4436 4.2529 2.4040
-3.5471 4.1704 2.4039
-3.6486 4.0854 2.4038
-3.7480 3.9979 2.4037
-3.8454 3.9081 2.4037
-3.9406 3.8158 2.4036
-4.0337 3.7213 2.4035
-4.1244 3.6245 2.4035
-4.2128 3.5255 2.4034
-4.2988 3.4244 2.4033
-4.3824 3.3211 2.4032
-4.4635 3.2159 2.4032
-4.5421 3.1086 2.4031
-4.6180 2.9995 2.4030
-4.6914 2.8885 2.4030
-4.7620 2.7757 2.4029
-4.8300 2.6612 2.4028
-4.8951 2.5450 2.4028
-4.9575 2.4272 2.4027
-5.0170 2.3079 2.4027
-5.0736 2.1872 2.4026
-5.1273 2.0651 2.4026
-5.1781 1.9417 2.4026
-5.1941 1.8059 2.3879
-5.2026 1.6693 2.3715
-5.2108 1.5343 2.3566
-5.2188 1.4008 2.3431
-5.2265 1.2685 2.3311
-5.2339 1.1373 2.3204
-5.2410 1.0071 2.3111
-5.2480 0.8778 2.3032
-5.2614 0.7501 2.2995
-5.2802 0.6233 2.2995
-5.2959 0.4959 2.2995
-5.3085 0.3683 2.2995
-5.3180 0.2403 2.2995
-5.3243 0.1120 2.2995
-5.3275 -0.0164 2.2995
-5.3408 -0.1452 2.3052
-5.3598 -0.2752 2.3147
-5.3787 -0.4063 2.3256
-5.3977 -0.5389 2.3379
-5.4170 -0.6730 2.3518
-5.4369 -0.8090 2.3675
-5.4569 -0.9469 2.3847
-5.4750 -1.0866 2.4026
-5.4489 -1.2185 2.4026
-5.4195 -1.3499 2.4026
-5.3869 -1.4805 2.4026
-5.3512 -1.6103 2.4026
-5.3122 -1.7392 2.4026
-5.2701 -1.8671 2.4026
-5.2248 -1.9940 2.4026
-5.1764 -2.1198 2.4026
-5.1249 -2.2443 2.4026
-5.0704 -2.3676 2.4026
-5.0129 -2.4895 2.4026
-4.9524 -2.6100 2.4026
-4.8889 -2.7290 2.4026
-4.8225 -2.8464 2.4026
-4.7532 -2.9622 2.4026
-4.6811 -3.0762 2.4026
-4.6062 -3.1884 2.4026
-4.5286 -3.2988 2.4026
-4.4483 -3.4072 2.4026
-4.3653 -3.5136 2.4026
-4.1520 -3.5101 2.4026
-4.0665 -3.6093 2.4026
-3.9786 -3.7063 2.4026
-3.8883 -3.8012 2.4026
-3.7957 -3.8938 2.4026
-3.7009 -3.9841 2.4026
-3.6039 -4.0720 2.4026
-3.5047 -4.1576 2.4026
-3.4035 -4.2406 2.4026
-3.3002 -4.3212 2.4026
-3.1951 -4.3992 2.4026
-3.0880 -4.4745 2.4026
-2.9791 -4.5472 2.4026
-2.8685 -4.6172 2.4026
-2.7562 -4.6845 2.4026
-2.6423 -4.7490 2.4026
-2.5268 -4.8106 2.4026
-2.4099 -4.8694 2.4026
-2.2916 -4.9253 2.4026
-2.1720 -4.9782 2.4026
-2.0511 -5.0282 2.4026
-1.9290 -5.0752 2.4026
-1.8059 -5.1192 2.4026
-1.6817 -5.1602 2.4026
-1.5566 -5.1980 2.4026
-1.4306 -5.2328 2.4026
-1.3038 -5.2645 2.4026
-1.1763 -5.2930 2.4026
-1.0482 -5.3184 2.4026
-0.9195 -5.3407 2.4026
-0.7903 -5.3598 2.4026
-0.6607 -5.3757 2.4026
-0.5309 -5.3884 2.4026
-0.4007 -5.3980 2.4026
-0.2705 -5.4043 2.4026
-0.1401 -5.4075 2.4026
-0.0097 -5.4074 2.4026
0.1206 -5.4042 2.4026
0.2507 -5.3978 2.4026
0.3806 -5.3882 2.4026
0.5102 -5.3754 2.4026
0.6394 -5.3595 2.4026
0.7681 -5.3405 2.4026
0.8963 -5.3183 2.4026
1.0238 -5.2930 2.4026
1.1507 -5.2645 2.4026
1.2768 -5.2331 2.4026
1.4020 -5.1985 2.4026
1.5263 -5.1610 2.4026
1.6497 -5.1204 2.4026
1.7719 -5.0769 2.4026
1.8930 -5.0304 2.4026
2.0001 -4.9492 2.3872
2.0586 -4.7600 2.3203
2.1523 -4.6644 2.2995
2.2631 -4.6089 2.2995
2.3734 -4.5525 2.3003
2.4805 -4.4901 2.2995
2.5869 -4.4267 2.2995
2.6917 -4.3609 2.2995
2.7949 -4.2925 2.2995
2.8963 -4.2217 2.2995
2.9959 -4.1485 2.2995
3.0936 -4.0729 2.2995
3.1895 -3.9951 2.2995
3.2834 -3.9149 2.2995
3.3753 -3.8325 2.2995
3.4651 -3.7480 2.2995
3.5529 -3.6613 2.2995
3.6385 -3.5726 2.2995
3.7218 -3.4819 2.2995
3.8030 -3.3893 2.2995
3.8818 -3.2947 2.2995
3.9583 -3.1983 2.2995
4.0324 -3.1002 2.2995
4.1041 -3.0003 2.2995
4.1734 -2.8987 2.2995
4.2401 -2.7956 2.2995
4.3043 -2.6909 2.2995
4.3660 -2.5848 2.2995
4.4250 -2.4772 2.2995
4.4815 -2.3683 2.2995
4.5352 -2.2582 2.2995
4.5863 -2.1468 2.2995
4.6347 -2.0342 2.2995
4.6803 -1.9206 2.2995
4.7232 -1.8060 2.2995
4.7633 -1.6904 2.2995
4.8006 -1.5739 2.2995
4.8351 -1.4566 2.2995
4.8668 -1.3385 2.2995
4.8956 -1.2198 2.2995
4.9215 -1.1005 2.2995
4.9446 -0.9806 2.2995
4.9648 -0.8602 2.2995
4.9821 -0.7395 2.2995
4.9965 -0.6184 2.2995
5.0079 -0.4970 2.2995
4.9790 -0.3726 2.2823
4.9846 -0.2518 2.2823
4.9874 -0.1310 2.2823
4.9872 -0.0102 2.2823
4.9842 0.1106 2.2823
3.4845 0.1618 1.5974
3.4916 0.2471 1.6035
3.4981 0.3329 1.6103
3.5041 0.4193 1.6178
3.5094 0.5065 1.6260
3.5216 0.5957 1.6383
3.5354 0.6865 1.6525
3.5494 0.7789 1.6678
3.5685 0.8743 1.6868
3.5952 0.9738 1.7105
3.6221 1.0759 1.7357
3.6356 1.1766 1.7557
3.6481 1.2791 1.7766
3.6525 1.3810 1.7950
3.6564 1.4847 1.8144
3.6596 1.5904 1.8350
3.6721 1.7029 1.8618
3.7004 1.8262 1.8984
4.4265 2.3197 2.2995
4.3682 2.4259 2.2995
4.0244 2.3645 2.1484
4.2443 2.6341 2.2995
4.1786 2.7359 2.2995
4.1106 2.8361 2.2995
4.0402 2.9346 2.2995
3.9675 3.0314 2.2995
3.8925 3.1265 2.2995
3.8153 3.2198 2.2995
3.7358 3.3112 2.2995
3.6543 3.4006 2.2995
3.5706 3.4881 2.2995
3.4978 3.5868 2.3080
3.3972 3.6570 2.2995
3.3076 3.7384 2.2995
3.2160 3.8176 2.2995
3.1770 3.9625 2.3396
3.1502 4.1304 2.3928
3.0617 4.2229 2.4026
2.9586 4.2962 2.4026
2.8539 4.3672 2.4026
2.7474 4.4356 2.4027
2.6394 4.5015 2.4028
2.5299 4.5649 2.4029
2.4188 4.6256 2.4029
2.3063 4.6837 2.4030
2.1925 4.7390 2.4031
2.0773 4.7917 2.4032
1.9610 4.8417 2.4033
1.8434 4.8889 2.4033
1.7247 4.9332 2.4034
1.6050 4.9748 2.4035
1.4843 5.0135 2.4036
1.3627 5.0493 2.4037
1.2403 5.0823 2.4038
1.1170 5.1123 2.4039
0.9931 5.1394 2.4040
0.8685 5.1635 2.4041
0.7433 5.1847 2.4042
0.6177 5.2029 2.4043
0.4916 5.2181 2.4043
0.3651 5.2303 2.4044
0.2384 5.2395 2.4045
0.1114 5.2457 2.4046
-0.0157 5.2488 2.4047
-0.1429 5.2489 2.4048
-0.2702 5.2460 2.4049
-0.3973 5.2400 2.4050
-0.5243 5.2310 2.4051
-0.6511 5.2189 2.4052
-0.7777 5.2039 2.4053
-0.9039 5.1857 2.4054
-1.0296 5.1646 2.4055
-1.1549 5.1405 2.4056
-1.2795 5.1130 2.4056
-1.4035 5.0825 2.4055
-1.5267 5.0491 2.4054
-1.6491 5.0126 2.4053
-1.7707 4.9733 2.4052
-1.8913 4.9310 2.4051
-2.0109 4.8858 2.4051
-2.1295 4.8377 2.4050
-2.2468 4.7868 2.4049
-2.3630 4.7331 2.4048
-2.4779 4.6766 2.4047
-2.5915 4.6173 2.4046
-2.7036 4.5553 2.4045
-2.8142 4.4906 2.4045
-2.9233 4.4232 2.4044
-3.0308 4.3532 2.4043
-3.1366 4.2806 2.4042
-3.2407 4.2055 2.4041
-3.3430 4.1278 2.4040
-3.4434 4.0477 2.4040
-3.5419 3.9651 2.4039
-3.6384 3.8802 2.4038
-3.7329 3.7929 2.4037
-3.8253 3.7034 2.4037
-3.9155 3.6116 2.4036
-4.0035 3.5176 2.4035
-4.0893 3.4214 2.4035
-4.1727 3.3232 2.4034
-4.2538 3.2230 2.4033
-4.3325 3.1208 2.4032
-4.4087 3.0167 2.4032
-4.4823 2.9107 2.4031
-4.5534 2.8029 2.4030
-4.6220 2.6934 2.4030
-4.6879 2.5823 2.4029
-4.7511 2.4695 2.4029
-4.8115 2.3552 2.4028
-4.8692 2.2394 2.4028
-4.9241 2.1222 2.4027
-4.9761 2.0036 2.4026
-5.0253 1.8838 2.4026
-5.0716 1.7628 2.4026
-5.1150 1.6407 2.4026
-5.1554 1.5175 2.4026
-5.1929 1.3933 2.4026
-5.2167 1.2656 2.3977
-5.2243 1.1348 2.3868
-5.2315 1.0048 2.3773
-5.2384 0.8757 2.3692
-5.2452 0.7473 2.3624
-5.2517 0.6194 2.3569
-5.2580 0.4920 2.3528
-5.2641 0.3647 2.3499
-5.2741 0.2379 2.3502
-5.2931 0.1110 2.3559
-5.3121 -0.0167 2.3630
-5.3312 -0.1453 2.3714
-5.3507 -0.2751 2.3815
-5.3702 -0.4061 2.3930
-5.3820 -0.5377 2.4026
-5.3693 -0.6675 2.4026
-5.3534 -0.7969 2.4026
-5.3343 -0.9260 2.4026
-5.3121 -1.0546 2.4026
-5.2867 -1.1826 2.4026
-5.2582 -1.3100 2.4026
-5.2265 -1.4367 2.4026
-5.1918 -1.5626 2.4026
-5.1539 -1.6876 2.4026
-5.1130 -1.8118 2.4026
-5.0691 -1.9348 2.4026
-5.0221 -2.0568 2.4026
-4.9721 -2.1777 2.4026
-4.9192 -2.2972 2.4026
-4.8634 -2.4155 2.4026
-4.8047 -2.5324 2.4026
-4.7431 -2.6478 2.4026
-4.6786 -2.7617 2.4026
-4.6114 -2.8740 2.4026
-4.5415 -2.9846 2.4026
-4.4688 -3.0934 2.4026
-4.3935 -3.2005 2.4026
-4.3155 -3.3057 2.4026
-4.2350 -3.4089 2.4026
-4.0305 -3.4076 2.4026
-3.9475 -3.5038 2.4026
-3.8622 -3.5980 2.4026
-3.7746 -3.6901 2.4026
-3.6847 -3.7799 2.4026
-3.5927 -3.8676 2.4026
-3.4985 -3.9530 2.4026
-3.4022 -4.0360 2.4026
-3.3040 -4.1166 2.4026
-3.2038 -4.1948 2.4026
-3.1017 -4.2705 2.4026
-2.9978 -4.3436 2.4026
-2.8921 -4.4142 2.4026
-2.7847 -4.4822 2.4026
-2.6757 -4.5475 2.4026
-2.5652 -4.6101 2.4026
-2.4531 -4.6699 2.4026
-2.3396 -4.7270 2.4026
-2.2248 -4.7813 2.4026
-2.1087 -4.8327 2.4026
-1.9913 -4.8812 2.4026
-1.8729 -4.9269 2.4026
-1.7533 -4.9696 2.4026
-1.6328 -5.0094 2.4026
-1.5113 -5.0462 2.4026
-1.3890 -5.0800 2.4026
-1.2660 -5.1107 2.4026
-1.1422 -5.1385 2.4026
-1.0179 -5.1632 2.4026
-0.8929 -5.1848 2.4026
-0.7676 -5.2034 2.4026
-0.6418 -5.2189 2.4026
-0.5157 -5.2312 2.4026
-0.3894 -5.2405 2.4026
-0.2629 -5.2468 2.4026
-0.1364 -5.2498 2.4026
-0.0098 -5.2499 2.4026
0.1167 -5.2468 2.4026
0.2430 -5.2406 2.4026
0.3691 -5.2313 2.4026
0.4949 -5.2190 2.4026
0.6204 -5.2036 2.4026
0.7453 -5.1851 2.4026
0.8698 -5.1636 2.4026
0.9936 -5.1391 2.4026
1.1168 -5.1116 2.4026
1.2392 -5.0811 2.4026
1.3608 -5.0476 2.4026
1.4815 -5.0112 2.4026
1.6013 -4.9718 2.4026
1.7200 -4.9296 2.4026
1.8376 -4.8845 2.4026
1.9540 -4.8366 2.4026
2.0436 -4.7266 2.3728
2.1000 -4.5523 2.3111
2.1971 -4.4755 2.2995
2.3034 -4.4191 2.2995
2.4086 -4.3610 2.2999
2.5116 -4.2988 2.2995
2.6134 -4.2349 2.2995
2.7135 -4.1686 2.2995
2.8120 -4.0999 2.2995
2.9088 -4.0288 2.2995
3.0038 -3.9555 2.2995
3.0969 -3.8799 2.2995
3.1881 -3.8021 2.2995
3.2774 -3.7221 2.2995
3.3647 -3.6401 2.2995
3.4499 -3.5560 2.2995
3.5331 -3.4699 2.2995
3.6141 -3.3818 2.2995
3.6929 -3.2919 2.2995
3.7696 -3.2001 2.2995
3.8439 -3.1065 2.2995
3.9159 -3.0112 2.2995
3.9856 -2.9142 2.2995
4.0529 -2.8157 2.2995
4.1178 -2.7155 2.2995
4.1802 -2.6139 2.2995
4.2401 -2.5109 2.2995
4.2975 -2.4064 2.2995
4.3524 -2.3007 2.2995
4.4047 -2.1937 2.2995
4.4543 -2.0855 2.2995
4.5014 -1.9762 2.2995
4.5458 -1.8659 2.2995
4.5875 -1.7546 2.2995
4.6265 -1.6423 2.2995
4.6628 -1.5292 2.2995
4.6963 -1.4153 2.2995
4.7271 -1.3006 2.2995
4.7551 -1.1853 2.2995
4.7804 -1.0694 2.2995
4.8028 -0.9529 2.2995
4.8225 -0.8360 2.2995
4.8393 -0.7187 2.2995
4.8534 -0.6011 2.2995
4.8646 -0.4832 2.2995
3.4109 -0.2556 1.6096
3.4203 -0.1731 1.6122
3.4292 -0.0903 1.6154
3.4376 -0.0073 1.6194
3.4456 0.0762 1.6242
3.4553 0.1602 1.6307
3.4682 0.2452 1.6397
3.4813 0.3310 1.6497
3.4946 0.4180 1.6608
3.5080 0.5061 1.6731
3.5283 0.5966 1.6897
3.5523 0.6896 1.7092
3.5775 0.7849 1.7304
3.5942 0.8804 1.7488
3.6084 0.9772 1.7672
3.6167 1.0742 1.7840
3.6216 1.1719 1.8003
3.6261 1.2712 1.8178
3.6323 1.3731 1.8374
3.6467 1.4806 1.8627
3.6737 1.5964 1.8961
4.4061 2.0430 2.2995
4.3545 2.1489 2.2995
4.3004 2.2535 2.2995
4.2438 2.3567 2.2995
4.0244 2.3643 2.2113
4.1234 2.5589 2.2995
4.0596 2.6579 2.2995
3.9935 2.7552 2.2995
3.9252 2.8509 2.2995
3.8545 2.9450 2.2995
3.7817 3.0374 2.2995
3.7066 3.1280 2.2995
3.6295 3.2168 2.2995
3.5503 3.3038 2.2995
3.4981 3.4173 2.3188
3.3857 3.4718 2.2995
3.3005 3.5529 2.2995
3.2138 3.6324 2.2997
3.1863 3.7824 2.3451
3.1621 3.9439 2.3969
3.0729 4.0291 2.4026
2.9745 4.1027 2.4026
2.8744 4.1741 2.4026
2.7726 4.2430 2.4027
2.6692 4.3095 2.4028
2.5642 4.3735 2.4029
2.4578 4.4350 2.4029
2.3499 4.4940 2.4030
2.2406 4.5504 2.4031
2.1299 4.6042 2.4032
2.0180 4.6554 2.4033
1.9049 4.7039 2.4033
1.7907 4.7497 2.4034
1.6754 4.7928 2.4035
1.5591 4.8332 2.4036
1.4418 4.8707 2.4037
1.3236 4.9055 2.4038
1.2047 4.9375 2.4038
1.0849 4.9666 2.4039
0.9645 4.9929 2.4040
0.8434 5.0163 2.4041
0.7218 5.0369 2.4042
0.5997 5.0545 2.4043
0.4772 5.0692 2.4044
0.3544 5.0810 2.4045
0.2312 5.0899 2.4046
0.1078 5.0959 2.4047
-0.0157 5.0989 2.4048
-0.1392 5.0989 2.4049
-0.2628 5.0960 2.4050
-0.3863 5.0902 2.4051
-0.5097 5.0814 2.4052
-0.6329 5.0696 2.4053
-0.7558 5.0549 2.4053
-0.8784 5.0373 2.4054
-1.0006 5.0167 2.4055
-1.1223 4.9932 2.4056
-1.2433 4.9665 2.4056
-1.3637 4.9368 2.4055
-1.4834 4.9042 2.4054
-1.6023 4.8688 2.4053
-1.7204 4.8305 2.4052
-1.8375 4.7894 2.4051
-1.9537 4.7454 2.4051
-2.0688 4.6987 2.4050
-2.1828 4.6492 2.4049
-2.2956 4.5970 2.4048
-2.4072 4.5421 2.4047
-2.5175 4.4844 2.4046
-2.6263 4.4242 2.4046
-2.7338 4.3613 2.4045
-2.8397 4.2958 2.4044
-2.9441 4.2277 2.4043
-3.0469 4.1572 2.4042
-3.1479 4.0842 2.4042
-3.2472 4.0087 2.4041
-3.3447 3.9308 2.4040
-3.4403 3.8506 2.4040
-3.5340 3.7681 2.4039
-3.6258 3.6833 2.4038
-3.7154 3.5963 2.4037
-3.8030 3.5071 2.4037
-3.8885 3.4157 2.4036
-3.9717 3.3223 2.4035
-4.0527 3.2269 2.4035
-4.1314 3.1295 2.4034
-4.2077 3.0303 2.4033
-4.2817 2.9291 2.4032
-4.3532 2.8262 2.4032
-4.4222 2.7215 2.4031
-4.4887 2.6151 2.4031
-4.5526 2.5072 2.4030
-4.6139 2.3976 2.4030
-4.6726 2.2866 2.4029
-4.7285 2.1741 2.4029
-4.7818 2.0603 2.4028
-4.8323 1.9452 2.4027
-4.8798 1.8287 2.4026
-4.9247 1.7112 2.4026
-4.9668 1.5926 2.4026
-5.0060 1.4730 2.4026
-5.0423 1.3524 2.4026
-5.0757 1.2309 2.4026
-5.1061 1.1086 2.4026
-5.1335 0.9856 2.4026
-5.1580 0.8618 2.4026
-5.1794 0.7375 2.4026
-5.1978 0.6126 2.4026
-5.2131 0.4873 2.4026
-5.2254 0.3616 2.4026
-5.2346 0.2357 2.4026
-5.2408 0.1094 2.4026
-5.2438 -0.0169 2.4026
-5.2438 -0.1434 2.4026
-5.2407 -0.2698 2.4026
-5.2344 -0.3962 2.4026
-5.2251 -0.5224 2.4026
-5.2127 -0.6483 2.4026
-5.1973 -0.7740 2.4026
-5.1787 -0.8993 2.4026
-5.1571 -1.0241 2.4026
-5.1324 -1.1484 2.4026
-5.1047 -1.2721 2.4026
-5.0739 -1.3950 2.4026
-5.0401 -1.5173 2.4026
-5.0034 -1.6386 2.4026
-4.9636 -1.7591 2.4026
-4.9210 -1.8786 2.4026
-4.8753 -1.9970 2.4026
-4.8268 -2.1143 2.4026
-4.7754 -2.2303 2.4026
-4.7212 -2.3451 2.4026
-4.6642 -2.4586 2.4026
-4.6044 -2.5706 2.4026
-4.5418 -2.6811 2.4026
-4.4765 -2.7901 2.4026
-4.4086 -2.8974 2.4026
-4.3381 -3.0031 2.4026
-4.2649 -3.1070 2.4026
-4.1893 -3.2091 2.4026
-4.1111 -3.3093 2.4026
-3.9148 -3.3098 2.4026
-3.8342 -3.4033 2.4026
-3.7514 -3.4948 2.4026
-3.6662 -3.5842 2.4026
-3.5790 -3.6715 2.4026
-3.4896 -3.7566 2.4026
-3.3981 -3.8395 2.4026
-3.3046 -3.9201 2.4026
-3.2092 -3.9985 2.4026
-3.1119 -4.0744 2.4026
-3.0127 -4.1479 2.4026
-2.9118 -4.2190 2.4026
-2.8092 -4.2875 2.4026
-2.7049 -4.3536 2.4026
-2.5991 -4.4170 2.4026
-2.4917 -4.4778 2.4026
-2.3829 -4.5359 2.4026
-2.2727 -4.5914 2.4026
-2.1611 -4.6441 2.4026
-2.0484 -4.6941 2.4026
-1.9344 -4.7412 2.4026
-1.8194 -4.7856 2.4026
-1.7033 -4.8271 2.4026
-1.5862 -4.8657 2.4026
-1.4683 -4.9015 2.4026
-1.3495 -4.9343 2.4026
-1.2300 -4.9643 2.4026
-1.1098 -4.9912 2.4026
-0.9890 -5.0152 2.4026
-0.8677 -5.0363 2.4026
-0.7459 -5.0544 2.4026
-0.6237 -5.0694 2.4026
-0.5013 -5.0815 2.4026
-0.3786 -5.0906 2.4026
-0.2557 -5.0966 2.4026
-0.1328 -5.0997 2.4026
-0.0099 -5.0998 2.4026
0.1130 -5.0968 2.4026
0.2357 -5.0908 2.4026
0.3582 -5.0819 2.4026
0.4804 -5.0699 2.4026
0.6022 -5.0550 2.4026
0.7236 -5.0371 2.4026
0.8445 -5.0163 2.4026
0.9648 -4.9925 2.4026
1.0845 -4.9658 2.4026
1.2034 -4.9362 2.4026
1.3216 -4.9038 2.4026
1.4389 -4.8684 2.4026
1.5552 -4.8303 2.4026
1.6705 -4.7893 2.4026
1.7848 -4.7456 2.4026
1.8979 -4.6990 2.4026
2.0099 -4.6498 2.4026
2.0851 -4.5211 2.3624
2.1383 -4.3569 2.3040
2.2374 -4.2937 2.2995
2.3393 -4.2365 2.2995
2.4411 -4.1792 2.3008
2.5387 -4.1148 2.2995
2.6360 -4.0504 2.2995
2.7317 -3.9837 2.2995
2.8258 -3.9147 2.2995
2.9181 -3.8435 2.2995
3.0086 -3.7701 2.2995
3.0973 -3.6945 2.2995
3.1841 -3.6169 2.2995
3.2689 -3.5372 2.2995
3.3518 -3.4556 2.2995
3.4326 -3.3719 2.2995
3.5114 -3.2864 2.2995
3.5880 -3.1991 2.2995
3.6625 -3.1099 2.2995
3.7348 -3.0190 2.2995
3.8048 -2.9264 2.2995
3.8726 -2.8322 2.2995
3.9380 -2.7365 2.2995
4.0011 -2.6392 2.2995
4.0618 -2.5405 2.2995
4.1201 -2.4404 2.2995
4.1759 -2.3389 2.2995
4.2293 -2.2362 2.2995
4.2801 -2.1322 2.2995
4.3285 -2.0271 2.2995
4.3742 -1.9209 2.2995
4.4174 -1.8137 2.2995
4.4580 -1.7055 2.2995
4.4959 -1.5964 2.2995
4.5312 -1.4865 2.2995
4.5639 -1.3758 2.2995
4.5939 -1.2644 2.2995
4.6212 -1.1523 2.2995
4.6457 -1.0397 2.2995
4.6676 -0.9265 2.2995
4.6868 -0.8129 2.2995
4.7032 -0.6989 2.2995
4.7169 -0.5846 2.2995
4.7278 -0.4700 2.2995
3.3939 -0.2546 1.6478
3.4057 -0.1726 1.6517
3.4176 -0.0903 1.6565
3.4299 -0.0075 1.6625
3.4425 0.0759 1.6696
3.4559 0.1600 1.6781
3.4752 0.2454 1.6904
3.4954 0.3321 1.7042
3.5167 0.4203 1.7195
3.5385 0.5102 1.7363
3.5522 0.6004 1.7502
3.5661 0.6920 1.7653
3.5770 0.7846 1.7800
3.5836 0.8776 1.7939
3.5899 0.9719 1.8088
3.5953 1.0676 1.8245
3.6044 1.1661 1.8433
3.6181 1.2682 1.8660
3.6497 1.3795 1.8994
4.3758 1.7764 2.2995
4.3306 1.8816 2.2995
4.2829 1.9857 2.2995
4.2327 2.0886 2.2995
4.1801 2.1902 2.2995
4.1251 2.2906 2.2995
4.0244 2.3641 2.2750
4.0081 2.4872 2.2995
3.9461 2.5834 2.2995
3.8819 2.6780 2.2995
3.8154 2.7711 2.2995
3.7467 2.8626 2.2995
3.6759 2.9524 2.2995
3.6030 3.0405 2.2995
3.5280 3.1268 2.2994
3.4976 3.2547 2.3305
3.3720 3.2940 2.2995
3.2910 3.3747 2.2995
3.2208 3.4671 2.3085
3.1946 3.6107 2.3518
3.1733 3.7670 2.4027
3.0809 3.8427 2.4026
2.9869 3.9165 2.4026
2.8913 3.9881 2.4026
2.7940 4.0574 2.4027
2.6950 4.1244 2.4028
2.5945 4.1891 2.4029
2.4925 4.2513 2.4029
2.3889 4.3111 2.4030
2.2840 4.3684 2.4031
2.1778 4.4233 2.4032
2.0702 4.4756 2.4032
1.9615 4.5253 2.4033
1.8515 4.5724 2.4034
1.7404 4.6169 2.4035
1.6283 4.6588 2.4036
1.5152 4.6980 2.4036
1.4012 4.7345 2.4037
1.2864 4.7683 2.4038
1.1707 4.7993 2.4039
1.0543 4.8276 2.4040
0.9372 4.8531 2.4041
0.8195 4.8759 2.4041
0.7013 4.8958 2.4042
0.5826 4.9129 2.4043
0.4635 4.9272 2.4044
0.3441 4.9386 2.4045
0.2244 4.9472 2.4046
0.1045 4.9530 2.4047
-0.0156 4.9558 2.4048
-0.4958 4.9386 2.4052
-0.1357 4.9558 2.4049
-0.6156 4.9272 2.4053
-0.7350 4.9128 2.4054
-0.2558 4.9530 2.4050
-0.8541 4.8956 2.4055
-0.3759 4.9472 2.4051
-0.9729 4.8756 2.4055
-1.6724 4.6943 2.4052
-1.0911 4.8527 2.4056
-1.2088 4.8267 2.4056
-1.7862 4.6543 2.4052
-1.8991 4.6116 2.4051
-1.3257 4.7978 2.4055
-2.0110 4.5661 2.4050
-1.4421 4.7661 2.4054
-2.1217 4.5180 2.4049
-1.5576 4.7316 2.4053
-2.2314 4.4672 2.4048
-2.7600 4.1743 2.4044
-2.3398 4.4138 2.4048
-2.8614 4.1081 2.4044
-2.4469 4.3577 2.4047
-2.9613 4.0395 2.4043
-2.5527 4.2991 2.4046
-3.0594 3.9685 2.4042
-2.6571 4.2380 2.4045
-3.1559 3.8951 2.4042
-3.6958 3.4074 2.4037
-3.2506 3.8194 2.4041
-3.7788 3.3187 2.4037
-3.3435 3.7414 2.4040
-3.8596 3.2279 2.4036
-3.4345 3.6612 2.4039
-3.9382 3.1351 2.4035
-4.0146 3.0405 2.4035
-3.5236 3.5787 2.4039
-4.0888 2.9439 2.4034
-3.6107 3.4941 2.4038
-4.1606 2.8456 2.4033
-4.4237 2.4356 2.4031
-4.2300 2.7456 2.4033
-4.4832 2.3291 2.4031
-4.2971 2.6439 2.4032
-4.5402 2.2212 2.4030
-4.3616 2.5405 2.4032
-4.5945 2.1119 2.4029
-4.8989 1.3134 2.4026
-4.6462 2.0013 2.4029
-4.9312 1.1954 2.4026
-4.6951 1.8894 2.4028
-4.9607 1.0766 2.4026
-4.9873 0.9570 2.4026
-4.7412 1.7762 2.4027
-5.0110 0.8368 2.4026
-4.7848 1.6621 2.4027
-5.0317 0.7160 2.4026
-4.8256 1.5468 2.4027
-5.0495 0.5947 2.4026
-4.8637 1.4306 2.4026
-5.0644 0.4730 2.4026
-5.0911 0.1059 2.4026
-5.0763 0.3509 2.4026
-5.0940 -0.0168 2.4026
-5.0851 0.2285 2.4026
-5.0939 -0.1396 2.4026
-4.9854 -1.1158 2.4026
-4.9584 -1.2359 2.4026
-5.0908 -0.2625 2.4026
-4.9285 -1.3554 2.4026
-4.8957 -1.4741 2.4026
-4.8600 -1.5919 2.4026
-4.8213 -1.7089 2.4026
-4.7799 -1.8250 2.4026
-5.0848 -0.3852 2.4026
-4.7355 -1.9400 2.4026
-4.6884 -2.0539 2.4026
-4.6385 -2.1666 2.4026
-4.5858 -2.2781 2.4026
-4.5304 -2.3882 2.4026
-4.4722 -2.4970 2.4026
-5.0757 -0.5078 2.4026
-4.4115 -2.6044 2.4026
-4.3481 -2.7102 2.4026
-4.2821 -2.8144 2.4026
-4.2136 -2.9171 2.4026
-4.1425 -3.0180 2.4026
-4.0690 -3.1171 2.4026
-5.0636 -0.6301 2.4026
-3.9931 -3.2144 2.4026
-5.0485 -0.7522 2.4026
-5.0305 -0.8739 2.4026
-5.0094 -0.9951 2.4026
-3.8045 -3.2166 2.4026
-3.7262 -3.3075 2.4026
-3.6456 -3.3963 2.4026
-3.5629 -3.4832 2.4026
-3.4781 -3.5681 2.4026
-3.3912 -3.6508 2.4026
-3.3024 -3.7313 2.4026
-3.2115 -3.8097 2.4026
-3.1188 -3.8858 2.4026
-3.0243 -3.9596 2.4026
-2.9279 -4.0310 2.4026
-2.8298 -4.1001 2.4026
-2.7301 -4.1667 2.4026
-2.6288 -4.2309 2.4026
-2.5259 -4.2925 2.4026
-2.4216 -4.3516 2.4026
-2.3159 -4.4081 2.4026
-2.2088 -4.4620 2.4026
-2.1004 -4.5133 2.4026
-1.9908 -4.5618 2.4026
-1.8801 -4.6077 2.4026
-1.7683 -4.6508 2.4026
-1.6555 -4.6911 2.4026
-1.5418 -4.7287 2.4026
-1.4272 -4.7635 2.4026
-1.3118 -4.7954 2.4026
-1.1956 -4.8245 2.4026
-1.0788 -4.8508 2.4026
-0.9614 -4.8741 2.4026
-0.8435 -4.8946 2.4026
-0.7252 -4.9122 2.4026
-0.6065 -4.9269 2.4026
-0.4875 -4.9387 2.4026
-0.3683 -4.9475 2.4026
-0.2489 -4.9535 2.4026
-0.1294 -4.9564 2.4026
-0.0100 -4.9565 2.4026
0.1094 -4.9537 2.4026
0.2287 -4.9479 2.4026
0.3477 -4.9393 2.4026
0.4665 -4.9277 2.4026
0.5849 -4.9133 2.4026
0.7029 -4.8959 2.4026
0.8204 -4.8757 2.4026
0.9374 -4.8527 2.4026
1.0537 -4.8268 2.4026
1.1693 -4.7980 2.4026
1.2841 -4.7665 2.4026
1.3981 -4.7322 2.4026
1.5112 -4.6952 2.4026
1.6233 -4.6554 2.4026
1.7344 -4.6129 2.4026
1.8444 -4.5678 2.4026
1.9532 -4.5200 2.4026
2.0608 -4.4696 2.4026
2.1235 -4.3277 2.3542
2.1745 -4.1739 2.2995
2.2736 -4.1183 2.2995
2.3712 -4.0604 2.2995
2.4711 -4.0062 2.3030
2.5620 -3.9376 2.2995
2.6551 -3.8728 2.2995
2.7466 -3.8058 2.2995
2.8363 -3.7366 2.2995
2.9243 -3.6653 2.2995
3.0106 -3.5919 2.2995
3.0950 -3.5165 2.2995
3.1775 -3.4390 2.2995
3.2581 -3.3597 2.2995
3.3367 -3.2784 2.2995
3.4133 -3.1953 2.2995
3.4879 -3.1104 2.2995
3.5603 -3.0238 2.2995
3.6306 -2.9354 2.2995
3.6988 -2.8455 2.2995
3.7647 -2.7539 2.2995
3.8283 -2.6609 2.2995
3.8897 -2.5663 2.2995
3.9488 -2.4704 2.2995
4.0055 -2.3730 2.2995
4.0598 -2.2744 2.2995
4.1117 -2.1746 2.2995
4.1612 -2.0735 2.2995
4.2082 -1.9714 2.2995
4.2528 -1.8681 2.2995
4.2948 -1.7639 2.2995
4.3343 -1.6587 2.2995
4.3712 -1.5527 2.2995
4.4056 -1.4458 2.2995
4.4374 -1.3382 2.2995
4.4666 -1.2298 2.2995
4.4932 -1.1209 2.2995
4.5171 -1.0114 2.2995
4.5385 -0.9013 2.2995
4.5571 -0.7909 2.2995
4.5731 -0.6800 2.2995
4.5865 -0.5688 2.2995
4.5971 -0.4574 2.2995
3.4058 -0.2557 1.7006
3.4203 -0.1737 1.7059
3.4357 -0.0911 1.7126
3.4522 -0.0078 1.7208
3.4699 0.0762 1.7306
3.4854 0.1611 1.7404
3.4918 0.2463 1.7466
3.5116 0.3334 1.7606
3.5250 0.4211 1.7725
3.5337 0.5093 1.7831
3.5415 0.5983 1.7943
3.5490 0.6885 1.8066
3.5561 0.7797 1.8198
3.5631 0.8723 1.8341
3.5772 0.9683 1.8534
3.5909 1.0661 1.8738
3.6329 1.1751 1.9105
4.3360 1.5196 2.2995
4.2969 1.6239 2.2995
4.2554 1.7273 2.2995
4.2114 1.8296 2.2995
4.1651 1.9308 2.2995
4.1163 2.0309 2.2995
4.0652 2.1298 2.2995
4.0117 2.2274 2.2995
3.9559 2.3237 2.2995
3.8979 2.4187 2.2995
3.8376 2.5122 2.2995
3.7751 2.6043 2.2995
3.7105 2.6948 2.2995
3.6437 2.7838 2.2995
3.5749 2.8711 2.2995
3.5251 2.9746 2.3133
3.4310 3.0408 2.2995
3.3561 3.1230 2.2995
3.2793 3.2034 2.2995
3.2270 3.3090 2.3185
3.2019 3.4468 2.3599
2.8118 3.8786 2.4027
3.1737 3.5872 2.4026
2.7171 3.9460 2.4028
3.0858 3.6632 2.4026
2.6209 4.0111 2.4028
2.9962 3.7371 2.4026
2.5231 4.0740 2.4029
2.9048 3.8089 2.4026
2.4239 4.1345 2.4030
1.8004 4.4468 2.4035
2.3232 4.1927 2.4031
1.6924 4.4900 2.4035
2.2211 4.2484 2.4031
1.5834 4.5307 2.4036
2.1178 4.3017 2.4032
1.4734 4.5688 2.4037
2.0132 4.3526 2.4033
1.9074 4.4009 2.4034
1.3625 4.6043 2.4038
0.6817 4.7610 2.4043
1.2507 4.6371 2.4039
0.5663 4.7776 2.4044
1.1382 4.6673 2.4039
0.4505 4.7915 2.4045
1.0250 4.6948 2.4040
0.3343 4.8025 2.4045
0.9111 4.7196 2.4041
0.7967 4.7417 2.4042
0.2179 4.8109 2.4046
-0.4825 4.8023 2.4052
0.1013 4.8164 2.4047
-0.0155 4.8192 2.4048
-0.5989 4.7911 2.4053
-0.1323 4.8191 2.4049
-0.7151 4.7771 2.4054
-0.2491 4.8163 2.4050
-0.8309 4.7603 2.4054
-0.9464 4.7408 2.4055
-0.3659 4.8107 2.4051
-1.0614 4.7185 2.4056
-1.6265 4.5643 2.4053
-1.7372 4.5254 2.4052
-1.1758 4.6932 2.4056
-1.2895 4.6650 2.4055
-1.8470 4.4838 2.4051
-1.4026 4.6342 2.4054
-1.9557 4.4395 2.4050
-1.5150 4.6006 2.4053
-2.0634 4.3927 2.4049
-2.1700 4.3433 2.4049
-2.6839 4.0582 2.4045
-2.2754 4.2913 2.4048
-2.7825 3.9939 2.4044
-2.8795 3.9271 2.4043
-2.3795 4.2368 2.4047
-2.9749 3.8581 2.4043
-2.4824 4.1797 2.4046
-3.0687 3.7867 2.4042
-2.5839 4.1202 2.4046
-3.1607 3.7130 2.4041
-3.5934 3.3123 2.4038
-3.2510 3.6372 2.4041
-3.6740 3.2260 2.4037
-3.3395 3.5591 2.4040
-3.7525 3.1377 2.4036
-3.4261 3.4789 2.4039
-3.8290 3.0475 2.4036
-3.5107 3.3966 2.4039
-3.9032 2.9554 2.4035
-4.3006 2.3672 2.4032
-3.9753 2.8616 2.4035
-4.3584 2.2637 2.4031
-4.0450 2.7660 2.4034
-4.4137 2.1588 2.4031
-4.1125 2.6687 2.4034
-4.4665 2.0525 2.4030
-4.1776 2.5698 2.4033
-4.5167 1.9450 2.4030
-4.5641 1.8362 2.4029
-4.2404 2.4693 2.4033
-4.6089 1.7262 2.4027
-4.7620 1.2762 2.4027
-4.6513 1.6152 2.4027
-4.7934 1.1615 2.4027
-4.6909 1.5031 2.4027
-4.8220 1.0460 2.4027
-4.8478 0.9298 2.4027
-4.7278 1.3901 2.4027
-4.9482 0.1025 2.4026
-4.8708 0.8129 2.4026
-4.9510 -0.0168 2.4026
-4.8909 0.6955 2.4026
-4.9509 -0.1361 2.4026
-4.9082 0.5776 2.4026
-4.9479 -0.2555 2.4026
-4.9419 -0.3747 2.4026
-4.9331 -0.4939 2.4026
-4.9213 -0.6128 2.4026
-4.9066 -0.7314 2.4026
-4.9225 0.4593 2.4026
-4.8890 -0.8496 2.4026
-4.8685 -0.9675 2.4026
-4.8452 -1.0847 2.4026
-4.8189 -1.2015 2.4026
-4.7899 -1.3175 2.4026
-4.9341 0.3407 2.4026
-4.7579 -1.4329 2.4026
-4.7232 -1.5474 2.4026
-4.6856 -1.6611 2.4026
-4.6453 -1.7738 2.4026
-4.6022 -1.8856 2.4026
-4.9425 0.2217 2.4026
-4.5563 -1.9962 2.4026
-4.5078 -2.1058 2.4026
-4.4566 -2.2141 2.4026
-4.4027 -2.3211 2.4026
-4.3462 -2.4268 2.4026
-4.2872 -2.5311 2.4026
-4.2255 -2.6340 2.4026
-4.1614 -2.7353 2.4026
-4.0948 -2.8350 2.4026
-4.0258 -2.9330 2.4026
-3.9544 -3.0294 2.4026
-3.8806 -3.1239 2.4026
-3.6991 -3.1276 2.4026
-3.6230 -3.2159 2.4026
-3.5447 -3.3023 2.4026
-3.4643 -3.3868 2.4026
-3.3818 -3.4693 2.4026
-3.2973 -3.5497 2.4026
-3.2109 -3.6280 2.4026
-3.1226 -3.7042 2.4026
-3.0325 -3.7782 2.4026
-2.9405 -3.8499 2.4026
-2.8469 -3.9194 2.4026
-2.7516 -3.9865 2.4026
-2.6546 -4.0513 2.4026
-2.5561 -4.1137 2.4026
-2.4561 -4.1736 2.4026
-2.3547 -4.2311 2.4026
-2.2519 -4.2860 2.4026
-2.1478 -4.3384 2.4026
-2.0424 -4.3883 2.4026
-1.9359 -4.4355 2.4026
-1.8283 -4.4801 2.4026
-1.7196 -4.5221 2.4026
-1.6099 -4.5613 2.4026
-1.4993 -4.5979 2.4026
-1.3879 -4.6317 2.4026
-1.2757 -4.6628 2.4026
-1.1628 -4.6911 2.4026
-1.0493 -4.7166 2.4026
-0.9351 -4.7394 2.4026
-0.8205 -4.7593 2.4026
-0.7055 -4.7764 2.4026
-0.5901 -4.7907 2.4026
-0.4744 -4.8022 2.4026
-0.3584 -4.8108 2.4026
-0.2424 -4.8166 2.4026
-0.1262 -4.8196 2.4026
-0.0101 -4.8197 2.4026
0.1060 -4.8170 2.4026
0.2220 -4.8114 2.4026
0.3378 -4.8031 2.4026
0.4533 -4.7918 2.4026
0.5684 -4.7778 2.4026
0.6832 -4.7610 2.4026
0.7974 -4.7414 2.4026
0.9111 -4.7190 2.4026
1.0243 -4.6939 2.4026
1.1367 -4.6660 2.4026
1.2484 -4.6354 2.4026
1.3592 -4.6021 2.4026
1.4692 -4.5661 2.4026
1.5782 -4.5275 2.4026
1.6863 -4.4862 2.4026
1.7932 -4.4423 2.4026
1.8991 -4.3959 2.4026
2.0037 -4.3469 2.4026
2.1071 -4.2954 2.4026
2.1590 -4.1453 2.3481
2.2107 -4.0055 2.2995
2.3057 -3.9492 2.2995
2.3993 -3.8906 2.2995
2.4988 -3.8413 2.3064
2.5819 -3.7668 2.2995
2.6708 -3.7017 2.2995
2.7582 -3.6345 2.2995
2.8438 -3.5651 2.2995
2.9277 -3.4938 2.2995
3.0098 -3.4204 2.2995
3.0901 -3.3452 2.2995
3.1685 -3.2680 2.2995
3.2450 -3.1890 2.2995
3.3196 -3.1082 2.2995
3.3921 -3.0257 2.2995
3.4626 -2.9414 2.2995
3.5310 -2.8556 2.2995
3.5974 -2.7681 2.2995
3.6615 -2.6791 2.2995
3.7235 -2.5886 2.2995
3.7832 -2.4966 2.2995
3.8407 -2.4033 2.2995
3.8959 -2.3087 2.2995
3.9488 -2.2128 2.2995
3.9993 -2.1157 2.2995
4.0475 -2.0174 2.2995
4.0933 -1.9180 2.2995
4.1367 -1.8176 2.2995
4.1776 -1.7162 2.2995
4.2160 -1.6140 2.2995
4.2520 -1.5108 2.2995
4.2855 -1.4068 2.2995
4.3165 -1.3022 2.2995
4.3449 -1.1968 2.2995
4.3708 -1.0908 2.2995
4.3942 -0.9843 2.2995
4.4149 -0.8772 2.2995
4.4331 -0.7698 2.2995
4.4487 -0.6619 2.2995
4.4618 -0.5538 2.2995
4.4722 -0.4454 2.2995
3.4234 -0.2574 1.7571
3.4353 -0.1747 1.7612
3.4473 -0.0917 1.7663
3.4597 -0.0081 1.7727
3.4698 0.0759 1.7789
3.4792 0.1606 1.7858
3.4883 0.2458 1.7935
3.4970 0.3318 1.8022
3.5053 0.4185 1.8117
3.5134 0.5061 1.8222
3.5215 0.5947 1.8339
3.5352 0.6856 1.8497
3.5492 0.7780 1.8669
3.5696 0.8737 1.8887
4.3179 1.1685 2.2995
3.8976 1.1569 2.0905
3.7914 1.2261 2.0493
4.2186 1.4782 2.2995
4.1806 1.5797 2.2995
4.1402 1.6803 2.2995
4.0975 1.7799 2.2995
4.0524 1.8784 2.2995
4.0049 1.9758 2.2995
3.9552 2.0720 2.2995
3.9032 2.1670 2.2995
3.8489 2.2607 2.2995
3.7925 2.3531 2.2995
3.7338 2.4441 2.2995
3.6731 2.5337 2.2995
3.6102 2.6218 2.2995
3.5479 2.7105 2.3012
3.5215 2.8282 2.3281
3.4092 2.8768 2.2995
3.3382 2.9585 2.2995
3.2653 3.0385 2.2995
3.2323 3.1574 2.3295
3.2082 3.2898 2.3691
3.1716 3.4142 2.4026
