ply
format ascii 1.0
element vertex 2178
property float32 x
property float32 y
property float32 z
end_header
3.4272 -4.0843 1.8596
3.4764 -3.9453 1.8353
3.5296 -3.8157 1.8155
3.5815 -3.6887 1.7970
3.6308 -3.5630 1.7793
3.6725 -3.4336 1.7598
3.7089 -3.3033 1.7397
3.7369 -3.1696 1.7176
3.7616 -3.0373 1.6959
3.7845 -2.9074 1.6752
3.8137 -2.7858 1.6590
3.8413 -2.6659 1.6436
3.8670 -2.5474 1.6288
3.8999 -2.4359 1.6185
3.9323 -2.3259 1.6092
3.9629 -2.2163 1.6004
5.7655 -3.0437 2.2994
5.8337 -2.9014 2.2994
5.8984 -2.7576 2.2994
5.9596 -2.6124 2.2994
6.0173 -2.4659 2.2994
4.3334 -1.6545 1.6412
6.1221 -2.1691 2.2994
6.1691 -2.0191 2.2994
6.2125 -1.8681 2.2994
6.2523 -1.7161 2.2994
6.2884 -1.5633 2.2994
4.3086 -0.9610 1.5674
6.3497 -1.2557 2.2994
6.3748 -1.1010 2.2994
6.3969 -0.9459 2.2997
6.4159 -0.7904 2.3001
6.4312 -0.6346 2.3005
6.4428 -0.4785 2.3010
6.4505 -0.3222 2.3014
6.4545 -0.1658 2.3017
4.4685 -0.0065 1.5937
6.4512 0.1470 2.3024
6.4440 0.3032 2.3028
6.4332 0.4591 2.3031
6.4186 0.6147 2.3035
6.4004 0.7699 2.3038
6.3785 0.9245 2.3042
6.3530 1.0786 2.3045
6.3239 1.2321 2.3049
4.3091 0.9485 1.5789
6.2528 1.5361 2.3048
6.2110 1.6864 2.3045
6.1658 1.8357 2.3041
6.1171 1.9838 2.3038
6.0649 2.1307 2.3035
6.0093 2.2763 2.3031
4.1188 1.6755 1.5940
4.0953 1.7828 1.6014
4.0700 1.8904 1.6093
4.0423 1.9981 1.6173
4.0134 2.1063 1.6259
3.9905 2.2193 1.6381
3.9685 2.3349 1.6520
3.9462 2.4524 1.6671
3.9244 2.5728 1.6839
3.9076 2.6994 1.7043
3.8898 2.8289 1.7260
3.8652 2.9569 1.7465
3.8348 3.0838 1.7660
3.7979 3.2089 1.7843
3.7571 3.3338 1.8025
3.7150 3.4610 1.8219
3.6751 3.5941 1.8444
3.6371 3.7337 1.8701
3.6154 3.8962 1.9068
4.2454 4.8035 2.2994
4.1282 4.9057 2.2994
3.6741 4.5873 2.1075
3.8869 5.1017 2.2994
3.7628 5.1954 2.2994
3.6365 5.2861 2.2994
3.5081 5.3739 2.2994
3.3187 5.3634 2.2593
3.2451 5.5404 2.2994
3.1108 5.6189 2.2994
2.9745 5.6943 2.2994
2.8365 5.7665 2.2994
2.6968 5.8354 2.2994
2.5554 5.9010 2.2994
2.4297 6.0057 2.3158
2.2681 6.0222 2.2994
2.1224 6.0777 2.2994
2.0027 6.2148 2.3313
1.8910 6.3950 2.3801
1.7526 6.5024 2.4025
1.5953 6.5459 2.4026
1.4369 6.5858 2.4026
1.2776 6.6220 2.4027
1.1174 6.6544 2.4028
0.9564 6.6831 2.4029
0.7947 6.7079 2.4030
0.6323 6.7289 2.4031
0.4695 6.7461 2.4032
0.3061 6.7594 2.4033
0.1425 6.7688 2.4034
-0.0215 6.7744 2.4035
-0.1856 6.7760 2.4036
-0.3498 6.7738 2.4037
-0.5140 6.7676 2.4038
-0.6781 6.7576 2.4039
-0.8420 6.7436 2.4040
-1.0056 6.7257 2.4041
-1.1689 6.7039 2.4042
-1.3317 6.6782 2.4043
-1.4940 6.6486 2.4044
-1.6555 6.6152 2.4045
-1.8164 6.5778 2.4046
-1.9764 6.5366 2.4047
-2.1355 6.4916 2.4048
-2.2935 6.4427 2.4049
-2.4505 6.3901 2.4051
-2.6062 6.3334 2.4051
-2.7605 6.2729 2.4051
-2.9134 6.2087 2.4051
-3.0648 6.1407 2.4051
-3.2146 6.0690 2.4050
-3.3626 5.9935 2.4049
-3.5088 5.9143 2.4047
-3.6532 5.8316 2.4046
-3.7956 5.7455 2.4045
-3.9360 5.6558 2.4043
-4.0742 5.5628 2.4042
-4.2103 5.4664 2.4041
-4.3441 5.3667 2.4040
-4.4755 5.2638 2.4038
-4.6045 5.1576 2.4037
-4.7310 5.0483 2.4036
-4.8548 4.9359 2.4035
-4.9760 4.8205 2.4034
-5.0945 4.7022 2.4033
-5.2101 4.5809 2.4032
-5.3228 4.4568 2.4032
-5.4326 4.3299 2.4031
-5.5393 4.2003 2.4030
-5.6429 4.0681 2.4029
-5.7433 3.9334 2.4029
-5.8405 3.7961 2.4028
-5.9344 3.6565 2.4028
-6.0248 3.5145 2.4027
-6.1117 3.3702 2.4026
-6.1953 3.2238 2.4025
-6.1300 3.0041 2.3468
-6.0794 2.7995 2.2994
-6.1612 2.6590 2.3039
-6.1995 2.4999 2.2936
-6.2780 2.3571 2.2994
-6.3370 2.2063 2.2994
-6.3923 2.0541 2.2994
-6.4438 1.9005 2.2994
-6.4917 1.7456 2.2994
-6.5357 1.5894 2.2994
-6.5759 1.4322 2.2994
-6.6122 1.2739 2.2994
-6.6446 1.1147 2.2994
-6.6732 0.9547 2.2994
-6.6978 0.7940 2.2994
-6.7184 0.6326 2.2994
-6.7351 0.4707 2.2994
-5.5992 0.2559 1.9081
-5.5807 0.1204 1.8993
-5.5678 -0.0142 1.8936
-5.5440 -0.1478 1.8853
-5.5878 -0.2838 1.9012
-5.5975 -0.4197 1.9066
-5.6244 -0.5584 1.9190
-6.7240 -0.8316 2.2994
-6.7045 -0.9937 2.2994
-6.6810 -1.1554 2.2994
-6.6535 -1.3165 2.2994
-6.6220 -1.4769 2.2994
-6.5865 -1.6365 2.2994
-5.6850 -1.5589 1.9967
-6.5037 -1.9530 2.2994
-6.4565 -2.1097 2.2994
-6.4053 -2.2652 2.2994
-6.3503 -2.4193 2.2994
-6.2915 -2.5722 2.2994
-6.2289 -2.7235 2.2994
-6.1626 -2.8732 2.2994
-6.1905 -3.0699 2.3364
-6.2887 -3.3097 2.4025
-6.2080 -3.4606 2.4026
-6.1236 -3.6096 2.4026
-6.0355 -3.7565 2.4027
-5.9438 -3.9011 2.4027
-5.8486 -4.0435 2.4028
-5.7498 -4.1834 2.4028
-5.6476 -4.3208 2.4029
-5.5419 -4.4556 2.4029
-5.2410 -4.4256 2.4030
-5.1328 -4.5505 2.4031
-5.0214 -4.6726 2.4031
-4.9071 -4.7918 2.4031
-4.7898 -4.9081 2.4031
-4.6697 -5.0215 2.4031
-4.5468 -5.1318 2.4031
-4.4212 -5.2391 2.4031
-4.2931 -5.3432 2.4031
-4.1624 -5.4442 2.4031
-4.0293 -5.5418 2.4031
-3.8939 -5.6361 2.4031
-3.7562 -5.7270 2.4031
-3.6163 -5.8145 2.4032
-3.4744 -5.8985 2.4032
-3.3304 -5.9789 2.4032
-3.1845 -6.0558 2.4033
-3.0368 -6.1290 2.4033
-2.8874 -6.1985 2.4034
-2.7364 -6.2643 2.4034
-2.5838 -6.3263 2.4035
-2.4298 -6.3846 2.4036
-2.2745 -6.4389 2.4036
-2.1178 -6.4891 2.4035
-1.9599 -6.5354 2.4035
-1.8010 -6.5778 2.4034
-1.6412 -6.6163 2.4034
-1.4806 -6.6507 2.4033
-1.3192 -6.6812 2.4033
-1.1572 -6.7078 2.4032
-0.9947 -6.7303 2.4032
-0.8318 -6.7491 2.4032
-0.6685 -6.7638 2.4033
-0.5050 -6.7745 2.4033
-0.3413 -6.7812 2.4034
-0.1776 -6.7837 2.4034
-0.0140 -6.7819 2.4033
0.1495 -6.7761 2.4032
0.3126 -6.7664 2.4031
0.4754 -6.7526 2.4030
0.6377 -6.7349 2.4029
0.7995 -6.7132 2.4028
0.9606 -6.6876 2.4027
1.1209 -6.6581 2.4026
1.2803 -6.6247 2.4025
1.4389 -6.5876 2.4025
1.5815 -6.4859 2.3802
1.7097 -6.3424 2.3435
1.8320 -6.1969 2.3070
1.9732 -6.1267 2.2994
2.1454 -6.1486 2.3280
2.2635 -6.0162 2.2994
2.4065 -5.9558 2.2994
2.5478 -5.8919 2.2994
2.6874 -5.8246 2.2994
2.8253 -5.7541 2.2994
2.9614 -5.6802 2.2994
3.0955 -5.6031 2.2994
3.2277 -5.5228 2.2994
3.3578 -5.4394 2.2994
3.2557 -4.9997 2.1477
3.6114 -5.2635 2.2994
3.7349 -5.1710 2.2994
3.8560 -5.0757 2.2994
3.9747 -4.9775 2.2994
3.5586 -4.2419 2.0002
3.4989 -3.9718 1.9135
3.5227 -3.8091 1.8769
3.5671 -3.6748 1.8540
3.6093 -3.5427 1.8321
3.6555 -3.4186 1.8144
3.6990 -3.2952 1.7971
3.7413 -3.1740 1.7811
3.7785 -3.0516 1.7644
3.8099 -2.9276 1.7466
3.8362 -2.8029 1.7283
3.8553 -2.6763 1.7083
3.8725 -2.5517 1.6893
3.8921 -2.4316 1.6728
3.9165 -2.3170 1.6597
3.9391 -2.2036 1.6473
3.9607 -2.0915 1.6357
3.9829 -1.9815 1.6257
4.0093 -1.8750 1.6185
4.0342 -1.7689 1.6117
4.0574 -1.6632 1.6055
4.0798 -1.5582 1.5999
4.1015 -1.4537 1.5950
5.9583 -1.9507 2.2994
6.0003 -1.8049 2.2994
6.0388 -1.6581 2.2994
6.0739 -1.5106 2.2994
4.1923 -0.9355 1.5789
6.1333 -1.2135 2.2994
6.1576 -1.0640 2.2994
6.1792 -0.9142 2.2997
6.1976 -0.7640 2.3002
6.2124 -0.6135 2.3006
6.2237 -0.4627 2.3010
6.2313 -0.3117 2.3014
6.2352 -0.1606 2.3018
4.4685 -0.0068 1.6497
6.2322 0.1415 2.3024
6.2253 0.2924 2.3028
6.2149 0.4431 2.3031
6.2009 0.5934 2.3035
6.1833 0.7434 2.3038
6.1622 0.8928 2.3041
6.1376 1.0417 2.3045
6.1095 1.1899 2.3048
4.2147 0.9275 1.5985
4.1855 1.0280 1.5969
4.1737 1.1330 1.6028
4.1587 1.2380 1.6085
4.1422 1.3432 1.6147
4.1239 1.4487 1.6211
4.1041 1.5545 1.6280
4.0885 1.6630 1.6377
4.0719 1.7724 1.6480
4.0538 1.8828 1.6590
4.0333 1.9935 1.6702
4.0152 2.1072 1.6835
4.0012 2.2252 1.7000
3.9875 2.3459 1.7180
3.9731 2.4691 1.7372
3.9477 2.5880 1.7531
3.9216 2.7091 1.7703
3.8887 2.8280 1.7859
3.8530 2.9475 1.8018
3.8155 3.0683 1.8186
3.7772 3.1914 1.8367
3.7442 3.3224 1.8592
3.7121 3.4584 1.8843
4.4267 4.3293 2.2994
4.3208 4.4358 2.2994
4.2125 4.5397 2.2994
4.1016 4.6411 2.2994
3.9885 4.7398 2.2994
3.6741 4.5875 2.1814
3.7552 4.9291 2.2994
3.6353 5.0197 2.2994
3.5133 5.1073 2.2994
3.3891 5.1922 2.2994
3.2630 5.2740 2.2994
3.1350 5.3529 2.2994
3.0051 5.4288 2.2994
2.8735 5.5015 2.2994
2.7401 5.5712 2.2994
2.6110 5.6506 2.3047
2.4685 5.7011 2.2994
2.3304 5.7612 2.2994
2.1995 5.8410 2.3085
2.0972 6.0069 2.3524
1.9938 6.1888 2.4031
1.8436 6.2363 2.4025
1.6927 6.2819 2.4026
1.5407 6.3240 2.4027
1.3877 6.3625 2.4028
1.2337 6.3973 2.4029
1.0789 6.4286 2.4029
0.9234 6.4561 2.4030
0.7671 6.4800 2.4031
0.6103 6.5002 2.4032
0.4529 6.5167 2.4033
0.2952 6.5294 2.4034
0.1370 6.5384 2.4035
-0.0214 6.5436 2.4036
-0.1799 6.5451 2.4037
-0.3385 6.5428 2.4038
-0.4971 6.5368 2.4039
-0.6556 6.5269 2.4040
-0.8139 6.5133 2.4041
-0.9720 6.4959 2.4042
-1.1296 6.4747 2.4043
-1.2869 6.4498 2.4044
-1.4435 6.4211 2.4045
-1.5996 6.3886 2.4046
-1.7549 6.3524 2.4047
-1.9094 6.3125 2.4048
-2.0630 6.2689 2.4049
-2.2156 6.2215 2.4050
-2.3671 6.1705 2.4051
-2.5175 6.1159 2.4052
-2.6666 6.0576 2.4054
-2.8142 5.9955 2.4054
-2.9604 5.9298 2.4054
-3.1049 5.8603 2.4053
-3.2477 5.7872 2.4051
-3.3889 5.7106 2.4050
-3.5282 5.6307 2.4048
-3.6656 5.5473 2.4047
-3.8011 5.4607 2.4046
-3.9345 5.3707 2.4045
-4.0658 5.2776 2.4043
-4.1949 5.1812 2.4042
-4.3217 5.0817 2.4041
-4.4462 4.9791 2.4040
-4.5682 4.8735 2.4039
-4.6877 4.7649 2.4038
-4.8046 4.6534 2.4037
-4.9188 4.5390 2.4036
-5.0303 4.4218 2.4035
-5.1390 4.3019 2.4035
-5.2449 4.1793 2.4034
-5.3478 4.0542 2.4033
-5.4476 3.9264 2.4032
-5.5443 3.7962 2.4031
-5.6379 3.6635 2.4030
-5.7282 3.5286 2.4029
-5.8153 3.3914 2.4028
-5.8991 3.2521 2.4027
-5.9795 3.1107 2.4026
-6.0566 2.9674 2.4025
-6.0072 2.7655 2.3543
-5.9345 2.5604 2.2994
-5.9983 2.4180 2.2994
-6.0586 2.2740 2.2994
-6.1154 2.1285 2.2994
-6.1686 1.9816 2.2994
-6.2183 1.8333 2.2994
-6.2643 1.6838 2.2994
-6.3066 1.5331 2.2994
-5.7944 1.2614 2.0998
-6.3802 1.2287 2.2994
-6.4114 1.0750 2.2994
-6.4388 0.9206 2.2994
-6.4625 0.7656 2.2994
-6.4823 0.6098 2.2994
-6.4982 0.4537 2.2994
-6.5104 0.2970 2.2994
-5.6911 0.1223 2.0075
-5.6925 -0.0149 2.0067
-5.5439 -0.1481 1.9541
-6.5202 -0.3316 2.2994
-6.5130 -0.4888 2.2994
-6.5018 -0.6459 2.2994
-6.4868 -0.8026 2.2994
-6.4680 -0.9591 2.2994
-6.4452 -1.1150 2.2994
-6.4186 -1.2704 2.2994
-6.3881 -1.4251 2.2994
-6.3539 -1.5791 2.2994
-5.6852 -1.5592 2.0699
-6.2739 -1.8843 2.2994
-6.2283 -2.0354 2.2994
-6.1789 -2.1853 2.2994
-6.1258 -2.3341 2.2994
-6.0690 -2.4814 2.2994
-6.0086 -2.6274 2.2994
-6.0227 -2.8082 2.3296
-6.1405 -3.0453 2.4025
-6.0662 -3.1928 2.4025
-5.9884 -3.3384 2.4026
-5.9070 -3.4821 2.4027
-5.8220 -3.6237 2.4027
-5.7336 -3.7632 2.4028
-5.6417 -3.9005 2.4028
-5.5464 -4.0355 2.4029
-5.4478 -4.1680 2.4029
-5.3460 -4.2981 2.4030
-5.0606 -4.2733 2.4031
-4.9562 -4.3938 2.4031
-4.8487 -4.5118 2.4032
-4.7385 -4.6270 2.4032
-4.6254 -4.7395 2.4033
-4.5095 -4.8491 2.4033
-4.3909 -4.9557 2.4033
-4.2697 -5.0593 2.4033
-4.1460 -5.1599 2.4033
-4.0198 -5.2573 2.4033
-3.8914 -5.3517 2.4034
-3.7606 -5.4428 2.4034
-3.6277 -5.5306 2.4034
-3.4926 -5.6151 2.4034
-3.3556 -5.6962 2.4035
-3.2166 -5.7739 2.4035
-3.0757 -5.8482 2.4035
-2.9332 -5.9189 2.4036
-2.7889 -5.9861 2.4036
-2.6431 -6.0497 2.4037
-2.4958 -6.1097 2.4037
-2.3469 -6.1657 2.4037
-2.1969 -6.2180 2.4036
-2.0456 -6.2665 2.4036
-1.8932 -6.3113 2.4035
-1.7398 -6.3524 2.4035
-1.5855 -6.3896 2.4034
-1.4304 -6.4231 2.4034
-1.2747 -6.4528 2.4034
-1.1183 -6.4787 2.4035
-0.9613 -6.5008 2.4035
-0.8040 -6.5190 2.4035
-0.6463 -6.5333 2.4036
-0.4884 -6.5437 2.4036
-0.3303 -6.5500 2.4036
-0.1722 -6.5523 2.4035
-0.0141 -6.5507 2.4034
0.1437 -6.5453 2.4033
0.3014 -6.5360 2.4032
0.4586 -6.5228 2.4031
0.6154 -6.5058 2.4030
0.7716 -6.4850 2.4029
0.9273 -6.4604 2.4028
1.0821 -6.4320 2.4028
1.2362 -6.3999 2.4027
1.3893 -6.3640 2.4026
1.5414 -6.3245 2.4025
1.6925 -6.2814 2.4025
1.8206 -6.1608 2.3740
1.9280 -5.9885 2.3264
2.0466 -5.8675 2.2994
2.1862 -5.8126 2.2994
2.3400 -5.7932 2.3150
2.4609 -5.6927 2.2994
2.5959 -5.6278 2.2994
2.7291 -5.5597 2.2994
2.8606 -5.4885 2.2994
2.9903 -5.4141 2.2994
3.1181 -5.3367 2.2994
3.2438 -5.2562 2.2994
3.2553 -5.0005 2.2229
3.4891 -5.0864 2.2994
3.6085 -4.9972 2.2994
3.7256 -4.9051 2.2994
3.8404 -4.8104 2.2994
3.5583 -4.2426 2.0700
4.0627 -4.6129 2.2994
4.1702 -4.5102 2.2994
4.2750 -4.4051 2.2994
3.6264 -3.5603 1.9050
3.6478 -3.4121 1.8736
3.6840 -3.2826 1.8521
3.7195 -3.1563 1.8323
3.7599 -3.0373 1.8167
3.7977 -2.9189 1.8015
3.8335 -2.8016 1.7870
3.8673 -2.6853 1.7731
3.8932 -2.5659 1.7572
3.9186 -2.4488 1.7425
3.9395 -2.3313 1.7273
3.9549 -2.2130 1.7112
3.9696 -2.0967 1.6961
3.9839 -1.9825 1.6823
4.0013 -1.8717 1.6710
4.0200 -1.7632 1.6615
4.0375 -1.6555 1.6527
4.0548 -1.5491 1.6449
4.0718 -1.4436 1.6381
4.0864 -1.3383 1.6314
4.1014 -1.2341 1.6259
4.1177 -1.1311 1.6219
4.1314 -1.0279 1.6179
4.1440 -0.9251 1.6144
4.1560 -0.8226 1.6117
4.1663 -0.7203 1.6093
4.1747 -0.6180 1.6070
4.1816 -0.5158 1.6052
4.1871 -0.4138 1.6037
4.1917 -0.3120 1.6029
4.1955 -0.2102 1.6026
4.1979 -0.1084 1.6028
4.1992 -0.0067 1.6034
4.1999 0.0951 1.6048
4.2000 0.1970 1.6068
4.1988 0.2991 1.6092
4.1958 0.4013 1.6120
4.1919 0.5037 1.6152
4.1862 0.6063 1.6188
4.1793 0.7091 1.6228
4.1696 0.8119 1.6267
4.1629 0.9158 1.6328
4.1568 1.0207 1.6401
4.1506 1.1266 1.6484
4.1411 1.2325 1.6564
4.1304 1.3392 1.6650
4.1182 1.4465 1.6741
4.1083 1.5559 1.6853
4.0986 1.6669 1.6977
4.0883 1.7794 1.7111
4.0768 1.8933 1.7253
4.0609 2.0070 1.7389
4.0395 2.1198 1.7514
4.0177 2.2343 1.7652
3.9932 2.3492 1.7791
3.9646 2.4637 1.7926
3.9331 2.5784 1.8062
3.9006 2.6945 1.8208
3.8680 2.8130 1.8370
3.8394 2.9371 1.8567
3.8094 3.0635 1.8776
3.8008 3.2113 1.9111
4.4781 3.9737 2.2994
4.3807 4.0813 2.2994
4.2807 4.1866 2.2994
4.1783 4.2896 2.2994
4.0735 4.3901 2.2994
3.9663 4.4881 2.2994
3.8568 4.5835 2.2994
3.6740 4.5877 2.2558
3.6312 4.7666 2.2994
3.5152 4.8542 2.2994
3.3971 4.9389 2.2994
3.2771 5.0209 2.2994
3.1551 5.1000 2.2994
3.0313 5.1763 2.2994
2.9057 5.2496 2.2994
2.7783 5.3200 2.2994
2.6831 5.4561 2.3288
2.5187 5.4516 2.2994
2.3866 5.5128 2.2994
2.2849 5.6497 2.3320
2.1868 5.8084 2.3741
2.0706 5.9320 2.4025
1.9270 5.9827 2.4025
1.7822 6.0302 2.4026
1.6363 6.0743 2.4027
1.4893 6.1149 2.4028
1.3413 6.1521 2.4029
1.1924 6.1857 2.4030
1.0427 6.2158 2.4031
0.8923 6.2424 2.4031
0.7412 6.2654 2.4032
0.5895 6.2848 2.4033
0.4374 6.3006 2.4034
0.2848 6.3128 2.4035
0.1319 6.3214 2.4036
-0.0212 6.3264 2.4037
-0.1745 6.3277 2.4038
-0.3279 6.3254 2.4039
-0.4812 6.3194 2.4040
-0.6344 6.3098 2.4041
-0.7875 6.2965 2.4042
-0.9403 6.2796 2.4043
-1.0927 6.2590 2.4044
-1.2446 6.2347 2.4045
-1.3961 6.2068 2.4046
-1.5469 6.1753 2.4047
-1.6970 6.1402 2.4048
-1.8463 6.1015 2.4049
-1.9947 6.0592 2.4050
-2.1422 6.0133 2.4051
-2.2886 5.9639 2.4052
-2.4339 5.9110 2.4053
-2.5780 5.8545 2.4054
-2.7207 5.7946 2.4055
-2.8621 5.7312 2.4056
-3.0017 5.6638 2.4055
-3.1397 5.5931 2.4053
-3.2760 5.5190 2.4052
-3.4106 5.4416 2.4051
-3.5434 5.3609 2.4049
-3.6742 5.2771 2.4048
-3.8031 5.1901 2.4047
-3.9299 5.0999 2.4046
-4.0546 5.0067 2.4045
-4.1771 4.9104 2.4044
-4.2973 4.8112 2.4043
-4.4151 4.7090 2.4042
-4.5305 4.6040 2.4041
-4.6433 4.4961 2.4040
-4.7536 4.3854 2.4038
-4.8611 4.2721 2.4037
-4.9660 4.1561 2.4036
-5.0681 4.0375 2.4035
-5.1673 3.9164 2.4034
-5.2636 3.7929 2.4033
-5.3570 3.6670 2.4032
-5.4472 3.5388 2.4031
-5.5344 3.4084 2.4030
-5.6185 3.2758 2.4029
-5.6993 3.1412 2.4028
-5.7768 3.0045 2.4027
-5.8511 2.8659 2.4026
-5.9221 2.7256 2.4025
-5.8915 2.5411 2.3631
-5.7975 2.3364 2.3007
-5.8524 2.1960 2.2994
-5.9072 2.0554 2.2994
-5.9585 1.9134 2.2994
-6.0063 1.7702 2.2994
-6.0507 1.6258 2.2994
-6.0915 1.4802 2.2994
-6.1287 1.3336 2.2994
-6.1624 1.1861 2.2994
-6.1924 1.0378 2.2994
-6.2188 0.8887 2.2994
-6.2415 0.7388 2.2994
-6.2605 0.5885 2.2994
-6.2758 0.4376 2.2994
-6.2875 0.2864 2.2994
-5.6881 0.1218 2.0776
-5.6896 -0.0153 2.0768
-5.5439 -0.1485 2.0235
-6.2966 -0.3207 2.2994
-6.2896 -0.4725 2.2994
-6.2787 -0.6241 2.2994
-6.2642 -0.7755 2.2994
-6.2459 -0.9265 2.2994
-6.2238 -1.0771 2.2994
-6.1981 -1.2271 2.2994
-6.1686 -1.3765 2.2994
-6.1355 -1.5251 2.2994
-5.6853 -1.5595 2.1436
-6.0582 -1.8198 2.2994
-6.0141 -1.9656 2.2994
-5.9663 -2.1104 2.2994
-5.9150 -2.2540 2.2994
-5.8602 -2.3962 2.2994
-5.8697 -2.5668 2.3263
-5.9974 -2.7966 2.4025
-5.9292 -2.9406 2.4025
-5.8575 -3.0830 2.4026
-5.7824 -3.2237 2.4026
-5.7037 -3.3624 2.4027
-5.6217 -3.4991 2.4027
-5.5363 -3.6338 2.4028
-5.4475 -3.7663 2.4028
-5.3555 -3.8966 2.4029
-5.2604 -4.0246 2.4030
-5.1620 -4.1502 2.4030
-4.8909 -4.1300 2.4031
-4.7900 -4.2465 2.4031
-4.6862 -4.3605 2.4032
-4.5797 -4.4718 2.4033
-4.4704 -4.5805 2.4033
-4.3584 -4.6865 2.4034
-4.2439 -4.7896 2.4034
-4.1269 -4.8899 2.4035
-4.0074 -4.9872 2.4035
-3.8856 -5.0815 2.4036
-3.7615 -5.1727 2.4036
-3.6352 -5.2608 2.4036
-3.5067 -5.3457 2.4037
-3.3762 -5.4274 2.4037
-3.2438 -5.5059 2.4037
-3.1095 -5.5811 2.4037
-2.9734 -5.6529 2.4038
-2.8356 -5.7213 2.4038
-2.6961 -5.7862 2.4039
-2.5551 -5.8475 2.4038
-2.4127 -5.9052 2.4038
-2.2689 -5.9594 2.4037
-2.1238 -6.0101 2.4037
-1.9777 -6.0572 2.4037
-1.8304 -6.1007 2.4037
-1.6823 -6.1406 2.4037
-1.5332 -6.1768 2.4037
-1.3833 -6.2093 2.4037
-1.2327 -6.2381 2.4037
-1.0816 -6.2633 2.4037
-0.9299 -6.2847 2.4038
-0.7778 -6.3023 2.4038
-0.6254 -6.3163 2.4038
-0.4727 -6.3261 2.4037
-0.3199 -6.3322 2.4037
-0.1670 -6.3345 2.4036
-0.0142 -6.3331 2.4035
0.1384 -6.3279 2.4034
0.2907 -6.3190 2.4033
0.4428 -6.3064 2.4032
0.5944 -6.2901 2.4031
0.7454 -6.2701 2.4030
0.8959 -6.2464 2.4030
1.0457 -6.2191 2.4029
1.1946 -6.1882 2.4028
1.3427 -6.1536 2.4027
1.4898 -6.1155 2.4027
1.6359 -6.0738 2.4026
1.7808 -6.0286 2.4025
1.9182 -5.9605 2.3947
2.0188 -5.7899 2.3465
2.1172 -5.6312 2.3037
2.2469 -5.5645 2.2994
2.3790 -5.5050 2.2994
2.5183 -5.4613 2.3074
2.6385 -5.3767 2.2994
2.7657 -5.3079 2.2994
2.8912 -5.2361 2.2994
3.0148 -5.1613 2.2994
3.1365 -5.0836 2.2994
3.2550 -5.0012 2.2986
3.3738 -4.9196 2.2994
3.4893 -4.8334 2.2994
3.6026 -4.7445 2.2994
3.7137 -4.6529 2.2994
3.5580 -4.2433 2.1403
3.9289 -4.4620 2.2994
4.0329 -4.3629 2.2994
4.1345 -4.2613 2.2994
4.2334 -4.1573 2.2994
4.3298 -4.0510 2.2994
4.4236 -3.9426 2.2994
3.7356 -3.1707 1.9026
3.7529 -3.0324 1.8748
3.7840 -2.9091 1.8558
3.8133 -2.7875 1.8377
3.8454 -2.6707 1.8227
3.8772 -2.5560 1.8091
3.9082 -2.4429 1.7966
3.9381 -2.3310 1.7850
3.9661 -2.2198 1.7739
3.9879 -2.1069 1.7614
4.0088 -1.9954 1.7498
4.0289 -1.8852 1.7392
4.0442 -1.7743 1.7278
4.0563 -1.6637 1.7162
4.0688 -1.5549 1.7061
4.0816 -1.4475 1.6972
4.0920 -1.3406 1.6885
4.1019 -1.2347 1.6806
4.1125 -1.1301 1.6742
4.1224 -1.0261 1.6685
4.1318 -0.9228 1.6636
4.1412 -0.8201 1.6598
4.1492 -0.7177 1.6563
4.1554 -0.6155 1.6532
4.1605 -0.5136 1.6505
4.1646 -0.4120 1.6485
4.1684 -0.3106 1.6473
4.1719 -0.2093 1.6469
4.1744 -0.1082 1.6471
4.1764 -0.0070 1.6480
4.1784 0.0943 1.6498
4.1804 0.1958 1.6526
4.1815 0.2976 1.6561
4.1812 0.3996 1.6599
4.1803 0.5021 1.6645
4.1780 0.6048 1.6694
4.1750 0.7081 1.6752
4.1714 0.8120 1.6816
4.1694 0.9170 1.6898
4.1679 1.0232 1.6992
4.1671 1.1308 1.7100
4.1626 1.2387 1.7204
4.1572 1.3477 1.7316
4.1468 1.4563 1.7418
4.1326 1.5649 1.7516
4.1168 1.6741 1.7619
4.0999 1.7843 1.7730
4.0774 1.8935 1.7829
4.0520 2.0025 1.7928
4.0257 2.1125 1.8035
3.9986 2.2236 1.8152
3.9708 2.3359 1.8279
3.9462 2.4522 1.8436
3.9212 2.5705 1.8606
3.8953 2.6908 1.8788
3.8908 2.8295 1.9093
4.6019 3.5204 2.2994
4.5151 3.6310 2.2994
3.9285 3.3193 2.0410
4.3340 3.8458 2.2994
4.2397 3.9500 2.2994
4.1429 4.0520 2.2994
4.0438 4.1516 2.2994
3.9423 4.2488 2.2994
3.8385 4.3437 2.2994
3.7325 4.4361 2.2994
3.6244 4.5260 2.2994
3.5141 4.6132 2.2994
3.4018 4.6979 2.2994
3.2875 4.7800 2.2994
3.1713 4.8593 2.2994
3.0533 4.9359 2.2994
2.9334 5.0096 2.2994
2.8421 5.1353 2.3242
2.6885 5.1486 2.2994
2.5636 5.2137 2.2994
2.4567 5.3181 2.3179
2.3660 5.4662 2.3559
2.2750 5.6263 2.3997
2.1412 5.6884 2.4025
2.0034 5.7407 2.4026
1.8645 5.7899 2.4026
1.7243 5.8358 2.4027
1.5831 5.8784 2.4028
1.4408 5.9176 2.4029
1.2975 5.9535 2.4030
1.1534 5.9860 2.4031
1.0086 6.0151 2.4032
0.8630 6.0407 2.4032
0.7167 6.0629 2.4033
0.5699 6.0816 2.4034
0.4227 6.0968 2.4035
0.2750 6.1085 2.4036
0.1271 6.1168 2.4037
-0.0211 6.1214 2.4038
-0.1694 6.1226 2.4039
-0.3178 6.1203 2.4040
-0.4662 6.1144 2.4041
-0.6145 6.1050 2.4042
-0.7625 6.0920 2.4042
-0.9103 6.0755 2.4044
-1.0578 6.0555 2.4044
-1.2048 6.0319 2.4045
-1.3513 6.0048 2.4046
-1.4972 5.9742 2.4047
-1.6424 5.9402 2.4048
-1.7868 5.9026 2.4049
-1.9304 5.8615 2.4050
-2.0730 5.8170 2.4051
-2.2146 5.7691 2.4052
-2.3551 5.7178 2.4054
-2.4945 5.6631 2.4055
-2.6325 5.6050 2.4056
-2.7691 5.5433 2.4056
-2.9041 5.4781 2.4055
-3.0375 5.4096 2.4054
-3.1694 5.3379 2.4052
-3.2995 5.2630 2.4051
-3.4279 5.1849 2.4050
-3.5544 5.1038 2.4049
-3.6790 5.0195 2.4048
-3.8016 4.9322 2.4047
-3.9221 4.8419 2.4046
-4.0405 4.7487 2.4045
-4.1566 4.6526 2.4043
-4.2705 4.5537 2.4042
-4.3819 4.4520 2.4041
-4.4910 4.3476 2.4040
-4.5975 4.2405 2.4039
-4.7015 4.1308 2.4038
-4.8028 4.0186 2.4037
-4.9014 3.9038 2.4036
-4.9973 3.7867 2.4035
-5.0903 3.6671 2.4034
-5.1805 3.5454 2.4033
-5.2677 3.4213 2.4031
-5.3519 3.2952 2.4030
-5.4331 3.1669 2.4029
-5.5111 3.0367 2.4028
-5.5860 2.9045 2.4027
-5.6577 2.7705 2.4026
-5.7261 2.6347 2.4026
-5.7914 2.4972 2.4025
-5.7819 2.3294 2.3732
-5.6932 2.1355 2.3136
-5.7112 1.9866 2.2994
-5.7754 1.8540 2.3053
-5.8068 1.7108 2.2994
-5.8496 1.5712 2.2994
-5.8889 1.4304 2.2994
-5.7598 1.2528 2.2354
-5.9573 1.1461 2.2994
-5.9862 1.0027 2.2994
-6.0116 0.8585 2.2994
-6.0335 0.7137 2.2994
-6.0518 0.5684 2.2994
-6.0665 0.4226 2.2994
-6.0777 0.2764 2.2994
-5.6851 0.1213 2.1483
-5.6866 -0.0157 2.1474
-5.5444 -0.1489 2.0936
-6.0862 -0.3104 2.2994
-6.0793 -0.4571 2.2994
-6.0688 -0.6036 2.2994
-6.0547 -0.7499 2.2994
-6.0369 -0.8959 2.2994
-6.0155 -1.0414 2.2994
-5.9906 -1.1863 2.2994
-5.9621 -1.3307 2.2994
-5.9300 -1.4743 2.2994
-5.6855 -1.5598 2.2180
-5.8552 -1.7591 2.2994
-5.8125 -1.9000 2.2994
-5.7664 -2.0399 2.2994
-5.7486 -2.1908 2.3122
-5.8015 -2.3725 2.3554
-5.8547 -2.5605 2.4009
-5.7962 -2.7030 2.4025
-5.7304 -2.8422 2.4026
-5.6611 -2.9798 2.4026
-5.5885 -3.1157 2.4027
-5.5125 -3.2498 2.4027
-5.4332 -3.3819 2.4028
-5.3506 -3.5120 2.4028
-5.2649 -3.6401 2.4029
-5.1760 -3.7660 2.4029
-5.0840 -3.8897 2.4030
-4.9889 -4.0110 2.4030
-4.7310 -3.9949 2.4031
-4.6334 -4.1076 2.4032
-4.5330 -4.2178 2.4032
-4.4300 -4.3255 2.4033
-4.3243 -4.4306 2.4033
-4.2160 -4.5331 2.4034
-4.1053 -4.6329 2.4034
-3.9921 -4.7299 2.4035
-3.8766 -4.8240 2.4035
-3.7588 -4.9153 2.4036
-3.6388 -5.0036 2.4036
-3.5166 -5.0889 2.4037
-3.3924 -5.1711 2.4038
-3.2663 -5.2502 2.4038
-3.1382 -5.3262 2.4039
-3.0083 -5.3990 2.4039
-2.8768 -5.4686 2.4040
-2.7435 -5.5347 2.4040
-2.6086 -5.5975 2.4040
-2.4722 -5.6569 2.4040
-2.3345 -5.7129 2.4039
-2.1954 -5.7655 2.4039
-2.0552 -5.8146 2.4039
-1.9138 -5.8602 2.4039
-1.7714 -5.9024 2.4039
-1.6281 -5.9410 2.4039
-1.4838 -5.9761 2.4039
-1.3389 -6.0077 2.4039
-1.1932 -6.0357 2.4040
-1.0470 -6.0600 2.4040
-0.9002 -6.0808 2.4040
-0.7531 -6.0979 2.4040
-0.6056 -6.1111 2.4039
-0.4579 -6.1207 2.4038
-0.3100 -6.1267 2.4037
-0.1622 -6.1291 2.4037
-0.0144 -6.1278 2.4036
0.1333 -6.1229 2.4035
0.2807 -6.1144 2.4034
0.4278 -6.1023 2.4033
0.5745 -6.0866 2.4032
0.7207 -6.0674 2.4031
0.8663 -6.0446 2.4031
1.0112 -6.0182 2.4030
1.1554 -5.9884 2.4029
1.2987 -5.9551 2.4029
1.4411 -5.9182 2.4028
1.5824 -5.8780 2.4027
1.7227 -5.8343 2.4026
1.8618 -5.7873 2.4025
1.9996 -5.7371 2.4025
2.1048 -5.6002 2.3673
2.1992 -5.4481 2.3262
2.3017 -5.3279 2.2994
2.4282 -5.2674 2.2994
2.5902 -5.2797 2.3329
2.6822 -5.1491 2.3047
2.7976 -5.0680 2.2994
2.9173 -4.9957 2.2994
3.0351 -4.9206 2.2994
3.1510 -4.8427 2.2994
3.2649 -4.7620 2.2994
3.3768 -4.6787 2.2994
3.4866 -4.5928 2.2994
3.5942 -4.5042 2.2994
3.5578 -4.2440 2.2113
3.8026 -4.3196 2.2994
3.9034 -4.2237 2.2994
4.0017 -4.1254 2.2994
4.0976 -4.0249 2.2994
4.1910 -3.9221 2.2994
4.2818 -3.8171 2.2994
3.8682 -3.2840 2.0354
4.4557 -3.6011 2.2994
4.5386 -3.4900 2.2994
3.8364 -2.8051 1.9099
3.8408 -2.6681 1.8806
3.8665 -2.5496 1.8636
3.8918 -2.4332 1.8480
3.9161 -2.3186 1.8335
3.9438 -2.2079 1.8220
3.9704 -2.0982 1.8114
3.9958 -1.9895 1.8015
4.0201 -1.8816 1.7924
4.0430 -1.7743 1.7840
4.0644 -1.6675 1.7761
4.0828 -1.5607 1.7681
4.1001 -1.4546 1.7608
4.1148 -1.3485 1.7535
4.1287 -1.2432 1.7470
4.1413 -1.1384 1.7411
4.1511 -1.0337 1.7351
4.1575 -0.9289 1.7287
4.1644 -0.8251 1.7236
4.1702 -0.7217 1.7191
4.1745 -0.6187 1.7150
4.1779 -0.5161 1.7116
4.1807 -0.4139 1.7089
4.1837 -0.3120 1.7073
4.1869 -0.2104 1.7067
4.1896 -0.1089 1.7070
4.1922 -0.0073 1.7081
4.1953 0.0944 1.7105
4.1992 0.1964 1.7141
4.2026 0.2988 1.7186
4.2047 0.4016 1.7236
4.2068 0.5050 1.7295
4.2074 0.6088 1.7359
4.2043 0.7128 1.7418
4.1982 0.8170 1.7475
4.1921 0.9218 1.7542
4.1860 1.0275 1.7620
4.1798 1.1341 1.7709
4.1678 1.2401 1.7785
4.1532 1.3462 1.7861
4.1370 1.4527 1.7941
4.1188 1.5595 1.8025
4.0989 1.6667 1.8113
4.0777 1.7745 1.8207
4.0549 1.8829 1.8306
4.0334 1.9932 1.8425
4.0121 2.1053 1.8558
3.9905 2.2190 1.8703
3.9748 2.3382 1.8891
4.7702 2.9641 2.3009
4.6958 3.0783 2.3005
4.6189 3.1906 2.3001
4.5393 3.3011 2.2998
4.4572 3.4097 2.2995
4.3732 3.5168 2.2994
3.9285 3.3193 2.1073
4.1977 3.7250 2.2994
4.1063 3.8259 2.2994
4.0126 3.9246 2.2994
3.9165 4.0211 2.2994
3.8182 4.1153 2.2994
3.7177 4.2071 2.2994
3.6150 4.2966 2.2994
3.5102 4.3837 2.2994
3.4034 4.4682 2.2994
3.2946 4.5502 2.2994
3.1839 4.6296 2.2994
3.0713 4.7065 2.2994
2.9801 4.8181 2.3175
2.8408 4.8520 2.2994
2.7230 4.9207 2.2994
2.6150 5.0086 2.3096
2.5306 5.1473 2.3439
2.4433 5.2898 2.3805
2.3365 5.3987 2.4025
2.2056 5.4555 2.4025
2.0734 5.5093 2.4026
1.9400 5.5600 2.4027
1.8054 5.6076 2.4027
1.6696 5.6520 2.4028
1.5327 5.6932 2.4029
1.3949 5.7312 2.4030
1.2562 5.7658 2.4031
1.1166 5.7972 2.4032
0.9762 5.8253 2.4033
0.8352 5.8501 2.4033
0.6936 5.8714 2.4034
0.5514 5.8895 2.4035
0.4088 5.9041 2.4036
0.2658 5.9154 2.4037
0.1225 5.9233 2.4038
-0.0210 5.9277 2.4039
-0.1647 5.9288 2.4039
-0.3083 5.9264 2.4040
-0.4520 5.9206 2.4041
-0.5956 5.9114 2.4042
-0.7390 5.8987 2.4043
-0.8821 5.8827 2.4044
-1.0249 5.8632 2.4045
-1.1672 5.8403 2.4046
-1.3090 5.8139 2.4047
-1.4502 5.7842 2.4048
-1.5908 5.7511 2.4049
-1.7306 5.7146 2.4050
-1.8696 5.6748 2.4051
-2.0076 5.6316 2.4052
-2.1447 5.5851 2.4053
-2.2807 5.5353 2.4054
-2.4155 5.4822 2.4055
-2.5491 5.4259 2.4056
-2.6812 5.3659 2.4055
-2.8119 5.3027 2.4054
-2.9410 5.2363 2.4053
-3.0686 5.1668 2.4052
-3.1945 5.0942 2.4051
-3.3188 5.0185 2.4050
-3.4412 4.9399 2.4049
-3.5617 4.8582 2.4048
-3.6803 4.7737 2.4047
-3.7969 4.6862 2.4046
-3.9114 4.5959 2.4045
-4.0238 4.5028 2.4044
-4.1339 4.4070 2.4043
-4.2417 4.3085 2.4042
-4.3472 4.2074 2.4040
-4.4502 4.1037 2.4039
-4.5507 3.9974 2.4038
-4.6487 3.8887 2.4037
-4.7441 3.7776 2.4036
-4.8368 3.6642 2.4035
-4.9267 3.5484 2.4034
-5.0139 3.4305 2.4033
-5.0982 3.3104 2.4032
-5.1796 3.1883 2.4031
-5.2580 3.0641 2.4030
-5.3335 2.9380 2.4029
-5.4059 2.8101 2.4028
-5.4752 2.6804 2.4027
-5.5413 2.5489 2.4027
-5.6043 2.4159 2.4026
-5.6641 2.2813 2.4025
-5.6781 2.1292 2.3846
-5.6074 1.9498 2.3332
-5.5794 1.7905 2.3016
-5.6186 1.6548 2.2994
-5.6599 1.5196 2.2994
-5.6979 1.3835 2.2994
-5.7326 1.2463 2.2994
-5.7638 1.1084 2.2994
-5.7918 0.9696 2.2994
-5.8162 0.8301 2.2994
-5.8373 0.6900 2.2994
-5.8550 0.5494 2.2994
-5.8691 0.4083 2.2994
-5.8798 0.2669 2.2994
-5.6821 0.1209 2.2194
-5.6835 -0.0161 2.2185
-5.5449 -0.1493 2.1643
-5.8878 -0.3006 2.2994
-5.8811 -0.4426 2.2994
-5.8708 -0.5843 2.2994
-5.8571 -0.7258 2.2994
-5.8399 -0.8670 2.2994
-5.8192 -1.0077 2.2994
-5.7950 -1.1479 2.2994
-5.7674 -1.2875 2.2994
-5.7363 -1.4264 2.2994
-5.6857 -1.5602 2.2930
-5.6638 -1.7018 2.2994
-5.6355 -1.8424 2.3048
-5.6849 -2.0114 2.3436
-5.7358 -2.1861 2.3851
-5.7241 -2.3410 2.4025
-5.6671 -2.4786 2.4026
-5.6069 -2.6149 2.4026
-5.5431 -2.7495 2.4027
-5.4760 -2.8826 2.4027
-5.4057 -3.0139 2.4027
-5.3322 -3.1436 2.4028
-5.2555 -3.2714 2.4028
-5.1756 -3.3972 2.4029
-5.0927 -3.5211 2.4029
-5.0067 -3.6428 2.4030
-4.9177 -3.7624 2.4030
-4.8258 -3.8798 2.4031
-4.5799 -3.8673 2.4031
-4.4855 -3.9764 2.4032
-4.3883 -4.0831 2.4032
-4.2885 -4.1873 2.4033
-4.1862 -4.2891 2.4033
-4.0815 -4.3883 2.4034
-3.9743 -4.4849 2.4034
-3.8648 -4.5788 2.4035
-3.7529 -4.6699 2.4035
-3.6389 -4.7583 2.4036
-3.5228 -4.8438 2.4037
-3.4046 -4.9264 2.4037
-3.2845 -5.0061 2.4038
-3.1624 -5.0828 2.4039
-3.0385 -5.1565 2.4040
-2.9129 -5.2271 2.4041
-2.7856 -5.2946 2.4042
-2.6566 -5.3587 2.4042
-2.5260 -5.4195 2.4042
-2.3940 -5.4770 2.4042
-2.2607 -5.5313 2.4042
-2.1261 -5.5822 2.4042
-1.9903 -5.6299 2.4042
-1.8534 -5.6741 2.4042
-1.7156 -5.7150 2.4042
-1.5768 -5.7525 2.4042
-1.4372 -5.7865 2.4042
-1.2969 -5.8171 2.4042
-1.1559 -5.8443 2.4042
-1.0143 -5.8680 2.4042
-0.8722 -5.8880 2.4042
-0.7297 -5.9044 2.4041
-0.5869 -5.9173 2.4040
-0.4439 -5.9266 2.4039
-0.3008 -5.9325 2.4038
-0.1576 -5.9349 2.4037
-0.0145 -5.9337 2.4037
0.1285 -5.9291 2.4036
0.2713 -5.9210 2.4035
0.4137 -5.9093 2.4034
0.5558 -5.8942 2.4033
0.6973 -5.8757 2.4033
0.8383 -5.8537 2.4032
0.9787 -5.8283 2.4031
1.1183 -5.7995 2.4030
1.2571 -5.7673 2.4030
1.3950 -5.7317 2.4029
1.5319 -5.6929 2.4028
1.6678 -5.6507 2.4027
1.8025 -5.6052 2.4026
1.9360 -5.5565 2.4025
2.0682 -5.5048 2.4025
2.1881 -5.4226 2.3905
2.2771 -5.2726 2.3494
2.3645 -5.1308 2.3125
2.4721 -5.0405 2.2994
2.5914 -4.9763 2.2994
2.7472 -4.9781 2.3318
2.8336 -4.8538 2.3064
2.9393 -4.7665 2.2994
3.0516 -4.6911 2.2994
3.1620 -4.6131 2.2994
3.2704 -4.5324 2.2994
3.3768 -4.4492 2.2994
3.4811 -4.3635 2.2994
3.5575 -4.2448 2.2830
3.6831 -4.1849 2.2994
3.7808 -4.0920 2.2994
3.8761 -3.9969 2.2994
3.9691 -3.8996 2.2994
4.0596 -3.8000 2.2994
4.1477 -3.6984 2.2994
3.8680 -3.2846 2.1010
4.3163 -3.4892 2.2994
4.3967 -3.3817 2.2994
4.4744 -3.2724 2.2994
4.5495 -3.1612 2.2994
4.6218 -3.0484 2.2994
4.0513 -2.5336 1.9857
3.9316 -2.3283 1.9000
3.9387 -2.2056 1.8782
3.9603 -2.0935 1.8649
3.9811 -1.9827 1.8525
4.0010 -1.8731 1.8412
4.0206 -1.7650 1.8311
4.0419 -1.6588 1.8230
4.0627 -1.5535 1.8158
4.0828 -1.4489 1.8096
4.1004 -1.3443 1.8034
4.1169 -1.2401 1.7978
4.1320 -1.1363 1.7928
4.1445 -1.0324 1.7877
4.1561 -0.9290 1.7834
4.1673 -0.8261 1.7799
4.1769 -0.7233 1.7769
4.1846 -0.6206 1.7741
4.1899 -0.5180 1.7713
4.1941 -0.4156 1.7690
4.1979 -0.3134 1.7677
4.2014 -0.2115 1.7672
4.2040 -0.1096 1.7674
4.2060 -0.0076 1.7683
4.2080 0.0944 1.7703
4.2099 0.1966 1.7733
4.2098 0.2990 1.7764
4.2078 0.4016 1.7797
4.2049 0.5045 1.7837
4.2003 0.6076 1.7881
4.1948 0.7110 1.7931
4.1863 0.8144 1.7979
4.1774 0.9183 1.8036
4.1680 1.0228 1.8102
4.1581 1.1280 1.8177
4.1450 1.2331 1.8250
4.1305 1.3386 1.8328
4.1183 1.4460 1.8427
4.1042 1.5538 1.8531
4.0886 1.6624 1.8641
4.0720 1.7719 1.8758
4.0635 1.8867 1.8927
4.0622 2.0073 1.9145
4.1775 2.1919 1.9936
4.7599 2.6467 2.3017
4.6932 2.7607 2.3014
4.6238 2.8731 2.3010
4.5518 2.9838 2.3007
4.4772 3.0927 2.3003
4.4001 3.1999 2.3000
4.3205 3.3051 2.2997
4.2387 3.4087 2.2994
3.9285 3.3193 2.1742
4.0685 3.6104 2.2994
3.9800 3.7082 2.2994
3.8891 3.8039 2.2994
3.7960 3.8975 2.2994
3.7007 3.9888 2.2994
3.6032 4.0778 2.2994
3.5037 4.1645 2.2994
3.4021 4.2489 2.2994
3.2986 4.3308 2.2994
3.1931 4.4103 2.2994
3.0936 4.4987 2.3053
3.0238 4.6339 2.3359
2.8657 4.6335 2.2994
2.7531 4.7027 2.2994
2.6817 4.8467 2.3368
2.6012 4.9826 2.3706
2.5137 5.1136 2.4025
2.3896 5.1745 2.4025
2.2641 5.2325 2.4025
2.1373 5.2876 2.4026
2.0092 5.3398 2.4027
1.8799 5.3889 2.4028
1.7494 5.4350 2.4028
1.6177 5.4779 2.4029
1.4851 5.5178 2.4030
1.3515 5.5545 2.4031
1.2170 5.5881 2.4032
1.0817 5.6184 2.4033
0.9457 5.6456 2.4033
0.8089 5.6695 2.4034
0.6717 5.6902 2.4035
0.5339 5.7076 2.4036
0.3956 5.7217 2.4037
0.2570 5.7325 2.4038
0.1182 5.7401 2.4038
-0.0209 5.7443 2.4039
-0.1601 5.7453 2.4040
-0.2994 5.7429 2.4041
-0.4386 5.7371 2.4042
-0.5777 5.7281 2.4043
-0.7166 5.7158 2.4044
-0.8553 5.7001 2.4045
-0.9936 5.6811 2.4046
-1.1316 5.6588 2.4047
-1.2690 5.6333 2.4048
-1.4058 5.6044 2.4049
-1.5420 5.5722 2.4050
-1.6774 5.5367 2.4051
-1.8120 5.4980 2.4051
-1.9458 5.4561 2.4052
-2.0785 5.4109 2.4053
-2.2103 5.3626 2.4054
-2.3409 5.3110 2.4055
-2.4702 5.2563 2.4056
-2.5981 5.1980 2.4055
-2.7246 5.1367 2.4054
-2.8497 5.0723 2.4053
-2.9733 5.0049 2.4052
-3.0952 4.9345 2.4051
-3.2155 4.8611 2.4050
-3.3340 4.7848 2.4049
-3.4508 4.7057 2.4048
-3.5656 4.6237 2.4047
-3.6785 4.5389 2.4046
-3.7893 4.4514 2.4045
-3.8981 4.3611 2.4044
-4.0047 4.2683 2.4043
-4.1090 4.1728 2.4042
-4.2111 4.0747 2.4041
-4.3108 3.9742 2.4040
-4.4082 3.8712 2.4039
-4.5030 3.7659 2.4038
-4.5953 3.6582 2.4036
-4.6850 3.5483 2.4035
-4.7720 3.4362 2.4034
-4.8563 3.3219 2.4033
-4.9379 3.2055 2.4032
-5.0167 3.0872 2.4032
-5.0926 2.9669 2.4031
-5.1656 2.8448 2.4030
-5.2356 2.7209 2.4029
-5.3027 2.5952 2.4028
-5.3666 2.4679 2.4027
-5.4275 2.3390 2.4027
-5.4853 2.2086 2.4026
-5.5399 2.0768 2.4025
-5.5938 1.9445 2.4035
-5.5679 1.7862 2.3719
-5.5405 1.6312 2.3416
-5.5137 1.4798 2.3133
-5.5174 1.3391 2.2994
-5.5508 1.2063 2.2994
-5.5811 1.0727 2.2994
-5.6080 0.9383 2.2994
-5.6316 0.8033 2.2994
-5.6520 0.6676 2.2994
-5.6690 0.5315 2.2994
-5.6826 0.3949 2.2994
-5.6929 0.2580 2.2994
-5.6791 0.1204 2.2911
-5.6805 -0.0165 2.2902
-5.5455 -0.1497 2.2357
-5.7004 -0.2915 2.2994
-5.6938 -0.4289 2.2994
-5.6838 -0.5661 2.2994
-5.6705 -0.7030 2.2994
-5.6538 -0.8397 2.2994
-5.6337 -0.9759 2.2994
-5.6102 -1.1116 2.2994
-5.5834 -1.2468 2.2994
-5.5533 -1.3812 2.2994
-5.5292 -1.5175 2.3034
-5.5757 -1.6756 2.3383
-5.6233 -1.8387 2.3756
-5.6692 -2.0060 2.4142
-5.5933 -2.1320 2.4025
-5.5415 -2.2665 2.4026
-5.4864 -2.3998 2.4027
-5.4280 -2.5316 2.4027
-5.3664 -2.6620 2.4028
-5.3016 -2.7909 2.4029
-5.2335 -2.9180 2.4029
-5.1622 -3.0434 2.4029
-5.0878 -3.1671 2.4029
-5.0104 -3.2888 2.4029
-4.9301 -3.4087 2.4029
-4.8468 -3.5265 2.4030
-4.7607 -3.6423 2.4030
-4.6717 -3.7559 2.4031
-4.4372 -3.7468 2.4033
-4.3457 -3.8524 2.4033
-4.2516 -3.9558 2.4034
-4.1550 -4.0568 2.4034
-4.0559 -4.1554 2.4035
-3.9544 -4.2515 2.4035
-3.8506 -4.3451 2.4036
-3.7445 -4.4361 2.4037
-3.6362 -4.5244 2.4037
-3.5258 -4.6101 2.4038
-3.4134 -4.6930 2.4039
-3.2989 -4.7731 2.4040
-3.1825 -4.8503 2.4040
-3.0643 -4.9246 2.4041
-2.9443 -4.9960 2.4042
-2.8226 -5.0645 2.4043
-2.6992 -5.1298 2.4044
-2.5743 -5.1921 2.4045
-2.4478 -5.2510 2.4045
-2.3199 -5.3068 2.4044
-2.1908 -5.3594 2.4044
-2.0604 -5.4088 2.4044
-1.9289 -5.4550 2.4044
-1.7963 -5.4980 2.4044
-1.6628 -5.5376 2.4044
-1.5283 -5.5740 2.4044
-1.3931 -5.6070 2.4044
-1.2571 -5.6367 2.4044
-1.1205 -5.6631 2.4044
-0.9833 -5.6859 2.4044
-0.8456 -5.7052 2.4043
-0.7076 -5.7212 2.4042
-0.5692 -5.7337 2.4041
-0.4306 -5.7429 2.4040
-0.2920 -5.7487 2.4039
-0.1532 -5.7510 2.4038
-0.0146 -5.7500 2.4037
0.1240 -5.7456 2.4037
0.2623 -5.7378 2.4036
0.4003 -5.7266 2.4035
0.5380 -5.7121 2.4034
0.6752 -5.6942 2.4034
0.8118 -5.6730 2.4033
0.9479 -5.6485 2.4032
1.0832 -5.6206 2.4031
1.2177 -5.5895 2.4030
1.3514 -5.5551 2.4030
1.4841 -5.5175 2.4029
1.6158 -5.4767 2.4028
1.7464 -5.4328 2.4027
1.8758 -5.3857 2.4026
2.0039 -5.3355 2.4026
2.1308 -5.2822 2.4025
2.2563 -5.2261 2.4025
2.3513 -5.1038 2.3732
2.4354 -4.9672 2.3378
2.5168 -4.8342 2.3045
2.6253 -4.7585 2.2994
2.7377 -4.6908 2.2994
2.8484 -4.6205 2.2994
2.9661 -4.5610 2.3063
3.0644 -4.4719 2.2994
3.1696 -4.3938 2.2994
3.2727 -4.3132 2.2994
3.3739 -4.2303 2.2994
3.4729 -4.1449 2.2994
3.5699 -4.0572 2.2994
3.6646 -3.9673 2.2994
3.7571 -3.8751 2.2994
3.8473 -3.7808 2.2994
3.9351 -3.6844 2.2994
4.0206 -3.5859 2.2994
3.8678 -3.2853 2.1673
4.1841 -3.3832 2.2994
4.2621 -3.2790 2.2994
4.3376 -3.1731 2.2994
4.4104 -3.0654 2.2994
4.4807 -2.9560 2.2994
4.0512 -2.5342 2.0482
4.6130 -2.7326 2.2994
4.6751 -2.6187 2.2994
4.7344 -2.5033 2.2994
4.7909 -2.3867 2.2994
4.0272 -1.8859 1.9115
4.0292 -1.7693 1.8926
4.0372 -1.6574 1.8780
4.0545 -1.5509 1.8690
4.0715 -1.4454 1.8611
4.0861 -1.3400 1.8534
4.0998 -1.2354 1.8464
4.1124 -1.1313 1.8401
4.1223 -1.0273 1.8338
4.1335 -0.9244 1.8292
4.1446 -0.8220 1.8256
4.1542 -0.7197 1.8224
4.1619 -0.6176 1.8196
4.1682 -0.5156 1.8171
4.1733 -0.4139 1.8152
4.1777 -0.3123 1.8141
4.1814 -0.2108 1.8137
4.1839 -0.1094 1.8138
4.1855 -0.0079 1.8146
4.1867 0.0936 1.8162
4.1874 0.1953 1.8187
4.1871 0.2971 1.8218
4.1850 0.3992 1.8252
4.1821 0.5015 1.8293
4.1780 0.6041 1.8339
4.1750 0.7074 1.8402
4.1690 0.8108 1.8461
4.1629 0.9149 1.8532
4.1568 1.0199 1.8615
4.1506 1.1257 1.8708
4.1412 1.2318 1.8800
4.1427 1.3424 1.8953
4.1469 1.4558 1.9132
4.9488 1.8734 2.3038
4.9004 1.9923 2.3036
4.8492 2.1099 2.3032
4.7952 2.2263 2.3029
4.7384 2.3413 2.3025
4.1775 2.1918 2.0555
4.6169 2.5670 2.3019
4.5522 2.6777 2.3015
4.4849 2.7867 2.3012
4.4151 2.8941 2.3008
4.3427 2.9998 2.3005
4.2680 3.1038 2.3002
4.1908 3.2059 2.2998
4.1112 3.3062 2.2995
3.9285 3.3193 2.2417
3.9460 3.5017 2.2994
3.8601 3.5966 2.2994
3.7719 3.6894 2.2994
3.6816 3.7801 2.2994
3.5891 3.8687 2.2994
3.4946 3.9551 2.2994
3.3980 4.0392 2.2994
3.2995 4.1210 2.2994
3.1990 4.2004 2.2994
3.1320 4.3262 2.3256
2.9926 4.3522 2.2994
2.8867 4.4243 2.2994
2.7972 4.5232 2.3144
2.7330 4.6689 2.3538
2.6702 4.8264 2.3993
2.5565 4.8976 2.4025
2.4376 4.9595 2.4025
2.3173 5.0186 2.4026
2.1956 5.0750 2.4027
2.0726 5.1284 2.4027
1.9483 5.1789 2.4028
1.8228 5.2265 2.4029
1.6962 5.2712 2.4029
1.5685 5.3128 2.4030
1.4399 5.3514 2.4031
1.3103 5.3869 2.4032
1.1798 5.4194 2.4033
1.0486 5.4488 2.4033
0.9166 5.4751 2.4034
0.7840 5.4982 2.4035
0.6509 5.5182 2.4036
0.5172 5.5350 2.4037
0.3832 5.5486 2.4038
0.2488 5.5591 2.4038
0.1141 5.5663 2.4039
-0.0208 5.5703 2.4040
-0.1558 5.5712 2.4041
-0.2909 5.5688 2.4042
-0.4259 5.5632 2.4043
-0.5608 5.5543 2.4044
-0.6955 5.5423 2.4044
-0.8299 5.5270 2.4045
-0.9641 5.5085 2.4046
-1.0978 5.4868 2.4047
-1.2310 5.4619 2.4048
-1.3637 5.4338 2.4049
-1.4957 5.4025 2.4050
-1.6270 5.3680 2.4051
-1.7575 5.3304 2.4052
-1.8871 5.2897 2.4053
-2.0158 5.2458 2.4054
-2.1435 5.1988 2.4055
-2.2701 5.1488 2.4056
-2.3954 5.0955 2.4056
-2.5193 5.0389 2.4055
-2.6420 4.9794 2.4054
-2.7632 4.9169 2.4053
-2.8829 4.8515 2.4052
-3.0011 4.7831 2.4051
-3.1176 4.7119 2.4050
-3.2325 4.6379 2.4049
-3.3456 4.5611 2.4048
-3.4569 4.4816 2.4047
-3.5662 4.3993 2.4046
-3.6736 4.3144 2.4045
-3.7790 4.2269 2.4044
-3.8822 4.1368 2.4043
-3.9833 4.0441 2.4042
-4.0822 3.9491 2.4041
-4.1788 3.8516 2.4040
-4.2731 3.7517 2.4039
-4.3649 3.6495 2.4038
-4.4543 3.5451 2.4037
-4.5412 3.4385 2.4036
-4.6255 3.3298 2.4035
-4.7071 3.2190 2.4034
-4.7862 3.1062 2.4033
-4.8624 2.9915 2.4032
-4.9359 2.8749 2.4031
-5.0066 2.7565 2.4031
-5.0744 2.6364 2.4030
-5.1393 2.5145 2.4029
-5.2012 2.3911 2.4028
-5.2601 2.2662 2.4027
-5.3160 2.1398 2.4027
-5.3688 2.0120 2.4026
-5.4186 1.8829 2.4025
-5.4652 1.7527 2.4025
-5.5251 1.6261 2.4097
-5.5007 1.4757 2.3816
-5.4757 1.3284 2.3550
-5.4502 1.1839 2.3300
-5.4246 1.0421 2.3065
-5.4340 0.9087 2.2994
-5.4569 0.7779 2.2994
-5.4765 0.6464 2.2994
-5.5151 0.5166 2.3087
-5.5061 0.3822 2.2994
-5.5160 0.2495 2.2994
-5.5227 0.1166 2.2994
-5.5260 -0.0165 2.2994
-5.5262 -0.1496 2.2994
-5.5322 -0.2833 2.3033
-5.5368 -0.4174 2.3079
-5.5069 -0.5488 2.2994
-5.4939 -0.6815 2.2994
-5.4776 -0.8139 2.2994
-5.4581 -0.9458 2.2994
-5.4353 -1.0773 2.2994
-5.4286 -1.2125 2.3076
-5.4725 -1.3614 2.3389
-5.5175 -1.5146 2.3725
-5.5614 -1.6716 2.4074
-5.5096 -1.8018 2.4025
-5.4658 -1.9343 2.4026
-5.4189 -2.0658 2.4026
-5.3687 -2.1961 2.4027
-5.3153 -2.3252 2.4028
-5.2588 -2.4529 2.4028
-5.1991 -2.5792 2.4029
-5.1363 -2.7040 2.4030
-5.0704 -2.8272 2.4031
-5.0015 -2.9488 2.4031
-4.9294 -3.0686 2.4032
-4.8545 -3.1865 2.4032
-4.7766 -3.3026 2.4032
-4.6959 -3.4168 2.4032
-4.6124 -3.5289 2.4032
-4.5262 -3.6389 2.4033
-4.3021 -3.6326 2.4035
-4.2134 -3.7351 2.4036
-4.1221 -3.8353 2.4036
-4.0285 -3.9332 2.4037
-3.9324 -4.0288 2.4037
-3.8341 -4.1220 2.4038
-3.7334 -4.2127 2.4038
-3.6306 -4.3009 2.4039
-3.5256 -4.3866 2.4039
-3.4186 -4.4696 2.4040
-3.3096 -4.5500 2.4041
-3.1987 -4.6277 2.4042
-3.0858 -4.7026 2.4042
-2.9712 -4.7746 2.4043
-2.8549 -4.8439 2.4044
-2.7369 -4.9102 2.4045
-2.6174 -4.9737 2.4046
-2.4963 -5.0341 2.4047
-2.3737 -5.0912 2.4047
-2.2497 -5.1454 2.4046
-2.1245 -5.1964 2.4046
-1.9981 -5.2444 2.4046
-1.8706 -5.2892 2.4046
-1.7421 -5.3309 2.4046
-1.6127 -5.3694 2.4046
-1.4823 -5.4047 2.4046
-1.3512 -5.4368 2.4046
-1.2194 -5.4656 2.4046
-1.0869 -5.4910 2.4045
-0.9539 -5.5131 2.4044
-0.8204 -5.5319 2.4043
-0.6865 -5.5474 2.4042
-0.5524 -5.5597 2.4042
-0.4181 -5.5686 2.4041
-0.2836 -5.5743 2.4040
-0.1491 -5.5767 2.4039
-0.0147 -5.5758 2.4038
0.1197 -5.5716 2.4037
0.2538 -5.5641 2.4037
0.3877 -5.5533 2.4036
0.5211 -5.5393 2.4035
0.6542 -5.5220 2.4034
0.7867 -5.5015 2.4034
0.9186 -5.4778 2.4033
1.0499 -5.4509 2.4032
1.1803 -5.4208 2.4031
1.3100 -5.3875 2.4030
1.4387 -5.3512 2.4030
1.5664 -5.3117 2.4029
1.6931 -5.2691 2.4028
1.8186 -5.2235 2.4027
1.9430 -5.1749 2.4027
2.0660 -5.1234 2.4026
2.1877 -5.0688 2.4025
2.3080 -5.0115 2.4025
2.4257 -4.9490 2.4014
2.5031 -4.8095 2.3638
2.5817 -4.6808 2.3319
2.6577 -4.5550 2.3019
2.7623 -4.4819 2.2994
2.8679 -4.4112 2.2994
3.0044 -4.3855 2.3246
3.0739 -4.2622 2.2994
3.1740 -4.1842 2.2994
3.2722 -4.1037 2.2994
3.3683 -4.0210 2.2994
3.4624 -3.9360 2.2994
3.5543 -3.8488 2.2994
3.6441 -3.7595 2.2994
3.7316 -3.6680 2.2994
3.8169 -3.5746 2.2994
3.8999 -3.4791 2.2994
3.8676 -3.2859 2.2343
4.0587 -3.2826 2.2994
4.1344 -3.1816 2.2994
4.2077 -3.0788 2.2994
4.2784 -2.9744 2.2994
4.3466 -2.8683 2.2994
4.0510 -2.5348 2.1112
4.4751 -2.6516 2.2994
4.5354 -2.5411 2.2994
4.5930 -2.4292 2.2994
4.6479 -2.3161 2.2994
4.7001 -2.2017 2.2994
4.7494 -2.0861 2.2994
4.7960 -1.9695 2.2994
4.2350 -1.6204 2.0121
4.8806 -1.7332 2.2994
4.9187 -1.6136 2.2994
4.9538 -1.4933 2.2994
4.1358 -1.1382 1.9073
4.1351 -1.0309 1.8958
4.1354 -0.9252 1.8860
4.1411 -0.8216 1.8799
4.1491 -0.7192 1.8759
4.1553 -0.6170 1.8722
4.1604 -0.5150 1.8692
4.1646 -0.4134 1.8668
4.1683 -0.3119 1.8653
4.1718 -0.2107 1.8648
4.1744 -0.1094 1.8649
4.1764 -0.0082 1.8659
4.1784 0.0931 1.8679
4.1803 0.1946 1.8710
4.1815 0.2964 1.8748
4.1812 0.3985 1.8791
4.1839 0.5014 1.8858
4.1908 0.6057 1.8956
4.1984 0.7111 1.9068
5.0503 0.9819 2.3045
4.3399 0.9536 1.9908
4.9954 1.2253 2.3051
4.9629 1.3458 2.3050
4.9271 1.4653 2.3047
4.8885 1.5838 2.3045
4.8471 1.7014 2.3042
4.8029 1.8180 2.3039
4.7560 1.9334 2.3037
4.7063 2.0476 2.3033
4.6539 2.1605 2.3030
4.5988 2.2722 2.3026
4.1775 2.1917 2.1180
4.4809 2.4913 2.3020
4.4182 2.5987 2.3016
4.3529 2.7046 2.3013
4.2851 2.8089 2.3010
4.2149 2.9115 2.3007
4.1424 3.0124 2.3004
4.0674 3.1115 2.3000
3.9902 3.2089 2.2997
3.9108 3.3044 2.2994
3.8296 3.3985 2.2994
3.7462 3.4905 2.2994
3.6606 3.5806 2.2994
3.5729 3.6687 2.2994
3.4832 3.7546 2.2994
3.3914 3.8384 2.2994
3.2976 3.9200 2.2994
3.2306 4.0352 2.3200
3.1045 4.0765 2.2994
3.0052 4.1513 2.2994
2.9041 4.2237 2.2994
2.8433 4.3581 2.3339
2.7815 4.4983 2.3717
2.7070 4.6249 2.4025
2.5946 4.6903 2.4025
2.4807 4.7531 2.4026
2.3654 4.8132 2.4026
2.2486 4.8706 2.4027
2.1305 4.9252 2.4028
2.0111 4.9771 2.4028
1.8905 5.0261 2.4029
1.7686 5.0722 2.4030
1.6457 5.1155 2.4030
1.5218 5.1558 2.4031
1.3969 5.1933 2.4032
1.2711 5.2277 2.4033
1.1445 5.2592 2.4033
1.0171 5.2876 2.4034
0.8890 5.3131 2.4035
0.7604 5.3355 2.4036
0.6311 5.3548 2.4037
0.5014 5.3710 2.4038
0.3713 5.3842 2.4038
0.2409 5.3943 2.4039
0.1102 5.4012 2.4040
-0.0207 5.4051 2.4041
-0.1517 5.4058 2.4042
-0.2828 5.4034 2.4042
-0.4138 5.3979 2.4043
-0.5447 5.3892 2.4044
-0.6754 5.3775 2.4045
-0.8058 5.3626 2.4046
-0.9360 5.3445 2.4047
-1.0657 5.3234 2.4048
-1.1949 5.2992 2.4049
-1.3236 5.2718 2.4050
-1.4517 5.2414 2.4051
-1.5791 5.2079 2.4052
-1.7057 5.1713 2.4052
-1.8314 5.1317 2.4053
-1.9563 5.0890 2.4054
-2.0801 5.0434 2.4055
-2.2029 4.9947 2.4056
-2.3243 4.9428 2.4055
-2.4446 4.8879 2.4054
-2.5635 4.8300 2.4053
-2.6810 4.7693 2.4053
-2.7971 4.7058 2.4052
-2.9117 4.6394 2.4051
-3.0247 4.5703 2.4050
-3.1361 4.4985 2.4049
-3.2458 4.4239 2.4048
-3.3536 4.3467 2.4047
-3.4597 4.2668 2.4046
-3.5638 4.1844 2.4045
-3.6659 4.0994 2.4044
-3.7660 4.0120 2.4043
-3.8641 3.9221 2.4042
-3.9599 3.8298 2.4041
-4.0535 3.7352 2.4040
-4.1449 3.6383 2.4039
-4.2339 3.5391 2.4038
-4.3205 3.4379 2.4037
-4.4048 3.3344 2.4036
-4.4865 3.2290 2.4035
-4.5656 3.1215 2.4035
-4.6422 3.0120 2.4034
-4.7161 2.9007 2.4033
-4.7873 2.7876 2.4032
-4.8557 2.6728 2.4031
-4.9214 2.5562 2.4031
-4.9843 2.4380 2.4030
-5.0443 2.3183 2.4029
-5.1013 2.1971 2.4028
-5.1555 2.0745 2.4027
-5.2066 1.9506 2.4027
-5.2548 1.8254 2.4026
-5.2999 1.6991 2.4026
-5.3419 1.5716 2.4026
-5.3809 1.4430 2.4025
-5.4168 1.3136 2.4025
-5.4347 1.1800 2.3960
-5.4109 1.0390 2.3727
-5.3867 0.9003 2.3508
-5.3626 0.7639 2.3305
-5.3386 0.6297 2.3118
-5.3260 0.4984 2.2994
-5.3387 0.3701 2.2994
-5.3482 0.2415 2.2994
-5.3546 0.1127 2.2994
-5.3579 -0.0164 2.2994
-5.3579 -0.1454 2.2994
-5.3548 -0.2745 2.2994
-5.3511 -0.4038 2.3006
-5.3566 -0.5342 2.3070
-5.3618 -0.6655 2.3147
-5.3669 -0.7977 2.3238
-5.3719 -0.9312 2.3343
-5.3768 -1.0660 2.3462
-5.4173 -1.2103 2.3753
-5.4588 -1.3583 2.4065
-5.4169 -1.4872 2.4025
-5.3808 -1.6176 2.4025
-5.3416 -1.7471 2.4026
-5.2992 -1.8755 2.4026
-5.2536 -2.0030 2.4027
-5.2050 -2.1293 2.4028
-5.1532 -2.2544 2.4029
-5.0983 -2.3782 2.4029
-5.0404 -2.5006 2.4030
-4.9795 -2.6216 2.4031
-4.9157 -2.7411 2.4032
-4.8488 -2.8589 2.4032
-4.7791 -2.9751 2.4033
-4.7066 -3.0895 2.4034
-4.6311 -3.2021 2.4034
-4.5529 -3.3127 2.4034
-4.4719 -3.4214 2.4035
-4.3883 -3.5281 2.4035
-4.1738 -3.5243 2.4037
-4.0877 -3.6236 2.4038
-3.9992 -3.7208 2.4038
-3.9084 -3.8158 2.4039
-3.8152 -3.9086 2.4039
-3.7198 -3.9990 2.4040
-3.6222 -4.0870 2.4040
-3.5224 -4.1726 2.4041
-3.4206 -4.2557 2.4041
-3.3168 -4.3362 2.4042
-3.2111 -4.4142 2.4043
-3.1035 -4.4896 2.4044
-2.9940 -4.5623 2.4044
-2.8829 -4.6322 2.4045
-2.7700 -4.6994 2.4046
-2.6556 -4.7638 2.4047
-2.5396 -4.8253 2.4048
-2.4222 -4.8840 2.4049
-2.3033 -4.9395 2.4049
-2.1831 -4.9921 2.4049
-2.0616 -5.0416 2.4048
-1.9390 -5.0882 2.4048
-1.8153 -5.1317 2.4048
-1.6907 -5.1722 2.4048
-1.5651 -5.2096 2.4048
-1.4387 -5.2439 2.4048
-1.3114 -5.2749 2.4048
-1.1835 -5.3028 2.4047
-1.0550 -5.3274 2.4046
-0.9259 -5.3489 2.4045
-0.7964 -5.3673 2.4044
-0.6666 -5.3824 2.4043
-0.5365 -5.3944 2.4042
-0.4062 -5.4031 2.4041
-0.2757 -5.4087 2.4041
-0.1452 -5.4110 2.4040
-0.0148 -5.4102 2.4039
0.1156 -5.4062 2.4038
0.2457 -5.3990 2.4037
0.3756 -5.3887 2.4037
0.5051 -5.3751 2.4036
0.6342 -5.3584 2.4035
0.7628 -5.3386 2.4034
0.8908 -5.3157 2.4034
1.0182 -5.2896 2.4033
1.1448 -5.2605 2.4032
1.2706 -5.2283 2.4031
1.3956 -5.1931 2.4030
1.5195 -5.1549 2.4030
1.6425 -5.1137 2.4029
1.7643 -5.0695 2.4028
1.8850 -5.0224 2.4028
2.0044 -4.9724 2.4027
2.1226 -4.9196 2.4026
2.2393 -4.8639 2.4026
2.3547 -4.8055 2.4025
2.4685 -4.7445 2.4025
2.5701 -4.6613 2.3926
2.6422 -4.5297 2.3585
2.7037 -4.3881 2.3195
2.7829 -4.2816 2.2994
2.8838 -4.2106 2.2994
2.9829 -4.1372 2.2994
3.1016 -4.0898 2.3155
3.1755 -3.9835 2.2994
3.2688 -3.9032 2.2994
3.3602 -3.8208 2.2994
3.4495 -3.7362 2.2994
3.5367 -3.6495 2.2994
3.6217 -3.5608 2.2994
3.7045 -3.4702 2.2994
3.7851 -3.3776 2.2994
3.8634 -3.2831 2.2994
3.9394 -3.1869 2.2994
4.0130 -3.0889 2.2994
4.0841 -2.9891 2.2994
4.1529 -2.8878 2.2994
4.2191 -2.7849 2.2994
4.0509 -2.5353 2.1749
4.3440 -2.5746 2.2994
4.4026 -2.4674 2.2994
4.4586 -2.3588 2.2994
4.5119 -2.2489 2.2994
4.5626 -2.1379 2.2994
4.6106 -2.0257 2.2994
4.6559 -1.9125 2.2994
4.2327 -1.6200 2.0715
4.7382 -1.6831 2.2994
4.7752 -1.5671 2.2994
4.8094 -1.4503 2.2994
4.8407 -1.3327 2.2994
4.8693 -1.2145 2.2994
4.3066 -0.9639 2.0230
4.9179 -0.9763 2.2994
4.9384 -0.8565 2.2997
4.9563 -0.7364 2.3000
4.9713 -0.6159 2.3004
4.9834 -0.4951 2.3007
4.9927 -0.3740 2.3010
4.9990 -0.2528 2.3014
5.0025 -0.1315 2.3017
5.0031 -0.0102 2.3020
5.0008 0.1111 2.3024
4.9956 0.2322 2.3027
4.9876 0.3532 2.3030
4.9766 0.4740 2.3034
4.9628 0.5944 2.3037
4.9460 0.7145 2.3039
4.9264 0.8341 2.3042
4.9039 0.9532 2.3045
4.3399 0.9533 2.0502
4.8505 1.1896 2.3050
4.8193 1.3066 2.3051
4.7845 1.4227 2.3048
4.7471 1.5378 2.3046
4.7069 1.6520 2.3043
4.6641 1.7652 2.3040
4.6185 1.8773 2.3037
4.5703 1.9882 2.3034
4.5194 2.0979 2.3031
4.4660 2.2064 2.3028
4.1776 2.1916 2.1811
4.3515 2.4193 2.3021
4.2906 2.5236 2.3018
4.2272 2.6264 2.3015
4.1614 2.7277 2.3011
4.0933 2.8274 2.3008
4.0228 2.9254 2.3005
3.9500 3.0217 2.3002
3.8751 3.1163 2.2999
3.7979 3.2091 2.2996
3.7187 3.3001 2.2994
3.6377 3.3896 2.2994
3.5546 3.4770 2.2994
3.4694 3.5626 2.2994
3.3823 3.6460 2.2994
3.3208 3.7587 2.3188
3.2021 3.8066 2.2994
3.1092 3.8837 2.2994
3.0145 3.9586 2.2994
2.9443 4.0675 2.3202
2.8870 4.1992 2.3542
2.8303 4.3386 2.3927
2.7360 4.4250 2.4025
2.6284 4.4910 2.4025
2.5193 4.5546 2.4026
2.4087 4.6156 2.4026
2.2967 4.6740 2.4027
2.1833 4.7297 2.4028
2.0685 4.7827 2.4028
1.9525 4.8330 2.4029
1.8354 4.8806 2.4030
1.7171 4.9254 2.4030
1.5977 4.9673 2.4031
1.4773 5.0065 2.4032
1.3560 5.0428 2.4033
1.2339 5.0762 2.4033
1.1109 5.1067 2.4034
0.9872 5.1342 2.4035
0.8628 5.1589 2.4036
0.7378 5.1806 2.4037
0.6123 5.1993 2.4037
0.4864 5.2150 2.4038
