ply
format ascii 1.0
element vertex 2023
property float32 x
property float32 y
property float32 z
end_header
-65.1283 6.2823 -0.9846
-66.1504 4.7709 -1.0080
-66.4609 3.1813 -1.0210
-66.4619 1.5730 -1.0297
-66.5652 -0.0336 -1.0402
-64.6546 -1.5955 -1.0193
-65.4132 -3.1973 -1.0407
-74.7730 -7.2892 -1.2124
-71.5126 -8.7205 -1.1710
-57.8140 -8.4726 -0.9563
-69.2354 -11.8621 -1.1571
-69.9917 -13.7405 -1.1823
-70.9260 -15.7130 -1.2112
-71.7398 -17.7223 -1.2389
-74.4793 -20.3207 -1.3011
-59.1702 -17.6909 -1.0460
-60.0897 -19.5598 -1.0752
-43.7128 -15.4069 -0.7919
-34.1718 -12.9807 -0.6271
-42.1620 -17.1930 -0.7839
-20.6998 -9.0305 -0.3901
-20.1163 -9.3609 -0.3844
-19.4660 -9.6373 -0.3773
-18.8482 -9.9056 -0.3708
-28.6977 -15.9787 -0.5732
-34.5026 -20.3183 -0.6999
-34.0257 -21.1612 -0.7014
-27.2058 -17.8457 -0.5702
-27.0182 -18.6719 -0.5761
-26.9200 -19.5820 -0.5842
-26.8193 -20.5178 -0.5927
-25.7705 -20.7216 -0.5804
-38.2114 -32.2759 -0.3232
-27.0240 -23.9688 -0.2329
-25.5912 -23.8274 -0.2249
-25.1516 -24.5792 -0.2254
-24.4784 -25.1060 -0.2237
-23.3267 -25.1112 -0.2175
-10.0791 -11.3902 -0.0959
-21.4110 -25.4075 -0.2081
-20.6283 -25.7150 -0.2048
-20.8615 -27.3334 -0.2117
-32.1463 -44.2993 -0.3337
-33.7285 -48.9244 -0.3584
-27.8497 -42.5625 -0.3032
-26.6719 -42.9955 -0.2978
-43.3578 -73.8175 -0.4969
-34.3215 -61.8060 -0.4043
-28.3686 -74.9324 -0.4088
-29.9896 -85.3908 -0.4510
-27.2203 -83.9406 -0.4288
-13.7579 -46.2020 -0.2281
-12.3759 -45.5582 -0.2171
-11.1163 -45.2128 -0.2078
-10.2029 -46.2960 -0.2049
-9.2723 -47.5077 -0.2021
-8.4231 -49.4891 -0.2021
-7.1566 -49.2092 -0.1926
-5.9208 -48.9979 -0.1834
-4.7424 -49.2024 -0.1757
-3.6433 -50.5675 -0.1719
-2.2936 -47.9888 -0.1548
-0.9340 -39.5836 -0.1208
0.0271 -47.2592 -0.1359
1.1634 -47.0194 -0.1269
2.3003 -47.0001 -0.1184
3.6168 -49.4106 -0.1155
4.8711 -49.9378 -0.1076
5.8827 -48.2187 -0.0949
7.1210 -48.5735 -0.0864
8.5755 -50.0382 -0.0794
10.2339 -52.1170 -0.0725
6.6046 -29.8061 -0.0355
7.5761 -30.6628 -0.0304
8.3907 -30.7491 -0.0241
7.9959 -26.7406 -0.0153
9.6644 -29.6872 -0.0106
9.5991 -27.2326 -0.0037
10.7214 -28.2223 0.0026
10.9965 -26.9651 0.0087
12.2121 -27.9917 0.0157
13.1773 -28.3170 0.0229
13.9565 -28.1899 0.0299
14.7016 -27.9738 0.0370
15.2621 -27.4108 0.0436
14.7111 -24.9813 0.0467
16.5379 -26.5922 0.0574
18.6844 -28.4852 0.0700
21.2461 -30.7442 0.0852
30.6460 -42.1320 0.1303
34.6199 -45.2548 0.1553
31.6161 -39.3217 0.1488
32.5531 -38.5417 0.1600
33.5390 -37.8162 0.1716
34.4814 -37.0360 0.1830
19.1569 -19.6043 0.1052
19.4413 -18.9565 0.1103
12.8514 -11.9390 0.0751
13.0355 -11.5359 0.0784
20.2348 -17.0531 0.1249
20.5009 -16.4469 0.1298
20.7636 -15.8485 0.1346
21.0232 -15.2571 0.1395
21.2802 -14.6718 0.1443
21.5347 -14.0920 0.1491
21.7872 -13.5168 0.1540
22.0380 -12.9456 0.1588
22.2874 -12.3777 0.1636
22.5356 -11.8123 0.1685
22.7830 -11.2487 0.1734
15.0309 -6.9747 0.1164
41.9876 -18.2637 0.3307
43.6885 -17.7608 0.3497
45.1635 -17.1008 0.3674
43.0570 -15.1241 0.3558
42.5281 -13.7932 0.3569
27.5710 -8.2114 0.2349
41.8302 -11.3652 0.3617
41.9963 -10.3274 0.3685
42.3978 -9.3459 0.3775
45.7360 -8.9286 0.4131
45.4705 -7.7412 0.4165
46.1303 -6.7109 0.4285
49.0353 -5.9274 0.4619
53.8663 -5.1942 0.5144
54.1741 -3.9053 0.5245
30.5348 -1.4606 0.2997
51.0191 -1.2058 0.5076
50.0701 0.0268 0.5050
49.4705 1.2223 0.5057
51.0862 2.4986 0.5294
48.3575 3.5382 0.5079
47.2300 4.6055 0.5028
46.3379 5.6519 0.5001
45.9065 6.7288 0.5022
45.3321 7.7678 0.5028
44.8637 8.8085 0.5045
44.6032 9.8824 0.5085
44.5967 11.0179 0.5156
46.5097 12.6906 0.5453
45.8445 13.7077 0.5452
45.5427 14.8254 0.5495
45.3709 15.9921 0.5554
36.9273 14.0280 0.4587
45.0891 18.3874 0.5685
45.1838 19.7124 0.5783
44.3224 20.6256 0.5761
43.0437 21.3107 0.5682
41.5758 21.8504 0.5576
41.7186 23.2290 0.5686
39.2964 23.1417 0.5444
38.8138 24.1393 0.5468
37.0908 24.3300 0.5316
36.8667 25.4782 0.5377
36.4443 26.5101 0.5411
35.7615 27.3590 0.5408
72.4970 58.2935 1.1172
49.3207 41.6598 0.7749
53.7681 47.6898 0.8617
52.0361 48.4502 0.8512
50.3398 49.1949 0.8411
48.6763 49.9252 0.8312
47.0428 50.6424 0.8216
45.4364 51.3476 0.8123
48.5909 57.6622 0.8900
14.7724 21.4286 0.3012
16.0727 24.5647 0.3377
17.3726 28.0060 0.3766
19.4108 33.0488 0.4349
43.9309 79.1144 1.0190
13.4721 25.7064 0.3242
10.6731 21.6207 0.2670
14.0465 30.2764 0.3663
13.3080 30.6006 0.3627
12.5693 30.9248 0.3591
11.8298 31.2495 0.3557
9.6211 27.3971 0.3056
7.4669 23.0282 0.2518
25.9483 87.1499 0.9341
23.9140 88.0430 0.9251
21.8649 88.9426 0.9162
7.1591 32.4899 0.3281
5.6836 29.1257 0.2883
4.4440 26.1159 0.2535
3.5953 24.7279 0.2352
11.4939 95.1483 0.8872
9.1980 95.4662 0.8724
6.9456 96.4550 0.8637
4.6543 97.4609 0.8551
2.3200 98.4857 0.8464
-3.3227 45.3664 0.3581
-4.1676 42.7066 0.3297
-5.6620 46.3934 0.3502
-5.6589 38.5886 0.2847
-7.2655 42.3825 0.3055
-7.9971 40.7160 0.2866
-7.7636 35.0293 0.2406
-10.1021 40.8780 0.2738
-8.6638 31.7440 0.2072
-12.5463 41.9511 0.2666
-27.2468 83.6832 0.5175
-11.8485 33.6091 0.2020
-14.4194 37.9513 0.2215
-13.0696 32.0442 0.1814
-15.2175 34.8757 0.1912
-15.7097 33.7544 0.1790
-23.2781 47.0121 0.2408
-19.2205 36.5679 0.1806
-19.7242 35.4206 0.1683
-26.3174 44.6850 0.2037
-11.3955 18.3214 0.0800
-37.3346 56.9118 0.2372
-29.7091 42.9858 0.1704
-38.9503 53.5429 0.2012
-30.8680 40.3461 0.1430
-33.5279 41.6952 0.1387
-52.3906 59.0658 0.1694
-22.2660 22.7836 0.0542
-50.2247 48.9674 0.1038
-61.2234 49.1116 0.0473
-51.2287 39.0980 0.0249
-54.0812 39.2439 0.0115
-81.0402 50.2721 -0.0442
-19.3124 10.1216 -0.0236
-62.7815 29.1288 -0.1027
-82.1598 28.8551 -0.1964
-5.8791 1.9065 -0.0151
-50.8871 9.9322 -0.1723
-67.9392 11.5638 -0.2405
-97.4010 14.1660 -0.3594
-65.7288 7.9429 -0.2523
-65.7916 6.3417 -0.2621
-68.4152 4.9295 -0.2823
-68.5462 3.2766 -0.2925
-67.2333 1.5869 -0.2963
-64.6580 -0.0367 -0.2938
-68.8650 -3.3701 -0.3315
-74.7653 -7.2926 -0.3797
-71.5058 -8.7235 -0.3725
-57.8052 -8.4742 -0.3087
-68.5769 -11.7526 -0.3751
-69.4245 -13.6324 -0.3886
-70.3014 -15.5778 -0.4025
-71.2103 -17.5946 -0.4168
-74.4809 -20.3243 -0.4455
-50.4466 -15.0847 -0.3082
-49.7236 -16.1874 -0.3101
-42.8201 -15.0938 -0.2726
-34.1741 -12.9827 -0.2219
-21.3436 -8.7042 -0.1412
-21.2824 -9.2853 -0.1437
-38.7050 -18.0120 -0.2665
-35.7075 -17.6791 -0.2506
-36.6724 -19.2738 -0.2623
-36.3672 -20.2497 -0.2650
-34.4979 -20.3161 -0.2561
-35.4222 -22.0302 -0.2679
-58.6056 -38.4432 -0.4515
-26.6795 -18.4380 -0.2094
-26.5780 -19.3333 -0.2125
-41.1994 -31.5192 -0.3356
-25.7630 -20.7155 -0.2138
-37.9289 -32.0370 0.2294
-36.8597 -32.6922 0.2282
-37.0759 -34.5200 0.2356
-26.2505 -25.6524 0.1715
-24.1720 -24.7910 0.1628
-23.6317 -25.4386 0.1644
-10.0788 -11.3894 0.0727
-22.2272 -26.3749 0.1662
-21.9513 -27.3628 0.1708
-32.7128 -42.8591 0.2655
-32.1412 -44.2895 0.2728
-14.5941 -21.1679 0.1298
-33.1602 -50.6748 0.3101
-32.4078 -52.2375 0.3194
-21.5065 -36.6120 0.2241
-41.7966 -75.2599 0.4616
-28.3716 -74.9282 0.4790
-28.7489 -81.8436 0.5290
-22.9331 -70.7058 0.4625
-17.4176 -58.4795 0.3874
-12.2903 -45.2320 0.3038
-11.2033 -45.5545 0.3105
-10.2027 -46.2804 0.3204
-3.7496 -19.2046 0.1351
-8.3787 -49.2076 0.3521
-7.0911 -48.7347 0.3550
-5.8545 -48.4192 0.3592
-4.6806 -48.5233 0.3669
-3.5693 -49.4873 0.3816
-2.2866 -47.7640 0.3758
-0.9371 -39.5805 0.3179
0.0230 -46.8620 0.3845
1.1470 -46.5118 0.3901
2.2720 -46.5022 0.3988
3.4460 -47.1322 0.4135
4.7882 -49.1329 0.4412
5.8809 -48.2392 0.4436
7.1226 -48.6146 0.4580
8.5004 -49.6266 0.4792
10.0577 -51.2450 0.5074
6.6010 -29.8029 0.3027
7.5722 -30.6594 0.3196
8.3883 -30.7519 0.3291
7.9917 -26.7357 0.2939
10.9458 -33.6344 0.3800
9.5948 -27.2288 0.3162
10.7166 -28.2182 0.3370
10.9944 -26.9675 0.3314
12.2067 -27.9869 0.3541
13.1763 -28.3221 0.3690
13.9588 -28.2016 0.3786
16.8618 -32.0921 0.4441
18.8309 -33.8285 0.4829
14.7040 -24.9751 0.3679
16.5295 -26.5849 0.4043
18.6746 -28.4765 0.4474
21.2342 -30.7337 0.4991
30.8585 -42.4333 0.7127
33.5722 -43.8946 0.7630
31.6482 -39.3700 0.7087
32.4813 -38.4646 0.7176
33.3393 -37.5988 0.7275
34.2674 -36.8137 0.7393
19.1557 -19.6071 0.4090
19.4401 -18.9592 0.4112
12.8507 -11.9407 0.2695
13.0297 -11.5331 0.2712
20.2336 -17.0556 0.4182
20.4998 -16.4494 0.4211
20.7625 -15.8509 0.4241
21.0222 -15.2595 0.4274
21.2792 -14.6742 0.4308
21.5337 -14.0943 0.4344
21.7862 -13.5191 0.4381
22.0370 -12.9479 0.4421
22.2864 -12.3799 0.4462
22.5346 -11.8144 0.4505
22.7820 -11.2509 0.4550
15.0303 -6.9761 0.3000
41.4863 -18.0501 0.8281
43.0427 -17.5027 0.8596
45.2935 -17.1545 0.9052
42.9871 -15.1037 0.8602
42.4044 -13.7571 0.8499
27.5701 -8.2136 0.5537
41.6799 -11.3281 0.8391
41.8156 -10.2866 0.8442
42.2850 -9.3245 0.8564
42.7600 -8.3511 0.8691
45.3601 -7.7259 0.9255
46.2333 -6.7293 0.9473
49.1982 -5.9507 1.0127
52.7383 -5.0892 1.0909
53.0741 -3.8297 1.1037
30.5339 -1.4626 0.6385
50.9533 -1.2076 1.0719
50.1877 0.0237 1.0624
49.9508 1.2312 1.0645
50.4767 2.4658 1.0832
48.4780 3.5443 1.0479
47.2906 4.6088 1.0301
46.4106 5.6583 1.0191
45.8236 6.7143 1.0147
45.3717 7.7724 1.0134
44.8610 8.8058 1.0112
44.5414 9.8667 1.0135
44.6827 11.0372 1.0268
44.8787 12.2437 1.0419
44.4862 13.2998 1.0437
43.7789 14.2496 1.0385
41.8121 14.7362 1.0032
37.0164 14.0606 0.8987
42.2333 17.2214 1.0380
43.0627 18.7858 1.0720
43.2088 20.1061 1.0899
42.9104 21.2437 1.0972
41.5765 21.8499 1.0782
41.6325 23.1803 1.0956
39.3242 23.1574 1.0507
39.0627 24.2935 1.0603
37.6272 24.6815 1.0381
36.8048 25.4351 1.0327
36.1637 26.3058 1.0327
35.6514 27.2747 1.0367
39.1558 31.4845 1.1604
41.1904 34.7927 1.2448
42.2165 37.4446 1.3021
51.5018 47.9537 1.6225
50.3390 49.1953 1.6213
48.6754 49.9257 1.6041
47.0416 50.6429 1.5878
45.4352 51.3482 1.5723
48.5893 57.6629 1.7259
58.5060 72.9383 2.1355
14.7716 21.4290 0.5897
16.0718 24.5651 0.6631
17.3715 28.0065 0.7419
19.4158 33.0603 0.8600
43.9275 79.1159 2.0220
13.4710 25.7069 0.6459
10.6721 21.6211 0.5343
14.0450 30.2770 0.7362
13.3065 30.6012 0.7325
12.5678 30.9255 0.7291
11.8281 31.2502 0.7260
9.6196 27.3977 0.6275
7.4656 23.0288 0.5201
25.9429 87.1509 1.9420
23.9084 88.0440 1.9363
21.8591 88.9437 1.9314
7.1571 32.4907 0.6969
5.6817 29.1265 0.6173
4.4410 26.1089 0.5469
3.5937 24.7286 0.5122
11.4842 95.1261 1.9490
9.1911 95.4692 1.9355
6.9385 96.4581 1.9356
4.6468 97.4642 1.9366
2.3122 98.4891 1.9383
-3.3268 45.3681 0.8623
-4.1715 42.7083 0.8053
-5.6664 46.3953 0.8683
-5.6616 38.5826 0.7169
-7.2683 42.3760 0.7820
-7.9998 40.7099 0.7463
-7.7674 35.0310 0.6383
-10.1066 40.8800 0.7405
-8.6658 31.7394 0.5718
-12.5514 41.9533 0.7520
-27.2519 83.6715 1.4926
-11.8506 33.6045 0.5969
-12.3443 32.4800 0.5747
-13.0741 32.0462 0.5650
-15.2195 34.8710 0.6129
-15.7117 33.7499 0.5916
-23.2808 47.0058 0.8221
-19.2227 36.5630 0.6383
-19.7263 35.4159 0.6175
-26.3256 44.6886 0.7786
-11.3957 18.3177 0.3190
-37.3379 56.9042 0.9914
-29.7116 42.9801 0.7495
-38.9627 53.5484 0.9351
-30.8704 40.3406 0.7059
-33.5304 41.6896 0.7316
-52.4105 59.0760 1.0446
-22.2572 22.7700 0.4070
-21.4275 20.8869 0.3759
-61.2963 49.1601 0.9181
-51.2314 39.0919 0.7390
-54.0839 39.2378 0.7519
-52.6688 34.4547 0.6815
-19.3113 10.1188 0.2180
-82.1619 28.8479 0.7685
-5.8789 1.9059 0.0534
-50.7574 9.9028 0.4012
-67.9333 11.5576 0.5232
-97.4040 14.1590 0.7313
-98.4027 11.8842 0.7207
-65.7864 6.3366 0.4703
-84.3457 6.0716 0.5890
-48.8080 2.3298 0.3332
-47.6378 1.1213 0.3181
-47.0630 -0.0297 0.3076
-46.3722 -1.1500 0.2970
-45.6962 -2.2390 0.2870
-45.2508 -3.3147 0.2789
-45.2370 -4.4149 0.2739
-45.5596 -5.5606 0.2713
-47.7946 -7.0092 0.2801
-69.1647 -11.8568 0.3994
-56.9398 -11.1836 0.3243
-55.4113 -12.2809 0.3117
-54.9571 -13.5812 0.3056
-48.0698 -13.1193 0.2646
-48.8826 -14.6190 0.2668
-49.4226 -16.0913 0.2677
-50.1873 -17.6925 0.2702
-34.1764 -12.9848 0.1832
-52.4407 -21.3879 0.2802
-21.8986 -9.5548 0.1169
-73.0746 -34.0084 0.3900
-41.2003 -20.3996 0.2203
-34.8236 -18.3029 0.1869
-66.9829 -37.2983 0.3615
-34.4932 -20.3139 0.1875
-39.7911 -24.7479 0.2183
-46.8404 -30.7262 0.2599
-35.2912 -24.3898 0.1984
-26.2446 -19.0909 0.1498
-40.9345 -31.3166 0.2377
-25.7556 -20.7094 0.1525
-37.6492 -31.8005 0.7739
-27.2850 -24.1996 0.5731
-26.5853 -24.7521 0.5715
-25.7607 -25.1732 0.5675
-23.1280 -23.7196 0.5229
-22.9319 -24.6845 0.5330
-10.0785 -11.3886 0.2411
-44.9075 -53.2852 1.1081
-21.9486 -27.3581 0.5595
-21.4659 -28.1223 0.5663
-20.9689 -28.8926 0.5736
-14.5949 -21.1676 0.4148
-49.7653 -76.0447 1.4726
-21.5080 -36.6114 0.6946
-33.8419 -72.9214 1.3451
-18.7193 -46.0388 0.8422
-28.3745 -74.9239 1.3669
-28.5180 -81.1717 1.4782
-22.8071 -70.3036 1.2790
-13.9609 -46.8635 0.8524
-12.3768 -45.5393 0.8289
-11.2693 -45.8102 0.8351
-10.2195 -46.3421 0.8468
-3.7508 -19.2041 0.3520
-8.3568 -49.0581 0.9026
-7.0554 -48.4651 0.8958
-5.8291 -48.1799 0.8953
-4.6492 -48.1597 0.9004
-3.4973 -48.4379 0.9117
-2.3024 -48.0161 0.9106
-0.9402 -39.5774 0.7567
0.0192 -46.7037 0.9009
1.1388 -46.3333 0.9023
2.2568 -46.2711 0.9103
3.3951 -46.4899 0.9245
4.7494 -48.7782 0.9812
5.8674 -48.1635 0.9807
7.1179 -48.6131 1.0025
8.4616 -49.4269 1.0331
10.0368 -51.1631 1.0845
6.5974 -29.7998 0.6410
7.5683 -30.6560 0.6695
8.3859 -30.7546 0.6825
7.9874 -26.7308 0.6031
10.9408 -33.6300 0.7719
9.5904 -27.2250 0.6361
10.7119 -28.2139 0.6715
10.9923 -26.9699 0.6542
12.2013 -27.9822 0.6924
13.1752 -28.3272 0.7153
13.9484 -28.1878 0.7270
16.8542 -32.0853 0.8458
18.8221 -33.8208 0.9118
14.6969 -24.9688 0.6889
16.5213 -26.5776 0.7511
18.6647 -28.4677 0.8246
21.2224 -30.7232 0.9128
30.7349 -42.2725 1.2893
31.0693 -40.6307 1.2732
31.6418 -39.3702 1.2686
32.4319 -38.4142 1.2739
33.1729 -37.4188 1.2783
34.1691 -36.7157 1.2932
19.1545 -19.6098 0.7129
19.4390 -18.9619 0.7123
12.8499 -11.9424 0.4640
13.0289 -11.5347 0.4641
20.2325 -17.0582 0.7116
20.4987 -16.4519 0.7125
20.7615 -15.8534 0.7137
21.0211 -15.2619 0.7154
21.2781 -14.6765 0.7173
21.5327 -14.0966 0.7197
21.7853 -13.5214 0.7224
22.0360 -12.9501 0.7254
22.2854 -12.3821 0.7288
22.5337 -11.8166 0.7326
22.7811 -11.2530 0.7367
15.0296 -6.9775 0.4838
41.1886 -17.9249 1.3203
15.6269 -6.3561 0.4991
15.6743 -5.9381 0.4991
42.9918 -15.1095 1.3656
42.2972 -13.7262 1.3409
27.5691 -8.2158 0.8727
41.6910 -11.3347 1.3184
41.7771 -10.2807 1.3205
42.2819 -9.3273 1.3365
46.3078 -9.0476 1.4644
45.5750 -7.7661 1.4425
46.5349 -6.7768 1.4750
49.9720 -6.0479 1.5868
50.3446 -4.8617 1.6023
50.4869 -3.6465 1.6112
30.5330 -1.4646 0.9775
51.1763 -1.2162 1.6442
50.5482 0.0208 1.6306
50.1411 1.2328 1.6247
49.4407 2.4123 1.6099
48.4944 3.5427 1.5875
47.5169 4.6282 1.5645
46.5140 5.6684 1.5410
45.4388 6.6555 1.5154
44.5836 7.6352 1.4975
43.7610 8.5878 1.4809
43.1006 9.5455 1.4703
42.6819 10.5411 1.4684
42.3056 11.5399 1.4684
41.3159 12.3503 1.4476
40.1951 13.0816 1.4223
39.4545 13.9039 1.4106
37.1060 14.0934 1.3411
38.4278 15.6684 1.4047
38.3649 16.7352 1.4192
39.0921 18.1894 1.4642
40.2520 19.9265 1.5273
40.5311 21.2995 1.5589
40.3781 22.4810 1.5751
39.2960 23.1401 1.5557
38.2387 23.7805 1.5373
37.3874 24.5238 1.5273
37.7343 26.0772 1.5675
36.1754 26.3142 1.5291
35.6683 27.2876 1.5353
36.9361 29.6999 1.6202
38.4342 32.4649 1.7195
40.7836 36.1742 1.8625
41.8942 39.0087 1.9547
45.0523 44.0297 2.1497
47.0116 48.2206 2.2962
47.0405 50.6434 2.3544
45.4339 51.3487 2.3327
47.4341 56.2943 2.5013
46.1273 57.5088 2.5013
44.7967 58.7023 2.5013
43.4421 59.8743 2.5013
14.7709 21.4293 0.8784
16.0709 24.5655 0.9886
17.3704 28.0070 1.1074
19.4209 33.0717 1.2856
36.3126 65.4071 2.5013
13.4699 25.7074 0.9677
10.6711 21.6216 0.8017
14.0436 30.2776 1.1063
13.3050 30.6019 1.1026
12.5662 30.9262 1.0993
11.8265 31.2510 1.0966
9.6181 27.3984 0.9495
7.4643 23.0294 0.7886
20.6712 69.4566 2.3513
19.0645 70.2231 2.3513
17.4356 70.9642 2.3513
7.1550 32.4916 1.0658
5.6798 29.1273 0.9464
4.4380 26.1020 0.8404
3.5920 24.7294 0.7893
9.5329 79.0108 2.5013
7.6599 79.6263 2.5013
5.7637 80.2108 2.5013
3.9366 82.7012 2.5613
0.7945 33.9585 1.0450
-0.0265 34.1624 1.0450
-2.1007 84.2003 2.5613
-4.1597 84.6307 2.5613
-3.3308 45.3699 1.3667
-4.1754 42.7100 1.2812
-5.6708 46.3972 1.3866
-5.6642 38.5766 1.1491
-7.2712 42.3696 1.2585
-8.0024 40.7038 1.2062
-7.7712 35.0326 1.0362
-10.1112 40.8820 1.2075
-8.6678 31.7349 0.9365
-12.5564 41.9555 1.2376
-25.6508 78.7298 2.3225
-11.8526 33.5999 0.9918
-12.3462 32.4755 0.9598
-13.0786 32.0481 0.9488
-15.2216 34.8663 1.0346
-15.7137 33.7454 1.0042
-23.2836 46.9995 1.4035
-19.2248 36.5581 1.0962
-19.7284 35.4111 1.0668
-26.3338 44.6922 1.3537
-11.3883 18.3016 0.5577
-37.3413 56.8966 1.7458
-29.7141 42.9743 1.3286
-38.9750 53.5538 1.6695
-30.8728 40.3352 1.2690
-33.5329 41.6839 1.3245
-61.0984 72.3009 2.3225
-52.4577 59.1171 1.9216
-57.9286 62.1886 2.0474
-22.2590 22.7672 0.7600
-50.2308 48.9534 1.6585
-60.6316 56.2982 1.9382
-64.6319 57.1677 2.0023
-61.2995 49.1527 1.7890
-51.2340 39.0860 1.4533
-52.1587 37.8332 1.4393
-83.5123 54.6204 2.1865
-19.3102 10.1159 0.4596
-54.1060 26.6986 1.2598
-79.5259 27.9148 1.6780
-5.8786 1.9052 0.1219
-45.5864 8.8903 0.8751
-45.1877 7.6843 0.8560
-45.0440 6.5444 0.8426
-45.0761 5.4406 0.8333
-44.9867 4.3299 0.8225
-44.9485 3.2325 0.8133
-44.8520 2.1380 0.8038
-44.6764 1.0487 0.7936
-44.4342 -0.0308 0.7829
-44.1675 -1.0980 0.7725
-43.9608 -2.1565 0.7639
-43.8619 -3.2155 0.7578
-44.0006 -4.2966 0.7564
-44.4302 -5.4251 0.7606
-46.1763 -6.7742 0.7879
-48.1113 -8.2500 0.8188
-27.9413 -5.4893 0.4747
-48.4014 -10.7295 0.8217
-47.8229 -11.8203 0.8119
-47.2041 -12.8850 0.8022
-48.3070 -14.4488 0.8224
-49.1251 -15.9964 0.8387
-49.5473 -17.4686 0.8490
-34.1788 -12.9868 0.5884
-51.8070 -21.1311 0.8969
-52.2641 -22.8053 0.9109
-73.0724 -34.0094 1.2833
-41.1929 -20.3970 0.7297
-69.1509 -36.3465 1.2370
-66.9816 -37.2989 1.2112
-34.4885 -20.3118 0.6311
-62.2910 -38.7426 1.1548
-45.4829 -29.8362 0.8552
-43.4370 -30.0198 0.8294
-36.7188 -26.7102 0.7128
-40.5271 -31.0050 0.8008
-25.7481 -20.7034 0.5186
-37.3735 -31.5673 1.3106
-26.8113 -23.7791 0.9605
-26.0325 -24.2369 0.9539
-25.2639 -24.6872 0.9482
-35.2944 -36.1962 1.3585
-22.9978 -24.7546 0.9091
-10.0781 -11.3877 0.4098
-37.1189 -44.0418 1.5545
-42.8685 -53.4314 1.8522
-32.7079 -42.8480 1.4605
-32.1308 -44.2699 1.4854
-39.1171 -56.7294 1.8757
-46.1655 -70.5389 2.3006
-27.4948 -44.3112 1.4271
-42.8660 -72.9610 2.3225
-15.4777 -27.8643 0.8776
-14.7683 -28.1695 0.8786
-14.0616 -28.4735 0.8802
-33.8453 -72.9198 2.2364
-34.3269 -78.8944 2.4025
-18.7230 -46.0411 1.3934
-11.3885 -30.0667 0.9050
-10.6757 -30.3810 0.9103
-22.6661 -69.8551 2.0851
-14.0865 -47.2746 1.4068
-12.5583 -46.1957 1.3717
-11.2612 -45.7647 1.3568
-10.1942 -46.2131 1.3691
-3.7521 -19.2035 0.5689
-8.3550 -49.0271 1.4535
-7.0718 -48.5532 1.4415
-5.8295 -48.1538 1.4326
-4.6667 -48.3036 1.4411
-3.6717 -50.8002 1.5209
-2.3115 -48.1270 1.4469
-0.9433 -39.5742 1.1955
0.0154 -46.7441 1.4199
1.1356 -46.3585 1.4169
2.2523 -46.2578 1.4235
3.3986 -46.5931 1.4446
4.7273 -48.5950 1.5189
5.8745 -48.2574 1.5216
7.1306 -48.7298 1.5510
8.5124 -49.7510 1.5995
10.0789 -51.4026 1.6704
6.5938 -29.7966 0.9793
7.5644 -30.6525 1.0196
8.3836 -30.7573 1.0360
7.9832 -26.7259 0.9123
10.9357 -33.6255 1.1639
9.5861 -27.2212 0.9560
10.7071 -28.2098 1.0060
10.9901 -26.9723 0.9772
12.1959 -27.9775 1.0307
13.1742 -28.3323 1.0619
13.9551 -28.2085 1.0765
16.8464 -32.0785 1.2474
18.8133 -33.8130 1.3407
14.6898 -24.9625 1.0099
16.5129 -26.5702 1.0978
18.6548 -28.4591 1.2017
21.2105 -30.7128 1.3264
30.6893 -42.2189 1.8665
31.0924 -40.6696 1.8421
31.6801 -39.4262 1.8312
32.4249 -38.4138 1.8313
33.2265 -37.4870 1.8361
33.8128 -36.3402 1.8305
12.4238 -12.7217 0.6597
12.6083 -12.3014 0.6574
12.8492 -11.9441 0.6586
13.0282 -11.5364 0.6571
13.1431 -11.0833 0.6530
13.3161 -10.6894 0.6523
20.7604 -15.8558 1.0035
21.0201 -15.2643 1.0036
21.2771 -14.6789 1.0041
21.5317 -14.0989 1.0052
21.7843 -13.5236 1.0069
22.0351 -12.9524 1.0090
22.2845 -12.3843 1.0117
14.6381 -7.6779 0.6593
19.1247 -9.4491 0.8552
15.0290 -6.9789 0.6676
19.5535 -8.5116 0.8634
15.2798 -6.2165 0.6711
15.4402 -5.8509 0.6749
42.9016 -15.0819 1.8673
42.5487 -13.8119 1.8452
27.5681 -8.2180 1.1919
41.8607 -11.3845 1.8052
42.0153 -10.3428 1.8082
44.7552 -9.8766 1.9232
45.0691 -8.8092 1.9348
45.3210 -7.7263 1.9447
45.2300 -6.5901 1.9408
44.9660 -5.4454 1.9305
45.1850 -4.3667 1.9418
45.4786 -3.2878 1.9573
30.5321 -1.4666 1.3167
47.4550 -1.1308 2.0514
49.0872 0.0171 2.1282
49.5410 1.2150 2.1552
49.1165 2.3936 2.1450
48.2049 3.5188 2.1144
47.2125 4.5960 2.0809
45.8812 5.5889 2.0330
44.7219 6.5482 1.9931
43.7486 7.4900 1.9620
42.7299 8.3834 1.9293
41.9033 9.2784 1.9058
41.0227 10.1296 1.8802
39.6541 10.8150 1.8325
38.6438 11.5500 1.8016
38.0033 12.3668 1.7883
37.5410 13.2282 1.7839
37.0714 14.0790 1.7800
36.6814 14.9552 1.7805
36.4291 15.8897 1.7887
36.4037 16.9375 1.8091
36.5363 18.0862 1.8388
36.4928 19.1765 1.8611
36.5976 20.3754 1.8925
37.1010 21.8468 1.9467
37.6693 23.4259 2.0067
37.3765 24.5162 2.0230
36.9155 25.5111 2.0315
36.7228 26.7122 2.0563
36.4836 27.9113 2.0802
36.8076 29.5967 2.1388
37.3227 31.5262 2.2121
37.4308 33.2007 2.2648
39.7087 36.9744 2.4550
38.9230 38.0405 2.4613
38.0160 38.9948 2.4613
37.0902 39.9324 2.4613
36.1455 40.8528 2.4613
35.1822 41.7559 2.4613
34.2003 42.6411 2.4613
33.2002 43.5087 2.4613
32.1820 44.3580 2.4613
14.7701 21.4296 1.1672
16.0700 24.5659 1.3144
17.3693 28.0075 1.4731
19.4259 33.0832 1.7118
26.9475 48.5433 2.4725
13.4687 25.7079 1.2898
10.6701 21.6220 1.0693
14.0421 30.2783 1.4768
13.3035 30.6026 1.4729
12.5646 30.9269 1.4698
11.8248 31.2517 1.4674
9.6166 27.3990 1.2717
7.4630 23.0299 1.0573
16.1940 54.4249 2.4725
14.9193 54.9681 2.4725
12.9611 52.7670 2.3513
7.1530 32.4925 1.4350
5.6779 29.1282 1.2757
4.4349 26.0951 1.1339
3.5903 24.7301 1.0666
6.6189 54.8930 2.3513
5.3104 55.2465 2.3513
3.9403 54.8955 2.3225
1.5115 31.8061 1.3384
0.7397 31.7209 1.3282
-0.0271 31.6363 1.3187
-1.4003 55.9404 2.3225
-2.7640 56.1363 2.3225
-3.3348 45.3717 1.8715
-4.1793 42.7117 1.7574
-5.6752 46.3991 1.9053
-5.6668 38.5706 1.5814
-7.2740 42.3631 1.7352
-8.0051 40.6977 1.6662
-7.7750 35.0343 1.4344
-10.1157 40.8840 1.6748
-8.6698 31.7303 1.3013
-12.5614 41.9577 1.7236
-18.3864 56.4147 2.3225
-11.8547 33.5952 1.3869
-12.3482 32.4711 1.3451
-13.0831 32.0501 1.3329
-15.2237 34.8616 1.4565
-15.7157 33.7408 1.4170
-23.2864 46.9932 1.9851
-19.2270 36.5532 1.5542
-19.7304 35.4064 1.5164
-26.3421 44.6959 1.9294
-11.3810 18.2856 0.7962
-34.6871 52.8407 2.3225
-29.7167 42.9686 1.9080
-37.6571 51.7318 2.3225
-30.8752 40.3298 1.8322
-33.5354 41.6782 1.9178
-42.0828 49.7884 2.3225
-43.5464 49.0644 2.3225
-45.0024 48.3020 2.3225
-22.2610 22.7646 1.1131
-47.8620 46.6355 2.3213
-49.2883 45.7564 2.3213
-50.7300 44.8622 2.3225
-33.1709 27.9354 1.4778
-33.9088 27.1840 1.4715
-54.8923 41.8682 2.3225
-43.9016 31.8373 1.8128
-57.0124 39.2790 2.2995
-58.3171 38.1336 2.2995
-59.7827 37.0614 2.3065
-63.5921 37.3269 2.4025
-64.8862 36.0077 2.4025
-19.3091 10.1131 0.7013
-53.3180 26.3036 1.9007
-65.6634 30.4442 2.2995
-66.7921 29.0281 2.2994
-48.7714 19.8096 1.6518
-69.6555 26.3502 2.3225
-29.1178 10.2181 0.9565
-5.8784 1.9046 0.1904
-29.7243 8.8434 0.9499
-30.0365 8.1518 0.9477
-30.3455 7.4534 0.9459
-30.6570 6.7491 0.9448
-30.9717 6.0378 0.9444
-31.2918 5.3189 0.9447
-31.6153 4.5910 0.9457
-31.9433 3.8531 0.9473
-32.2743 3.1042 0.9496
-32.6131 2.3433 0.9527
-32.9579 1.5689 0.9565
-33.2995 0.7796 0.9608
-33.6556 -0.0254 0.9662
-34.0257 -0.8478 0.9725
-34.3995 -1.6894 0.9796
-34.7825 -2.5518 0.9876
-35.1711 -3.4363 0.9964
-35.5744 -4.3456 1.0063
-35.9862 -5.2811 1.0172
-36.4139 -6.2460 1.0293
-36.8556 -7.2423 1.0426
-37.3156 -8.2737 1.0572
-37.7887 -9.3417 1.0731
-38.2785 -10.4502 1.0904
-38.7890 -11.6035 1.1093
-39.3270 -12.8072 1.1300
-39.4747 -13.9188 1.1405
-34.1811 -12.9889 0.9939
-36.8947 -15.0498 1.0805
-35.6941 -15.5761 1.0539
-34.5491 -16.0808 1.0292
-33.4481 -16.5629 1.0063
-32.3959 -17.0284 0.9853
-31.3814 -17.4754 0.9657
-30.3998 -17.9043 0.9474
-29.4554 -18.3205 0.9306
-28.5416 -18.7232 0.9151
-42.4331 -29.3263 1.3820
-21.0128 -15.2854 0.6960
-39.5712 -30.2736 1.3343
-25.7407 -20.6973 0.8846
-24.3433 -20.5613 1.2071
-23.5689 -20.9032 1.1938
-22.8100 -21.2363 1.1816
-22.0668 -21.5626 1.1704
-21.3367 -21.8813 1.1603
-20.6208 -22.1952 1.1512
-10.0778 -11.3870 0.5784
-19.2236 -22.8079 1.1359
-35.7588 -44.5678 2.1789
-32.7054 -42.8424 2.0582
-32.1256 -44.2601 2.0918
-34.4140 -49.9055 2.3225
-33.1375 -50.6289 2.3225
-27.4965 -44.3106 2.0056
-30.2256 -51.4418 2.2995
-15.4780 -27.8621 1.2311
-14.7687 -28.1673 1.2313
-14.0620 -28.4713 1.2325
-25.9964 -56.0025 2.4025
-24.5696 -56.4613 2.4025
-18.7272 -46.0445 1.9449
-11.3833 -30.0482 1.2610
-10.6709 -30.3622 1.2668
-17.9752 -55.3872 2.2993
-14.1410 -47.4473 1.9613
-12.6366 -46.4724 1.9142
-11.2152 -45.5650 1.8715
-10.1286 -45.9014 1.8814
-9.2788 -47.4726 1.9431
-8.4669 -49.6633 2.0313
-7.1289 -48.9209 2.0009
-5.8681 -48.4431 1.9827
-4.7677 -49.3108 2.0209
-3.6964 -51.0874 2.0978
-2.3297 -48.4279 1.9939
-0.9463 -39.5711 1.6346
0.0117 -47.1623 1.9559
1.1375 -46.5942 1.9413
2.2628 -46.5548 1.9498
4.2759 -58.6897 2.4725
4.8954 -50.3684 2.1359
5.9121 -48.6025 2.0758
7.1929 -49.1864 2.1171
8.6654 -50.6728 2.1996
10.2274 -52.1855 2.2859
6.5902 -29.7934 1.3178
7.5605 -30.6491 1.3697
8.3812 -30.7600 1.3899
7.9790 -26.7210 1.2215
10.9307 -33.6211 1.5560
9.5818 -27.2174 1.2761
10.7024 -28.2056 1.3406
10.9880 -26.9747 1.3006
12.1905 -27.9727 1.3691
13.1731 -28.3374 1.4089
13.9325 -28.1699 1.4238
16.8388 -32.0717 1.6491
18.8045 -33.8052 1.7696
14.6827 -24.9562 1.3310
16.5046 -26.5629 1.4445
18.6450 -28.4504 1.5788
21.1986 -30.7023 1.7400
29.0677 -39.9966 2.3169
29.8830 -39.0960 2.3169
30.6732 -38.1810 2.3169
31.4381 -37.2525 2.3169
32.1779 -36.3114 2.3169
32.8923 -35.3581 2.3169
12.4230 -12.7235 0.8571
12.6076 -12.3032 0.8530
12.8484 -11.9459 0.8534
13.0274 -11.5381 0.8504
13.1424 -11.0850 0.8439
13.3154 -10.6910 0.8419
20.7167 -15.8257 1.2909
20.9759 -15.2353 1.2893
21.2323 -14.6511 1.2885
21.4864 -14.0723 1.2884
21.7385 -13.4981 1.2889
21.9888 -12.9280 1.2902
22.2010 -12.3407 1.2900
14.6375 -7.6794 0.8429
18.9682 -9.3739 1.0832
15.0284 -6.9802 0.8516
19.3635 -8.4309 1.0896
15.2792 -6.2178 0.8543
15.4396 -5.8523 0.8582
41.8980 -14.7331 2.3169
42.0913 -13.6673 2.3169
27.5672 -8.2202 1.5113
42.3936 -11.5332 2.3161
42.5318 -10.4736 2.3169
42.6326 -9.4117 2.3169
42.7106 -8.3516 2.3169
42.7662 -7.2941 2.3169
42.7994 -6.2392 2.3169
42.8106 -5.1874 2.3169
42.7997 -4.1392 2.3169
42.7671 -3.0947 2.3169
30.5313 -1.4686 1.6561
42.6374 -1.0188 2.3169
42.5407 0.0122 2.3169
42.4230 1.0379 2.3169
42.2846 2.0582 2.3169
42.1256 3.0726 2.3169
41.9461 4.0810 2.3169
41.7464 5.0830 2.3169
41.5268 6.0783 2.3169
41.2873 7.0666 2.3169
41.8249 8.2039 2.3619
40.7506 9.0214 2.3170
39.2795 9.6974 2.2498
37.8989 10.3347 2.1878
37.0702 11.0782 2.1580
36.3555 11.8292 2.1354
35.7835 12.6076 2.1219
35.3844 13.4371 2.1194
35.0999 14.3093 2.1249
34.8348 15.1933 2.1326
34.6930 16.1406 2.1492
34.7785 17.2151 2.1815
35.0663 18.4261 2.2285
35.6813 19.8646 2.2989
36.3122 21.3818 2.3734
36.9035 22.9491 2.4487
36.8986 24.2023 2.4874
35.9122 24.8175 2.4613
35.2960 25.6742 2.4613
34.6627 26.5183 2.4613
34.0124 27.3492 2.4613
33.3454 28.1670 2.4613
32.6620 28.9713 2.4613
31.9621 29.7619 2.4613
31.2461 30.5385 2.4613
30.5142 31.3008 2.4613
29.7666 32.0487 2.4613
29.0034 32.7818 2.4613
28.2249 33.5001 2.4613
27.4310 34.2029 2.4613
26.6224 34.8904 2.4613
25.7989 35.5621 2.4613
14.7693 21.4300 1.4563
16.0691 24.5664 1.6405
17.3682 28.0080 1.8393
19.4309 33.0946 2.1387
21.5658 38.8524 2.4725
13.4676 25.7084 1.6122
10.6691 21.6224 1.3371
14.0407 30.2789 1.8475
13.3019 30.6032 1.8436
12.5630 30.9276 1.8406
11.8232 31.2524 1.8386
9.6151 27.3997 1.5943
7.4617 23.0305 1.3262
12.9000 43.3639 2.4725
11.8769 43.7695 2.4725
10.8427 44.1549 2.4725
7.1510 32.4934 1.8046
5.6760 29.1290 1.6053
4.4319 26.0881 1.4275
3.5886 24.7309 1.3442
5.2450 43.5255 2.3513
4.2041 43.7713 2.3513
3.1546 43.9960 2.3513
1.5090 31.8058 1.6920
0.7371 31.7207 1.6806
-0.0297 31.6360 1.6701
-1.1084 44.1317 2.3225
-2.1822 44.2453 2.3225
-3.2625 44.3361 2.3225
-4.1832 42.7134 2.2341
-5.4407 44.4494 2.3225
-5.6695 38.5645 2.0141
-7.2768 42.3566 2.2122
-8.0078 40.6916 2.1265
-7.7788 35.0360 1.8330
-10.1203 40.8860 2.1426
-8.6718 31.7258 1.6663
-12.5665 41.9599 2.2100
-14.3276 43.9470 2.3225
-11.8567 33.5906 1.7823
-12.3501 32.4666 1.7306
-13.0876 32.0521 1.7174
-15.2257 34.8569 1.8786
-15.7177 33.7363 1.8301
-21.0699 42.5094 2.3225
-19.2291 36.5483 2.0126
-19.7325 35.4017 1.9662
-24.4244 41.4323 2.3225
-11.3740 18.2703 1.0345
-26.6433 40.5781 2.3225
-27.7455 40.1096 2.3225
-28.8420 39.6134 2.3225
-29.9321 39.0895 2.3225
-30.9982 38.5170 2.3213
-32.0727 37.9375 2.3213
-33.1385 37.3299 2.3213
-34.1947 36.6944 2.3213
-22.2631 22.7622 1.4665
-22.7066 22.1202 1.4530
-37.2990 34.6192 2.3213
-38.0002 33.5980 2.3025
-38.9892 32.8287 2.3025
-31.3181 25.1020 1.8044
-40.8656 31.1632 2.2993
-41.8080 30.3128 2.2993
-43.3433 29.8554 2.3321
-45.6008 29.8121 2.4025
-46.5299 28.8393 2.4025
-47.4386 27.8391 2.4025
-48.3258 26.8117 2.4025
-19.3081 10.1102 0.9430
-50.0323 24.6769 2.4025
-48.6679 22.5590 2.2995
-49.4262 21.4755 2.2995
-48.8922 19.8536 2.2414
-51.3775 19.4306 2.3225
-29.1191 10.2157 1.2990
-5.8781 1.9040 0.2589
-29.7256 8.8410 1.2940
-30.0372 8.1494 1.2930
-30.3461 7.4510 1.2926
-30.6577 6.7467 1.2931
-30.9723 6.0354 1.2945
-31.2927 5.3166 1.2969
-31.6162 4.5887 1.3001
-31.9441 3.8509 1.3043
-32.2750 3.1020 1.3093
-32.6138 2.3411 1.3155
-32.9586 1.5668 1.3226
-33.3011 0.7774 1.3304
-33.6571 -0.0275 1.3396
-34.0261 -0.8499 1.3501
-34.3998 -1.6914 1.3617
-34.7828 -2.5538 1.3745
-35.1720 -3.4383 1.3885
-35.5753 -4.3476 1.4040
-35.9878 -5.2832 1.4208
-28.1953 -4.8376 1.1144
-36.8572 -7.2444 1.4594
-37.3160 -8.2755 1.4813
-37.7891 -9.3435 1.5050
-38.2795 -10.4521 1.5307
-30.2288 -9.0440 1.2145
-39.3272 -12.8088 1.5888
-39.4730 -13.9197 1.6048
-29.3989 -11.1726 1.2037
-36.8940 -15.0507 1.5225
-35.6935 -15.5769 1.4859
-34.5480 -16.0813 1.4520
-33.4472 -16.5633 1.4204
-32.3949 -17.0286 1.3912
-31.3806 -17.4756 1.3641
-30.3991 -17.9044 1.3388
-29.4548 -18.3206 1.3154
-28.5411 -18.7232 1.2937
-27.6494 -19.1093 1.2734
-26.7893 -19.4875 1.2548
-25.9526 -19.8548 1.2376
-25.1378 -20.2125 1.2217
-24.3437 -20.5614 1.5609
-23.5688 -20.9029 1.5436
-22.8100 -21.2360 1.5276
-22.0669 -21.5622 1.5130
-21.3373 -21.8812 1.4996
-20.6214 -22.1952 1.4876
-10.0775 -11.3861 0.7472
-19.2244 -22.8078 1.4671
-29.5223 -36.7931 2.3225
-28.5931 -37.4535 2.3225
-27.6463 -38.0864 2.3225
-26.6830 -38.6918 2.3225
-25.4484 -38.8783 2.2995
-24.4645 -39.4212 2.2995
-23.4670 -39.9356 2.2995
-15.4783 -27.8600 1.5849
-14.7691 -28.1650 1.5844
-14.0625 -28.4690 1.5850
-20.2274 -43.5692 2.4025
-19.1288 -43.9525 2.4025
-18.0221 -44.3043 2.4025
-11.3781 -30.0297 1.6168
-10.6662 -30.3434 1.6232
-14.0323 -43.2295 2.2993
-12.9512 -43.4456 2.2993
-11.8670 -43.6314 2.2993
-10.7806 -43.7872 2.2993
-9.7672 -44.2496 2.3169
-8.6709 -44.3464 2.3169
-7.5751 -44.4133 2.3169
-6.4807 -44.4506 2.3169
-5.3887 -44.4585 2.3169
-4.2998 -44.4370 2.3169
-3.2150 -44.3868 2.3169
-2.1350 -44.3081 2.3169
-0.9494 -39.5680 2.0741
0.0074 -44.0663 2.3169
1.0682 -43.9038 2.3169
2.1211 -43.7144 2.3169
3.1654 -43.4983 2.3169
4.2003 -43.2560 2.3169
5.2253 -42.9879 2.3169
6.2396 -42.6944 2.3169
7.2427 -42.3761 2.3169
8.2339 -42.0337 2.3169
6.5865 -29.7902 1.6565
7.5566 -30.6456 1.7201
8.3788 -30.7627 1.7441
7.9747 -26.7161 1.5310
10.9257 -33.6167 1.9484
9.5775 -27.2136 1.5964
10.6976 -28.2013 1.6754
10.9859 -26.9771 1.6242
12.1851 -27.9680 1.7077
13.1720 -28.3425 1.7563
13.9396 -28.1914 1.7742
16.8310 -32.0649 2.0510
18.7957 -33.7975 2.1988
14.6756 -24.9500 1.6522
16.4963 -26.5556 1.7914
18.6351 -28.4417 1.9560
21.1868 -30.6918 2.1537
23.4930 -32.3328 2.3169
24.1740 -31.6335 2.3169
24.8356 -30.9211 2.3169
25.4779 -30.1963 2.3169
26.1005 -29.4593 2.3169
26.7034 -28.7111 2.3169
12.4223 -12.7253 1.0548
12.6068 -12.3049 1.0488
12.8477 -11.9476 1.0484
13.0267 -11.5398 1.0438
13.1417 -11.0866 1.0350
13.3146 -10.6926 1.0317
20.7156 -15.8281 1.5807
20.9748 -15.2377 1.5775
21.2313 -14.6534 1.5753
21.4854 -14.0746 1.5739
21.7375 -13.5004 1.5734
19.1983 -11.2898 1.3741
18.4626 -10.2649 1.3077
14.6369 -7.6808 1.0266
18.8412 -9.3133 1.3096
15.0278 -6.9816 1.0358
19.2415 -8.3799 1.3161
15.2786 -6.2191 1.0377
15.4391 -5.8536 1.0418
34.5362 -12.1477 2.3169
34.7173 -11.2762 2.3169
27.5662 -8.2224 1.8312
35.0208 -9.5305 2.3169
35.1434 -8.6572 2.3169
35.2466 -7.7840 2.3169
35.3307 -6.9114 2.3169
35.3957 -6.0397 2.3169
35.4417 -5.1693 2.3169
35.4690 -4.3004 2.3169
35.4775 -3.4336 2.3169
35.4674 -2.5690 2.3169
30.5304 -1.4706 1.9960
35.3921 -0.8479 2.3169
35.3270 0.0079 2.3169
35.2440 0.8601 2.3169
35.1431 1.7085 2.3169
35.0245 2.5527 2.3169
34.8882 3.3924 2.3169
34.7344 4.2274 2.3169
34.5635 5.0573 2.3169
34.3753 5.8819 2.3169
34.1702 6.7008 2.3169
33.9481 7.5139 2.3169
33.7095 8.3208 2.3169
33.4543 9.1213 2.3169
33.1827 9.9151 2.3169
32.8949 10.7020 2.3169
32.5910 11.4816 2.3169
33.8891 12.8681 2.4331
33.4207 13.6236 2.4247
33.1059 14.4382 2.4285
32.9144 15.3123 2.4428
32.9162 16.2925 2.4732
32.3365 16.9910 2.4613
31.8990 17.7583 2.4613
31.4460 18.5159 2.4613
30.9774 19.2635 2.4613
30.4935 20.0008 2.4613
29.9945 20.7278 2.4613
29.4806 21.4440 2.4613
28.9519 22.1493 2.4613
28.4086 22.8433 2.4613
27.8509 23.5260 2.4613
27.2789 24.1969 2.4613
26.6930 24.8560 2.4613
26.0933 25.5029 2.4613
25.4799 26.1374 2.4613
24.8530 26.7593 2.4613
24.2129 27.3683 2.4613
23.5598 27.9643 2.4613
22.8938 28.5470 2.4613
22.2151 29.1160 2.4613
21.6226 29.8070 2.4725
14.7686 21.4303 1.7458
16.0681 24.5668 1.9670
17.3671 28.0084 2.2058
18.7251 31.8952 2.4725
17.9717 32.3804 2.4725
13.4664 25.7089 1.9350
10.6681 21.6229 1.6053
14.0393 30.2795 2.2187
13.3004 30.6039 2.2148
12.5615 30.9283 2.2119
11.8215 31.2531 2.2102
9.6137 27.4003 1.9173
7.4604 23.0311 1.5954
10.7165 36.0320 2.4725
9.8624 36.3542 2.4725
8.9995 36.6588 2.4725
7.1489 32.4943 2.1746
5.6742 29.1298 1.9354
4.4288 26.0812 1.7213
3.5869 24.7316 1.6222
4.3416 36.0511 2.3513
3.4776 36.2361 2.3513
2.6073 36.4026 2.3513
1.5064 31.8055 2.0460
0.7346 31.7204 2.0333
-0.0322 31.6358 2.0218
-0.8907 35.3458 2.2533
-1.8258 36.9557 2.3513
-2.7265 37.0087 2.3513
-3.6269 36.9998 2.3486
-4.4835 36.6027 2.3225
-5.3834 36.5964 2.3225
-6.2861 36.5702 2.3225
-7.1911 36.5239 2.3225
-7.7825 35.0376 2.2321
-9.0062 36.3702 2.3225
-8.6739 31.7220 2.0317
-10.8255 36.1341 2.3225
-11.7357 35.9848 2.3225
-11.8587 33.5859 2.1780
-12.3521 32.4622 2.1165
-13.0921 32.0541 2.1024
-15.2278 34.8521 2.3012
-15.7197 33.7317 2.2435
-17.1749 34.6423 2.3225
-18.0732 34.3430 2.3225
-18.9578 34.0036 2.3213
-19.8478 33.6610 2.3213
-11.3671 18.2549 1.2727
-21.6131 32.9097 2.3213
-22.4873 32.5011 2.3213
-23.3551 32.0705 2.3213
-24.2159 31.6179 2.3213
-25.0692 31.1433 2.3213
-25.9142 30.6466 2.3213
-26.7507 30.1280 2.3213
-27.3550 29.3487 2.3025
-21.9317 22.4188 1.7929
-28.9654 28.2116 2.3025
-29.7122 27.5719 2.2993
-30.4881 26.9507 2.2993
-31.2519 26.3085 2.2993
-31.3045 25.0859 2.2492
-33.4632 25.5130 2.3501
-34.9648 25.3459 2.4025
-35.7044 24.5885 2.4025
-36.4276 23.8100 2.4025
-37.1339 23.0108 2.4025
-37.8226 22.1912 2.4025
-38.4928 21.3516 2.4025
-19.3070 10.1074 1.1850
-39.7759 19.6137 2.4025
-38.6542 17.9131 2.2995
-39.2192 17.0364 2.2995
-39.7634 16.1426 2.2995
-40.6541 15.3710 2.3204
-26.5430 9.3093 1.4964
-5.8779 1.9033 0.3275
-29.7268 8.8387 1.6384
-30.0379 8.1469 1.6386
-30.3468 7.4486 1.6397
-30.6583 6.7443 1.6418
-30.9729 6.0331 1.6450
-31.2936 5.3143 1.6494
-31.6171 4.5865 1.6549
-31.9450 3.8487 1.6616
-32.2758 3.0998 1.6694
-32.6146 2.3389 1.6786
-32.9594 1.5646 1.6890
-33.3026 0.7753 1.7004
-33.6586 -0.0296 1.7134
-34.0264 -0.8520 1.7281
-34.4001 -1.6935 1.7442
-34.7831 -2.5557 1.7618
-35.1728 -3.4403 1.7810
-35.5762 -4.3496 1.8020
-35.9895 -5.2853 1.8248
-36.4172 -6.2501 1.8496
-36.8589 -7.2465 1.8766
-37.3164 -8.2773 1.9057
-28.2952 -6.9974 1.4505
-38.2804 -10.4540 1.9713
-38.7910 -11.6072 2.0081
-38.8105 -12.6421 2.0211
-38.4451 -13.5586 2.0156
-29.3986 -11.1735 1.5529
-36.8933 -15.0516 1.9649
-35.6929 -15.5777 1.9183
-34.5470 -16.0817 1.8750
-33.4464 -16.5637 1.8347
-32.3940 -17.0289 1.7975
-31.3797 -17.4758 1.7629
-30.3984 -17.9045 1.7304
-29.4542 -18.3207 1.7005
-28.5406 -18.7233 1.6727
-27.6499 -19.1098 1.6466
-26.7898 -19.4880 1.6226
-25.9528 -19.8550 1.6004
-25.1381 -20.2126 1.5799
-24.3440 -20.5615 1.9151
-23.5688 -20.9025 1.8937
-22.8101 -21.2356 1.8739
-22.0670 -21.5618 1.8559
-21.3379 -21.8812 1.8393
-20.6221 -22.1951 1.8243
-10.0772 -11.3853 0.9162
-19.2251 -22.8077 1.7987
-24.0859 -30.0163 2.3225
-23.3326 -30.5612 2.3225
-22.3408 -30.7756 2.2995
-21.5677 -31.2722 2.2995
-20.7819 -31.7468 2.2995
-19.9841 -32.1991 2.2995
-19.2073 -32.6836 2.3033
-15.4786 -27.8578 1.9390
-14.7695 -28.1628 1.9378
-14.0630 -28.4667 1.9378
-16.5511 -35.6462 2.4025
-15.6583 -35.9735 2.4025
-14.7584 -36.2758 2.4025
-11.3729 -30.0111 1.9726
-10.6616 -30.3247 1.9795
-11.7501 -36.1917 2.3480
-10.6250 -35.6343 2.2993
-9.7403 -35.8036 2.2993
-8.8531 -35.9487 2.2993
-7.9642 -36.0699 2.2993
-7.1283 -36.4442 2.3169
-6.2311 -36.5181 2.3169
-5.3341 -36.5680 2.3169
-4.4382 -36.5942 2.3169
-3.5440 -36.5966 2.3169
-2.6520 -36.5757 2.3169
-1.7631 -36.5314 2.3169
-0.8779 -36.4642 2.3169
0.0031 -36.3742 2.3169
0.8792 -36.2615 2.3169
1.7499 -36.1267 2.3169
2.6144 -35.9698 2.3169
3.4723 -35.7911 2.3169
4.3230 -35.5912 2.3169
5.1660 -35.3701 2.3169
6.0007 -35.1285 2.3169
6.8266 -34.8664 2.3169
6.5829 -29.7870 1.9955
7.5527 -30.6422 2.0709
8.5925 -31.5591 2.1530
7.9704 -26.7112 1.8407
10.8076 -33.2641 2.3169
9.5732 -27.2098 1.9169
10.6928 -28.1971 2.0105
10.9837 -26.9796 1.9483
12.1798 -27.9632 2.0466
13.5563 -29.1771 2.1658
15.2022 -30.7526 2.3169
15.8889 -30.2775 2.3169
16.5617 -29.7875 2.3169
14.6685 -24.9437 1.9736
16.4880 -26.5482 2.1384
18.4938 -28.2322 2.3169
19.1082 -27.6868 2.3169
19.7074 -27.1287 2.3169
20.2913 -26.5584 2.3169
20.8596 -25.9763 2.3169
21.4121 -25.3828 2.3169
21.9487 -24.7784 2.3169
22.4693 -24.1636 2.3169
12.4215 -12.7271 1.2527
12.6060 -12.3067 1.2449
12.8469 -11.9493 1.2437
13.0260 -11.5415 1.2375
13.1410 -11.0882 1.2264
13.3139 -10.6942 1.2218
20.7145 -15.8305 1.8709
20.9738 -15.2401 1.8661
21.2303 -14.6558 1.8624
21.4844 -14.0769 1.8598
21.7365 -13.5027 1.8582
18.1951 -10.7022 1.5373
18.3711 -10.2163 1.5352
14.6363 -7.6822 1.2106
18.7771 -9.2838 1.5384
15.0272 -6.9830 1.2203
19.1791 -8.3548 1.5448
15.2780 -6.2205 1.2213
15.4385 -5.8549 1.2256
28.0294 -9.8618 2.2113
28.1887 -9.1584 2.2113
27.5652 -8.2247 2.1514
28.4593 -7.7474 2.2113
28.5707 -7.0405 2.2113
28.6661 -6.3331 2.2113
28.7456 -5.6255 2.2113
28.8094 -4.9182 2.2113
28.8576 -4.2112 2.2113
28.9599 -3.5134 2.2166
29.2583 -2.8338 2.2381
29.5614 -2.1432 2.2612
29.8699 -1.4407 2.2859
30.1840 -0.7251 2.3123
30.1987 0.0048 2.3169
30.1367 0.7337 2.3169
30.0591 1.4596 2.3169
29.9658 2.1823 2.3169
29.8570 2.9015 2.3169
29.7331 3.6171 2.3169
29.5939 4.3286 2.3169
29.4396 5.0359 2.3169
29.2704 5.7386 2.3169
29.0863 6.4365 2.3169
28.8875 7.1293 2.3169
28.6742 7.8168 2.3169
28.4464 8.4988 2.3169
28.2043 9.1749 2.3169
27.9482 9.8450 2.3169
27.6779 10.5087 2.3169
27.3937 11.1659 2.3169
27.0958 11.8163 2.3169
26.7843 12.4597 2.3169
26.4594 13.0959 2.3169
26.1212 13.7246 2.3169
25.7698 14.3456 2.3169
26.9884 15.8907 2.4613
26.5876 16.5333 2.4613
26.1734 17.1669 2.4613
25.7458 17.7915 2.4613
25.3051 18.4067 2.4613
24.8514 19.0122 2.4613
24.3849 19.6080 2.4613
23.9058 20.1937 2.4613
23.4143 20.7692 2.4613
22.9104 21.3341 2.4613
22.3945 21.8884 2.4613
21.8667 22.4317 2.4613
21.3271 22.9638 2.4613
20.7761 23.4846 2.4613
20.2137 23.9937 2.4613
19.7300 24.6031 2.4725
19.1429 25.0907 2.4725
18.5449 25.5660 2.4725
14.7678 21.4306 2.0358
16.0672 24.5672 2.2940
16.6885 26.9161 2.4725
16.0495 27.3402 2.4725
15.4008 27.7509 2.4725
13.4653 25.7094 2.2583
10.6671 21.6233 1.8739
13.3985 28.9012 2.4725
12.7132 29.2566 2.4725
12.0193 29.5977 2.4725
11.3171 29.9243 2.4725
9.6122 27.4010 2.2407
7.4591 23.0317 1.8651
9.1628 30.8147 2.4725
8.4298 31.0811 2.4725
7.6897 31.3320 2.4725
6.9428 31.5673 2.4725
5.6723 29.1307 2.2660
4.4258 26.0742 2.0153
3.5852 24.7323 1.9005
3.7023 30.7613 2.3513
2.9639 30.9077 2.3513
2.2207 31.0382 2.3513
1.4731 31.1525 2.3513
0.7212 31.2506 2.3513
-0.0345 31.3324 2.3513
-0.7938 31.3974 2.3513
-1.5563 31.4458 2.3513
-2.3217 31.4773 2.3513
-3.0898 31.4918 2.3513
-3.8600 31.4892 2.3513
-4.6321 31.4692 2.3513
-5.4058 31.4318 2.3513
-6.1543 31.2429 2.3413
-6.8713 30.9215 2.3225
-7.6380 30.8324 2.3225
-8.4046 30.7255 2.3225
-9.1710 30.6010 2.3225
-9.9367 30.4586 2.3225
-10.6955 30.2820 2.3213
-11.4581 30.1038 2.3213
-12.2189 29.9075 2.3213
-12.9772 29.6932 2.3213
-13.7329 29.4607 2.3213
-14.4853 29.2100 2.3213
-15.2342 28.9411 2.3213
-15.9790 28.6540 2.3213
-16.7192 28.3485 2.3213
-10.9798 17.6289 1.4602
-11.4105 17.3705 1.4566
-18.9085 27.3227 2.3213
-19.6262 26.9442 2.3213
-20.1728 26.3333 2.3025
-20.8706 25.9219 2.3025
-21.5608 25.4927 2.3025
-17.2904 19.4693 1.7899
-22.8835 24.5462 2.2993
-23.5465 24.0645 2.2993
-24.1999 23.5653 2.2993
-24.8431 23.0488 2.2993
-25.4756 22.5152 2.2993
-26.8783 22.6221 2.3681
-27.9059 22.3579 2.4025
-28.5302 21.7475 2.4025
-29.1412 21.1200 2.4025
-29.7384 20.4756 2.4025
-30.3214 19.8146 2.4025
-30.8894 19.1372 2.4025
-31.4422 18.4437 2.4025
-31.9790 17.7345 2.4025
-19.3059 10.1045 1.4272
-31.5868 15.5720 2.2995
-32.0520 14.8500 2.2995
-32.5002 14.1143 2.2995
-32.9306 13.3653 2.2995
-33.3430 12.6034 2.2995
-26.5156 9.2971 1.8073
-5.8776 1.9027 0.3962
-29.7281 8.8364 1.9833
-26.8800 7.2880 1.7760
-30.3474 7.4462 1.9871
-30.6590 6.7419 1.9908
-30.9736 6.0307 1.9958
-31.2945 5.3120 2.0023
-31.6180 4.5842 2.0101
-31.9459 3.8465 2.0194
-32.2766 3.0975 2.0299
-32.6154 2.3367 2.0421
-32.9601 1.5624 2.0559
-33.3041 0.7732 2.0708
-33.6602 -0.0317 2.0877
-34.0268 -0.8541 2.1065
-34.4005 -1.6955 2.1271
-34.7834 -2.5578 2.1495
-35.1737 -3.4424 2.1739
-35.3703 -4.3264 2.1877
-28.4518 -4.1798 1.7623
-35.0497 -6.0172 2.1755
-34.7589 -6.8353 2.1634
-34.4098 -7.6342 2.1491
-27.4357 -6.7860 1.7206
-30.5062 -8.3322 1.9225
-34.1879 -10.2312 2.1665
-34.1354 -11.1205 2.1767
-33.9605 -11.9782 2.1808
-21.5028 -8.1733 1.3916
-33.4306 -13.6399 2.1818
-33.0823 -14.4393 2.1792
-32.7675 -15.2543 2.1802
-32.3523 -16.0227 2.1760
-31.9818 -16.8129 2.1763
-31.3789 -17.4759 2.1620
-30.3977 -17.9046 2.1225
-22.6656 -14.0984 1.6053
-22.1174 -14.5098 1.5903
-27.6503 -19.1103 2.0202
-26.7902 -19.4884 1.9909
-25.9530 -19.8552 1.9636
-25.1384 -20.2128 1.9384
-24.1429 -20.3915 2.2510
-23.5687 -20.9022 2.2443
-22.8101 -21.2352 2.2208
-22.0671 -21.5614 2.1992
-21.3385 -21.8812 2.1795
-18.4618 -19.8694 1.9351
-10.0768 -11.3845 1.0853
-18.8747 -22.3909 2.0918
-20.3361 -25.3420 2.3225
-19.5071 -25.5492 2.2995
-18.8686 -25.9908 2.2995
-18.2187 -26.4146 2.2995
-17.5582 -26.8203 2.2995
-16.8876 -27.2077 2.2995
-16.9339 -28.8127 2.4025
-15.9283 -28.6645 2.3602
-15.4849 -29.5240 2.4025
-14.4681 -29.2834 2.3570
-14.0031 -30.1548 2.4025
-13.2514 -30.4397 2.4025
-12.4934 -30.7039 2.4025
-11.7297 -30.9476 2.4025
-10.9608 -31.1703 2.4025
-10.1875 -31.3724 2.4025
-9.0058 -30.1974 2.2993
-8.2589 -30.3507 2.2993
-7.5094 -30.4840 2.2993
-6.7579 -30.5972 2.2993
-6.0051 -30.6904 2.2993
-5.2514 -30.7638 2.2993
-4.5320 -31.0534 2.3169
-3.7727 -31.0873 2.3169
-3.0142 -31.1014 2.3169
-2.2571 -31.0958 2.3169
-1.5020 -31.0706 2.3169
-0.7494 -31.0259 2.3169
0.0001 -30.9619 2.3169
0.7462 -30.8789 2.3169
1.4881 -30.7770 2.3169
2.2256 -30.6563 2.3169
2.9580 -30.5173 2.3169
3.6849 -30.3599 2.3169
4.4059 -30.1846 2.3169
5.1204 -29.9916 2.3169
5.8281 -29.7812 2.3169
6.5285 -29.5535 2.3169
7.2212 -29.3089 2.3169
7.9058 -29.0479 2.3169
7.9662 -26.7063 2.1507
9.2492 -28.4770 2.3169
9.5688 -27.2060 2.2378
10.5556 -27.8436 2.3169
11.1942 -27.5042 2.3169
11.8225 -27.1502 2.3169
12.4402 -26.7819 2.3169
13.0470 -26.3996 2.3169
13.6428 -26.0038 2.3169
14.2270 -25.5946 2.3169
14.7997 -25.1726 2.3169
15.3603 -24.7381 2.3169
15.9088 -24.2914 2.3169
16.4448 -23.8330 2.3169
16.9682 -23.3631 2.3169
17.4789 -22.8822 2.3169
17.9765 -22.3907 2.3169
18.4609 -21.8888 2.3169
18.9319 -21.3771 2.3169
19.3894 -20.8558 2.3169
12.4207 -12.7289 1.4510
12.6053 -12.3084 1.4413
12.8462 -11.9511 1.4393
13.0252 -11.5432 1.4315
13.1402 -11.0899 1.4181
13.3132 -10.6959 1.4122
20.6793 -15.8069 2.1580
20.9381 -15.2173 2.1516
21.1942 -14.6340 2.1465
21.4480 -14.0560 2.1426
21.7202 -13.4955 2.1420
18.1373 -10.6705 1.7671
18.3490 -10.2063 1.7676
14.6356 -7.6836 1.3950
18.7593 -9.2772 1.7704
15.0266 -6.9844 1.4051
19.1534 -8.3457 1.7757
15.2774 -6.2218 1.4053
15.4379 -5.8563 1.4098
25.5402 -8.9885 2.3169
25.6938 -8.3502 2.3169
25.8327 -7.7100 2.3169
25.9568 -7.0684 2.3169
26.0662 -6.4256 2.3169
26.1611 -5.7819 2.3169
26.2413 -5.1376 2.3169
26.3070 -4.4930 2.3169
26.3583 -3.8484 2.3169
26.3950 -3.2041 2.3169
26.4175 -2.5605 2.3169
26.4256 -1.9177 2.3169
26.4195 -1.2761 2.3169
26.3992 -0.6359 2.3169
26.3649 0.0026 2.3169
26.3166 0.6391 2.3169
26.2544 1.2733 2.3169
26.1783 1.9050 2.3169
26.0886 2.5339 2.3169
25.9851 3.1598 2.3169
25.8682 3.7823 2.3169
25.7378 4.4014 2.3169
25.5941 5.0166 2.3169
25.4371 5.6278 2.3169
25.2670 6.2346 2.3169
25.0840 6.8370 2.3169
24.8880 7.4346 2.3169
24.6793 8.0272 2.3169
24.4579 8.6146 2.3169
24.2240 9.1965 2.3169
23.9776 9.7727 2.3169
23.7191 10.3430 2.3169
23.4483 10.9072 2.3169
23.1655 11.4650 2.3169
22.8708 12.0163 2.3169
22.5644 12.5608 2.3169
22.2464 13.0982 2.3169
21.9169 13.6285 2.3169
21.5761 14.1513 2.3169
21.2241 14.6666 2.3169
20.8610 15.1740 2.3169
20.4871 15.6733 2.3169
20.1024 16.1645 2.3169
19.7072 16.6472 2.3169
19.3016 17.1213 2.3169
18.8857 17.5866 2.3169
19.6098 19.1671 2.4613
19.1467 19.6420 2.4613
18.6732 20.1069 2.4613
18.1896 20.5617 2.4613
17.7769 21.1021 2.4725
17.2710 21.5378 2.4725
16.7555 21.9628 2.4725
16.2306 22.3767 2.4725
14.7671 21.4310 2.3262
15.1529 23.1708 2.4725
14.6006 23.5506 2.4725
14.0397 23.9186 2.4725
13.4703 24.2746 2.4725
12.8926 24.6185 2.4725
10.6661 21.6238 2.1429
11.7133 25.2692 2.4725
11.1121 25.5755 2.4725
10.5036 25.8691 2.4725
9.8879 26.1497 2.4725
9.2653 26.4170 2.4725
7.4578 23.0322 2.1352
8.0004 26.9114 2.4725
7.3586 27.1382 2.4725
6.7108 27.3511 2.4725
6.0573 27.5500 2.4725
5.3985 27.7347 2.4725
4.4227 26.0673 2.3097
3.5835 24.7331 2.1793
3.3922 28.2024 2.4725
2.5813 26.9397 2.3513
1.9330 27.0459 2.3513
1.2811 27.1378 2.3513
0.6259 27.2152 2.3513
-0.0322 27.2781 2.3513
-0.6931 27.3264 2.3513
-1.3564 27.3599 2.3513
-2.0218 27.3785 2.3513
-2.6890 27.3820 2.3513
-3.3147 27.0213 2.3213
-3.9760 26.9950 2.3213
-4.6381 26.9535 2.3213
-5.3008 26.8969 2.3213
-5.9636 26.8250 2.3213
-6.6263 26.7378 2.3213
-7.2885 26.6352 2.3213
-7.9499 26.5172 2.3213
-8.6101 26.3837 2.3213
-9.2688 26.2346 2.3213
-9.9257 26.0699 2.3213
-10.5803 25.8896 2.3213
-11.2323 25.6936 2.3213
-11.8814 25.4820 2.3213
-12.5270 25.2547 2.3213
-13.1691 25.0117 2.3213
-13.8069 24.7530 2.3213
-14.4403 24.4787 2.3213
-11.0670 17.7649 1.7048
-11.5021 17.5061 1.7015
-16.1779 23.3718 2.3025
-16.7845 23.0379 2.3025
-17.3600 22.6567 2.2993
-17.9525 22.2928 2.2993
-15.9169 18.8156 1.9742
-19.1154 21.5198 2.2993
-19.6849 21.1108 2.2993
-20.2460 20.6871 2.2993
-20.7982 20.2488 2.2993
-22.1506 20.5466 2.3865
-22.8567 20.1966 2.4025
-23.4035 19.6935 2.4025
-23.9391 19.1758 2.4025
-24.4634 18.6437 2.4025
-24.9758 18.0974 2.4025
-25.4759 17.5371 2.4025
-25.9634 16.9631 2.4025
-26.4377 16.3756 2.4025
-26.8984 15.7749 2.4025
-27.3452 15.1614 2.4025
-19.2508 10.0734 1.6650
-26.9855 13.3005 2.2995
-27.3707 12.6781 2.2995
-27.7411 12.0445 2.2995
-28.0961 11.4002 2.2995
-28.4355 10.7456 2.2995
-26.5038 9.2904 2.1191
-5.8773 1.9021 0.4650
-16.9528 5.0374 1.3279
-28.4908 7.7222 2.2111
-22.2700 5.4623 1.7135
-29.0624 6.3883 2.2184
-29.3712 5.7162 2.2257
-29.5696 5.0169 2.2259
-29.7039 4.3044 2.2226
-29.8769 3.5951 2.2236
-30.0333 2.8800 2.2247
-30.1732 2.1595 2.2260
-30.2179 1.4303 2.2216
-30.2810 0.7010 2.2200
-30.3190 -0.0305 2.2180
-30.2551 -0.7613 2.2099
-30.2121 -1.4910 2.2048
-30.1059 -2.2156 2.1965
-29.9362 -2.9315 2.1850
-29.8625 -3.6543 2.1819
-29.8208 -4.3825 2.1826
-29.8226 -5.1213 2.1879
-29.7299 -5.8478 2.1877
-29.5748 -6.5629 2.1843
-29.4133 -7.2765 2.1819
-29.2648 -7.9944 2.1819
-29.0968 -8.7088 2.1819
-28.9094 -9.4192 2.1819
-28.7028 -10.1248 2.1819
-28.4768 -10.8251 2.1819
