ply
format ascii 1.0
element vertex 2141
property float32 x
property float32 y
property float32 z
end_header
-13.9092 2.3502 2.3225
-13.9655 2.0143 2.3206
-14.0187 1.6776 2.3196
-9.9362 0.9464 1.6381
-9.7752 0.6935 1.6067
-9.6199 0.4494 1.5774
-9.4697 0.2136 1.5500
-14.2063 -0.0226 2.3225
-14.2146 -0.3658 2.3225
-14.2143 -0.7094 2.3225
-14.2053 -1.0532 2.3225
-14.1877 -1.3969 2.3225
-14.1613 -1.7403 2.3225
-14.1262 -2.0831 2.3225
-11.7048 -2.0158 1.9304
-11.7613 -2.3191 1.9469
-10.0287 -2.2301 1.6674
-9.7728 -2.4221 1.6330
-9.8240 -2.6880 1.6509
-10.6226 -3.1839 1.7964
-13.5029 -4.4050 2.2994
-13.4000 -4.7321 2.2994
-13.2888 -5.0567 2.2994
-13.1692 -5.3785 2.2994
-13.0415 -5.6972 2.2994
-12.9057 -6.0128 2.2994
-12.7618 -6.3248 2.2994
-12.6099 -6.6332 2.2994
-12.4502 -6.9378 2.2994
-12.2827 -7.2382 2.2994
-12.1075 -7.5344 2.2994
-12.4595 -8.1769 2.4025
-12.2608 -8.4767 2.4025
-12.0546 -8.7714 2.4025
-11.8408 -9.0607 2.4025
-11.6197 -9.3445 2.4025
-10.6393 -8.9873 2.4025
-10.4195 -9.2415 2.4025
-10.1934 -9.4900 2.4025
-9.9609 -9.7326 2.4025
-9.7224 -9.9693 2.4025
-9.4780 -10.1997 2.4025
-9.2278 -10.4239 2.4025
-8.9721 -10.6416 2.4025
-8.7109 -10.8526 2.4025
-8.4445 -11.0569 2.4025
-8.1731 -11.2543 2.4025
-7.8968 -11.4447 2.4025
-7.6158 -11.6280 2.4025
-7.3304 -11.8040 2.4025
-7.0406 -11.9727 2.4025
-6.7468 -12.1338 2.4025
-6.4492 -12.2875 2.4025
-6.1478 -12.4334 2.4025
-5.8430 -12.5716 2.4025
-5.5350 -12.7020 2.4025
-5.2239 -12.8244 2.4025
-4.8323 -12.7342 2.3645
-4.3995 -12.4947 2.3011
-4.1030 -12.6164 2.3061
-3.7838 -12.6661 2.2994
-3.4746 -12.7446 2.2994
-3.1637 -12.8153 2.2994
-2.8513 -12.8780 2.2994
-2.5377 -12.9329 2.2994
-2.2231 -12.9798 2.2994
-1.8933 -12.9213 2.2822
-1.3756 -11.2794 1.9875
-1.0597 -10.8655 1.9112
-0.7770 -10.6128 1.8646
-0.5096 -10.4045 1.8270
-0.2535 -10.2182 1.7944
-0.0067 -10.0213 1.7610
0.2301 -9.8000 1.7243
0.4552 -9.5543 1.6842
0.6700 -9.3222 1.6474
0.8758 -9.1051 1.6139
1.5589 -12.9245 2.2994
1.8684 -12.8691 2.2994
2.1886 -12.8791 2.3125
2.5008 -12.8324 2.3169
2.8067 -12.7539 2.3169
3.1103 -12.6679 2.3169
3.4113 -12.5746 2.3169
3.7095 -12.4740 2.3169
4.0049 -12.3661 2.3169
4.2972 -12.2512 2.3169
4.5863 -12.1293 2.3169
4.8720 -12.0004 2.3169
5.1541 -11.8648 2.3169
5.4324 -11.7224 2.3169
5.7069 -11.5735 2.3169
5.9773 -11.4180 2.3169
6.2435 -11.2563 2.3169
6.5055 -11.0882 2.3169
6.7629 -10.9141 2.3169
7.0157 -10.7340 2.3169
7.2637 -10.5480 2.3169
7.5069 -10.3563 2.3169
7.7451 -10.1590 2.3169
7.9781 -9.9563 2.3169
8.2059 -9.7482 2.3169
8.4283 -9.5350 2.3169
8.6453 -9.3167 2.3169
8.8567 -9.0936 2.3169
9.0624 -8.8657 2.3169
9.2624 -8.6332 2.3169
9.4564 -8.3963 2.3169
9.6263 -8.1398 2.3125
9.8080 -7.8949 2.3125
9.9836 -7.6461 2.3125
10.1530 -7.3934 2.3125
10.3162 -7.1371 2.3125
10.4729 -6.8773 2.3125
10.6233 -6.6142 2.3125
10.7673 -6.3478 2.3125
10.9047 -6.0785 2.3125
11.0355 -5.8062 2.3125
11.1597 -5.5313 2.3125
11.2772 -5.2538 2.3125
11.3881 -4.9740 2.3125
11.4921 -4.6919 2.3125
11.5894 -4.4077 2.3125
11.6798 -4.1217 2.3125
11.1678 -3.6397 2.1954
11.8402 -3.5445 2.3125
11.9100 -3.2537 2.3125
11.9730 -2.9617 2.3125
12.0290 -2.6686 2.3125
12.0781 -2.3745 2.3125
12.1726 -2.0886 2.3225
12.2080 -1.7918 2.3225
12.2364 -1.4946 2.3225
12.2578 -1.1970 2.3225
12.2723 -0.8993 2.3225
12.2798 -0.6017 2.3225
12.2804 -0.3041 2.3225
12.2741 -0.0070 2.3225
12.2608 0.2898 2.3225
12.2342 0.5856 2.3212
12.2072 0.8808 2.3212
12.1735 1.1750 2.3212
12.1329 1.4682 2.3212
12.0856 1.7602 2.3212
12.0316 2.0508 2.3212
11.9710 2.3399 2.3212
11.9036 2.6273 2.3212
11.8297 2.9129 2.3212
11.7493 3.1966 2.3212
11.6624 3.4782 2.3212
11.5690 3.7575 2.3212
11.4693 4.0346 2.3212
11.3633 4.3090 2.3212
11.2510 4.5809 2.3212
11.1325 4.8500 2.3212
11.0079 5.1162 2.3212
10.8773 5.3793 2.3212
10.7406 5.6393 2.3212
10.5981 5.8960 2.3212
10.4497 6.1493 2.3212
10.2956 6.3991 2.3212
10.1358 6.6451 2.3212
9.9704 6.8874 2.3212
9.7995 7.1259 2.3212
9.6232 7.3602 2.3212
9.4415 7.5905 2.3212
9.2546 7.8165 2.3212
9.0626 8.0381 2.3212
8.8655 8.2552 2.3212
8.6635 8.4678 2.3212
8.4567 8.6757 2.3212
8.2450 8.8788 2.3212
8.0288 9.0770 2.3212
7.8080 9.2702 2.3212
7.5828 9.4583 2.3212
7.3532 9.6411 2.3212
7.1195 9.8187 2.3212
6.8817 9.9910 2.3212
6.6399 10.1577 2.3212
6.3942 10.3189 2.3212
6.1449 10.4745 2.3212
5.8919 10.6243 2.3212
5.5898 10.6813 2.3025
5.3320 10.8183 2.3025
5.0711 10.9494 2.3025
4.8070 11.0745 2.3025
4.5400 11.1935 2.3025
4.2701 11.3064 2.3025
3.9976 11.4130 2.3025
3.7225 11.5133 2.3025
3.4450 11.6074 2.3025
3.1651 11.6951 2.3025
2.8832 11.7763 2.3025
2.5993 11.8510 2.3025
2.3134 11.9191 2.3025
2.0232 11.9646 2.2994
1.7344 12.0195 2.2994
1.4443 12.0676 2.2994
1.1528 12.1090 2.2994
0.5932 8.3730 1.5854
0.5667 12.1715 2.2994
0.1901 8.5098 1.6049
-0.0163 8.7996 1.6576
-0.3182 12.2139 2.2994
-0.6142 12.2143 2.2994
-0.9103 12.2077 2.2994
-1.2066 12.1942 2.2994
-1.5026 12.1737 2.2994
-1.7985 12.1463 2.2994
-2.0939 12.1119 2.2994
-2.4105 12.1804 2.3203
-2.7164 12.1727 2.3282
-3.1095 12.5034 2.4025
-3.4147 12.4383 2.4025
-3.7186 12.3660 2.4025
-4.0211 12.2864 2.4025
-4.3220 12.1996 2.4025
-4.6210 12.1056 2.4025
-4.9181 12.0044 2.4025
-5.2131 11.8961 2.4025
-5.5057 11.7807 2.4025
-5.7959 11.6582 2.4025
-6.0834 11.5287 2.4025
-6.3681 11.3922 2.4025
-6.6497 11.2488 2.4025
-6.9282 11.0985 2.4025
-7.2034 10.9414 2.4025
-7.4751 10.7776 2.4025
-7.7431 10.6071 2.4025
-8.0072 10.4300 2.4025
-8.2674 10.2464 2.4025
-8.5233 10.0564 2.4025
-8.7750 9.8600 2.4025
-9.0221 9.6573 2.4025
-9.2645 9.4485 2.4025
-9.5022 9.2337 2.4025
-9.7349 9.0128 2.4025
-9.9624 8.7861 2.4025
-9.7476 8.1867 2.2994
-9.9550 7.9589 2.2994
-10.1572 7.7258 2.2994
-10.3538 7.4876 2.2994
-10.5448 7.2444 2.2994
-10.7300 6.9963 2.2994
-10.9093 6.7434 2.2994
-11.0826 6.4859 2.2994
-11.2497 6.2240 2.2994
-11.4105 5.9578 2.2994
-11.5650 5.6873 2.2994
-11.7129 5.4128 2.2994
-11.8541 5.1345 2.2994
-11.9886 4.8524 2.2994
-12.1163 4.5668 2.2994
-12.0049 4.1967 2.2558
-12.4747 4.0257 2.3225
-11.5111 3.4102 2.1248
-12.6824 3.4264 2.3225
-11.0534 2.7018 2.0095
-10.8732 2.3811 1.9636
-12.9383 2.5077 2.3225
-13.0085 2.1969 2.3225
-13.0709 1.8842 2.3225
-13.1255 1.5696 2.3225
-9.9357 0.9456 1.7518
-9.7747 0.6927 1.7184
-9.6194 0.4487 1.6871
-9.4706 0.2129 1.6581
-13.2804 -0.0221 2.3225
-13.2874 -0.3429 2.3225
-13.2863 -0.6640 2.3225
-13.2772 -0.9852 2.3225
-13.2600 -1.3064 2.3225
-13.2347 -1.6272 2.3225
-13.2012 -1.9475 2.3225
-11.9606 -2.0605 2.1109
-10.6389 -2.0983 1.8847
-10.9323 -2.4316 1.9453
-9.7788 -2.4241 1.7488
-9.8373 -2.6921 1.7693
-10.6292 -3.1864 1.9239
-12.6150 -4.1159 2.2994
-12.5184 -4.4214 2.2994
-12.4141 -4.7244 2.2994
-12.3021 -5.0248 2.2994
-12.1824 -5.3224 2.2994
-12.0552 -5.6170 2.2994
-11.9205 -5.9083 2.2994
-11.7784 -6.1962 2.2994
-11.6290 -6.4805 2.2994
-11.4723 -6.7610 2.2994
-11.3086 -7.0375 2.2994
-11.6371 -7.6375 2.4025
-11.4515 -7.9174 2.4025
-11.2587 -8.1925 2.4025
-11.0590 -8.4626 2.4025
-10.8525 -8.7276 2.4025
-9.9779 -8.4287 2.4025
-9.7719 -8.6670 2.4025
-9.5598 -8.9001 2.4025
-9.3419 -9.1276 2.4025
-9.1182 -9.3496 2.4025
-8.8891 -9.5658 2.4025
-8.6546 -9.7761 2.4025
-8.4148 -9.9803 2.4025
-8.1700 -10.1783 2.4025
-7.9203 -10.3701 2.4025
-7.6659 -10.5554 2.4025
-7.4069 -10.7342 2.4025
-7.1435 -10.9062 2.4025
-6.8760 -11.0716 2.4025
-6.6044 -11.2300 2.4025
-6.3290 -11.3815 2.4025
-6.0500 -11.5259 2.4025
-5.7675 -11.6631 2.4025
-5.4818 -11.7931 2.4025
-5.1930 -11.9158 2.4025
-4.9014 -12.0311 2.4025
-4.6071 -12.1389 2.4025
-4.3103 -12.2392 2.4025
-3.9634 -12.1849 2.3738
-3.5743 -11.9625 2.3145
-3.2610 -11.9585 2.2994
-2.9694 -12.0253 2.2994
-2.6765 -12.0848 2.2994
-2.3823 -12.1368 2.2994
-2.0872 -12.1814 2.2994
-1.7912 -12.2185 2.2994
-1.3765 -11.2800 2.1176
-1.1976 -12.2705 2.2994
-0.9004 -12.2853 2.2994
-0.6031 -12.2927 2.2994
-0.2547 -10.2342 1.9144
-0.0075 -9.9821 1.8684
0.2286 -9.7704 1.8309
0.4554 -9.5740 1.7974
0.6722 -9.3636 1.7621
0.8764 -9.1192 1.7213
1.0675 -8.8571 1.6779
1.2509 -8.6209 1.6401
1.4288 -8.4129 1.6083
2.3302 -11.9629 2.2994
2.6155 -11.8904 2.2994
2.8987 -11.8111 2.2994
3.1976 -11.7917 2.3125
3.4776 -11.6981 2.3125
3.7548 -11.5978 2.3125
4.0292 -11.4908 2.3125
4.3006 -11.3772 2.3125
4.5689 -11.2572 2.3125
4.8338 -11.1307 2.3125
5.0953 -10.9980 2.3125
5.3532 -10.8590 2.3125
5.6073 -10.7140 2.3125
5.8575 -10.5629 2.3125
6.1037 -10.4061 2.3125
6.3458 -10.2434 2.3125
6.5835 -10.0751 2.3125
6.8168 -9.9013 2.3125
7.0456 -9.7220 2.3125
7.2697 -9.5376 2.3125
7.4890 -9.3479 2.3125
7.7034 -9.1533 2.3125
7.9128 -8.9537 2.3125
8.1171 -8.7494 2.3125
8.3162 -8.5405 2.3125
8.5100 -8.3271 2.3125
8.6984 -8.1093 2.3125
8.8813 -7.8874 2.3125
9.0587 -7.6614 2.3125
9.2303 -7.4315 2.3125
9.3962 -7.1978 2.3125
9.5564 -6.9605 2.3125
9.7106 -6.7197 2.3125
9.8589 -6.4755 2.3125
10.0012 -6.2282 2.3125
10.1374 -5.9779 2.3125
10.2674 -5.7246 2.3125
10.3913 -5.4686 2.3125
10.5090 -5.2100 2.3125
10.6204 -4.9490 2.3125
10.7254 -4.6858 2.3125
10.8241 -4.4203 2.3125
10.9164 -4.1530 2.3125
11.0023 -3.8837 2.3125
11.0817 -3.6128 2.3125
11.1547 -3.3404 2.3125
11.2211 -3.0666 2.3125
11.2811 -2.7916 2.3125
11.3835 -2.5264 2.3225
11.4306 -2.2482 2.3225
11.4711 -1.9692 2.3225
11.5050 -1.6896 2.3225
11.5324 -1.4095 2.3225
11.5532 -1.1291 2.3225
11.5674 -0.8486 2.3225
11.5750 -0.5680 2.3225
11.5761 -0.2875 2.3225
11.5707 -0.0074 2.3225
11.5587 0.2724 2.3225
11.5403 0.5516 2.3225
11.5154 0.8301 2.3225
11.4840 1.1078 2.3225
11.4461 1.3844 2.3225
11.4020 1.6600 2.3225
11.3453 1.9332 2.3212
11.2885 2.2058 2.3212
11.2254 2.4770 2.3212
11.1560 2.7464 2.3212
11.0805 3.0141 2.3212
10.9988 3.2797 2.3212
10.9111 3.5433 2.3212
10.8173 3.8047 2.3212
10.7176 4.0637 2.3212
10.6119 4.3203 2.3212
10.5004 4.5741 2.3212
10.3830 4.8254 2.3212
10.2600 5.0737 2.3212
10.1312 5.3190 2.3212
9.9969 5.5613 2.3212
9.8571 5.8003 2.3212
9.7118 6.0360 2.3212
9.5611 6.2682 2.3212
9.4052 6.4969 2.3212
9.2440 6.7218 2.3212
9.0777 6.9430 2.3212
8.9064 7.1602 2.3212
8.7301 7.3734 2.3212
8.5490 7.5825 2.3212
8.3630 7.7874 2.3212
8.1724 7.9879 2.3212
7.9772 8.1840 2.3212
7.7776 8.3755 2.3212
7.5735 8.5624 2.3212
7.3651 8.7446 2.3212
7.1526 8.9219 2.3212
6.9359 9.0944 2.3212
6.7154 9.2618 2.3212
6.4385 9.3480 2.3025
6.2121 9.5039 2.3025
5.9821 9.6546 2.3025
5.7487 9.7999 2.3025
5.5118 9.9399 2.3025
5.2717 10.0744 2.3025
5.0284 10.2033 2.3025
4.7821 10.3267 2.3025
4.5329 10.4444 2.3025
4.2810 10.5564 2.3025
4.0264 10.6625 2.3025
3.7692 10.7627 2.3025
3.5096 10.8570 2.3025
3.2478 10.9453 2.3025
2.9838 11.0276 2.3025
2.7142 11.0889 2.2994
2.4467 11.1588 2.2994
2.1775 11.2225 2.2994
1.9066 11.2800 2.2994
1.6343 11.3312 2.2994
1.3607 11.3761 2.2994
1.0859 11.4146 2.2994
0.5615 7.9350 1.5940
0.3796 8.1661 1.6367
0.1890 8.4925 1.6993
-0.0172 8.8566 1.7702
-0.3009 11.5107 2.2994
-0.5797 11.5104 2.2994
-0.8588 11.5036 2.2994
-1.1379 11.4902 2.2994
-1.4168 11.4703 2.2994
-1.6955 11.4438 2.2994
-1.9942 11.5291 2.3233
-2.2748 11.4893 2.3233
-2.6417 11.8325 2.4025
-2.9301 11.7773 2.4025
-3.2174 11.7153 2.4025
-3.5035 11.6464 2.4025
-3.7881 11.5707 2.4025
-4.0712 11.4883 2.4025
-4.3526 11.3990 2.4025
-4.6321 11.3030 2.4025
-4.9095 11.2002 2.4025
-5.1847 11.0908 2.4025
-5.4575 10.9747 2.4025
-5.7278 10.8520 2.4025
-5.9953 10.7228 2.4025
-6.2600 10.5870 2.4025
-6.5218 10.4449 2.4025
-6.7803 10.2963 2.4025
-7.0354 10.1414 2.4025
-7.2871 9.9802 2.4025
-7.5351 9.8129 2.4025
-7.7793 9.6394 2.4025
-8.0196 9.4600 2.4025
-8.2557 9.2745 2.4025
-8.4876 9.0832 2.4025
-8.7150 8.8862 2.4025
-8.9379 8.6834 2.4025
-9.1560 8.4751 2.4025
-9.3693 8.2613 2.4025
-9.5775 8.0422 2.4025
-9.3610 7.4824 2.2994
-9.5503 7.2627 2.2994
-9.7345 7.0382 2.2994
-9.9133 6.8091 2.2994
-10.0867 6.5754 2.2994
-10.2545 6.3372 2.2994
-10.4166 6.0948 2.2994
-10.5729 5.8482 2.2994
-10.7233 5.5976 2.2994
-10.8677 5.3431 2.2994
-11.0059 5.0848 2.2994
-11.1378 4.8229 2.2994
-6.8385 2.7671 1.3961
-11.3826 4.2890 2.2994
-11.4952 4.0173 2.2994
-11.6011 3.7426 2.2994
-11.5123 3.4094 2.2624
-11.9113 3.2169 2.3225
-11.0526 2.7005 2.1396
-10.8743 2.3804 2.0912
-12.1493 2.3537 2.3225
-12.2144 2.0618 2.3225
-12.2722 1.7680 2.3225
-12.3228 1.4727 2.3225
-9.9351 0.9447 1.8659
-9.7742 0.6919 1.8304
-9.6190 0.4480 1.7972
-9.4716 0.2122 1.7667
-12.4648 -0.0216 2.3225
-12.4707 -0.3226 2.3225
-12.4691 -0.6240 2.3225
-12.4600 -0.9254 2.3225
-12.4432 -1.2267 2.3225
-12.4189 -1.5276 2.3225
-12.3870 -1.8281 2.3225
-10.2100 -1.7595 1.9205
-10.3080 -2.0336 1.9463
-10.9337 -2.4325 2.0737
-9.7848 -2.4261 1.8652
-9.8673 -2.7008 1.8917
-10.6358 -3.1889 2.0521
-11.8338 -3.8616 2.2994
-11.7428 -4.1480 2.2994
-11.6447 -4.4321 2.2994
-11.5393 -4.7137 2.2994
-11.4268 -4.9927 2.2994
-11.3072 -5.2688 2.2994
-11.1806 -5.5420 2.2994
-11.0471 -5.8119 2.2994
-10.9068 -6.0784 2.2994
-10.7597 -6.3413 2.2994
-10.6060 -6.6005 2.2994
-10.9140 -7.1631 2.4025
-10.7398 -7.4255 2.4025
-10.5590 -7.6835 2.4025
-10.3716 -7.9367 2.4025
-10.1779 -8.1852 2.4025
-9.3918 -7.9335 2.4025
-9.1978 -8.1579 2.4025
-8.9982 -8.3772 2.4025
-8.7931 -8.5914 2.4025
-8.5827 -8.8003 2.4025
-8.3671 -9.0038 2.4025
-8.1464 -9.2018 2.4025
-7.9209 -9.3941 2.4025
-7.6905 -9.5806 2.4025
-7.4556 -9.7612 2.4025
-7.2162 -9.9358 2.4025
-6.9726 -10.1042 2.4025
-6.7248 -10.2664 2.4025
-6.4731 -10.4222 2.4025
-6.2176 -10.5716 2.4025
-5.9586 -10.7144 2.4025
-5.6961 -10.8506 2.4025
-5.4303 -10.9800 2.4025
-5.1615 -11.1027 2.4025
-4.8897 -11.2185 2.4025
-4.6153 -11.3274 2.4025
-4.3384 -11.4293 2.4025
-4.0594 -11.5249 2.4027
-3.7779 -11.6123 2.4026
-3.4943 -11.6925 2.4025
-3.1835 -11.6717 2.3833
-2.8308 -11.4609 2.3271
-2.5213 -11.3808 2.2994
-2.2444 -11.4303 2.2994
-1.9665 -11.4728 2.2994
-1.6879 -11.5083 2.2994
-1.3773 -11.2806 2.2484
-1.1289 -11.5583 2.2994
-0.8490 -11.5728 2.2994
-0.5690 -11.5803 2.2994
-0.2891 -11.5808 2.2994
-0.0096 -11.5744 2.2994
0.2332 -10.0049 1.9899
0.4552 -9.5871 1.9102
0.6686 -9.3239 1.8621
0.8734 -9.0965 1.8221
1.0706 -8.8889 1.7869
1.2562 -8.6631 1.7487
1.4273 -8.4087 1.7055
1.5887 -8.1603 1.6641
1.7445 -7.9345 1.6278
1.8996 -7.7435 1.5992
2.1193 -7.8179 1.6263
3.2589 -10.9664 2.2994
3.5190 -10.8731 2.2994
3.7765 -10.7734 2.2994
4.0312 -10.6676 2.2994
4.3074 -10.6159 2.3125
4.5575 -10.4973 2.3125
4.8044 -10.3728 2.3125
5.0479 -10.2424 2.3125
5.2879 -10.1062 2.3125
5.5243 -9.9644 2.3125
5.7569 -9.8171 2.3125
5.9856 -9.6642 2.3125
6.2103 -9.5061 2.3125
6.4308 -9.3427 2.3125
6.6471 -9.1742 2.3125
6.8590 -9.0007 2.3125
7.0664 -8.8223 2.3125
7.2692 -8.6392 2.3125
7.4673 -8.4514 2.3125
7.6607 -8.2591 2.3125
7.8491 -8.0625 2.3125
8.0325 -7.8615 2.3125
8.2109 -7.6564 2.3125
8.3841 -7.4474 2.3125
8.5521 -7.2345 2.3125
8.7147 -7.0179 2.3125
8.8720 -6.7976 2.3125
9.0237 -6.5739 2.3125
9.1699 -6.3469 2.3125
9.3105 -6.1167 2.3125
9.4455 -5.8835 2.3125
9.5747 -5.6474 2.3125
9.6982 -5.4085 2.3125
9.8158 -5.1670 2.3125
9.9275 -4.9230 2.3125
10.0333 -4.6767 2.3125
10.1331 -4.4282 2.3125
10.2270 -4.1776 2.3125
10.3148 -3.9252 2.3125
10.3965 -3.6710 2.3125
10.4721 -3.4152 2.3125
10.5416 -3.1579 2.3125
10.6508 -2.9117 2.3225
10.7083 -2.6508 2.3225
10.7595 -2.3889 2.3225
10.8046 -2.1260 2.3225
10.8434 -1.8624 2.3225
10.8760 -1.5981 2.3225
10.9024 -1.3334 2.3225
10.9225 -1.0684 2.3225
10.9364 -0.8031 2.3225
10.9441 -0.5379 2.3225
10.9456 -0.2727 2.3225
10.9409 -0.0077 2.3225
10.9301 0.2568 2.3225
10.9130 0.5209 2.3225
10.8898 0.7843 2.3225
10.8605 1.0469 2.3225
10.8252 1.3087 2.3225
10.7837 1.5693 2.3225
10.7362 1.8288 2.3225
10.6828 2.0869 2.3225
10.6234 2.3436 2.3225
10.5581 2.5987 2.3225
10.4869 2.8521 2.3225
10.4098 3.1036 2.3225
10.3271 3.3532 2.3225
10.2330 3.5987 2.3212
10.1389 3.8438 2.3212
10.0391 4.0866 2.3212
9.9338 4.3269 2.3212
9.8229 4.5647 2.3212
9.7066 4.7997 2.3212
9.5850 5.0319 2.3212
9.4580 5.2612 2.3212
9.3258 5.4875 2.3212
9.1885 5.7105 2.3212
9.0460 5.9303 2.3212
8.8985 6.1467 2.3212
8.7460 6.3596 2.3212
8.5888 6.5689 2.3212
8.4267 6.7744 2.3212
8.2599 6.9762 2.3212
8.0884 7.1740 2.3212
7.8486 7.3084 2.3025
7.6697 7.4966 2.3025
7.4864 7.6806 2.3025
7.2990 7.8603 2.3025
7.1074 8.0357 2.3025
6.9118 8.2066 2.3025
6.7122 8.3730 2.3025
6.5089 8.5348 2.3025
6.3017 8.6918 2.3025
6.0910 8.8440 2.3025
5.8767 8.9914 2.3025
5.6591 9.1337 2.3025
5.4381 9.2711 2.3025
5.2139 9.4034 2.3025
4.9866 9.5304 2.3025
4.7563 9.6522 2.3025
4.5232 9.7687 2.3025
4.2874 9.8798 2.3025
4.0489 9.9854 2.3025
3.8079 10.0855 2.3025
3.5645 10.1801 2.3025
3.3189 10.2690 2.3025
3.0670 10.3383 2.2994
2.8176 10.4157 2.2994
2.5663 10.4873 2.2994
2.3132 10.5530 2.2994
2.0585 10.6129 2.2994
1.8023 10.6669 2.2994
1.0647 7.3855 1.5849
1.2859 10.7569 2.2994
0.7245 7.6211 1.6237
0.5572 7.8820 1.6746
0.3814 8.2190 1.7424
0.1886 8.5031 1.7996
-0.0178 8.8018 1.8609
-0.2853 10.8813 2.2994
-0.5489 10.8805 2.2994
-0.8127 10.8736 2.2994
-1.0765 10.8604 2.2994
-1.3401 10.8410 2.2994
-1.6034 10.8154 2.2994
-1.8834 10.8825 2.3205
-2.2240 11.2273 2.4025
-2.4973 11.1810 2.4025
-2.7697 11.1283 2.4025
-3.0410 11.0691 2.4025
-3.3112 11.0034 2.4025
-3.5799 10.9312 2.4025
-3.8472 10.8526 2.4025
-4.1128 10.7677 2.4025
-4.3765 10.6763 2.4025
-4.6383 10.5786 2.4025
-4.8979 10.4746 2.4025
-5.1553 10.3644 2.4025
-5.4102 10.2479 2.4025
-5.6626 10.1252 2.4025
-5.9122 9.9964 2.4025
-6.1589 9.8615 2.4025
-6.4026 9.7206 2.4025
-6.6431 9.5737 2.4025
-6.8803 9.4210 2.4025
-7.1140 9.2624 2.4025
-7.3440 9.0981 2.4025
-7.5703 8.9281 2.4025
-7.7927 8.7525 2.4025
-8.0110 8.5714 2.4025
-8.2251 8.3849 2.4025
-8.4349 8.1930 2.4025
-8.6401 7.9959 2.4025
-8.8408 7.7937 2.4025
-9.0367 7.5864 2.4025
-9.1816 7.3374 2.3905
-9.0098 6.8502 2.2994
-9.1830 6.6380 2.2994
-9.3510 6.4215 2.2994
-9.5140 6.2006 2.2994
-9.6716 5.9757 2.2994
-9.8239 5.7466 2.2994
-9.9706 5.5138 2.2994
-10.1118 5.2771 2.2994
-10.2473 5.0368 2.2994
-10.3769 4.7930 2.2994
-10.5007 4.5458 2.2994
-10.6184 4.2955 2.2994
-10.7301 4.0420 2.2994
-6.5252 2.2797 1.3847
-10.9348 3.5265 2.2994
-11.0277 3.2648 2.2994
-11.1142 3.0006 2.2994
-11.0519 2.6993 2.2702
-11.3808 2.4902 2.3225
-11.4482 2.2169 2.3225
-11.5090 1.9417 2.3225
-11.5629 1.6649 2.3225
-11.6099 1.3865 2.3225
-9.9346 0.9439 1.9805
-9.7737 0.6911 1.9429
-9.6185 0.4472 1.9078
-9.4726 0.2116 1.8758
-11.7408 -0.0212 2.3225
-11.7458 -0.3047 2.3225
-11.7438 -0.5884 2.3225
-11.7346 -0.8723 2.3225
-11.7184 -1.1560 2.3225
-11.6950 -1.4393 2.3225
-11.6645 -1.7222 2.3225
-10.2096 -1.7600 2.0394
-10.3093 -2.0345 2.0673
-10.9352 -2.4334 2.2026
-9.7908 -2.4281 1.9822
-9.8892 -2.7073 2.0137
-10.6424 -3.1914 2.1810
-11.1410 -3.6361 2.2994
-11.0551 -3.9055 2.2994
-10.9624 -4.1729 2.2994
-10.8629 -4.4379 2.2994
-10.7568 -4.7004 2.2994
-6.4803 -3.0199 1.3999
-6.5946 -3.2690 1.4408
-10.3988 -5.4712 2.2994
-10.2666 -5.7219 2.2994
-10.1280 -5.9693 2.2994
-9.9832 -6.2132 2.2994
-10.2730 -6.7427 2.4025
-10.1090 -6.9896 2.4025
-9.9387 -7.2323 2.4025
-9.7623 -7.4706 2.4025
-9.5800 -7.7044 2.4025
-8.8685 -7.4915 2.4025
-8.6853 -7.7033 2.4025
-8.4969 -7.9104 2.4025
-8.3033 -8.1127 2.4025
-8.1046 -8.3100 2.4025
-7.9011 -8.5022 2.4025
-7.6928 -8.6892 2.4025
-7.4799 -8.8709 2.4025
-7.2625 -9.0471 2.4025
-7.0407 -9.2177 2.4025
-6.8148 -9.3826 2.4025
-6.5848 -9.5418 2.4025
-6.3510 -9.6951 2.4025
-6.1134 -9.8424 2.4025
-5.8723 -9.9836 2.4025
-5.6277 -10.1187 2.4025
-5.3800 -10.2475 2.4025
-5.1291 -10.3700 2.4025
-4.8754 -10.4863 2.4025
-4.6193 -10.5967 2.4027
-4.3606 -10.7007 2.4029
-4.0991 -10.7972 2.4029
-3.8353 -10.8868 2.4028
-3.5694 -10.9696 2.4027
-3.3018 -11.0458 2.4027
-3.0324 -11.1152 2.4026
-2.7616 -11.1778 2.4025
-2.4832 -11.2052 2.3964
-2.1597 -10.9952 2.3412
-1.8587 -10.8395 2.2994
-1.6036 -10.9283 2.3110
-1.3318 -10.9008 2.2994
-1.0675 -10.9216 2.2994
-0.8031 -10.9358 2.2994
-0.5386 -10.9433 2.2994
-0.2741 -10.9443 2.2994
-0.0099 -10.9387 2.2994
0.2324 -10.0056 2.1056
0.5170 -10.9079 2.2994
0.7794 -10.8828 2.2994
1.0409 -10.8512 2.2994
1.0664 -8.8608 1.8843
1.2495 -8.6226 1.8412
1.4267 -8.4094 1.8041
1.5959 -8.2013 1.7689
1.7518 -7.9711 1.7296
1.8915 -7.7136 1.6847
2.0288 -7.4871 1.6471
2.1634 -7.2826 1.6147
3.3269 -10.2828 2.2994
2.5086 -7.1586 1.6155
3.8117 -10.0897 2.2994
4.0500 -9.9844 2.2994
4.2855 -9.8735 2.2994
4.5179 -9.7569 2.2994
4.7472 -9.6348 2.2994
5.0016 -9.5615 2.3125
5.2255 -9.4279 2.3125
5.4459 -9.2890 2.3125
5.6626 -9.1449 2.3125
5.8755 -8.9958 2.3125
6.0846 -8.8417 2.3125
6.2896 -8.6828 2.3125
6.4905 -8.5191 2.3125
6.6872 -8.3508 2.3125
6.8796 -8.1779 2.3125
7.0675 -8.0006 2.3125
7.2509 -7.8191 2.3125
7.4297 -7.6333 2.3125
7.6038 -7.4436 2.3125
7.7732 -7.2498 2.3125
7.9376 -7.0523 2.3125
8.0971 -6.8511 2.3125
8.2516 -6.6463 2.3125
8.4009 -6.4382 2.3125
8.5452 -6.2267 2.3125
8.6841 -6.0120 2.3125
8.8178 -5.7943 2.3125
8.9461 -5.5737 2.3125
9.0690 -5.3503 2.3125
9.1864 -5.1243 2.3125
9.2983 -4.8957 2.3125
9.4047 -4.6648 2.3125
9.5054 -4.4317 2.3125
9.6005 -4.1965 2.3125
9.6899 -3.9593 2.3125
9.7735 -3.7203 2.3125
9.8941 -3.4946 2.3225
9.9665 -3.2513 2.3225
10.0332 -3.0065 2.3225
10.0940 -2.7605 2.3225
10.1489 -2.5133 2.3225
10.1979 -2.2651 2.3225
10.2411 -2.0160 2.3225
10.2783 -1.7662 2.3225
10.3097 -1.5158 2.3225
10.3351 -1.2648 2.3225
10.3546 -1.0136 2.3225
10.3682 -0.7622 2.3225
10.3759 -0.5107 2.3225
10.3777 -0.2593 2.3225
10.3736 -0.0081 2.3225
10.3637 0.2428 2.3225
10.3479 0.4932 2.3225
10.3263 0.7431 2.3225
10.2988 0.9921 2.3225
10.2656 1.2404 2.3225
10.2266 1.4876 2.3225
10.1819 1.7337 2.3225
10.1315 1.9786 2.3225
10.0754 2.2221 2.3225
10.0137 2.4642 2.3225
9.9464 2.7046 2.3225
9.8736 2.9432 2.3225
9.7952 3.1800 2.3225
9.7115 3.4149 2.3225
9.6223 3.6476 2.3225
9.5278 3.8781 2.3225
9.4280 4.1063 2.3225
9.3229 4.3320 2.3225
9.2127 4.5552 2.3225
9.0973 4.7756 2.3225
8.9769 4.9933 2.3225
8.8515 5.2081 2.3225
8.7212 5.4199 2.3225
8.5860 5.6286 2.3225
8.4461 5.8340 2.3225
8.3014 6.0361 2.3225
8.0819 6.1811 2.3025
7.9294 6.3746 2.3025
7.7725 6.5645 2.3025
7.6112 6.7507 2.3025
7.4456 6.9331 2.3025
7.2758 7.1117 2.3025
7.1019 7.2863 2.3025
6.9241 7.4567 2.3025
6.7423 7.6231 2.3025
6.5566 7.7852 2.3025
6.3672 7.9430 2.3025
6.1742 8.0963 2.3025
5.9777 8.2452 2.3025
5.7777 8.3895 2.3025
5.5743 8.5292 2.3025
5.3678 8.6642 2.3025
5.1580 8.7944 2.3025
4.9453 8.9196 2.3025
4.7296 9.0400 2.3025
4.5111 9.1554 2.3025
4.2898 9.2657 2.3025
4.0660 9.3709 2.3025
3.8397 9.4708 2.3025
3.6062 9.5527 2.2994
3.3756 9.6420 2.2994
3.1428 9.7260 2.2994
2.9081 9.8045 2.2994
2.6714 9.8776 2.2994
2.4330 9.9452 2.2994
2.1929 10.0073 2.2994
1.9512 10.0637 2.2994
1.7082 10.1145 2.2994
1.0295 7.1451 1.6171
0.8800 7.3658 1.6606
0.7267 7.6511 1.7192
0.5600 7.9302 1.7771
0.3787 8.1726 1.8275
0.1879 8.5016 1.8980
-0.0216 10.3100 2.2994
-0.2713 10.3147 2.2994
-0.5212 10.3136 2.2994
-0.7712 10.3065 2.2994
-1.0212 10.2936 2.2994
-1.2710 10.2747 2.2994
-1.5338 10.3393 2.3195
-1.8489 10.6775 2.4025
-2.1086 10.6393 2.4025
-2.3675 10.5949 2.4025
-2.6255 10.5444 2.4025
-2.8824 10.4878 2.4025
-3.1383 10.4250 2.4025
-3.3927 10.3561 2.4025
-3.6457 10.2811 2.4025
-3.8971 10.2001 2.4025
-4.1468 10.1130 2.4025
-4.3946 10.0199 2.4025
-4.6402 9.9209 2.4025
-4.8838 9.8159 2.4025
-5.1249 9.7050 2.4025
-5.3636 9.5883 2.4025
-5.5997 9.4658 2.4025
-5.8331 9.3375 2.4025
-6.0635 9.2036 2.4025
-6.2908 9.0640 2.4025
-6.5150 8.9188 2.4025
-6.7359 8.7682 2.4025
-6.9533 8.6121 2.4025
-7.1671 8.4507 2.4025
-7.3772 8.2840 2.4025
-7.5834 8.1121 2.4025
-7.7855 7.9351 2.4025
-7.9836 7.7531 2.4025
-8.1774 7.5661 2.4025
-8.3668 7.3743 2.4025
-8.5517 7.1778 2.4025
-8.7320 6.9766 2.4025
-8.7363 6.6407 2.3563
-8.6886 6.2792 2.2994
-8.8471 6.0740 2.2994
-9.0006 5.8648 2.2994
-9.1493 5.6516 2.2994
-9.2928 5.4347 2.2994
-9.4311 5.2141 2.2994
-9.5640 4.9900 2.2994
-9.6916 4.7625 2.2994
-9.8137 4.5317 2.2994
-9.9302 4.2977 2.2994
-10.0410 4.0608 2.2994
-10.1460 3.8209 2.2994
-10.2452 3.5783 2.2994
-6.3825 2.0577 1.4196
-6.2887 1.8612 1.3870
-10.5069 2.8356 2.2994
-10.5820 2.5836 2.2994
-10.6508 2.3295 2.2994
-10.6771 2.0666 2.2916
-10.4873 1.7684 2.2391
-10.9284 1.5726 2.3225
-10.9723 1.3095 2.3225
-9.9352 0.9432 2.0958
-9.7732 0.6904 2.0559
-9.6180 0.4465 2.0188
-9.4737 0.2109 1.9853
-11.0936 -0.0208 2.3225
-11.0979 -0.2887 2.3225
-11.0955 -0.5567 2.3225
-11.0865 -0.8248 2.3225
-11.0707 -1.0928 2.3225
-11.0482 -1.3604 2.3225
-11.0190 -1.6275 2.3225
-10.2093 -1.7605 2.1589
-10.3106 -2.0353 2.1888
-10.7830 -2.4002 2.2994
-9.7969 -2.4301 2.0999
-9.9114 -2.7139 2.1368
-10.5973 -3.1784 2.2994
-10.5223 -3.4346 2.2994
-10.4410 -3.6890 2.2994
-6.2122 -2.3650 1.3797
-10.2590 -4.1916 2.2994
-10.1586 -4.4394 2.2994
-10.0519 -4.6847 2.2994
-6.6282 -3.2859 1.5335
-9.8200 -5.1669 2.2994
-9.6950 -5.4036 2.2994
-9.5640 -5.6372 2.2994
-9.4272 -5.8674 2.2994
-9.7008 -6.3673 2.4025
-9.5458 -6.6004 2.4025
-9.3850 -6.8295 2.4025
-9.2184 -7.0545 2.4025
-9.0462 -7.2752 2.4025
-8.3984 -7.0945 2.4025
-8.2250 -7.2950 2.4025
-8.0465 -7.4911 2.4025
-7.8632 -7.6827 2.4025
-7.6752 -7.8695 2.4025
-7.4825 -8.0516 2.4025
-7.2853 -8.2287 2.4025
-7.0837 -8.4008 2.4025
-6.8779 -8.5677 2.4025
-6.6680 -8.7294 2.4025
-6.4541 -8.8856 2.4025
-6.2365 -9.0365 2.4025
-6.0151 -9.1818 2.4025
-5.7902 -9.3214 2.4025
-5.5620 -9.4553 2.4025
-5.3308 -9.5840 2.4026
-5.0966 -9.7068 2.4028
-4.8594 -9.8237 2.4030
-4.6195 -9.9346 2.4031
-4.3767 -10.0389 2.4032
-4.1312 -10.1365 2.4031
-3.8836 -10.2279 2.4030
-3.6338 -10.3131 2.4029
-3.3821 -10.3919 2.4029
-3.1286 -10.4643 2.4028
-2.8736 -10.5305 2.4028
-2.6172 -10.5908 2.4028
-2.3594 -10.6436 2.4027
-2.1005 -10.6900 2.4025
-1.8408 -10.7303 2.4025
-1.5486 -10.5488 2.3544
-1.2675 -10.3684 2.3082
-1.0123 -10.3488 2.2994
-0.7618 -10.3627 2.2994
-0.5112 -10.3703 2.2994
-0.2606 -10.3716 2.2994
-0.0102 -10.3667 2.2994
0.2316 -10.0063 2.2218
0.4891 -10.3384 2.2994
0.7379 -10.3150 2.2994
0.9858 -10.2855 2.2994
1.2326 -10.2499 2.2994
1.4784 -10.2083 2.2994
1.4280 -8.4216 1.9059
1.5875 -8.1620 1.8569
1.7455 -7.9459 1.8185
1.8978 -7.7424 1.7835
2.0390 -7.5277 1.7465
2.1635 -7.2855 1.7036
2.2802 -7.0501 1.6625
2.3959 -6.8393 1.6275
2.5166 -6.6636 1.6013
3.8400 -9.4695 2.2994
4.0635 -9.3648 2.2994
4.2842 -9.2547 2.2994
4.5020 -9.1394 2.2994
4.7166 -9.0189 2.2994
4.9281 -8.8934 2.2994
5.1362 -8.7628 2.2994
5.3409 -8.6274 2.2994
5.5736 -8.5355 2.3125
5.7722 -8.3898 2.3125
5.9671 -8.2394 2.3125
6.1580 -8.0845 2.3125
6.3450 -7.9252 2.3125
6.5279 -7.7616 2.3125
6.7066 -7.5937 2.3125
6.8810 -7.4218 2.3125
7.0511 -7.2459 2.3125
7.2168 -7.0661 2.3125
7.3779 -6.8826 2.3125
7.5344 -6.6955 2.3125
7.6862 -6.5048 2.3125
7.8332 -6.3107 2.3125
7.9754 -6.1134 2.3125
8.1127 -5.9129 2.3125
8.2451 -5.7093 2.3125
8.3725 -5.5029 2.3125
8.4947 -5.2937 2.3125
8.6118 -5.0818 2.3125
8.7238 -4.8674 2.3125
8.8305 -4.6506 2.3125
8.9319 -4.4315 2.3125
9.0280 -4.2103 2.3125
9.1188 -3.9870 2.3125
9.2041 -3.7618 2.3125
9.3241 -3.5502 2.3225
9.3989 -3.3207 2.3225
9.4682 -3.0897 2.3225
9.5319 -2.8573 2.3225
9.5901 -2.6236 2.3225
9.6426 -2.3888 2.3225
9.6896 -2.1531 2.3225
9.7310 -1.9165 2.3225
9.7668 -1.6791 2.3225
9.7970 -1.4412 2.3225
9.8215 -1.2028 2.3225
9.8404 -0.9641 2.3225
9.8537 -0.7251 2.3225
9.8613 -0.4861 2.3225
9.8634 -0.2472 2.3225
9.8599 -0.0084 2.3225
9.8507 0.2301 2.3225
9.8360 0.4682 2.3225
9.8158 0.7057 2.3225
9.7899 0.9425 2.3225
9.7586 1.1785 2.3225
9.7218 1.4136 2.3225
9.6796 1.6476 2.3225
9.6319 1.8805 2.3225
9.5788 2.1121 2.3225
9.5203 2.3423 2.3225
9.4566 2.5709 2.3225
9.3875 2.7979 2.3225
9.3132 3.0231 2.3225
9.2338 3.2465 2.3225
9.1491 3.4678 2.3225
9.0594 3.6871 2.3225
8.9646 3.9041 2.3225
8.8648 4.1188 2.3225
8.7601 4.3311 2.3225
8.6505 4.5408 2.3225
8.5361 4.7479 2.3225
8.4170 4.9522 2.3225
8.2931 5.1536 2.3225
8.1646 5.3521 2.3225
8.0316 5.5476 2.3225
7.8941 5.7398 2.3225
7.6854 5.8777 2.3025
7.5403 6.0618 2.3025
7.3911 6.2424 2.3025
7.2377 6.4195 2.3025
7.0802 6.5930 2.3025
6.9187 6.7627 2.3025
6.7534 6.9287 2.3025
6.5842 7.0908 2.3025
6.4112 7.2490 2.3025
6.2346 7.4031 2.3025
6.0545 7.5531 2.3025
5.8709 7.6989 2.3025
5.6839 7.8404 2.3025
5.4937 7.9776 2.3025
5.3002 8.1103 2.3025
5.1037 8.2385 2.3025
4.9042 8.3622 2.3025
4.7018 8.4812 2.3025
4.4966 8.5955 2.3025
4.2887 8.7051 2.3025
4.0728 8.7979 2.2994
3.8602 8.8976 2.2994
3.6452 8.9924 2.2994
3.4280 9.0821 2.2994
3.2087 9.1668 2.2994
2.9873 9.2464 2.2994
2.7640 9.3209 2.2994
2.5390 9.3901 2.2994
2.3122 9.4541 2.2994
2.0839 9.5128 2.2994
1.3018 6.7162 1.6144
1.1663 6.9085 1.6523
1.0299 7.1509 1.7027
0.8851 7.4134 1.7584
0.7250 7.6388 1.8060
0.5561 7.8837 1.8589
0.4520 9.7728 2.2994
0.2156 9.7881 2.2994
-0.0213 9.7977 2.2994
-0.2586 9.8018 2.2994
-0.4961 9.8003 2.2994
-0.7336 9.7932 2.2994
-0.9712 9.7805 2.2994
-1.2193 9.8498 2.3200
-1.5103 10.1749 2.4025
-1.7575 10.1441 2.4025
-2.0041 10.1073 2.4025
-2.2500 10.0647 2.4025
-2.4950 10.0163 2.4025
-2.7390 9.9621 2.4025
-2.9819 9.9020 2.4025
-3.2234 9.8361 2.4025
-3.4636 9.7644 2.4025
-3.7022 9.6870 2.4025
-3.9391 9.6038 2.4025
-4.1742 9.5149 2.4025
-4.4073 9.4204 2.4025
-4.6384 9.3202 2.4025
-4.8671 9.2145 2.4025
-5.0935 9.1032 2.4025
-5.3174 8.9864 2.4025
-5.5387 8.8642 2.4025
-5.7571 8.7366 2.4025
-5.9727 8.6036 2.4025
-6.1852 8.4654 2.4025
-6.3945 8.3220 2.4025
-6.6005 8.1734 2.4025
-6.8031 8.0197 2.4025
-7.0021 7.8611 2.4025
-7.1974 7.6976 2.4025
-7.3889 7.5292 2.4025
-7.5764 7.3561 2.4025
-7.7600 7.1783 2.4025
-7.9393 6.9959 2.4025
-8.1142 6.8091 2.4025
-8.2848 6.6179 2.4025
-8.4509 6.4224 2.4025
-8.3537 6.0359 2.3304
-8.4056 5.7696 2.3030
-8.5379 5.5620 2.2994
-8.6784 5.3595 2.2994
-8.8140 5.1535 2.2994
-8.9447 4.9441 2.2994
-9.0704 4.7313 2.2994
-9.1909 4.5153 2.2994
-9.3062 4.2962 2.2994
-9.4162 4.0742 2.2994
-9.5208 3.8493 2.2994
-9.6199 3.6217 2.2994
-9.7134 3.3916 2.2994
-9.8014 3.1590 2.2994
-9.8837 2.9241 2.2994
-9.9602 2.6871 2.2994
-10.0309 2.4481 2.2994
-6.1216 1.3383 1.3943
-6.0814 1.1765 1.3771
-10.2075 1.7204 2.2994
-10.3574 1.4896 2.3225
-10.1308 1.2083 2.2627
-9.9363 0.9425 2.2118
-9.7727 0.6896 2.1694
-9.6175 0.4458 2.1303
-9.4747 0.2102 2.0954
-10.5114 -0.0205 2.3225
-10.5152 -0.2742 2.3225
-10.5125 -0.5282 2.3225
-10.5036 -0.7821 2.3225
-10.4883 -1.0359 2.3225
-10.4667 -1.2894 2.3225
-10.4387 -1.5424 2.3225
-10.2090 -1.7611 2.2789
-10.2606 -2.0260 2.2994
-10.2142 -2.2741 2.2994
-9.8030 -2.4321 2.2183
-9.9337 -2.7205 2.2610
-6.0180 -1.8053 1.3786
-6.0353 -1.9703 1.3925
-9.8890 -3.4945 2.2994
-9.8057 -3.7334 2.2994
-9.7163 -3.9702 2.2994
-9.6210 -4.2048 2.2994
-9.5198 -4.4370 2.2994
-6.6285 -3.2863 1.6192
-9.3000 -4.8936 2.2994
-9.1815 -5.1177 2.2994
-9.0574 -5.3388 2.2994
-9.0969 -5.6620 2.3430
-9.1867 -6.0301 2.4025
-9.0399 -6.2507 2.4025
-8.8876 -6.4676 2.4025
-8.7298 -6.6807 2.4025
-8.5667 -6.8897 2.4025
-7.9737 -6.7357 2.4025
-7.8090 -6.9261 2.4025
-7.6397 -7.1123 2.4025
-7.4657 -7.2941 2.4025
-7.2872 -7.4716 2.4025
-7.1043 -7.6444 2.4025
-6.9171 -7.8126 2.4025
-6.7258 -7.9760 2.4025
-6.5305 -8.1346 2.4025
-6.3312 -8.2881 2.4025
-6.1285 -8.4369 2.4026
-5.9222 -8.5806 2.4027
-5.7124 -8.7191 2.4028
-5.4992 -8.8523 2.4029
-5.2828 -8.9800 2.4031
-5.0633 -9.1024 2.4032
-4.8409 -9.2191 2.4034
-4.6157 -9.3300 2.4034
-4.3875 -9.4346 2.4034
-4.1568 -9.5333 2.4033
-3.9238 -9.6262 2.4032
-3.6887 -9.7133 2.4031
-3.4517 -9.7946 2.4031
-3.2129 -9.8703 2.4032
-2.9725 -9.9401 2.4033
-2.7303 -10.0032 2.4033
-2.4867 -10.0599 2.4031
-2.2419 -10.1104 2.4030
-1.9960 -10.1548 2.4028
-1.7493 -10.1930 2.4027
-1.5018 -10.2251 2.4026
-1.2539 -10.2512 2.4025
-0.9926 -10.1399 2.3717
-0.7336 -9.9693 2.3286
-0.4864 -9.8518 2.2994
-0.2489 -9.8742 2.3043
-0.0105 -9.8492 2.2994
0.2269 -9.8391 2.2994
0.4639 -9.8231 2.2994
0.7003 -9.8012 2.2994
0.9358 -9.7736 2.2994
1.1705 -9.7401 2.2994
1.4040 -9.7009 2.2994
1.4630 -8.6333 2.0559
1.8673 -9.6055 2.2994
2.0968 -9.5493 2.2994
1.8891 -7.7100 1.8686
2.0285 -7.4916 1.8287
2.1653 -7.2940 1.7943
2.2922 -7.0895 1.7587
2.4050 -6.8675 1.7191
2.5043 -6.6332 1.6767
2.6074 -6.4318 1.6427
2.7110 -6.2496 1.6140
2.9247 -6.3197 1.6514
4.2796 -8.6903 2.2994
4.4839 -8.5762 2.2994
4.6852 -8.4572 2.2994
4.8833 -8.3335 2.2994
5.0782 -8.2051 2.2994
5.2698 -8.0721 2.2994
5.4579 -7.9347 2.2994
5.6424 -7.7928 2.2994
5.8233 -7.6467 2.2994
6.0346 -7.5391 2.3125
6.2088 -7.3838 2.3125
6.3791 -7.2245 2.3125
6.5454 -7.0613 2.3125
6.7075 -6.8943 2.3125
6.8654 -6.7236 2.3125
7.0190 -6.5493 2.3125
7.1683 -6.3715 2.3125
7.3130 -6.1904 2.3125
7.4533 -6.0060 2.3125
7.5890 -5.8185 2.3125
7.7200 -5.6279 2.3125
7.8464 -5.4344 2.3125
7.9679 -5.2382 2.3125
8.0846 -5.0393 2.3125
8.1965 -4.8379 2.3125
8.3034 -4.6340 2.3125
8.4054 -4.4278 2.3125
8.5023 -4.2194 2.3125
8.5941 -4.0089 2.3125
8.6809 -3.7965 2.3125
8.7625 -3.5823 2.3125
8.8389 -3.3664 2.3125
8.9102 -3.1490 2.3125
9.0150 -2.9427 2.3225
9.0760 -2.7215 2.3225
9.1318 -2.4991 2.3225
9.1822 -2.2756 2.3225
9.2273 -2.0512 2.3225
9.2671 -1.8259 2.3225
9.3015 -1.5999 2.3225
9.3305 -1.3734 2.3225
9.3542 -1.1464 2.3225
9.3725 -0.9190 2.3225
9.3855 -0.6914 2.3225
9.3931 -0.4638 2.3225
9.3954 -0.2361 2.3225
9.3922 -0.0087 2.3225
9.3838 0.2186 2.3225
9.3701 0.4454 2.3225
9.3510 0.6716 2.3225
9.3267 0.8973 2.3225
9.2971 1.1222 2.3225
9.2623 1.3462 2.3225
9.2222 1.5692 2.3225
9.1770 1.7912 2.3225
9.1266 2.0119 2.3225
9.0711 2.2313 2.3225
9.0105 2.4492 2.3225
8.9449 2.6655 2.3225
8.8743 2.8802 2.3225
8.7987 3.0931 2.3225
8.7182 3.3041 2.3225
8.6328 3.5131 2.3225
8.5426 3.7200 2.3225
8.4476 3.9247 2.3225
8.3479 4.1270 2.3225
8.2436 4.3269 2.3225
8.1346 4.5243 2.3225
8.0211 4.7191 2.3225
7.9031 4.9111 2.3225
7.7807 5.1003 2.3225
7.6540 5.2866 2.3225
7.5229 5.4699 2.3225
7.3241 5.6013 2.3025
7.1859 5.7768 2.3025
7.0436 5.9489 2.3025
6.8974 6.1177 2.3025
6.7473 6.2830 2.3025
6.5934 6.4448 2.3025
6.4358 6.6031 2.3025
6.2745 6.7575 2.3025
6.1097 6.9082 2.3025
5.9413 7.0551 2.3025
5.7696 7.1979 2.3025
5.5946 7.3369 2.3025
5.4163 7.4717 2.3025
5.2349 7.6023 2.3025
5.0505 7.7287 2.3025
4.8632 7.8508 2.3025
4.6667 7.9578 2.2994
4.4740 8.0710 2.2994
4.2786 8.1797 2.2994
4.0807 8.2838 2.2994
3.8804 8.3833 2.2994
3.6777 8.4781 2.2994
3.4728 8.5683 2.2994
3.2658 8.6536 2.2994
3.0567 8.7341 2.2994
2.8457 8.8098 2.2994
2.6329 8.8805 2.2994
1.7057 6.3100 1.6218
1.5481 6.3316 1.6164
1.4240 6.5026 1.6498
1.3003 6.7110 1.6933
1.1733 6.9529 1.7456
1.0312 7.1639 1.7907
0.8791 7.3673 1.8345
0.7245 7.6397 1.8962
0.5903 8.3775 2.0738
0.4298 9.3085 2.2994
0.2046 9.3227 2.2994
-0.0211 9.3316 2.2994
-0.2471 9.3352 2.2994
-0.4732 9.3334 2.2994
-0.6995 9.3263 2.2994
-0.9348 9.4057 2.3221
-1.2033 9.7129 2.4025
-1.4390 9.6887 2.4025
-1.6744 9.6590 2.4025
-1.9092 9.6236 2.4025
-2.1432 9.5827 2.4025
-2.3764 9.5362 2.4025
-2.6086 9.4842 2.4025
-2.8397 9.4265 2.4025
-3.0696 9.3634 2.4025
-3.2981 9.2948 2.4025
-3.5251 9.2207 2.4025
-3.7504 9.1411 2.4025
-3.9740 9.0561 2.4025
-4.1958 8.9657 2.4025
-4.4154 8.8700 2.4025
-4.6330 8.7689 2.4025
-4.8482 8.6626 2.4025
-5.0611 8.5511 2.4025
-5.2714 8.4344 2.4025
-5.4790 8.3126 2.4025
-5.6838 8.1857 2.4025
-5.8858 8.0538 2.4025
-6.0846 7.9169 2.4025
-6.2803 7.7752 2.4025
-6.4727 7.6287 2.4025
-6.6618 7.4774 2.4025
-6.8472 7.3215 2.4025
-7.0290 7.1610 2.4025
-7.2071 6.9959 2.4025
-7.3813 6.8265 2.4025
-7.5514 6.6528 2.4025
-7.7175 6.4748 2.4025
-7.8794 6.2926 2.4025
-8.0369 6.1064 2.4025
-8.1900 5.9163 2.4025
-8.0163 5.5012 2.3097
-8.1185 5.2875 2.2994
-8.2516 5.0948 2.2994
-8.3802 4.8987 2.2994
-8.5041 4.6994 2.2994
-8.6231 4.4969 2.2994
-8.7373 4.2914 2.2994
-8.8465 4.0829 2.2994
-8.9506 3.8717 2.2994
-9.0496 3.6578 2.2994
-9.1434 3.4414 2.2994
-9.2320 3.2225 2.2994
-9.3151 3.0013 2.2994
-9.3929 2.7780 2.2994
-9.4652 2.5527 2.2994
-9.5320 2.3254 2.2994
-9.5932 2.0964 2.2994
-9.6488 1.8658 2.2994
-9.6986 1.6338 2.2994
-5.9831 0.8600 1.4121
-9.7812 1.1658 2.2994
-5.9119 0.5603 1.3852
-5.9090 0.4165 1.3807
-5.9077 0.2734 1.3775
-5.9054 0.1306 1.3749
-9.9849 -0.0201 2.3225
-9.9881 -0.2612 2.3225
-9.9853 -0.5024 2.3225
-9.9765 -0.7435 2.3225
-9.9617 -0.9846 2.3225
-9.9408 -1.2253 2.3225
-5.8754 -0.8685 1.3764
-5.8860 -1.0157 1.3835
-5.9097 -1.1672 1.3945
-5.9418 -1.3232 1.4085
-9.6497 -2.3946 2.2994
-9.5936 -2.6278 2.2994
-9.5316 -2.8597 2.2994
-9.4638 -3.0900 2.2994
-9.3902 -3.3186 2.2994
-9.3109 -3.5454 2.2994
-9.2259 -3.7702 2.2994
-9.1353 -3.9929 2.2994
-9.0391 -4.2133 2.2994
-6.6279 -3.2862 1.7052
-8.8301 -4.6466 2.2994
-7.1980 -4.0123 1.8986
-8.5996 -5.0692 2.2994
-8.4764 -5.2760 2.2994
-8.7223 -5.7254 2.4025
-8.5828 -5.9348 2.4025
-8.4382 -6.1407 2.4025
-8.2884 -6.3429 2.4025
-8.1335 -6.5413 2.4025
-7.5880 -6.4100 2.4025
-7.4313 -6.5911 2.4025
-7.2702 -6.7683 2.4025
-7.1048 -6.9415 2.4026
-6.9352 -7.1105 2.4026
-6.7613 -7.2753 2.4027
-6.5834 -7.4356 2.4028
-6.4016 -7.5914 2.4028
-6.2160 -7.7426 2.4029
-6.0267 -7.8891 2.4030
-5.8338 -8.0308 2.4031
-5.6375 -8.1677 2.4032
-5.4378 -8.2996 2.4033
-5.2350 -8.4264 2.4035
-5.0291 -8.5481 2.4036
-4.8202 -8.6645 2.4037
-4.6082 -8.7750 2.4036
-4.3936 -8.8801 2.4035
-4.1765 -8.9798 2.4035
-3.9572 -9.0745 2.4035
-3.7358 -9.1636 2.4036
-3.5122 -9.2472 2.4037
-3.2868 -9.3252 2.4037
-3.0595 -9.3974 2.4038
-2.8304 -9.4631 2.4036
-2.5999 -9.5230 2.4035
-2.3680 -9.5772 2.4034
-2.1350 -9.6256 2.4032
-1.9010 -9.6681 2.4031
-1.6662 -9.7049 2.4030
-1.4307 -9.7357 2.4028
-1.1946 -9.7607 2.4027
-0.9581 -9.7798 2.4026
-0.7214 -9.7931 2.4025
-0.4784 -9.6741 2.3714
-0.2390 -9.4518 2.3165
-0.0108 -9.3785 2.2994
0.2159 -9.3926 2.3051
0.4410 -9.3543 2.2994
0.6661 -9.3338 2.2994
0.8904 -9.3079 2.2994
1.1139 -9.2764 2.2994
1.3363 -9.2394 2.2994
1.4624 -8.6342 2.1587
1.7777 -9.1492 2.2994
1.9963 -9.0960 2.2994
2.2134 -9.0375 2.2994
2.1153 -7.8154 2.0026
2.1572 -7.2695 1.8771
2.2792 -7.0519 1.8362
2.4018 -6.8605 1.8025
2.5179 -6.6712 1.7699
2.6213 -6.4679 1.7338
2.7081 -6.2446 1.6925
2.7963 -6.0438 1.6574
2.8829 -5.8555 1.6259
2.9760 -5.6935 1.6018
3.1126 -5.6199 1.6033
4.6530 -7.9423 2.2994
4.8389 -7.8203 2.2994
5.0217 -7.6939 2.2994
5.2012 -7.5632 2.2994
5.3773 -7.4284 2.2994
5.5499 -7.2894 2.2994
5.7190 -7.1465 2.2994
5.8844 -6.9996 2.2994
6.0461 -6.8489 2.2994
6.2042 -6.6947 2.2995
6.3594 -6.5379 2.2999
6.5450 -6.4112 2.3125
6.6917 -6.2453 2.3125
6.8343 -6.0760 2.3125
6.9727 -5.9036 2.3125
7.1067 -5.7279 2.3125
7.2365 -5.5494 2.3125
7.3617 -5.3679 2.3125
7.4825 -5.1836 2.3125
7.5987 -4.9966 2.3125
7.7104 -4.8071 2.3125
7.8174 -4.6152 2.3125
7.9197 -4.4209 2.3125
8.0172 -4.2244 2.3125
8.1100 -4.0257 2.3125
8.1980 -3.8251 2.3125
8.2810 -3.6227 2.3125
8.3592 -3.4184 2.3125
8.4325 -3.2126 2.3125
8.5008 -3.0052 2.3125
8.5641 -2.7964 2.3125
8.6224 -2.5864 2.3125
8.7131 -2.3854 2.3225
8.7616 -2.1722 2.3225
8.8049 -1.9581 2.3225
8.8431 -1.7432 2.3225
8.8762 -1.5276 2.3225
8.9043 -1.3114 2.3225
8.9271 -1.0947 2.3225
8.9449 -0.8778 2.3225
8.9575 -0.6606 2.3225
8.9651 -0.4433 2.3225
8.9675 -0.2260 2.3225
8.9648 -0.0089 2.3225
8.9570 0.2080 2.3225
8.9441 0.4245 2.3225
8.9261 0.6405 2.3225
8.9031 0.8560 2.3225
8.8751 1.0707 2.3225
8.8420 1.2846 2.3225
8.8040 1.4976 2.3225
8.7610 1.7095 2.3225
8.7130 1.9202 2.3225
8.6602 2.1297 2.3225
8.6025 2.3378 2.3225
8.5400 2.5445 2.3225
8.4727 2.7495 2.3225
8.4007 2.9528 2.3225
8.3239 3.1543 2.3225
8.2425 3.3539 2.3225
8.1565 3.5515 2.3225
8.0659 3.7470 2.3225
7.9708 3.9403 2.3225
7.8712 4.1312 2.3225
7.7673 4.3198 2.3225
7.6589 4.5058 2.3225
7.5463 4.6892 2.3225
7.4295 4.8699 2.3225
7.3085 5.0478 2.3225
7.1834 5.2228 2.3225
6.9935 5.3484 2.3025
6.8615 5.5159 2.3025
6.7257 5.6804 2.3025
6.5861 5.8416 2.3025
6.4427 5.9994 2.3025
6.2958 6.1539 2.3025
6.1452 6.3050 2.3025
5.9912 6.4525 2.3025
5.8337 6.5964 2.3025
5.6729 6.7366 2.3025
5.5089 6.8730 2.3025
5.3417 7.0056 2.3025
5.1715 7.1342 2.3025
4.9915 7.2492 2.2994
4.8156 7.3696 2.2994
4.6369 7.4860 2.2994
4.4554 7.5982 2.2994
4.2714 7.7062 2.2994
4.0848 7.8098 2.2994
3.8958 7.9091 2.2994
3.7044 8.0040 2.2994
3.5108 8.0944 2.2994
2.2995 5.6743 1.5950
3.1174 8.2617 2.2994
2.9177 8.3384 2.2994
1.8874 5.8442 1.5978
1.7724 5.9794 1.6218
1.6599 6.1418 1.6536
1.5470 6.3287 1.6925
1.4326 6.5438 1.7393
1.3048 6.7370 1.7807
1.1671 6.9193 1.8199
1.0261 7.1322 1.8677
1.0510 8.8141 2.2994
0.8379 8.8425 2.2994
0.5897 8.3785 2.1730
0.4095 8.8841 2.2994
0.1945 8.8974 2.2994
-0.0209 8.9056 2.2994
-0.2365 8.9088 2.2994
-0.4524 8.9068 2.2994
-0.6758 9.0007 2.3255
-0.9237 9.2860 2.4025
-1.1490 9.2680 2.4025
-1.3739 9.2446 2.4025
-1.5985 9.2159 2.4025
-1.8224 9.1818 2.4025
-2.0456 9.1424 2.4025
-2.2680 9.0977 2.4025
-2.4895 9.0477 2.4025
-2.7099 8.9924 2.4025
-2.9291 8.9319 2.4025
-3.1469 8.8660 2.4025
-3.3634 8.7950 2.4025
-3.5782 8.7187 2.4025
-3.7913 8.6373 2.4025
-4.0027 8.5508 2.4025
-4.2120 8.4591 2.4025
-4.4193 8.3624 2.4025
-4.6244 8.2606 2.4025
-4.8272 8.1539 2.4025
-5.0275 8.0423 2.4025
-5.2253 7.9258 2.4025
-5.4204 7.8044 2.4025
-5.6127 7.6783 2.4025
-5.8020 7.5475 2.4025
-5.9884 7.4121 2.4025
-6.1716 7.2721 2.4025
-6.3515 7.1276 2.4025
-6.5280 6.9786 2.4025
-6.7010 6.8253 2.4025
-6.8705 6.6677 2.4025
-7.0362 6.5059 2.4025
-7.1981 6.3400 2.4025
-7.3560 6.1701 2.4025
-7.5099 5.9963 2.4025
-7.6597 5.8186 2.4025
-7.8053 5.6371 2.4025
-7.9465 5.4520 2.4025
-7.7364 5.0375 2.2994
-7.8630 4.8537 2.2994
-7.9852 4.6667 2.2994
-8.1028 4.4766 2.2994
-8.2159 4.2835 2.2994
-8.3243 4.0875 2.2994
-8.4280 3.8888 2.2994
-7.0348 3.0422 1.8971
-8.6208 3.4835 2.2994
-8.7098 3.2772 2.2994
-8.7938 3.0686 2.2994
-8.8727 2.8579 2.2994
-8.9464 2.6451 2.2994
-9.0149 2.4304 2.2994
-9.0782 2.2139 2.2994
-9.1361 1.9957 2.2994
-9.1887 1.7761 2.2994
-9.2359 1.5550 2.2994
-9.2776 1.3327 2.2994
-5.9338 0.7067 1.4650
-9.3446 0.8849 2.2994
-9.3697 0.6597 2.2994
-9.3893 0.4337 2.2994
-9.4033 0.2072 2.2994
-9.4117 -0.0197 2.2994
-9.4144 -0.2468 2.2994
-9.4115 -0.4741 2.2994
-9.4029 -0.7014 2.2994
-9.3887 -0.9285 2.2994
-5.8563 -0.7222 1.4373
-9.3433 -1.3817 2.2994
-9.3121 -1.6075 2.2994
-9.2753 -1.8325 2.2994
-9.2328 -2.0566 2.2994
-9.1848 -2.2797 2.2994
-9.1311 -2.5016 2.2994
-9.0719 -2.7222 2.2994
-9.0073 -2.9414 2.2994
-8.9371 -3.1589 2.2994
-8.8614 -3.3747 2.2994
-8.7804 -3.5885 2.2994
-8.6940 -3.8004 2.2994
-8.6024 -4.0101 2.2994
-6.6273 -3.2861 1.7917
-8.4033 -4.4223 2.2994
-8.2961 -4.6247 2.2994
-8.1838 -4.8243 2.2994
-8.0665 -5.0211 2.2994
-8.3005 -5.4487 2.4025
-8.1677 -5.6480 2.4025
-8.0300 -5.8438 2.4025
-7.8874 -6.0362 2.4025
-7.7401 -6.2250 2.4025
-7.2373 -6.1138 2.4029
-7.0882 -6.2867 2.4030
-6.9346 -6.4558 2.4030
-6.7769 -6.6210 2.4031
-6.6151 -6.7822 2.4031
-6.4493 -6.9393 2.4032
-6.2797 -7.0923 2.4033
-6.1063 -7.2409 2.4034
-5.9293 -7.3851 2.4034
-5.7488 -7.5249 2.4035
-5.5648 -7.6602 2.4036
-5.3776 -7.7907 2.4037
-5.1872 -7.9166 2.4038
-4.9938 -8.0376 2.4039
-4.7972 -8.1533 2.4039
-4.5979 -8.2642 2.4039
-4.3959 -8.3700 2.4040
-4.1915 -8.4708 2.4040
-3.9846 -8.5664 2.4040
-3.7756 -8.6569 2.4041
-3.5644 -8.7420 2.4041
-3.3512 -8.8219 2.4042
-3.1360 -8.8959 2.4041
-2.9191 -8.9643 2.4040
-2.7006 -9.0272 2.4038
-2.4807 -9.0846 2.4037
-2.2597 -9.1365 2.4036
-2.0374 -9.1829 2.4035
-1.8143 -9.2238 2.4033
-1.5903 -9.2590 2.4032
-1.3656 -9.2887 2.4031
-1.1405 -9.3128 2.4030
-0.9149 -9.3312 2.4028
-0.6890 -9.3440 2.4027
-0.4631 -9.3512 2.4025
-0.2372 -9.3532 2.4025
-0.0113 -9.1854 2.3602
0.2057 -8.9837 2.3107
0.4200 -8.9260 2.2994
0.6379 -8.9501 2.3106
0.8489 -8.8823 2.2994
1.0622 -8.8526 2.2994
1.2745 -8.8176 2.2994
1.4617 -8.6351 2.2621
1.6958 -8.7321 2.2994
1.9046 -8.6817 2.2994
2.1118 -8.6262 2.2994
2.1143 -7.8148 2.0978
2.5215 -8.5002 2.2994
2.7236 -8.4298 2.2994
2.3952 -6.8439 1.8836
2.5034 -6.6349 1.8438
2.6122 -6.4473 1.8102
2.7176 -6.2682 1.7794
2.8122 -6.0798 1.7462
2.8907 -5.8731 1.7079
2.9609 -5.6660 1.6695
3.0351 -5.4814 1.6377
3.1137 -5.3162 1.6118
4.6199 -7.4681 2.2994
4.7946 -7.3478 2.2994
4.9662 -7.2233 2.2994
5.1346 -7.0948 2.2994
3.6125 -4.7459 1.5674
5.4614 -6.8261 2.2994
5.6196 -6.6861 2.2994
5.7744 -6.5426 2.2995
5.9268 -6.3968 2.3000
6.0753 -6.2472 2.3004
6.2199 -6.0941 2.3008
6.3608 -5.9377 2.3012
6.4978 -5.7780 2.3016
6.6308 -5.6153 2.3021
6.7892 -5.4732 2.3125
6.9134 -5.3028 2.3125
7.0334 -5.1296 2.3125
7.1491 -4.9537 2.3125
7.2604 -4.7753 2.3125
7.3674 -4.5943 2.3125
7.4699 -4.4111 2.3125
7.5679 -4.2255 2.3125
7.6614 -4.0379 2.3125
7.7504 -3.8482 2.3125
7.8347 -3.6566 2.3125
7.9144 -3.4632 2.3125
7.9894 -3.2681 2.3125
8.0597 -3.0714 2.3125
8.1253 -2.8733 2.3125
8.1860 -2.6738 2.3125
8.2420 -2.4731 2.3125
8.2932 -2.2712 2.3125
8.3396 -2.0684 2.3125
8.4173 -1.8727 2.3225
8.4541 -1.6673 2.3225
8.4861 -1.4612 2.3225
8.5131 -1.2545 2.3225
8.5352 -1.0474 2.3225
8.5525 -0.8400 2.3225
8.5648 -0.6323 2.3225
8.5722 -0.4245 2.3225
8.5747 -0.2168 2.3225
8.5723 -0.0091 2.3225
8.5651 0.1983 2.3225
8.5530 0.4053 2.3225
8.5360 0.6120 2.3225
8.5142 0.8180 2.3225
8.4875 1.0234 2.3225
8.4561 1.2280 2.3225
8.4199 1.4317 2.3225
8.3789 1.6344 2.3225
8.3333 1.8361 2.3225
8.2829 2.0365 2.3225
8.2278 2.2356 2.3225
8.1682 2.4333 2.3225
8.1039 2.6294 2.3225
8.0351 2.8239 2.3225
7.9618 3.0167 2.3225
7.8840 3.2077 2.3225
7.8019 3.3968 2.3225
7.7153 3.5838 2.3225
7.6244 3.7687 2.3225
7.5292 3.9514 2.3225
7.4298 4.1318 2.3225
7.3262 4.3098 2.3225
7.2185 4.4853 2.3225
7.1068 4.6582 2.3225
6.9911 4.8285 2.3225
6.8714 4.9959 2.3225
6.8293 5.2228 2.3505
6.5636 5.2764 2.3025
6.4336 5.4337 2.3025
6.3001 5.5878 2.3025
6.1629 5.7389 2.3025
6.0223 5.8867 2.3025
5.8783 6.0312 2.3025
5.7309 6.1723 2.3025
5.5727 6.3014 2.2994
5.4191 6.4353 2.2994
5.2624 6.5656 2.2994
5.1026 6.6923 2.2994
4.9399 6.8151 2.2994
4.7743 6.9342 2.2994
4.6060 7.0494 2.2994
4.4350 7.1606 2.2994
4.2614 7.2679 2.2994
4.0853 7.3710 2.2994
3.9067 7.4701 2.2994
3.7259 7.5650 2.2994
3.5428 7.6556 2.2994
3.3576 7.7420 2.2994
2.2991 5.6740 1.6675
2.0822 5.5190 1.6060
1.9769 5.6506 1.6292
1.8760 5.8100 1.6609
1.7741 5.9865 1.6978
1.6699 6.1805 1.7400
1.5532 6.3556 1.7773
1.4266 6.5182 1.8116
1.2973 6.7002 1.8519
1.1724 6.9533 1.9124
1.0645 7.4028 2.0272
1.0044 8.4283 2.2994
0.8006 8.4552 2.2994
0.5892 8.3794 2.2728
0.3909 8.4946 2.2994
0.1853 8.5071 2.2994
-0.0206 8.5147 2.2994
-0.2269 8.5174 2.2994
-0.4394 8.6361 2.3320
-0.6683 8.8898 2.4025
-0.8839 8.8774 2.4025
-1.0992 8.8598 2.4025
-1.3142 8.8372 2.4025
-1.5288 8.8094 2.4025
-1.7428 8.7766 2.4025
-1.9562 8.7386 2.4025
-2.1687 8.6956 2.4025
-2.3803 8.6475 2.4025
-2.5909 8.5944 2.4025
-2.8003 8.5362 2.4025
-3.0084 8.4729 2.4025
-3.2151 8.4047 2.4025
-3.4203 8.3316 2.4025
-3.6239 8.2534 2.4025
-3.8257 8.1704 2.4025
-4.0256 8.0825 2.4025
-4.2235 7.9898 2.4025
-4.4193 7.8923 2.4025
-4.6129 7.7900 2.4025
-4.8041 7.6831 2.4025
-4.9929 7.5715 2.4025
-5.1791 7.4552 2.4025
-5.3626 7.3345 2.4025
-5.5432 7.2092 2.4025
-5.7210 7.0796 2.4025
-5.8958 6.9456 2.4025
-6.0674 6.8072 2.4025
-6.2357 6.6647 2.4025
-6.4007 6.5180 2.4025
-6.5623 6.3673 2.4025
-6.7203 6.2125 2.4025
-6.8746 6.0538 2.4025
-7.0252 5.8913 2.4025
-7.1719 5.7251 2.4025
-7.3146 5.5552 2.4025
-7.4533 5.3817 2.4025
-7.5878 5.2048 2.4025
-7.6870 5.0042 2.3928
-7.5075 4.6332 2.2994
-7.6238 4.4544 2.2994
-7.7359 4.2728 2.2994
-7.8435 4.0883 2.2994
-7.9467 3.9011 2.2994
-8.0454 3.7113 2.2994
-8.1394 3.5189 2.2994
-6.8345 2.7609 1.9098
-8.3134 3.1272 2.2994
-8.3933 2.9280 2.2994
-8.4683 2.7267 2.2994
-8.5383 2.5236 2.2994
-8.6034 2.3186 2.2994
-8.6635 2.1119 2.2994
-8.7185 1.9037 2.2994
-8.7684 1.6940 2.2994
-8.8131 1.4831 2.2994
-8.8526 1.2709 2.2994
-5.9240 0.7051 1.5328
-8.9160 0.8436 2.2994
-8.9397 0.6287 2.2994
-8.9581 0.4131 2.2994
-8.9712 0.1971 2.2994
-8.9789 -0.0194 2.2994
-8.9813 -0.2361 2.2994
-8.9783 -0.4529 2.2994
-8.9699 -0.6697 2.2994
-8.9561 -0.8863 2.2994
-5.8398 -0.7205 1.5025
-8.9123 -1.3185 2.2994
-8.8824 -1.5338 2.2994
-8.8471 -1.7484 2.2994
-8.8064 -1.9621 2.2994
-8.7604 -2.1749 2.2994
-6.2101 -1.7017 1.6396
-6.1577 -1.8481 1.6364
-8.5906 -2.8057 2.2994
-8.5235 -3.0131 2.2994
-8.4513 -3.2188 2.2994
-8.3739 -3.4228 2.2994
-8.2914 -3.6247 2.2994
-8.2039 -3.8246 2.2994
-6.6266 -3.2861 1.8785
-8.0139 -4.2177 2.2994
-7.9116 -4.4106 2.2994
-7.8044 -4.6009 2.2994
-7.6925 -4.7885 2.2994
-7.9156 -5.1962 2.4025
-7.7892 -5.3864 2.4026
-7.6582 -5.5733 2.4027
-7.5224 -5.7570 2.4027
-7.3821 -5.9371 2.4028
-6.9149 -5.8414 2.4029
-6.7723 -6.0066 2.4030
-6.6257 -6.1682 2.4031
-6.4751 -6.3261 2.4031
-6.3206 -6.4802 2.4032
-6.1623 -6.6304 2.4033
-6.0003 -6.7766 2.4034
-5.8347 -6.9186 2.4035
-5.6656 -7.0565 2.4035
-5.4931 -7.1900 2.4036
-5.3176 -7.3194 2.4038
-5.1389 -7.4445 2.4040
-4.9573 -7.5651 2.4042
-4.7727 -7.6812 2.4044
-4.5850 -7.7922 2.4044
-4.3946 -7.8982 2.4045
-4.2017 -7.9995 2.4045
-4.0064 -8.0959 2.4045
-3.8088 -8.1874 2.4046
-3.6090 -8.2739 2.4046
-3.4071 -8.3552 2.4046
-3.2032 -8.4310 2.4044
-2.9976 -8.5017 2.4043
-2.7903 -8.5672 2.4042
-2.5816 -8.6275 2.4040
