ply
format ascii 1.0
element vertex 2051
property float32 x
property float32 y
property float32 z
end_header
-10.7197 -54.9530 2.3226
-9.3989 -55.2537 2.3226
-7.9888 -54.9659 2.2995
-5.4912 -45.4740 1.8946
-5.3336 -55.3809 2.2995
-4.1763 -58.0234 2.4026
-2.7751 -58.1445 2.4026
-1.3704 -58.2271 2.4026
0.0165 -26.2469 1.0822
0.6358 -25.6434 1.0572
1.2574 -25.6690 1.0589
4.0771 -55.6687 2.2993
5.4214 -55.5616 2.2993
3.0786 -25.2289 1.0468
5.4692 -37.3011 1.5527
6.2316 -36.3580 1.5195
7.0368 -35.8338 1.5045
7.7901 -35.1553 1.4839
8.9926 -36.3960 1.5456
9.9147 -36.3347 1.5534
11.2065 -37.4789 1.6143
11.9520 -36.7162 1.5944
2.9332 -8.3221 0.3646
3.1609 -8.3213 0.3681
3.3928 -8.3205 0.3719
16.2482 -37.2468 1.6835
16.1085 -34.6195 1.5834
16.6138 -33.5612 1.5547
3.6815 -7.0059 0.3289
14.1792 -25.4693 1.2131
18.4516 -31.3374 1.5154
19.1396 -30.7802 1.5125
20.0504 -30.5722 1.5279
33.3579 -48.2783 2.4562
23.0379 -31.6778 1.6421
23.7572 -31.0607 1.6422
24.8618 -30.9269 1.6693
26.3762 -31.2344 1.7230
28.5228 -32.1667 1.8153
32.6092 -35.0323 2.0248
33.4584 -34.2471 2.0297
34.8570 -33.9953 2.0684
36.2231 -33.6591 2.1051
37.3855 -33.0927 2.1302
38.6587 -32.5883 2.1621
17.3804 -13.9471 0.9551
18.8918 -14.4237 1.0211
19.0286 -13.8135 1.0126
20.5458 -14.1698 1.0775
16.5894 -10.8593 0.8581
16.8403 -10.4512 0.8600
20.0619 -11.7889 1.0123
18.1733 -10.0965 0.9068
20.8864 -10.9520 1.0314
24.4445 -12.0740 1.1956
21.1605 -9.8233 1.0259
22.3732 -9.7363 1.0760
23.0515 -9.3758 1.1005
42.6882 -16.1721 2.0244
43.7868 -15.3892 2.0642
23.4584 -7.6130 1.1001
23.2577 -6.9314 1.0857
21.0082 -5.7122 0.9768
44.2431 -10.8890 2.0504
44.5690 -9.8336 2.0600
44.3016 -8.6577 2.0436
44.0763 -7.5130 2.0303
43.8135 -6.3829 2.0166
43.7106 -5.2929 2.0115
43.7797 -4.2307 2.0156
43.8892 -3.1732 2.0227
44.0065 -2.1144 2.0314
44.0660 -1.0509 2.0386
24.3122 0.0078 1.1279
24.3101 0.5954 1.1316
24.3080 1.1835 1.1360
24.3059 1.7730 1.1411
24.1713 2.3515 1.1406
24.2110 2.9475 1.1490
24.2089 3.5428 1.1561
24.1650 4.1351 1.1620
24.2046 4.7466 1.1726
24.2024 5.3565 1.1820
15.9430 3.9349 0.7854
15.3655 4.1888 0.7639
15.3640 4.5900 0.7714
15.4394 5.0220 0.7834
15.4379 5.4374 0.7921
15.3596 5.8308 0.7973
15.3581 6.2589 0.8072
20.8684 9.0985 1.1112
19.9839 9.2939 1.0788
19.9862 9.8892 1.0945
19.9703 10.4896 1.1103
19.9838 11.1209 1.1287
15.9237 9.3725 0.9144
15.3464 9.5395 0.8966
15.5219 10.1767 0.9233
15.4194 10.6510 0.9347
15.3407 11.1537 0.9484
15.3387 11.7292 0.9679
27.3587 21.9885 1.7638
35.1454 29.6729 2.3169
34.3364 30.4413 2.3169
33.5127 31.1896 2.3169
32.6745 31.9175 2.3169
31.8223 32.6249 2.3169
30.9567 33.3114 2.3169
30.0782 33.9771 2.3169
29.6600 35.1825 2.3545
28.3666 35.3478 2.3237
27.2423 35.6802 2.3062
26.2093 36.1041 2.2964
25.2415 36.6000 2.2928
24.4178 37.3035 2.3034
23.6326 38.0820 2.3196
23.0092 39.1592 2.3547
22.7144 40.8890 2.4290
22.6047 43.1145 2.5321
20.9209 42.3622 2.4613
19.8611 42.7915 2.4613
18.7942 43.1972 2.4613
17.7202 43.5788 2.4613
16.6399 43.9365 2.4613
15.5535 44.2703 2.4613
14.4617 44.5801 2.4613
13.3648 44.8657 2.4613
12.2634 45.1273 2.4613
11.1578 45.3647 2.4613
10.0485 45.5780 2.4613
8.9360 45.7671 2.4613
7.8208 45.9321 2.4613
3.4796 23.9161 1.2776
5.6094 46.4005 2.4726
3.5035 36.3314 1.9321
3.3564 46.5620 2.4726
2.2289 46.6063 2.4726
1.1012 46.6262 2.4726
-0.0195 34.8469 1.8481
-1.0915 44.1247 2.3415
-2.1594 44.1209 2.3440
-3.2298 44.1171 2.3477
-3.3985 34.8349 1.8577
-5.6423 46.2386 2.4726
-6.7584 46.0898 2.4726
-7.8712 45.9171 2.4726
-7.7948 39.6855 2.1462
-7.7176 34.8195 1.8922
-10.6363 43.0364 2.3513
-11.6775 42.7817 2.3513
-12.7135 42.5047 2.3513
-13.0885 40.1931 2.2392
-13.9874 39.6698 2.2270
-15.7855 41.5395 2.3513
-16.7962 41.1735 2.3513
-17.7996 40.7856 2.3513
-18.7953 40.3757 2.3513
-19.5409 39.4558 2.3226
-20.5078 39.0080 2.3226
-21.4659 38.5391 2.3226
-22.4147 38.0490 2.3226
-23.3539 37.5380 2.3226
-24.2828 37.0060 2.3226
-25.2013 36.4533 2.3226
-7.3089 10.0442 0.6502
-27.0051 35.2864 2.3226
-18.4260 22.9073 1.5345
-18.6379 22.0572 1.5050
-29.6055 33.3664 2.3213
-30.4517 32.6931 2.3213
-31.2844 32.0002 2.3213
-32.1033 31.2880 2.3213
-32.9080 30.5567 2.3213
-33.6979 29.8064 2.3213
-34.4728 29.0373 2.3213
-35.2321 28.2499 2.3213
-35.9756 27.4443 2.3213
-30.4965 22.1193 1.9288
-37.1107 25.5711 2.3026
-37.7980 24.7192 2.3026
-38.4136 23.8166 2.2993
-39.0646 22.9321 2.2993
-39.6973 22.0312 2.2993
-39.9309 20.9150 2.2776
-41.6002 20.5237 2.3383
-43.3442 20.0966 2.4026
-43.9245 19.0899 2.4026
-44.4835 18.0676 2.4026
-45.0206 17.0303 2.4026
-24.2060 8.4937 1.2772
-26.2199 8.4945 1.3686
-28.5321 8.4874 1.4743
-44.9294 12.1915 2.2995
-31.9080 7.8355 1.6185
-31.9065 7.0222 1.6049
-31.9051 6.2176 1.5924
-31.9097 5.4216 1.5812
-31.9092 4.6312 1.5707
-31.9086 3.8463 1.5612
-31.9102 3.0661 1.5527
-31.9110 2.2895 1.5451
-31.9117 1.5156 1.5384
-31.9105 0.7435 1.5325
-31.9118 -0.0279 1.5276
-31.9131 -0.7993 1.5236
-31.9077 -1.5714 1.5201
-31.9070 -2.3454 1.5177
-31.9064 -3.1221 1.5162
-31.9102 -3.9028 1.5158
-31.9108 -4.6881 1.5162
-31.9114 -5.4789 1.5174
-25.1177 -4.9402 1.1960
-25.6875 -5.7002 1.2256
-31.9094 -7.8944 1.5264
-23.5996 -6.4476 1.1325
-31.9075 -9.5516 1.5371
-31.9075 -10.3980 1.5440
-31.9091 -11.2583 1.5520
-31.9089 -12.1329 1.5610
-25.4452 -10.3857 1.2529
-31.9079 -13.9321 1.5825
-31.9075 -14.8598 1.5949
-24.1468 -11.9638 1.2174
-31.9104 -16.7824 1.6240
-16.4373 -9.1585 0.8450
-30.4810 -17.9619 1.5841
-28.8525 -17.9552 1.5172
-5.7168 -3.7522 0.3044
-25.9516 -17.9452 1.4005
-24.6482 -17.9394 1.3493
-14.8888 -11.3966 0.8278
-19.6871 -15.8381 1.1120
-21.2151 -17.9308 1.5277
-20.2017 -17.9286 1.4823
-19.2362 -17.9210 1.4397
-18.3250 -17.9182 1.4005
-17.4578 -17.9156 1.3641
-16.6303 -17.9124 1.3302
-15.8394 -17.9095 1.2985
-15.0820 -17.9068 1.2690
-14.3563 -17.9060 1.2416
-13.6571 -17.9034 1.2159
-12.9834 -17.9010 1.1919
-12.3330 -17.8987 1.1694
-11.7031 -17.8948 1.1484
-11.0938 -17.8923 1.1287
-10.5027 -17.8900 1.1104
-9.9282 -17.8877 1.0933
-9.3692 -17.8855 1.0773
-16.5335 -33.5073 1.9906
-16.6924 -35.9954 2.1108
-16.5732 -38.1255 2.2084
-16.1097 -39.6525 2.2706
-15.3716 -40.6235 2.3013
-14.5369 -41.4135 2.3226
-13.4915 -41.6265 2.3128
-10.3314 -34.7144 1.9122
-11.5388 -42.5007 2.3226
-10.5194 -42.8102 2.3226
-8.5516 -38.8265 2.0926
-8.3709 -42.9168 2.2995
-7.3378 -43.1419 2.2995
-6.2983 -43.3396 2.2995
-5.2532 -43.5093 2.2995
-4.3918 -45.6083 2.4026
-3.2906 -45.7270 2.4026
-2.1862 -45.8162 2.4026
-1.0793 -45.8758 2.4026
0.0167 -26.2469 1.3737
0.6360 -25.6452 1.3422
1.2577 -25.6708 1.3444
3.2114 -43.8474 2.2993
4.2701 -43.7618 2.2993
3.0783 -25.2262 1.3289
5.4714 -37.3159 1.9722
6.3623 -37.1209 1.9696
6.9301 -35.2911 1.8812
7.8244 -35.3111 1.8922
8.8499 -35.8194 1.9309
9.8132 -35.9640 1.9516
11.3610 -37.9972 2.0770
12.0590 -37.0464 2.0414
2.9331 -8.3221 0.4626
3.1608 -8.3213 0.4670
3.3913 -8.3171 0.4715
18.8185 -43.1409 2.4726
16.2652 -34.9582 2.0271
16.7660 -33.8703 1.9887
3.6810 -7.0054 0.4168
14.1768 -25.4663 1.5367
18.5776 -31.5533 1.9325
19.2512 -30.9616 1.9263
20.2806 -30.9253 1.9563
26.5374 -38.4095 2.4726
23.6365 -32.5030 2.1312
23.9493 -31.3139 2.0934
25.1338 -31.2676 2.1332
26.9780 -31.9494 2.2268
28.8220 -32.5065 2.3169
29.5530 -31.7515 2.3169
30.2630 -30.9788 2.3169
30.9515 -30.1889 2.3169
31.6180 -29.3825 2.3169
32.2623 -28.5603 2.3169
32.8840 -27.7229 2.3169
17.3777 -13.9462 1.2025
18.8886 -14.4227 1.2850
19.0283 -13.8146 1.2738
20.5454 -14.1710 1.3547
16.5861 -10.8583 1.0782
16.8353 -10.4493 1.0798
20.0588 -11.7885 1.2706
18.1680 -10.0949 1.1374
20.8796 -10.9499 1.2930
24.4351 -12.0711 1.4979
21.1509 -9.8203 1.2845
22.3728 -9.7377 1.3470
22.9990 -9.3560 1.3738
39.0687 -14.8035 2.3169
39.3243 -13.8234 2.3169
23.4706 -7.6186 1.3748
23.2572 -6.9328 1.3553
21.0078 -5.7134 1.2187
40.0950 -9.8706 2.3169
40.2251 -8.8777 2.3169
40.3302 -7.8842 2.3169
40.4106 -6.8907 2.3169
40.4663 -5.8979 2.3169
40.4975 -4.9064 2.3169
40.5044 -3.9168 2.3169
40.4872 -2.9298 2.3169
40.4460 -1.9459 2.3169
40.3810 -0.9657 2.3169
24.3122 0.0062 1.3980
24.3101 0.5938 1.4018
24.3080 1.1819 1.4064
24.3060 1.7714 1.4118
24.1713 2.3499 1.4104
24.2110 2.9459 1.4200
24.2089 3.5412 1.4280
24.1650 4.1335 1.4344
24.2046 4.7449 1.4467
24.2024 5.3549 1.4574
15.9430 3.9338 0.9678
15.3655 4.1877 0.9409
15.3640 4.5889 0.9496
15.4394 5.0209 0.9638
15.4379 5.4363 0.9739
15.3596 5.8296 0.9799
15.3581 6.2577 0.9915
19.9224 8.6845 1.3023
19.6611 9.1422 1.3023
19.8395 9.8151 1.3325
19.8231 10.4107 1.3509
19.8162 11.0261 1.3712
15.7874 9.2910 1.1101
15.3465 9.5382 1.0974
15.5239 10.1767 1.1297
15.4194 10.6497 1.1429
15.3407 11.1524 1.1592
15.3387 11.7278 1.1825
27.3587 21.9860 2.1539
27.4801 23.1986 2.2113
26.8591 23.8096 2.2113
27.4786 25.5711 2.3169
26.8023 26.1786 2.3169
26.1137 26.7695 2.3169
25.4134 27.3436 2.3169
24.7016 27.9007 2.3169
23.9788 28.4407 2.3169
23.2454 28.9633 2.3169
22.5017 29.4684 2.3169
21.7481 29.9558 2.3169
20.9852 30.4255 2.3169
20.2132 30.8772 2.3169
19.4325 31.3109 2.3169
18.6436 31.7265 2.3169
17.8468 32.1237 2.3169
17.0425 32.5025 2.3169
16.2311 32.8629 2.3169
15.4130 33.2048 2.3169
14.5886 33.5278 2.3169
13.7583 33.8323 2.3169
12.9225 34.1178 2.3169
12.0816 34.3846 2.3169
11.9359 36.7904 2.4613
11.0328 37.0335 2.4613
10.1254 37.2563 2.4613
9.2142 37.4588 2.4613
8.2996 37.6412 2.4613
7.3819 37.8032 2.4613
6.4912 38.1183 2.4726
3.4794 23.9114 1.5461
4.6357 38.3415 2.4726
3.5040 36.3314 2.3380
2.7745 38.4828 2.4726
1.8427 38.5227 2.4726
0.9107 38.5422 2.4726
-0.0192 34.8469 2.2356
-0.9526 38.5197 2.4726
-1.8831 38.4777 2.4726
-2.8122 38.4155 2.4726
-3.3984 34.8349 2.2469
-4.6650 38.2299 2.4726
-5.5878 38.1067 2.4726
-6.5078 37.9633 2.4726
-7.4246 37.7997 2.4726
-7.7178 34.8195 2.2887
-9.2466 37.4122 2.4726
-9.6534 35.3649 2.3513
-10.5091 35.1332 2.3513
-11.3597 34.8828 2.3513
-12.0494 34.1721 2.3213
-12.8783 33.8878 2.3213
-13.7014 33.5853 2.3213
-14.5180 33.2645 2.3213
-15.3280 32.9257 2.3213
-16.1309 32.5689 2.3213
-16.9265 32.1941 2.3213
-17.7142 31.8016 2.3213
-18.4938 31.3914 2.3213
-19.2650 30.9637 2.3213
-20.0272 30.5186 2.3213
-20.7802 30.0562 2.3213
-7.3089 10.0435 0.7883
-22.2572 29.0806 2.3213
-22.9804 28.5674 2.3213
-18.7623 22.2027 1.8382
-24.3947 27.4916 2.3213
-24.8823 26.7117 2.3026
-25.5554 26.1380 2.3026
-26.2166 25.5485 2.3026
-26.8653 24.9436 2.3026
-24.5277 21.6933 2.0536
-28.0848 23.6544 2.2993
-28.6936 23.0050 2.2993
-29.2888 22.3411 2.2993
-29.8700 21.6627 2.2993
-30.4367 20.9702 2.2993
-31.4434 20.5612 2.3330
-32.9413 20.4214 2.4026
-33.4863 19.6551 2.4026
-34.0149 18.8752 2.4026
-34.5266 18.0819 2.4026
-35.0213 17.2756 2.4026
-35.4984 16.4565 2.4026
-35.9578 15.6250 2.4026
-20.8928 8.4845 1.3791
-22.4497 8.4907 1.4648
-24.1472 8.4715 1.5585
-26.2182 8.4922 1.6748
-28.5384 8.4874 1.8055
-36.6770 9.9498 2.2995
-31.9082 7.8335 1.9836
-28.4952 6.2695 1.7576
-31.9054 6.2156 1.9537
-31.9094 5.4195 1.9409
-31.9088 4.6291 1.9290
-31.9082 3.8442 1.9183
-31.9101 3.0640 1.9089
-31.9108 2.2875 1.9006
-31.9116 1.5136 1.8934
-31.9103 0.7414 1.8872
-31.9116 -0.0300 1.8822
-31.9129 -0.8013 1.8783
-31.9082 -1.5735 1.8751
-31.9076 -2.3475 1.8733
-31.9070 -3.1243 1.8725
-31.9097 -3.9049 1.8731
-31.9103 -4.6901 1.8746
-31.9109 -5.4810 1.8772
-25.4399 -5.0053 1.4995
-31.9091 -7.0830 1.8856
-31.9094 -7.8966 1.8917
-23.5983 -6.4488 1.4043
-24.1274 -7.2243 1.4422
-31.9081 -10.4005 1.9170
-31.9088 -11.2605 1.9280
-25.2711 -9.6109 1.5367
-31.9084 -13.0259 1.9541
-31.9080 -13.9345 1.9693
-31.9076 -14.8623 1.9861
-23.6827 -11.7357 1.4877
-31.7964 -16.7251 2.0173
-16.4318 -9.1568 1.0537
-30.4769 -17.9620 1.9770
-28.8493 -17.9557 1.8945
-5.7160 -3.7521 0.3803
-25.9484 -17.9452 1.7508
-24.6452 -17.9394 1.6878
-14.8976 -11.4046 1.0365
-19.6857 -15.8389 1.3927
-14.0453 -11.8721 1.2158
-20.1993 -17.9284 1.7826
-19.2347 -17.9215 1.7320
-18.3235 -17.9187 1.6855
-17.4565 -17.9161 1.6423
-16.6287 -17.9126 1.6019
-15.8380 -17.9097 1.5644
-15.0806 -17.9070 1.5294
-14.3547 -17.9057 1.4968
-13.6556 -17.9032 1.4663
-12.9820 -17.9008 1.4377
-12.3317 -17.8985 1.4111
-11.7021 -17.8949 1.3861
-11.0929 -17.8925 1.3628
-10.5018 -17.8901 1.3411
-9.9274 -17.8878 1.3208
-9.3684 -17.8856 1.3018
-15.2881 -30.9861 2.2250
-14.9753 -32.2956 2.2896
-14.3423 -32.9964 2.3114
-13.6001 -33.4785 2.3188
-12.8217 -33.8877 2.3226
-12.0117 -34.2227 2.3226
-11.1925 -34.5367 2.3226
-10.3242 -34.6934 2.3135
-9.5288 -35.1006 2.3226
-8.5990 -34.9985 2.2995
-7.7572 -35.2236 2.2995
-6.9092 -35.4266 2.2995
-6.0556 -35.6074 2.2995
-5.2447 -36.0942 2.3206
-4.5284 -37.5110 2.4026
-3.6229 -37.6291 2.4026
-2.7142 -37.7234 2.4026
-1.8030 -37.7937 2.4026
-0.8899 -37.8400 2.4026
0.0169 -26.2465 1.6655
0.6362 -25.6471 1.6275
1.2579 -25.6726 1.6303
2.7675 -37.7836 2.4026
3.5215 -36.0885 2.2993
3.0780 -25.2235 1.6113
5.2604 -35.8770 2.2993
6.1249 -35.7368 2.2993
7.1198 -36.2579 2.3435
7.8657 -35.4985 2.3065
8.7386 -35.3701 2.3117
9.6092 -35.2176 2.3169
10.4534 -34.9632 2.3169
11.2904 -34.6866 2.3169
2.9330 -8.3221 0.5607
3.1606 -8.3213 0.5659
3.3911 -8.3171 0.5714
14.5530 -33.3643 2.3169
15.3445 -32.9810 2.3169
16.1251 -32.5774 2.3169
3.6805 -7.0049 0.5048
14.1743 -25.4634 1.8605
18.3965 -31.2476 2.3169
19.1284 -30.7659 2.3169
19.8468 -30.2657 2.3169
20.5512 -29.7473 2.3169
21.2412 -29.2112 2.3169
21.9164 -28.6579 2.3169
22.5762 -28.0877 2.3169
23.2203 -27.5013 2.3169
23.8482 -26.8990 2.3169
24.4597 -26.2813 2.3169
25.0541 -25.6488 2.3169
25.6314 -25.0019 2.3169
26.1909 -24.3411 2.3169
26.7326 -23.6671 2.3169
27.2560 -22.9803 2.3169
17.3750 -13.9454 1.4501
18.8855 -14.4217 1.5491
19.0279 -13.8157 1.5354
20.5450 -14.1722 1.6323
16.5829 -10.8574 1.2984
16.8303 -10.4474 1.2999
20.0675 -11.7950 1.5301
18.1628 -10.0932 1.3682
20.8726 -10.9477 1.5548
24.4258 -12.0681 1.8004
21.1411 -9.8172 1.5432
22.3724 -9.7390 1.6184
23.0206 -9.3663 1.6516
32.5412 -12.3323 2.3169
32.7666 -11.5204 2.3169
23.4640 -7.6180 1.6488
23.2568 -6.9342 1.6252
21.0074 -5.7147 1.4608
33.4610 -8.2397 2.3169
33.5828 -7.4140 2.3169
33.6840 -6.5871 2.3169
33.7646 -5.7597 2.3169
33.8247 -4.9321 2.3169
33.8644 -4.1050 2.3169
33.8838 -3.2788 2.3169
33.8830 -2.4541 2.3169
33.8620 -1.6313 2.3169
33.8212 -0.8110 2.3169
24.3122 0.0046 1.6685
24.3101 0.5922 1.6723
24.3081 1.1803 1.6772
24.3060 1.7698 1.6830
24.1713 2.3483 1.6806
24.2110 2.9443 1.6913
24.2089 3.5396 1.7002
24.1650 4.1318 1.7072
24.2046 4.7433 1.7211
24.2024 5.3532 1.7332
15.9430 3.9327 1.1505
15.3655 4.1866 1.1181
15.3640 4.5879 1.1280
15.4394 5.0198 1.1445
15.4379 5.4352 1.1561
15.3596 5.8285 1.1627
15.3581 6.2566 1.1760
19.7852 8.6233 1.5335
19.7819 9.1969 1.5530
19.7780 9.7832 1.5739
19.7720 10.3823 1.5959
19.7568 10.9915 1.6187
15.7952 9.2943 1.3146
15.3465 9.5369 1.2984
15.5260 10.1767 1.3365
15.4194 10.6483 1.3515
15.3407 11.1510 1.3702
15.3387 11.7264 1.3974
24.9127 20.0180 2.3169
24.3807 20.5798 2.3169
23.8368 21.1281 2.3169
23.2814 21.6629 2.3169
22.7149 22.1840 2.3169
22.1375 22.6911 2.3169
21.5497 23.1841 2.3169
20.9517 23.6628 2.3169
20.3439 24.1270 2.3169
19.7266 24.5767 2.3169
19.1002 25.0115 2.3169
18.4651 25.4313 2.3169
17.8214 25.8361 2.3169
17.1697 26.2257 2.3169
16.5102 26.5999 2.3169
15.8433 26.9586 2.3169
15.1693 27.3018 2.3169
14.4886 27.6293 2.3169
13.8014 27.9410 2.3169
13.1082 28.2368 2.3169
12.4093 28.5166 2.3169
11.7050 28.7804 2.3169
10.9958 29.0281 2.3169
10.2818 29.2596 2.3169
9.5634 29.4747 2.3169
8.8411 29.6736 2.3169
8.1151 29.8561 2.3169
7.3857 30.0222 2.3169
6.6534 30.1719 2.3169
5.9184 30.3050 2.3169
5.1811 30.4216 2.3169
3.4791 23.9066 1.8148
3.7078 30.6629 2.3213
2.9643 30.7299 2.3213
2.2196 30.7803 2.3213
1.4743 30.8142 2.3213
0.7288 30.8314 2.3213
-0.0167 30.8319 2.3213
-0.7619 30.8159 2.3213
-1.5063 30.7832 2.3213
-2.2498 30.7340 2.3213
-2.9919 30.6683 2.3213
-3.7322 30.5861 2.3213
-4.4707 30.4874 2.3213
-5.2067 30.3724 2.3213
-5.9400 30.2409 2.3213
-6.6703 30.0931 2.3213
-7.3973 29.9291 2.3213
-5.6248 20.6054 1.6078
-6.2122 20.7674 1.6313
-6.8010 20.8833 1.6522
-7.3916 20.9616 1.6714
-7.9881 21.0187 1.6902
-8.5954 21.0684 1.7096
-9.2061 21.0926 1.7282
-9.8198 21.0926 1.7461
-10.4450 21.0876 1.7650
-11.0871 21.0865 1.7857
-11.7435 21.0814 1.8075
-12.4173 21.0758 1.8309
-16.2651 26.1404 2.3026
-16.9062 25.7609 2.3026
-17.5392 25.3668 2.3026
-7.3089 10.0428 0.9265
-18.7545 24.5024 2.2995
-19.3606 24.0658 2.2995
-18.8185 22.2677 2.1683
-20.5445 23.1508 2.2995
-21.1217 22.6728 2.2995
-21.6879 22.1806 2.2994
-22.2435 21.6749 2.2993
-22.7889 21.1570 2.2993
-23.3233 20.6262 2.2993
-24.4390 20.5819 2.3565
-25.4512 20.4035 2.4026
-25.9727 19.8096 2.4026
-26.4815 19.2033 2.4026
-26.9769 18.5846 2.4026
-27.4589 17.9537 2.4026
-27.9272 17.3110 2.4026
-28.3814 16.6567 2.4026
-15.2768 8.4762 1.2735
-22.9730 12.0296 1.8872
-17.1861 8.4765 1.3923
-18.3303 8.4963 1.4655
-19.5357 8.4877 1.5424
-20.8564 8.4683 1.6272
-22.4497 8.4892 1.7319
-24.1852 8.4832 1.8461
-26.2182 8.4905 1.9815
-28.5447 8.4874 2.1373
-23.0959 6.2640 1.7143
-30.6937 7.5332 2.2599
-30.5146 6.7118 2.2298
-30.2593 5.8928 2.1959
-30.5996 5.1950 2.2066
-30.9769 4.4918 2.2210
-31.1475 3.7504 2.2217
-31.2784 3.0013 2.2208
-31.3916 2.2482 2.2199
-31.4889 1.4914 2.2191
-31.5702 0.7313 2.2185
-31.6354 -0.0319 2.2179
-31.6749 -0.7975 2.2169
-31.6587 -1.5633 2.2132
-31.6770 -2.3326 2.2132
-31.6767 -3.1038 2.2132
-31.5912 -3.8682 2.2085
-31.5093 -4.6334 2.2054
-25.6536 -4.4081 1.7987
-26.1169 -5.1403 1.8355
-31.1042 -6.9065 2.1926
-30.9104 -7.6516 2.1867
-30.6992 -8.3915 2.1810
-23.9197 -7.1638 1.7076
-30.1089 -9.8162 2.1612
-25.7844 -9.1012 1.8622
-25.9666 -9.8773 1.8881
-29.3037 -11.9649 2.1468
-29.1324 -12.7245 2.1517
-28.9797 -13.5007 2.1595
-23.3220 -11.5588 1.7547
-28.4692 -14.9772 2.1641
-16.4263 -9.1550 1.2626
-27.6117 -16.2756 2.1477
-27.1947 -16.9281 2.1423
-5.7151 -3.7521 0.4563
-25.9451 -17.9452 2.1015
-24.6422 -17.9394 2.0267
-23.4301 -17.9388 1.9584
-19.6843 -15.8396 1.6737
-21.2100 -17.9304 2.1457
-20.1969 -17.9283 2.0832
-19.2332 -17.9220 2.0248
-18.3221 -17.9192 1.9709
-17.4551 -17.9166 1.9208
-16.6272 -17.9128 1.8741
-15.8366 -17.9099 1.8306
-15.0793 -17.9072 1.7900
-14.3531 -17.9055 1.7523
-13.6541 -17.9030 1.7169
-12.9805 -17.9006 1.6839
-12.3303 -17.8982 1.6531
-11.7011 -17.8951 1.6242
-11.0919 -17.8926 1.5972
-10.5009 -17.8903 1.5721
-9.9266 -17.8880 1.5486
-9.3676 -17.8858 1.5266
-13.5660 -27.4984 2.3160
-12.9478 -27.9258 2.3226
-12.2817 -28.2585 2.3226
-4.3717 -10.7626 0.8748
-4.1111 -10.8667 0.8741
-3.8480 -10.9644 0.8735
-3.5826 -11.0557 0.8729
-3.3150 -11.1406 0.8723
-3.0453 -11.2191 0.8718
-2.7739 -11.2909 0.8713
-2.5007 -11.3563 0.8708
-5.8806 -30.1561 2.2995
-5.2573 -30.9169 2.3458
-4.6207 -31.8035 2.4026
-3.8531 -31.9215 2.4026
-3.0823 -32.0195 2.4026
-2.3090 -32.0974 2.4026
-1.5336 -32.1553 2.4026
-0.7568 -32.1929 2.4026
0.0169 -25.8835 1.9307
0.6364 -25.6489 1.9133
1.2581 -25.6744 1.9166
1.9079 -26.0466 1.9470
3.0014 -30.7580 2.3038
3.0637 -25.1064 1.8854
4.4746 -30.5183 2.2993
5.2101 -30.3994 2.2993
5.9421 -30.2613 2.2993
6.6703 -30.1043 2.2993
7.4506 -30.1578 2.3169
8.1748 -29.9615 2.3169
8.8934 -29.7465 2.3169
9.6060 -29.5131 2.3169
2.9316 -8.3187 0.6587
3.1605 -8.3213 0.6650
11.7024 -28.7028 2.3169
12.3858 -28.3970 2.3169
13.0606 -28.0736 2.3169
13.7265 -27.7331 2.3169
3.6800 -7.0043 0.5928
14.1718 -25.4604 2.1847
15.6657 -26.6107 2.3169
16.2911 -26.2041 2.3169
16.9054 -25.7818 2.3169
17.5080 -25.3440 2.3169
18.0987 -24.8912 2.3169
18.6769 -24.4237 2.3169
19.2425 -23.9419 2.3169
19.7949 -23.4461 2.3169
20.3339 -22.9368 2.3169
20.8592 -22.4144 2.3169
21.3703 -21.8793 2.3169
21.8670 -21.3317 2.3169
22.3490 -20.7723 2.3169
22.8160 -20.2015 2.3169
23.2678 -19.6195 2.3169
17.3723 -13.9445 1.6980
18.8823 -14.4207 1.8135
19.0276 -13.8169 1.7973
20.5447 -14.1734 1.9103
16.5797 -10.8565 1.5190
16.8252 -10.4454 1.5201
20.0612 -11.7927 1.7888
18.1575 -10.0916 1.5992
20.8657 -10.9455 1.8167
24.4164 -12.0652 2.1031
21.1315 -9.8141 1.8021
22.3720 -9.7403 1.8902
23.0090 -9.3632 1.9275
27.8766 -10.5664 2.3169
28.0774 -9.8736 2.3169
23.4665 -7.6203 1.9239
23.2564 -6.9356 1.8956
21.0070 -5.7160 1.7034
28.7044 -7.0703 2.3169
28.8171 -6.3637 2.3169
28.9122 -5.6558 2.3169
28.9897 -4.9470 2.3169
29.0496 -4.2377 2.3169
29.0921 -3.5284 2.3169
29.1171 -2.8195 2.3169
29.1248 -2.1114 2.3169
29.1153 -1.4045 2.3169
29.0887 -0.6994 2.3169
29.0449 0.0036 2.3169
24.3101 0.5906 1.9433
24.3081 1.1787 1.9483
24.3060 1.7682 1.9545
24.1713 2.3467 1.9512
24.2110 2.9427 1.9631
24.2089 3.5379 1.9728
24.1650 4.1302 1.9803
24.2046 4.7416 1.9959
24.2024 5.3515 2.0094
15.9430 3.9316 1.3335
15.3655 4.1856 1.2956
15.3640 4.5868 1.3067
15.4394 5.0187 1.3254
15.4379 5.4341 1.3384
15.3596 5.8274 1.3458
15.3581 6.2554 1.3608
19.7554 8.6088 1.7714
19.7621 9.1862 1.7944
19.7581 9.7718 1.8179
19.7540 10.3713 1.8431
19.8450 11.0389 1.8790
15.7844 9.2866 1.5178
15.3465 9.5356 1.4998
15.6435 10.2524 1.5550
15.4194 10.6470 1.5603
15.3407 11.1497 1.5816
15.3387 11.7250 1.6126
21.5932 17.3487 2.3169
21.1367 17.8395 2.3169
20.6697 18.3189 2.3169
20.1924 18.7867 2.3169
19.7052 19.2426 2.3169
19.2083 19.6866 2.3169
18.7020 20.1184 2.3169
18.1866 20.5379 2.3169
17.6624 20.9449 2.3169
17.1297 21.3392 2.3169
16.5888 21.7207 2.3169
16.0400 22.0893 2.3169
15.4836 22.4448 2.3169
14.9199 22.7870 2.3169
14.3491 23.1160 2.3169
13.7717 23.4314 2.3169
13.1878 23.7333 2.3169
12.5978 24.0215 2.3169
12.0021 24.2960 2.3169
11.4008 24.5566 2.3169
10.7944 24.8032 2.3169
10.1830 25.0358 2.3169
9.5672 25.2543 2.3169
8.9469 25.4585 2.3169
8.3228 25.6486 2.3169
7.6950 25.8244 2.3169
7.0638 25.9857 2.3169
6.4174 26.0833 2.3126
5.7816 26.2156 2.3126
5.1434 26.3334 2.3126
4.5030 26.4367 2.3126
3.4788 23.9018 2.0838
3.2170 26.5997 2.3126
2.5831 26.7747 2.3226
1.9344 26.8199 2.3226
1.2850 26.8506 2.3226
0.6353 26.8666 2.3226
-0.0143 26.8680 2.3226
-0.6638 26.8548 2.3226
-1.3126 26.8269 2.3226
-1.9606 26.7845 2.3226
-1.8101 18.5544 1.6123
-2.3050 18.8900 1.6459
-2.8214 19.2407 1.6819
-3.3564 19.5788 1.7179
-3.9036 19.8726 1.7513
-4.4613 20.1264 1.7824
-5.0326 20.3608 1.8131
-5.6191 20.5839 1.8442
-6.2125 20.7675 1.8730
-6.8068 20.9002 1.8987
-8.8678 25.1467 2.3026
-9.4766 24.9343 2.3026
-10.0810 24.7081 2.3026
-10.6657 24.4355 2.2995
-9.8913 21.2450 2.0202
-11.8465 23.9159 2.2995
-11.1683 21.2397 2.0663
-13.0040 23.3428 2.2995
-13.5733 23.0365 2.2995
-14.1359 22.7172 2.2995
-14.6915 22.3850 2.2995
-15.2399 22.0400 2.2995
-7.3089 10.0422 1.0650
-16.3139 21.3123 2.2995
-16.8389 20.9298 2.2995
-17.4304 20.6237 2.3094
-10.7085 12.0662 1.3784
-11.2285 12.0522 1.4061
-19.6982 20.1441 2.4026
-20.2004 19.6825 2.4026
-20.6925 19.2091 2.4026
-21.1742 18.7240 2.4026
-21.6453 18.2274 2.4026
-22.1054 17.7196 2.4026
-22.5543 17.2007 2.4026
-22.9918 16.6710 2.4026
-23.4176 16.1308 2.4026
-23.8313 15.5801 2.4026
-13.6987 8.4903 1.3582
-14.4404 8.4738 1.4091
-15.2760 8.4746 1.4681
-16.1880 8.4755 1.5335
-17.1647 8.4648 1.6039
-18.3303 8.4951 1.6907
-19.5357 8.4863 1.7798
-20.8928 8.4816 1.8814
-22.4497 8.4877 1.9995
-24.1898 8.4832 2.1322
-19.7733 6.4021 1.7261
-26.2168 7.7936 2.2679
-26.3233 7.1376 2.2579
-26.2699 6.4458 2.2357
-26.0907 5.7370 2.2043
-25.3689 4.9388 2.1291
-24.9600 4.2359 2.0821
-24.6037 3.5660 2.0411
-24.7343 2.9766 2.0419
-25.1420 2.4109 2.0666
-26.3823 1.8877 2.1605
-26.6512 1.2606 2.1756
-26.8876 0.6211 2.1892
-26.9716 -0.0289 2.1916
-27.0473 -0.6828 2.1945
-27.0771 -1.3388 2.1950
-27.0875 -1.9965 2.1952
-27.0308 -2.6504 2.1913
-26.9572 -3.3026 2.1872
-26.8527 -3.9505 2.1819
-26.7976 -4.6065 2.1819
-26.7274 -5.2623 2.1820
-26.7042 -5.9314 2.1872
-26.6312 -6.5942 2.1897
-26.5117 -7.2487 2.1897
-26.3164 -7.8835 2.1848
-26.1061 -8.5131 2.1799
-25.8994 -9.1437 2.1766
-25.7319 -9.7899 2.1778
-25.5494 -10.4339 2.1793
-25.3521 -11.0753 2.1808
-13.8549 -6.4556 1.2028
-23.3123 -11.5558 2.0438
-24.6247 -12.9566 2.1819
-16.4207 -9.1532 1.4716
-24.0521 -14.1793 2.1819
-23.7426 -14.7812 2.1819
-5.7143 -3.7521 0.5324
-23.0775 -15.9638 2.1819
-22.7223 -16.5437 2.1819
-22.3521 -17.1154 2.1819
-19.6604 -15.8221 1.9528
-18.8451 -15.9330 2.1819
-18.4798 -16.4059 2.1819
-18.0968 -16.8649 2.1813
-17.6764 -17.2896 2.1774
-17.2237 -17.6808 2.1708
-16.6034 -17.8889 2.1438
-15.8352 -17.9101 2.0972
-15.0780 -17.9074 2.0511
-14.3515 -17.9052 2.0082
-13.6526 -17.9027 1.9680
-12.9791 -17.9003 1.9305
-12.3290 -17.8980 1.8955
-11.7001 -17.8952 1.8627
-11.0910 -17.8928 1.8320
-10.5000 -17.8904 1.8034
-9.9257 -17.8881 1.7767
-9.3668 -17.8859 1.7518
-11.8530 -24.0283 2.3226
-4.2907 -9.2550 0.8835
-4.0664 -9.3571 0.8829
-3.8397 -9.4538 0.8822
-3.6108 -9.5450 0.8816
-3.3796 -9.6307 0.8811
-3.1464 -9.7107 0.8805
-2.9113 -9.7851 0.8800
-2.6745 -9.8539 0.8796
-2.4360 -9.9168 0.8791
-2.3753 -10.7879 0.9504
-5.2702 -27.0288 2.3681
-4.6854 -27.5568 2.4026
-4.0203 -27.6748 2.4026
-3.3522 -27.7757 2.4026
-2.6815 -27.8594 2.4026
-2.0085 -27.9258 2.4026
-1.3339 -27.9748 2.4026
-0.6581 -28.0064 2.4026
0.0171 -25.8820 2.2192
0.6954 -28.0173 2.4026
1.3720 -27.9964 2.4026
2.0480 -27.9581 2.4026
2.7228 -27.9024 2.4026
3.0622 -25.0945 2.1665
3.8922 -26.5466 2.2993
4.5320 -26.4434 2.2993
5.1688 -26.3238 2.2993
5.8023 -26.1877 2.2993
6.4319 -26.0353 2.2993
7.1114 -26.0650 2.3169
7.7368 -25.8790 2.3169
8.3571 -25.6770 2.3169
8.9717 -25.4591 2.3169
9.5804 -25.2254 2.3169
10.1826 -24.9763 2.3169
10.7779 -24.7119 2.3169
11.3660 -24.4323 2.3169
11.9464 -24.1378 2.3169
3.6796 -7.0038 0.6810
13.0826 -23.5051 2.3169
13.6377 -23.1673 2.3169
14.1836 -22.8156 2.3169
14.7199 -22.4502 2.3169
15.2464 -22.0715 2.3169
15.7625 -21.6798 2.3169
16.2682 -21.2752 2.3169
16.7629 -20.8581 2.3169
17.2464 -20.4290 2.3169
17.7184 -19.9880 2.3169
18.1786 -19.5355 2.3169
18.6267 -19.0718 2.3169
19.0625 -18.5974 2.3169
19.4857 -18.1125 2.3169
19.8959 -17.6176 2.3169
20.2932 -17.1129 2.3169
17.3696 -13.9437 1.9463
18.8792 -14.4197 2.0782
20.6051 -14.9639 2.2304
21.7469 -15.0044 2.3169
16.5764 -10.8555 1.7398
16.8202 -10.4435 1.7406
22.6900 -13.3396 2.3169
18.1522 -10.0899 1.8305
20.8589 -10.9434 2.0790
23.5022 -11.6150 2.3169
21.1218 -9.8111 2.0611
23.9693 -10.4374 2.3169
24.1804 -9.8414 2.3169
24.3762 -9.2413 2.3169
24.5568 -8.6372 2.3169
24.7221 -8.0297 2.3169
24.8722 -7.4192 2.3169
21.0066 -5.7173 1.9463
25.1263 -6.1906 2.3169
25.2303 -5.5733 2.3169
25.3190 -4.9546 2.3169
25.3923 -4.3348 2.3169
25.4504 -3.7143 2.3169
25.4931 -3.0936 2.3169
25.5206 -2.4728 2.3169
25.5330 -1.8526 2.3169
25.5302 -1.2333 2.3169
25.5124 -0.6151 2.3169
25.4796 0.0015 2.3169
24.2724 0.5881 2.2113
24.2128 1.1725 2.2113
24.1392 1.7544 2.2113
24.0517 2.3335 2.2113
23.9505 2.9094 2.2113
23.8356 3.4818 2.2113
23.7071 4.0503 2.2113
23.5653 4.6148 2.2113
23.4103 5.1748 2.2113
15.9146 3.9235 1.5141
15.3655 4.1845 1.4734
15.3640 4.5857 1.4857
15.4394 5.0176 1.5066
15.4379 5.4329 1.5212
15.3596 5.8262 1.5292
15.3581 6.2543 1.5460
19.9097 8.6745 2.0277
19.7428 9.1757 2.0357
19.7395 9.7610 2.0621
19.7372 10.3609 2.0904
19.8520 11.0412 2.1333
15.7995 9.2942 1.7239
15.3465 9.5344 1.7015
15.6455 10.2524 1.7641
15.4194 10.6457 1.7695
15.3407 11.1483 1.7933
15.3387 11.7237 1.8281
19.0503 15.3039 2.3169
18.6507 15.7396 2.3169
18.2417 16.1653 2.3169
17.8235 16.5809 2.3169
17.3962 16.9860 2.3169
16.9602 17.3808 2.3169
16.5157 17.7647 2.3169
16.0630 18.1379 2.3169
15.6023 18.5001 2.3169
15.1339 18.8511 2.3169
14.6581 19.1908 2.3169
14.1751 19.5192 2.3169
13.6852 19.8360 2.3169
13.1887 20.1411 2.3169
12.6857 20.4344 2.3169
12.1767 20.7158 2.3169
11.6618 20.9852 2.3169
11.1414 21.2424 2.3169
10.6157 21.4875 2.3169
10.0849 21.7203 2.3169
9.5495 21.9406 2.3169
9.0095 22.1485 2.3169
8.4654 22.3439 2.3169
7.9173 22.5266 2.3169
7.3656 22.6967 2.3169
6.8105 22.8540 2.3169
6.2406 22.9551 2.3126
5.6807 23.0866 2.3126
5.1182 23.2052 2.3126
4.5535 23.3109 2.3126
3.9868 23.4037 2.3126
3.4184 23.4835 2.3126
2.8486 23.5504 2.3126
2.2874 23.7064 2.3226
1.7131 23.7474 2.3226
1.1381 23.7754 2.3226
0.3897 16.4743 1.6083
-0.0089 16.9224 1.6519
-0.4297 17.3889 1.6983
-0.8723 17.8304 1.7432
-1.3322 18.2008 1.7822
-1.8090 18.5440 1.8197
-2.3050 18.8900 1.8586
-2.8245 19.2612 1.9012
-3.9785 23.2073 2.2995
-3.9391 20.0530 1.9956
-5.0968 22.9926 2.2995
-5.6521 22.8661 2.2995
-5.6760 20.7915 2.1036
-6.7536 22.5757 2.2995
-6.8636 21.0738 2.1622
-7.8414 22.2352 2.2995
-8.3795 22.0465 2.2995
-8.9133 21.8455 2.2995
-9.4427 21.6323 2.2995
-9.8913 21.2439 2.2819
-10.4868 21.1698 2.2995
-11.0051 20.9281 2.3003
-11.5165 20.6714 2.3008
-12.1670 20.6485 2.3290
-12.8358 20.6265 2.3594
-13.5271 20.6094 2.3926
-14.0892 20.3745 2.4026
-7.3089 10.0415 1.2037
-8.7230 11.3949 1.3898
-15.5631 19.3427 2.4026
-16.0390 18.9760 2.4026
-16.5068 18.5981 2.4026
-16.9662 18.2094 2.4026
-17.4170 17.8098 2.4026
-17.8589 17.3996 2.4026
-18.2917 16.9789 2.4026
-18.7151 16.5480 2.4026
-19.1289 16.1069 2.4026
-19.5329 15.6560 2.4026
-19.9269 15.1954 2.4026
-11.6843 8.4712 1.3822
-12.3095 8.4782 1.4298
-21.0459 13.7576 2.4026
-13.6927 8.4856 1.5375
-14.4222 8.4621 1.5940
-15.2780 8.4746 1.6635
-16.1902 8.4755 1.7378
-17.1909 8.4765 1.8204
-18.3303 8.4938 1.9163
-19.5357 8.4850 2.0176
-20.8928 8.4803 2.1332
-22.4064 8.4698 2.2631
-23.2302 8.1452 2.3226
-23.4394 7.5875 2.3212
-23.6333 7.0240 2.3197
-23.6900 6.4220 2.3061
-23.7885 5.8354 2.2980
-23.7242 5.2151 2.2756
-23.6707 4.6067 2.2559
-23.0993 3.9186 2.1885
-22.9633 3.3268 2.1641
-22.7866 2.7407 2.1374
-23.3998 2.2423 2.1859
-23.8377 1.7041 2.2189
-23.5194 1.1109 2.1828
-23.2205 0.5349 2.1499
-23.4523 -0.0267 2.1674
-23.5537 -0.5961 2.1741
-23.5692 -1.1669 2.1741
-23.5710 -1.7389 2.1741
-23.5591 -2.3116 2.1741
-23.5334 -2.8847 2.1741
-23.4939 -3.4579 2.1741
-23.4405 -4.0310 2.1741
-23.3731 -4.6035 2.1741
-23.2919 -5.1751 2.1741
-23.1967 -5.7454 2.1741
-23.0875 -6.3141 2.1741
-22.9643 -6.8809 2.1741
-22.8446 -7.4511 2.1758
-16.5572 -5.8466 1.5875
-22.5385 -8.5766 2.1768
-22.4056 -9.1517 2.1813
-22.2191 -9.7083 2.1819
-22.0118 -10.2580 2.1819
-21.7908 -10.8033 2.1819
-21.5561 -11.3437 2.1819
-16.4152 -9.1515 1.6809
-21.0460 -12.4089 2.1819
-20.7707 -12.9328 2.1819
-5.7135 -3.7520 0.6086
-20.1806 -13.9616 2.1819
-19.8659 -14.4658 2.1819
-19.5383 -14.9626 2.1819
-19.1980 -15.4518 2.1819
-16.6691 -14.0949 2.1741
-16.3435 -14.5110 2.1741
-15.9835 -14.8971 2.1709
-15.5124 -15.1746 2.1535
-15.2159 -15.6214 2.1617
-15.1208 -16.2932 2.2009
-14.9913 -16.9574 2.2386
-14.7796 -17.5547 2.2672
-14.3499 -17.9050 2.2646
-13.6511 -17.9025 2.2196
-12.9777 -17.9001 2.1775
-12.3277 -17.8978 2.1383
-10.0754 -15.4117 1.8099
-9.7968 -15.8065 1.8262
-10.4991 -17.8906 2.0352
-4.4102 -7.9488 0.8911
-4.2174 -8.0540 0.8904
-4.0221 -8.1544 0.8898
-3.8245 -8.2501 0.8892
-3.6245 -8.3410 0.8886
-3.4224 -8.4271 0.8880
-3.2183 -8.5083 0.8875
-3.0122 -8.5845 0.8870
-2.8043 -8.6557 0.8865
-2.5948 -8.7219 0.8861
-2.3836 -8.7831 0.8857
-2.3764 -9.6750 0.9690
-2.3753 -10.7888 1.0740
-4.7315 -24.2683 2.4026
-4.1459 -24.3865 2.4026
-3.5572 -24.4896 2.4026
-2.9658 -24.5777 2.4026
-2.3722 -24.6506 2.4026
-1.7768 -24.7084 2.4026
-1.1799 -24.7509 2.4026
-0.5820 -24.7780 2.4026
0.0166 -24.7899 2.4026
0.6154 -24.7864 2.4026
1.2139 -24.7676 2.4026
1.8119 -24.7334 2.4026
2.4088 -24.6840 2.4026
2.8751 -23.5611 2.2993
3.4432 -23.4845 2.2993
4.0092 -23.3934 2.2993
4.5726 -23.2878 2.2993
5.1330 -23.1678 2.2993
5.6901 -23.0334 2.2993
6.2435 -22.8849 2.2993
6.8449 -22.8964 2.3169
7.3939 -22.7185 2.3169
7.9380 -22.5266 2.3169
8.4768 -22.3208 2.3169
9.0101 -22.1015 2.3169
9.5373 -21.8686 2.3169
10.0583 -21.6224 2.3169
10.5725 -21.3631 2.3169
3.6791 -7.0033 0.7693
11.5797 -20.8059 2.3169
12.0718 -20.5085 2.3169
12.5560 -20.1987 2.3169
13.0319 -19.8770 2.3169
13.4991 -19.5434 2.3169
13.9574 -19.1982 2.3169
14.4064 -18.8417 2.3169
14.8459 -18.4742 2.3169
15.2757 -18.0960 2.3169
15.6954 -17.7072 2.3169
16.1048 -17.3082 2.3169
16.5037 -16.8994 2.3169
16.8917 -16.4809 2.3169
17.2687 -16.0532 2.3169
17.6345 -15.6165 2.3169
17.9888 -15.1710 2.3169
17.3669 -13.9428 2.1950
18.6623 -14.2555 2.3169
18.9811 -13.7859 2.3169
19.2877 -13.3091 2.3169
16.5731 -10.8546 1.9609
16.8152 -10.4416 1.9614
20.1326 -11.8376 2.3169
18.1469 -10.0882 2.0622
20.6323 -10.8259 2.3169
20.8626 -10.3120 2.3169
21.0799 -9.7930 2.3169
21.2839 -9.2695 2.3169
21.4746 -8.7416 2.3169
21.6519 -8.2099 2.3169
21.8158 -7.6746 2.3169
21.9663 -7.1361 2.3169
22.1032 -6.5947 2.3169
21.0062 -5.7185 2.1897
22.3364 -5.5047 2.3169
22.4326 -4.9568 2.3169
22.5152 -4.4074 2.3169
22.5842 -3.8569 2.3169
22.6397 -3.3056 2.3169
22.6815 -2.7539 2.3169
22.7099 -2.2020 2.3169
22.7248 -1.6504 2.3169
22.7262 -1.0993 2.3169
22.7142 -0.5491 2.3169
22.6889 -0.0002 2.3169
22.6503 0.5473 2.3169
22.5986 1.0928 2.3169
22.5338 1.6363 2.3169
22.4559 2.1772 2.3169
22.3652 2.7153 2.3169
22.2617 3.2504 2.3169
22.1455 3.7820 2.3169
22.0168 4.3100 2.3169
21.8756 4.8340 2.3169
15.9473 3.9305 1.7010
15.3655 4.1834 1.6515
15.3641 4.5846 1.6651
15.4394 5.0164 1.6882
15.4379 5.4318 1.7042
15.3596 5.8251 1.7130
15.3581 6.2531 1.7315
19.7564 8.6062 2.2531
20.0693 9.3259 2.3169
19.8121 9.7954 2.3169
19.5441 10.2580 2.3169
19.2657 10.7136 2.3169
15.8146 9.3018 1.9308
15.3465 9.5331 1.9037
15.6476 10.2524 1.9736
15.4194 10.6443 1.9792
15.3407 11.1470 2.0055
15.3387 11.7223 2.0441
17.0396 13.6870 2.3169
16.6845 14.0786 2.3169
16.3207 14.4614 2.3169
15.9486 14.8351 2.3169
15.5683 15.1996 2.3169
15.1800 15.5548 2.3169
14.7840 15.9004 2.3169
14.3804 16.2363 2.3169
13.9696 16.5625 2.3169
13.5518 16.8788 2.3169
13.1272 17.1849 2.3169
12.6960 17.4808 2.3169
12.2585 17.7664 2.3169
11.8150 18.0416 2.3169
11.3655 18.3061 2.3169
10.9105 18.5600 2.3169
10.4502 18.8031 2.3169
9.9847 19.0354 2.3169
9.5144 19.2567 2.3169
9.0395 19.4669 2.3169
8.5602 19.6660 2.3169
8.0768 19.8539 2.3169
7.5896 20.0304 2.3169
7.0987 20.1957 2.3169
6.6045 20.3495 2.3169
6.0957 20.4532 2.3126
5.5965 20.5838 2.3126
5.0947 20.7028 2.3126
4.5905 20.8103 2.3126
4.0842 20.9062 2.3126
3.5761 20.9904 2.3126
3.0664 21.0629 2.3126
1.7555 14.5113 1.5887
1.4391 14.9127 1.6288
1.1153 15.4582 1.6854
0.7666 16.0107 1.7436
0.3900 16.4768 1.7932
-0.0088 16.9222 1.8414
-0.4295 17.3881 1.8930
-1.0322 21.1004 2.2995
-1.5420 21.0675 2.2995
-2.0508 21.0229 2.2995
-2.5584 20.9668 2.2995
-3.0647 20.8990 2.2995
-3.5693 20.8197 2.2995
-3.9392 20.0530 2.2245
-4.5724 20.6266 2.2995
-5.0705 20.5129 2.2995
-5.5660 20.3878 2.2995
-6.0585 20.2513 2.2995
-6.6015 20.2680 2.3183
-7.1943 20.3993 2.3519
-7.8008 20.5230 2.3865
-8.3534 20.4722 2.4026
-8.8497 20.2727 2.4027
-9.3416 20.0621 2.4029
-9.8278 19.8383 2.4028
-10.3096 19.6044 2.4029
-10.7862 19.3596 2.4030
-11.2563 19.1019 2.4028
-11.7199 18.8323 2.4026
-12.1788 18.5541 2.4026
-12.6315 18.2652 2.4026
-7.3089 10.0408 1.3427
-13.5171 17.6562 2.4026
-13.9497 17.3362 2.4026
-14.3751 17.0061 2.4026
-14.7931 16.6660 2.4026
-15.2034 16.3162 2.4026
-15.6059 15.9566 2.4026
-16.0004 15.5876 2.4026
-12.9749 12.0427 1.9024
-16.7641 14.8216 2.4026
-17.1331 14.4251 2.4026
-10.5928 8.4895 1.4549
-11.1279 8.4848 1.4983
-11.6855 8.4712 1.5439
-12.2844 8.4600 1.5939
-18.0310 11.7855 2.2995
-13.6927 8.4846 1.7177
-14.4439 8.4738 1.7838
-15.2799 8.4746 1.8591
-16.1923 8.4755 1.9426
-17.1933 8.4765 2.0352
-18.3303 8.4926 2.1424
-19.4973 8.4670 2.2515
-20.3417 8.2553 2.3226
-20.5600 7.7705 2.3226
-20.7672 7.2802 2.3226
-19.9149 6.4453 2.2064
-21.1474 6.2838 2.3226
-21.3201 5.7782 2.3226
-21.3754 5.2420 2.3111
-21.3459 4.6909 2.2920
-20.9626 4.0782 2.2367
-20.5989 3.4931 2.1854
-19.9467 2.8885 2.1054
-20.2038 2.4287 2.1228
-20.8060 1.9924 2.1774
-21.0367 1.5025 2.1942
-20.8502 0.9834 2.1686
-20.8490 0.4788 2.1637
-20.9687 -0.0253 2.1725
-21.0067 -0.5331 2.1741
-21.0170 -1.0420 2.1741
-21.0151 -1.5517 2.1741
-21.0010 -2.0620 2.1741
-20.9745 -2.5725 2.1741
-20.9357 -3.0829 2.1741
-20.8846 -3.5929 2.1741
-20.8210 -4.1023 2.1741
-20.7451 -4.6107 2.1741
-20.6567 -5.1178 2.1741
-20.5560 -5.6232 2.1741
-17.6195 -5.2807 1.8738
-20.3172 -6.6283 2.1741
-20.1793 -7.1271 2.1741
-20.0291 -7.6232 2.1741
-14.7466 -6.0245 1.6138
-19.6918 -8.6055 2.1741
-19.5048 -9.0912 2.1741
-19.3129 -9.5763 2.1749
-19.0946 -10.0499 2.1741
-16.3315 -9.1061 1.8815
-18.6366 -10.9898 2.1741
-18.4031 -11.4601 2.1757
-5.7127 -3.7520 0.6850
-17.8709 -12.3652 2.1753
-17.6060 -12.8218 2.1773
-17.2937 -13.2452 2.1749
-16.9839 -13.6713 2.1741
-14.8521 -12.5599 2.1552
-14.3577 -12.7492 2.1252
-13.9449 -12.9984 2.1077
-13.6015 -13.3067 2.1015
-13.3302 -13.6868 2.1079
-13.1519 -14.1730 2.1311
-13.6141 -15.4011 2.2633
-13.5765 -16.1274 2.3189
-13.2165 -16.4923 2.3226
-12.8263 -16.8225 2.3226
-12.4277 -17.1430 2.3226
-10.2599 -14.8971 1.9823
-9.4183 -14.4079 1.8848
-4.3787 -7.0654 0.9094
-4.1487 -7.0702 0.8961
-3.9772 -7.1690 0.8955
-3.8033 -7.2638 0.8949
-3.6271 -7.3542 0.8943
-3.4488 -7.4405 0.8938
-3.2685 -7.5224 0.8932
-3.0862 -7.5999 0.8927
-2.9021 -7.6731 0.8923
-2.7162 -7.7417 0.8918
-2.5287 -7.8059 0.8914
-2.3781 -7.9945 0.9056
-2.3773 -8.7607 0.9851
-2.3764 -9.6759 1.0807
-2.3752 -10.7898 1.1978
-4.2421 -21.7606 2.4026
-3.7168 -21.8655 2.4026
-3.1889 -21.9570 2.4026
-2.6587 -22.0351 2.4026
-2.1264 -22.0998 2.4026
-1.5926 -22.1509 2.4026
-1.0575 -22.1883 2.4026
-0.5215 -22.2121 2.4026
0.0151 -22.2223 2.4026
0.5518 -22.2188 2.4026
1.0883 -22.2016 2.4026
1.6242 -22.1708 2.4026
2.1592 -22.1263 2.4026
2.6929 -22.0681 2.4026
3.0864 -21.0511 2.2993
3.5937 -20.9695 2.2993
4.0987 -20.8751 2.2993
4.6011 -20.7678 2.2993
5.1006 -20.6477 2.2993
5.5967 -20.5149 2.2993
6.0892 -20.3696 2.2993
6.5778 -20.2119 2.2993
7.1162 -20.1954 2.3169
7.5995 -20.0116 2.3169
8.0779 -19.8157 2.3169
8.5509 -19.6078 2.3169
9.0184 -19.3879 2.3169
9.4799 -19.1564 2.3169
3.6786 -7.0027 0.8579
10.3840 -18.6588 2.3169
10.8260 -18.3931 2.3169
11.2609 -18.1164 2.3169
11.6885 -17.8290 2.3169
12.1083 -17.5310 2.3169
12.5203 -17.2226 2.3169
12.9240 -16.9041 2.3169
13.3194 -16.5757 2.3169
13.7060 -16.2377 2.3169
14.0838 -15.8902 2.3169
14.4524 -15.5335 2.3169
14.8116 -15.1680 2.3169
15.1613 -14.7938 2.3169
15.5011 -14.4113 2.3169
15.8310 -14.0206 2.3169
16.1507 -13.6221 2.3169
16.4600 -13.2160 2.3169
16.7588 -12.8027 2.3169
17.0469 -12.3824 2.3169
17.3241 -11.9554 2.3169
16.5699 -10.8537 2.1825
16.8101 -10.4397 2.1825
18.0892 -10.6374 2.3169
18.3216 -10.1866 2.3169
18.5425 -9.7307 2.3169
18.7518 -9.2699 2.3169
18.9494 -8.8046 2.3169
19.1351 -8.3350 2.3169
19.3090 -7.8614 2.3169
19.4709 -7.3842 2.3169
19.6208 -6.9037 2.3169
19.7587 -6.4202 2.3169
19.8845 -5.9340 2.3169
19.9981 -5.4454 2.3169
20.0996 -4.9548 2.3169
20.1888 -4.4623 2.3169
20.2659 -3.9684 2.3169
20.3308 -3.4734 2.3169
20.3835 -2.9775 2.3169
20.4239 -2.4811 2.3169
20.4523 -1.9844 2.3169
20.4685 -1.4879 2.3169
20.4725 -0.9916 2.3169
20.4646 -0.4961 2.3169
20.4446 -0.0015 2.3169
20.4127 0.4919 2.3169
20.3689 0.9836 2.3169
20.3132 1.4737 2.3169
20.2459 1.9615 2.3169
20.1668 2.4471 2.3169
20.0762 2.9299 2.3169
19.9742 3.4098 2.3169
19.8607 3.8866 2.3169
19.7361 4.3598 2.3169
19.6003 4.8294 2.3169
15.3655 4.1823 1.8301
15.3641 4.5835 1.8448
15.4394 5.0153 1.8702
15.4380 5.4307 1.8877
15.3596 5.8240 1.8971
15.3581 6.2520 1.9174
18.3481 7.9913 2.3169
18.1279 8.4224 2.3169
17.8977 8.8475 2.3169
17.6579 9.2666 2.3169
17.4084 9.6794 2.3169
15.8299 9.3095 2.1386
15.3465 9.5318 2.1062
15.6496 10.2524 2.1837
15.4194 10.6430 2.1893
15.2876 11.1070 2.2105
14.9985 11.4609 2.2105
14.7459 11.8433 2.2172
14.7438 12.4397 2.2638
14.7626 13.0793 2.3169
14.4275 13.4188 2.3169
14.0850 13.7499 2.3169
13.7350 14.0727 2.3169
13.3780 14.3868 2.3169
13.0142 14.6923 2.3169
12.6436 14.9889 2.3169
12.2666 15.2765 2.3169
11.8833 15.5550 2.3169
11.4940 15.8243 2.3169
11.0989 16.0842 2.3169
10.6982 16.3346 2.3169
10.2921 16.5755 2.3169
9.8808 16.8068 2.3169
9.4646 17.0282 2.3169
9.0437 17.2398 2.3169
8.6184 17.4414 2.3169
8.1887 17.6331 2.3169
7.7551 17.8146 2.3169
7.3176 17.9860 2.3169
6.8766 18.1470 2.3169
6.4201 18.2632 2.3126
5.9735 18.4033 2.3126
5.5240 18.5331 2.3126
5.0719 18.6523 2.3126
4.6173 18.7611 2.3126
4.1605 18.8593 2.3126
2.5276 12.9366 1.5790
2.2633 13.2832 1.6147
2.0127 13.8237 1.6746
1.7451 14.4239 1.7422
1.4420 14.9402 1.8003
1.1150 15.4506 1.8585
0.9188 19.1854 2.3049
0.3964 16.7410 2.0099
-0.0098 19.1882 2.3035
-0.4735 19.1738 2.3027
-0.9365 19.1464 2.3017
-1.3985 19.1086 2.3008
-1.8593 19.0604 2.2998
-2.3193 19.0067 2.2995
-2.7782 18.9452 2.2995
-3.2356 18.8732 2.2995
-3.7587 19.1338 2.3414
-4.3006 19.3995 2.3858
-4.8026 19.4282 2.4026
-5.2723 19.3112 2.4028
-5.7393 19.1835 2.4030
-6.2034 19.0451 2.4033
-6.6643 18.8956 2.4035
-7.1218 18.7357 2.4037
-7.5757 18.5653 2.4039
-8.0257 18.3842 2.4041
-8.4715 18.1927 2.4043
-8.9130 17.9907 2.4044
-9.3490 17.7769 2.4044
-9.7789 17.5506 2.4040
-10.2040 17.3150 2.4037
-10.6242 17.0706 2.4036
-11.0375 16.8142 2.4031
-7.0214 10.1524 1.4740
-7.3089 10.0401 1.4821
-12.2456 15.9942 2.4026
-12.6366 15.7032 2.4026
-13.0211 15.4032 2.4026
-10.6973 12.0508 1.9182
-13.7695 14.7761 2.4026
-14.1330 14.4494 2.4026
-14.4891 14.1141 2.4026
-14.8376 13.7703 2.4026
-15.1783 13.4183 2.4026
-14.8454 12.4978 2.2995
-10.5928 8.4887 1.6071
-11.1279 8.4839 1.6553
-11.6867 8.4712 1.7059
-12.3095 8.4764 1.7648
-16.3165 10.6636 2.2995
-13.6927 8.4836 1.8984
-14.4456 8.4738 1.9719
-15.2818 8.4746 2.0556
-16.1945 8.4755 2.1479
-17.1720 8.4648 2.2474
-17.9713 8.3251 2.3226
-18.1865 7.8966 2.3226
-18.3919 7.4627 2.3226
-18.5871 7.0236 2.3226
-18.7722 6.5796 2.3226
-18.9470 6.1308 2.3226
-19.1050 5.6756 2.3218
-19.2286 5.2100 2.3181
-19.3109 4.7345 2.3109
-19.2207 4.2226 2.2846
-19.1014 3.7149 2.2564
-18.8076 3.1881 2.2093
-18.7773 2.7179 2.1947
-18.9395 2.2755 2.2039
-19.0546 1.8234 2.2088
-19.2025 1.3702 2.2187
-19.3247 0.9102 2.2269
-19.2686 0.4413 2.2158
-19.0947 -0.0243 2.1925
-19.0460 -0.4846 2.1848
-19.0501 -0.9457 2.1845
-18.9732 -1.4022 2.1762
-18.9587 -1.8628 2.1763
-18.9133 -2.3209 2.1741
-18.8757 -2.7808 2.1741
-18.8270 -3.2402 2.1741
-18.7671 -3.6989 2.1741
-18.6961 -4.1566 2.1741
-18.6139 -4.6129 2.1741
-18.5205 -5.0678 2.1741
-18.4161 -5.5208 2.1741
-18.3004 -5.9716 2.1741
-18.1737 -6.4201 2.1741
-17.6700 -6.7266 2.1300
-17.8871 -7.3087 2.1741
-17.7273 -7.7484 2.1741
-17.5567 -8.1845 2.1741
-17.3751 -8.6168 2.1741
-16.6628 -8.7713 2.1083
-16.2182 -9.0443 2.0766
-16.7662 -9.8882 2.1741
-16.5420 -10.3026 2.1741
-5.7119 -3.7519 0.7615
-16.0627 -11.1155 2.1741
-15.8077 -11.5135 2.1741
-15.5426 -11.9055 2.1741
-15.2676 -12.2912 2.1741
-13.1675 -11.1365 2.1045
-13.0112 -11.5548 2.1214
-12.8367 -11.9667 2.1374
-12.5919 -12.3202 2.1435
-12.4221 -12.7558 2.1644
-10.1365 -10.9246 1.8099
-9.8786 -11.1764 1.8099
-9.8056 -11.6491 1.8459
-11.9828 -14.9544 2.3211
-9.4424 -12.3853 1.8848
-9.3287 -12.8693 1.9220
-9.3288 -13.5464 1.9872
-9.3290 -14.2726 2.0585
-4.3786 -7.0660 1.0028
-4.1457 -7.0656 0.9875
-3.9193 -7.0653 0.9732
-3.6989 -7.0650 0.9599
-3.4840 -7.0647 0.9475
-3.2742 -7.0644 0.9360
-3.0691 -7.0642 0.9253
-2.8683 -7.0639 0.9154
-2.6713 -7.0637 0.9062
-2.4780 -7.0634 0.8977
-2.3788 -7.3437 0.9253
-2.3781 -7.9952 0.9993
-2.3773 -8.7615 1.0871
-2.3763 -9.6768 1.1926
-2.3752 -10.7908 1.3219
-3.8435 -19.7181 2.4026
-3.3675 -19.8125 2.4026
-2.8890 -19.8947 2.4026
-2.4086 -19.9649 2.4026
-1.9263 -20.0228 2.4026
-1.4426 -20.0686 2.4026
-0.9578 -20.1021 2.4026
-0.4722 -20.1232 2.4026
0.0138 -20.1321 2.4026
0.5000 -20.1287 2.4026
0.9860 -20.1129 2.4026
1.4715 -20.0848 2.4026
1.9561 -20.0444 2.4026
2.4396 -19.9916 2.4026
2.7960 -19.0704 2.2993
3.2555 -18.9965 2.2993
3.7130 -18.9111 2.2993
4.1682 -18.8141 2.2993
4.6206 -18.7055 2.2993
5.0702 -18.5856 2.2993
5.5164 -18.4543 2.2993
5.9592 -18.3118 2.2993
6.3980 -18.1581 2.2993
6.8851 -18.1314 2.3169
7.3187 -17.9544 2.3169
7.7476 -17.7666 2.3169
8.1714 -17.5681 2.3169
8.5899 -17.3590 2.3169
3.6781 -7.0022 0.9466
9.4100 -16.9095 2.3169
9.8110 -16.6696 2.3169
10.2056 -16.4197 2.3169
10.5936 -16.1601 2.3169
10.9748 -15.8908 2.3169
11.3488 -15.6123 2.3169
11.7155 -15.3245 2.3169
12.0746 -15.0278 2.3169
12.4260 -14.7223 2.3169
12.7693 -14.4082 2.3169
13.1045 -14.0859 2.3169
13.4311 -13.7555 2.3169
13.7493 -13.4171 2.3169
14.0585 -13.0712 2.3169
14.3588 -12.7179 2.3169
14.6500 -12.3574 2.3169
14.9318 -11.9901 2.3169
15.2041 -11.6162 2.3169
15.4669 -11.2359 2.3169
15.7198 -10.8494 2.3169
15.9628 -10.4571 2.3169
16.1958 -10.0593 2.3169
16.4186 -9.6561 2.3169
16.6311 -9.2479 2.3169
16.8333 -8.8349 2.3169
17.0249 -8.4174 2.3169
17.2060 -7.9957 2.3169
17.3764 -7.5701 2.3169
17.5362 -7.1408 2.3169
17.6850 -6.7081 2.3169
17.8231 -6.2724 2.3169
17.9502 -5.8338 2.3169
18.0664 -5.3926 2.3169
18.1716 -4.9493 2.3169
18.2658 -4.5039 2.3169
18.3489 -4.0569 2.3169
18.4210 -3.6084 2.3169
18.4820 -3.1587 2.3169
18.5319 -2.7082 2.3169
18.5708 -2.2572 2.3169
18.5987 -1.8058 2.3169
18.6155 -1.3544 2.3169
18.6213 -0.9032 2.3169
18.6162 -0.4525 2.3169
18.6001 -0.0026 2.3169
18.5732 0.4463 2.3169
18.5354 0.8939 2.3169
18.4869 1.3399 2.3169
18.4276 1.7841 2.3169
18.3578 2.2263 2.3169
18.2774 2.6661 2.3169
18.1865 3.1034 2.3169
18.0853 3.5379 2.3169
17.9737 3.9693 2.3169
17.8520 4.3974 2.3169
15.3655 4.1812 2.0090
15.3641 4.5824 2.0251
15.4394 5.0142 2.0527
15.4380 5.4296 2.0717
15.3597 5.8228 2.0818
15.3581 6.2509 2.1038
15.9557 6.9481 2.2105
15.7658 7.3237 2.2105
15.5673 7.6943 2.2105
15.3602 8.0596 2.2105
15.1448 8.4195 2.2105
14.9211 8.7738 2.2105
14.7555 9.1635 2.2204
14.7537 9.6642 2.2570
14.7519 10.1809 2.2960
14.6190 10.6199 2.3169
14.3438 10.9593 2.3169
14.0610 11.2919 2.3169
13.7707 11.6173 2.3169
13.4732 11.9356 2.3169
13.1685 12.2464 2.3169
12.8569 12.5497 2.3169
12.5385 12.8454 2.3169
12.2137 13.1333 2.3169
11.8824 13.4132 2.3169
11.5450 13.6851 2.3169
11.2016 13.9488 2.3169
10.8524 14.2042 2.3169
10.4976 14.4511 2.3169
10.1375 14.6895 2.3169
9.7721 14.9193 2.3169
9.4018 15.1404 2.3169
9.0267 15.3526 2.3169
8.6471 15.5559 2.3169
8.2631 15.7502 2.3169
7.8749 15.9353 2.3169
7.4827 16.1113 2.3169
7.0868 16.2781 2.3169
6.6874 16.4355 2.3169
6.2729 16.5522 2.3126
5.8678 16.6905 2.3126
5.4599 16.8193 2.3126
5.0492 16.9386 2.3126
4.6362 17.0483 2.3126
4.1969 17.0513 2.2995
2.6709 12.1055 1.6239
2.4829 12.7065 1.6966
2.2691 13.3154 1.7707
2.0131 13.8241 1.8319
1.7434 14.4081 1.9037
1.6855 17.4598 2.3014
1.2629 17.4974 2.3022
0.8395 17.5251 2.3030
0.3966 16.7412 2.1984
-0.0088 17.5502 2.3044
-0.4333 17.5478 2.3050
-0.8572 17.5274 2.3046
-1.2803 17.4941 2.3038
-1.7327 17.7627 2.3441
-2.2119 18.1268 2.3986
-2.6541 18.0989 2.4027
-3.0914 18.0318 2.4029
-3.5271 17.9547 2.4031
-3.9610 17.8674 2.4034
-4.3929 17.7703 2.4036
-4.8225 17.6632 2.4038
-5.2496 17.5461 2.4041
-5.6740 17.4191 2.4043
-6.0955 17.2823 2.4045
-6.5138 17.1355 2.4047
-6.9288 16.9791 2.4049
-7.3402 16.8131 2.4051
-7.7477 16.6374 2.4053
-8.1513 16.4523 2.4055
-8.5502 16.2570 2.4056
-8.9436 16.0505 2.4054
-9.3309 15.8326 2.4048
-9.7131 15.6057 2.4042
-10.0901 15.3700 2.4036
-6.1891 8.9483 1.4217
-7.3080 10.0382 1.6216
-11.1918 14.6167 2.4029
-11.5469 14.3481 2.4026
-11.8976 14.0731 2.4026
-12.2420 13.7899 2.4026
-12.5800 13.4986 2.4026
-12.9112 13.1993 2.4026
-12.6678 12.3389 2.2995
-12.9716 12.0376 2.2995
-13.2686 11.7290 2.2995
-13.5585 11.4134 2.2995
-10.5928 8.4879 1.7598
-11.1279 8.4831 1.8126
-11.6879 8.4712 1.8684
-12.3095 8.4755 1.9329
-14.8963 9.7344 2.2995
-13.6927 8.4826 2.0796
-14.4474 8.4738 2.1605
-15.2626 8.4629 2.2492
-15.9821 8.3634 2.3226
-16.1948 7.9820 2.3226
-16.3987 7.5955 2.3226
-16.5936 7.2038 2.3226
-16.7794 6.8073 2.3226
-16.9559 6.4061 2.3226
-17.1232 6.0005 2.3226
-17.2578 5.5831 2.3195
-17.3617 5.1566 2.3136
-17.4437 4.7253 2.3062
-17.4754 4.2833 2.2936
-17.5119 3.8461 2.2830
-17.4958 3.4015 2.2671
-17.5094 2.9669 2.2564
-17.5390 2.5375 2.2492
-17.4915 2.1004 2.2335
-17.5046 1.6739 2.2268
-17.7389 1.2646 2.2496
-17.9859 0.8460 2.2751
-17.9284 0.4094 2.2633
-17.8591 -0.0239 2.2514
-17.7997 -0.4541 2.2420
-17.6613 -0.8780 2.2241
-17.4997 -1.2945 2.2044
-17.4192 -1.7127 2.1963
-17.2984 -2.1239 2.1844
-17.2421 -2.5413 2.1819
-17.2034 -2.9620 2.1829
-17.1355 -3.3785 2.1814
-17.0487 -3.7915 2.1789
-16.9526 -4.2024 2.1764
-16.8697 -4.6172 2.1769
-16.7625 -5.0263 2.1756
-16.6440 -5.4323 2.1741
-16.5269 -5.8396 2.1741
-16.3997 -6.2443 2.1741
-16.2626 -6.6462 2.1741
-16.1349 -7.0536 2.1767
-15.9586 -7.4408 2.1741
-15.7919 -7.8329 2.1741
-15.6154 -8.2212 2.1741
-15.4292 -8.6055 2.1741
-15.2334 -8.9855 2.1741
-14.9174 -9.2920 2.1581
-5.7111 -3.7519 0.8382
-14.2308 -9.8491 2.1207
-13.9768 -10.1812 2.1166
-13.7088 -10.5021 2.1117
