ply
format ascii 1.0
element vertex 2173
property float32 x
property float32 y
property float32 z
end_header
-5.2757 0.7527 2.4026
-5.2944 0.6252 2.4026
-5.3100 0.4973 2.4026
-5.3225 0.3691 2.4026
-5.3319 0.2405 2.4026
-5.3382 0.1117 2.4026
-5.3414 -0.0173 2.4026
-5.3414 -0.1463 2.4026
-5.3383 -0.2754 2.4026
-5.3321 -0.4043 2.4026
-5.3228 -0.5332 2.4026
-5.3103 -0.6618 2.4026
-5.2947 -0.7901 2.4026
-5.2760 -0.9180 2.4026
-5.2542 -1.0455 2.4026
-5.2293 -1.1724 2.4026
-5.2013 -1.2987 2.4026
-5.1703 -1.4244 2.4026
-5.1362 -1.5493 2.4026
-5.0990 -1.6733 2.4026
-5.0589 -1.7965 2.4026
-5.0157 -1.9187 2.4026
-4.9696 -2.0398 2.4026
-4.9205 -2.1598 2.4026
-4.8685 -2.2786 2.4026
-4.8136 -2.3961 2.4026
-4.7558 -2.5123 2.4026
-4.6952 -2.6271 2.4026
-4.6319 -2.7404 2.4026
-4.5657 -2.8521 2.4026
-4.4969 -2.9623 2.4026
-4.4253 -3.0707 2.4026
-4.3511 -3.1774 2.4026
-4.2744 -3.2822 2.4026
-4.1950 -3.3852 2.4026
-3.9934 -3.3850 2.4026
-3.9116 -3.4811 2.4026
-3.8274 -3.5753 2.4026
-3.7409 -3.6673 2.4026
-3.6521 -3.7572 2.4026
-3.5612 -3.8449 2.4026
-3.4682 -3.9304 2.4026
-3.3731 -4.0137 2.4026
-3.2759 -4.0945 2.4026
-3.1768 -4.1730 2.4026
-3.0758 -4.2491 2.4026
-2.9730 -4.3227 2.4026
-2.8684 -4.3937 2.4026
-2.7620 -4.4622 2.4026
-2.6540 -4.5280 2.4026
-2.5444 -4.5912 2.4026
-2.4333 -4.6518 2.4026
-2.3207 -4.7095 2.4026
-2.2068 -4.7645 2.4026
-2.0915 -4.8167 2.4026
-1.9750 -4.8661 2.4026
-1.8572 -4.9126 2.4026
-1.7384 -4.9563 2.4026
-1.6186 -4.9970 2.4026
-1.4977 -5.0347 2.4026
-1.3760 -5.0695 2.4026
-1.2535 -5.1013 2.4026
-1.1302 -5.1301 2.4026
-1.0063 -5.1558 2.4026
-0.8817 -5.1786 2.4026
-0.7567 -5.1982 2.4026
-0.6312 -5.2148 2.4026
-0.5053 -5.2283 2.4026
-0.3792 -5.2388 2.4026
-0.2528 -5.2461 2.4026
-0.1263 -5.2504 2.4026
0.0003 -5.2515 2.4026
0.1268 -5.2496 2.4026
0.2533 -5.2445 2.4026
0.3795 -5.2364 2.4026
0.5056 -5.2252 2.4026
0.6313 -5.2109 2.4026
0.7566 -5.1935 2.4026
0.8814 -5.1731 2.4026
1.0057 -5.1496 2.4026
1.1294 -5.1231 2.4026
1.2523 -5.0936 2.4026
1.3745 -5.0611 2.4026
1.4958 -5.0256 2.4026
1.6163 -4.9872 2.4026
1.7357 -4.9458 2.4026
1.8540 -4.9016 2.4026
1.9713 -4.8545 2.4026
2.0873 -4.8045 2.4026
2.2020 -4.7517 2.4026
2.3154 -4.6962 2.4026
2.4274 -4.6379 2.4026
2.5379 -4.5769 2.4026
2.6469 -4.5133 2.4026
2.7219 -4.3948 2.3744
2.7455 -4.2030 2.3065
2.8367 -4.1219 2.2995
2.9344 -4.0512 2.2995
3.0304 -3.9781 2.2995
3.1246 -3.9027 2.2995
3.2169 -3.8251 2.2995
3.3072 -3.7453 2.2995
3.3956 -3.6633 2.2995
3.4819 -3.5792 2.2995
3.5661 -3.4930 2.2995
3.6482 -3.4049 2.2995
3.7280 -3.3148 2.2995
3.8057 -3.2228 2.2995
3.8810 -3.1290 2.2995
3.9541 -3.0334 2.2995
4.0248 -2.9360 2.2995
4.0930 -2.8371 2.2995
4.1589 -2.7365 2.2995
4.2222 -2.6343 2.2995
4.2830 -2.5308 2.2995
4.3413 -2.4257 2.2995
4.3970 -2.3194 2.2995
4.4501 -2.2117 2.2995
4.5006 -2.1028 2.2995
4.5484 -1.9928 2.2995
4.5935 -1.8817 2.2995
4.6358 -1.7696 2.2995
4.6755 -1.6564 2.2995
4.7123 -1.5424 2.2995
4.7464 -1.4276 2.2995
4.7777 -1.3121 2.2995
4.8062 -1.1958 2.2995
4.8319 -1.0789 2.2995
4.8547 -0.9615 2.2995
4.8747 -0.8436 2.2995
4.8918 -0.7252 2.2995
4.9060 -0.6066 2.2995
4.9174 -0.4876 2.2995
4.9259 -0.3685 2.2995
4.9315 -0.2492 2.2995
4.9342 -0.1299 2.2995
4.9341 -0.0106 2.2995
4.9311 0.1087 2.2995
4.9252 0.2278 2.2995
4.9165 0.3467 2.2995
4.9049 0.4653 2.2995
4.8904 0.5836 2.2995
4.8731 0.7014 2.2995
4.8530 0.8188 2.2995
4.8301 0.9356 2.2995
4.8044 1.0518 2.2995
4.7759 1.1673 2.2995
4.7446 1.2821 2.2995
4.7106 1.3960 2.2995
4.6739 1.5091 2.2995
4.6345 1.6212 2.2995
4.5925 1.7323 2.2995
4.5478 1.8424 2.2995
4.5004 1.9513 2.2995
4.4505 2.0590 2.2995
4.3981 2.1655 2.2995
4.3431 2.2706 2.2995
4.2856 2.3744 2.2995
4.2256 2.4767 2.2995
4.1633 2.5776 2.2995
4.0985 2.6769 2.2995
4.0315 2.7746 2.2995
3.9621 2.8707 2.2995
3.8904 2.9650 2.2995
3.8165 3.0576 2.2995
3.7405 3.1484 2.2995
3.6623 3.2373 2.2995
3.5820 3.3243 2.2995
3.4997 3.4093 2.2995
3.4154 3.4924 2.2995
3.3291 3.5734 2.2995
3.2410 3.6522 2.2995
3.1510 3.7290 2.2995
3.0592 3.8035 2.2995
2.9656 3.8758 2.2995
2.8756 3.9530 2.3036
2.7735 4.0137 2.2995
1.9200 4.7166 2.4026
2.6751 4.0791 2.2995
1.8051 4.7614 2.4026
2.6014 4.1844 2.3229
2.5789 4.3814 2.3972
1.6891 4.8035 2.4026
2.4772 4.4520 2.4026
1.5721 4.8428 2.4026
2.3683 4.5102 2.4026
2.2581 4.5658 2.4026
1.4543 4.8794 2.4027
2.1466 4.6188 2.4026
1.3356 4.9132 2.4027
2.0339 4.6690 2.4026
0.7320 5.0388 2.4029
1.2162 4.9440 2.4027
0.6097 5.0552 2.4029
1.0960 4.9721 2.4028
0.4870 5.0687 2.4029
0.3641 5.0793 2.4029
0.9752 4.9972 2.4028
0.2409 5.0869 2.4029
0.8539 5.0195 2.4028
0.1176 5.0916 2.4029
-0.4989 5.0706 2.4029
-0.0058 5.0933 2.4029
-0.6216 5.0576 2.4029
-0.1292 5.0920 2.4029
-0.2526 5.0879 2.4029
-0.7441 5.0416 2.4029
-0.3758 5.0807 2.4029
-1.7032 4.8095 2.4026
-0.8661 5.0228 2.4029
-1.8195 4.7677 2.4026
-0.9877 5.0009 2.4029
-1.9348 4.7232 2.4026
-1.1087 4.9762 2.4028
-2.0491 4.6759 2.4026
-1.2291 4.9486 2.4028
-2.1622 4.6259 2.4026
-2.2741 4.5732 2.4026
-1.3488 4.9181 2.4028
-2.3847 4.5179 2.4026
-2.4940 4.4599 2.4026
-1.4678 4.8848 2.4027
-2.6019 4.3993 2.4026
-2.7084 4.3361 2.4026
-1.5859 4.8486 2.4027
-2.8133 4.2703 2.4026
-3.7660 3.4816 2.4026
-2.9167 4.2021 2.4026
-3.0184 4.1314 2.4026
-3.8504 3.3906 2.4026
-3.1184 4.0582 2.4026
-3.9326 3.2975 2.4026
-3.2166 3.9827 2.4026
-3.3130 3.9048 2.4026
-4.0126 3.2024 2.4026
-3.4076 3.8246 2.4026
-4.0903 3.1055 2.4026
-3.5002 3.7421 2.4026
-4.1656 3.0066 2.4026
-3.5909 3.6575 2.4026
-3.6795 3.5706 2.4026
-4.2386 2.9060 2.4026
-4.5059 2.4864 2.4026
-4.5663 2.3776 2.4026
-4.3091 2.8036 2.4026
-4.6242 2.2673 2.4026
-4.3772 2.6995 2.4026
-4.6794 2.1556 2.4026
-4.4428 2.5938 2.4026
-4.7319 2.0426 2.4026
-4.7816 1.9283 2.4026
-4.9886 1.3402 2.4026
-4.8287 1.8128 2.4026
-5.0214 1.2197 2.4026
-4.8729 1.6962 2.4026
-4.9143 1.5785 2.4026
-5.0513 1.0984 2.4026
-4.9529 1.4598 2.4026
-5.0783 0.9764 2.4026
-5.1839 0.1080 2.4026
-5.1869 -0.0172 2.4026
-5.1024 0.8538 2.4026
-5.1869 -0.1425 2.4026
-5.1839 -0.2678 2.4026
-5.1235 0.7305 2.4026
-5.1778 -0.3930 2.4026
-5.1687 -0.5182 2.4026
-5.1416 0.6068 2.4026
-5.1566 -0.6430 2.4026
-5.1414 -0.7676 2.4026
-5.1567 0.4826 2.4026
-5.1232 -0.8918 2.4026
-5.1688 0.3580 2.4026
-5.1020 -1.0156 2.4026
-5.0777 -1.1388 2.4026
-5.1779 0.2331 2.4026
-5.0505 -1.2615 2.4026
-4.6737 -2.3269 2.4026
-5.0203 -1.3835 2.4026
-4.9872 -1.5047 2.4026
-4.6176 -2.4397 2.4026
-4.9510 -1.6252 2.4026
-4.5587 -2.5511 2.4026
-4.9120 -1.7447 2.4026
-4.8701 -1.8634 2.4026
-4.4971 -2.6611 2.4026
-4.8252 -1.9809 2.4026
-4.4329 -2.7695 2.4026
-4.7775 -2.0974 2.4026
-4.7270 -2.2128 2.4026
-4.3660 -2.8764 2.4026
-4.2965 -2.9817 2.4026
-4.2245 -3.0852 2.4026
-4.1499 -3.1870 2.4026
-4.0729 -3.2870 2.4026
-3.8793 -3.2886 2.4026
-3.7997 -3.3819 2.4026
-3.7179 -3.4733 2.4026
-3.6339 -3.5627 2.4026
-3.5477 -3.6501 2.4026
-3.4594 -3.7353 2.4026
-3.3690 -3.8183 2.4026
-3.2765 -3.8991 2.4026
-3.1822 -3.9777 2.4026
-3.0859 -4.0539 2.4026
-2.9878 -4.1278 2.4026
-2.8879 -4.1992 2.4026
-2.7862 -4.2682 2.4026
-2.6829 -4.3347 2.4026
-2.5780 -4.3986 2.4026
-2.4716 -4.4600 2.4026
-2.3636 -4.5188 2.4026
-2.2543 -4.5749 2.4026
-2.1436 -4.6283 2.4026
-2.0316 -4.6790 2.4026
-1.9184 -4.7270 2.4026
-1.8041 -4.7721 2.4026
-1.6886 -4.8145 2.4026
-1.5722 -4.8540 2.4026
-1.4549 -4.8907 2.4026
-1.3366 -4.9245 2.4026
-1.2176 -4.9554 2.4026
-1.0979 -4.9833 2.4026
-0.9775 -5.0084 2.4026
-0.8565 -5.0304 2.4026
-0.7350 -5.0495 2.4026
-0.6132 -5.0657 2.4026
-0.4909 -5.0788 2.4026
-0.3684 -5.0889 2.4026
-0.2456 -5.0961 2.4026
-0.1227 -5.1002 2.4026
0.0002 -5.1013 2.4026
0.1231 -5.0994 2.4026
0.2459 -5.0946 2.4026
0.3686 -5.0867 2.4026
0.4910 -5.0758 2.4026
0.6131 -5.0619 2.4026
0.7348 -5.0451 2.4026
0.8561 -5.0252 2.4026
0.9768 -5.0024 2.4026
1.0969 -4.9767 2.4026
1.2164 -4.9481 2.4026
1.3351 -4.9165 2.4026
1.4529 -4.8821 2.4026
1.5699 -4.8448 2.4026
1.6859 -4.8046 2.4026
1.8009 -4.7617 2.4026
1.9147 -4.7159 2.4026
2.0274 -4.6674 2.4026
2.1389 -4.6162 2.4026
2.2491 -4.5623 2.4026
2.3579 -4.5057 2.4026
2.4652 -4.4464 2.4026
2.5711 -4.3846 2.4026
2.6754 -4.3203 2.4026
2.7251 -4.1723 2.3568
2.7555 -4.0045 2.2995
2.8505 -3.9358 2.2995
2.9854 -3.9195 2.3320
3.0353 -3.7917 2.2995
3.1250 -3.7163 2.2995
3.2128 -3.6388 2.2995
3.2986 -3.5591 2.2995
3.3825 -3.4774 2.2995
3.4643 -3.3938 2.2995
3.5441 -3.3082 2.2995
3.6217 -3.2207 2.2995
3.6972 -3.1313 2.2995
3.7704 -3.0402 2.2995
3.8414 -2.9473 2.2995
3.9101 -2.8528 2.2995
3.9764 -2.7567 2.2995
4.0404 -2.6590 2.2995
4.1020 -2.5598 2.2995
4.1611 -2.4592 2.2995
4.2178 -2.3571 2.2995
4.2720 -2.2538 2.2995
4.3236 -2.1493 2.2995
4.3726 -2.0435 2.2995
4.4191 -1.9366 2.2995
4.4630 -1.8287 2.2995
4.5042 -1.7197 2.2995
4.5427 -1.6098 2.2995
4.5786 -1.4991 2.2995
4.6118 -1.3875 2.2995
4.6422 -1.2752 2.2995
4.6699 -1.1623 2.2995
4.6949 -1.0487 2.2995
4.7171 -0.9346 2.2995
4.7366 -0.8201 2.2995
4.7532 -0.7051 2.2995
4.7671 -0.5898 2.2995
4.7782 -0.4742 2.2995
4.7865 -0.3585 2.2995
4.7920 -0.2426 2.2995
4.7947 -0.1266 2.2995
4.7946 -0.0107 2.2995
4.7917 0.1052 2.2995
4.7861 0.2210 2.2995
4.7776 0.3365 2.2995
4.7664 0.4518 2.2995
4.7524 0.5667 2.2995
4.7356 0.6813 2.2995
4.7161 0.7953 2.2995
4.6939 0.9089 2.2995
4.6689 1.0218 2.2995
4.6413 1.1341 2.2995
4.6109 1.2456 2.2995
4.5779 1.3564 2.2995
4.5423 1.4662 2.2995
4.5040 1.5752 2.2995
4.4632 1.6832 2.2995
4.4197 1.7902 2.2995
4.3738 1.8960 2.2995
4.3253 2.0007 2.2995
4.2743 2.1042 2.2995
4.2209 2.2064 2.2995
4.1651 2.3073 2.2995
4.1069 2.4068 2.2995
4.0463 2.5048 2.2995
3.9834 2.6014 2.2995
3.9182 2.6964 2.2995
3.8508 2.7897 2.2995
3.7812 2.8815 2.2995
3.7094 2.9715 2.2995
3.6355 3.0597 2.2995
3.5595 3.1461 2.2995
3.4815 3.2307 2.2995
3.4015 3.3134 2.2995
3.3196 3.3941 2.2995
3.2357 3.4728 2.2995
3.1501 3.5495 2.2995
3.0626 3.6241 2.2995
2.9734 3.6966 2.2995
2.8825 3.7669 2.2995
2.7899 3.8350 2.2995
2.6958 3.9009 2.2995
2.6095 3.9788 2.3078
2.5812 4.1516 2.3713
2.5122 4.2679 2.4026
2.4078 4.3270 2.4026
2.3020 4.3836 2.4026
2.1948 4.4376 2.4026
2.0865 4.4891 2.4026
1.9769 4.5380 2.4026
1.8662 4.5842 2.4026
1.7545 4.6278 2.4026
1.6417 4.6687 2.4026
1.5281 4.7068 2.4026
1.4135 4.7423 2.4026
1.2981 4.7750 2.4026
1.1820 4.8050 2.4026
1.0652 4.8323 2.4026
0.9478 4.8567 2.4026
0.8298 4.8783 2.4027
0.7114 4.8971 2.4027
0.5925 4.9131 2.4027
0.4733 4.9262 2.4027
0.3538 4.9365 2.4027
0.2341 4.9439 2.4028
0.1142 4.9484 2.4028
-0.0057 4.9500 2.4028
-0.1257 4.9488 2.4028
-0.2456 4.9447 2.4028
-0.3654 4.9378 2.4028
-0.4849 4.9280 2.4028
-0.6043 4.9153 2.4027
-0.7233 4.8998 2.4027
-0.8419 4.8814 2.4027
-0.9600 4.8602 2.4027
-1.0776 4.8361 2.4027
-1.1946 4.8093 2.4026
-1.3110 4.7797 2.4026
-1.4266 4.7472 2.4026
-1.5415 4.7121 2.4026
-1.6555 4.6742 2.4026
-1.7686 4.6336 2.4026
-1.8806 4.5904 2.4026
-1.9917 4.5444 2.4026
-2.1016 4.4958 2.4026
-2.2104 4.4446 2.4026
-2.3179 4.3907 2.4026
-2.4241 4.3343 2.4026
-2.5290 4.2754 2.4026
-2.6324 4.2140 2.4026
-2.7344 4.1500 2.4026
-2.8348 4.0837 2.4026
-2.9337 4.0149 2.4026
-3.0308 3.9438 2.4026
-3.1263 3.8704 2.4026
-3.2200 3.7947 2.4026
-3.3119 3.7167 2.4026
-3.4019 3.6365 2.4026
-3.4900 3.5542 2.4026
-3.5761 3.4698 2.4026
-3.6601 3.3833 2.4026
-3.7421 3.2947 2.4026
-3.8220 3.2043 2.4026
-3.8997 3.1119 2.4026
-3.9751 3.0176 2.4026
-4.0483 2.9215 2.4026
-4.1192 2.8237 2.4026
-4.1877 2.7242 2.4026
-4.2539 2.6230 2.4026
-4.3176 2.5202 2.4026
-4.3788 2.4159 2.4026
-4.4375 2.3101 2.4026
-4.4937 2.2029 2.4026
-4.5473 2.0943 2.4026
-4.5983 1.9845 2.4026
-4.6466 1.8734 2.4026
-4.6922 1.7612 2.4026
-4.7352 1.6479 2.4026
-4.7754 1.5335 2.4026
-4.8128 1.4181 2.4026
-4.8475 1.3019 2.4026
-4.8794 1.1848 2.4026
-4.9084 1.0669 2.4026
-4.9346 0.9484 2.4026
-4.9579 0.8292 2.4026
-4.9783 0.7094 2.4026
-4.9959 0.5892 2.4026
-5.0105 0.4685 2.4026
-5.0222 0.3474 2.4026
-5.0310 0.2261 2.4026
-5.0368 0.1046 2.4026
-5.0397 -0.0171 2.4026
-5.0397 -0.1389 2.4026
-5.0367 -0.2606 2.4026
-5.0308 -0.3823 2.4026
-5.0219 -0.5038 2.4026
-5.0100 -0.6251 2.4026
-4.9952 -0.7462 2.4026
-4.9775 -0.8668 2.4026
-4.9568 -0.9871 2.4026
-4.9333 -1.1068 2.4026
-4.9068 -1.2260 2.4026
-4.8774 -1.3444 2.4026
-4.8451 -1.4623 2.4026
-4.8100 -1.5793 2.4026
-4.7721 -1.6954 2.4026
-4.7313 -1.8106 2.4026
-4.6877 -1.9248 2.4026
-4.6413 -2.0380 2.4026
-4.5922 -2.1500 2.4026
-4.5404 -2.2609 2.4026
-4.4858 -2.3704 2.4026
-4.4286 -2.4786 2.4026
-4.3688 -2.5855 2.4026
-4.3063 -2.6908 2.4026
-4.2413 -2.7946 2.4026
-4.1738 -2.8969 2.4026
-4.1038 -2.9974 2.4026
-4.0313 -3.0963 2.4026
-3.9565 -3.1934 2.4026
-3.7703 -3.1966 2.4026
-3.6930 -3.2873 2.4026
-3.6135 -3.3761 2.4026
-3.5318 -3.4630 2.4026
-3.4480 -3.5478 2.4026
-3.3621 -3.6306 2.4026
-3.2743 -3.7113 2.4026
-3.1845 -3.7898 2.4026
-3.0927 -3.8661 2.4026
-2.9992 -3.9402 2.4026
-2.9038 -4.0120 2.4026
-2.8067 -4.0814 2.4026
-2.7079 -4.1485 2.4026
-2.6075 -4.2130 2.4026
-2.5055 -4.2752 2.4026
-2.4020 -4.3348 2.4026
-2.2971 -4.3920 2.4026
-2.1909 -4.4465 2.4026
-2.0833 -4.4984 2.4026
-1.9744 -4.5476 2.4026
-1.8644 -4.5942 2.4026
-1.7533 -4.6381 2.4026
-1.6411 -4.6793 2.4026
-1.5280 -4.7177 2.4026
-1.4140 -4.7533 2.4026
-1.2991 -4.7862 2.4026
-1.1834 -4.8162 2.4026
-1.0670 -4.8433 2.4026
-0.9500 -4.8676 2.4026
-0.8325 -4.8891 2.4026
-0.7144 -4.9077 2.4026
-0.5960 -4.9233 2.4026
-0.4772 -4.9361 2.4026
-0.3581 -4.9460 2.4026
-0.2388 -4.9529 2.4026
-0.1194 -4.9569 2.4026
0.0001 -4.9580 2.4026
0.1196 -4.9562 2.4026
0.2389 -4.9515 2.4026
0.3581 -4.9438 2.4026
0.4771 -4.9333 2.4026
0.5958 -4.9198 2.4026
0.7141 -4.9034 2.4026
0.8319 -4.8842 2.4026
0.9492 -4.8620 2.4026
1.0660 -4.8371 2.4026
1.1821 -4.8092 2.4026
1.2974 -4.7786 2.4026
1.4120 -4.7451 2.4026
1.5257 -4.7089 2.4026
1.6384 -4.6699 2.4026
1.7502 -4.6282 2.4026
1.8608 -4.5837 2.4026
1.9704 -4.5366 2.4026
2.0787 -4.4868 2.4026
2.1858 -4.4344 2.4026
2.2915 -4.3795 2.4026
2.3959 -4.3219 2.4026
2.4988 -4.2619 2.4026
2.6002 -4.1993 2.4026
2.7000 -4.1344 2.4026
2.7273 -3.9640 2.3417
2.7705 -3.8258 2.2995
2.8612 -3.7568 2.2995
2.9854 -3.7298 2.3270
3.0373 -3.6124 2.2995
3.1226 -3.5371 2.2995
3.2061 -3.4597 2.2995
3.2876 -3.3804 2.2995
3.3672 -3.2991 2.2995
3.4447 -3.2159 2.2995
3.5202 -3.1309 2.2995
3.5936 -3.0440 2.2995
3.6648 -2.9555 2.2995
3.7338 -2.8653 2.2995
3.8006 -2.7734 2.2995
3.8652 -2.6800 2.2995
3.9274 -2.5850 2.2995
3.9873 -2.4886 2.2995
4.0448 -2.3908 2.2995
4.0999 -2.2917 2.2995
4.1526 -2.1913 2.2995
4.2028 -2.0896 2.2995
4.2505 -1.9868 2.2995
4.2957 -1.8829 2.2995
4.3384 -1.7780 2.2995
4.3785 -1.6721 2.2995
4.4160 -1.5653 2.2995
4.4509 -1.4577 2.2995
4.4832 -1.3493 2.2995
4.5128 -1.2401 2.2995
4.5398 -1.1303 2.2995
4.5641 -1.0199 2.2995
4.5858 -0.9090 2.2995
4.6047 -0.7976 2.2995
4.6210 -0.6859 2.2995
4.6345 -0.5738 2.2995
4.6453 -0.4614 2.2995
4.6534 -0.3489 2.2995
4.6588 -0.2362 2.2995
4.6615 -0.1235 2.2995
4.6614 -0.0107 2.2995
4.6587 0.1019 2.2995
4.6532 0.2145 2.2995
4.6450 0.3268 2.2995
4.6341 0.4389 2.2995
4.6205 0.5506 2.2995
4.6043 0.6620 2.2995
4.5853 0.7729 2.2995
4.5638 0.8833 2.2995
4.5395 0.9931 2.2995
4.5127 1.1023 2.2995
4.4832 1.2107 2.2995
4.4512 1.3184 2.2995
4.4165 1.4253 2.2995
4.3794 1.5313 2.2995
4.3397 1.6363 2.2995
4.2975 1.7403 2.2995
4.2528 1.8433 2.2995
4.2057 1.9451 2.2995
4.1562 2.0457 2.2995
4.1043 2.1451 2.2995
4.0500 2.2432 2.2995
3.9934 2.3400 2.2995
3.9345 2.4353 2.2995
3.8734 2.5292 2.2995
3.8100 2.6216 2.2995
3.7445 2.7124 2.2995
3.6768 2.8016 2.2995
3.6070 2.8891 2.2995
3.5352 2.9750 2.2995
3.4613 3.0590 2.2995
3.3855 3.1413 2.2995
3.3077 3.2217 2.2995
3.2280 3.3002 2.2995
3.1465 3.3768 2.2995
3.0633 3.4514 2.2995
2.9782 3.5239 2.2995
2.8915 3.5945 2.2995
2.8031 3.6628 2.2995
2.7131 3.7291 2.2995
2.6215 3.7932 2.2995
2.5894 3.9478 2.3548
2.5431 4.0902 2.4026
2.4430 4.1501 2.4026
2.3414 4.2076 2.4026
2.2386 4.2626 2.4026
2.1344 4.3152 2.4026
2.0290 4.3652 2.4026
1.9225 4.4128 2.4026
1.8148 4.4577 2.4026
1.7062 4.5001 2.4026
1.5965 4.5399 2.4026
1.4859 4.5770 2.4026
1.3745 4.6115 2.4026
1.2623 4.6433 2.4026
1.1494 4.6725 2.4026
1.0358 4.6989 2.4026
0.9216 4.7226 2.4026
0.8069 4.7436 2.4026
0.6917 4.7618 2.4026
0.5761 4.7773 2.4026
0.4602 4.7900 2.4026
0.3440 4.8000 2.4026
0.2276 4.8072 2.4026
0.1110 4.8116 2.4026
-0.0056 4.8132 2.4026
-0.1223 4.8120 2.4026
-0.2389 4.8080 2.4026
-0.3554 4.8013 2.4026
-0.4717 4.7917 2.4026
-0.5877 4.7794 2.4026
-0.7034 4.7643 2.4026
-0.8187 4.7464 2.4026
-0.9336 4.7258 2.4026
-1.0480 4.7025 2.4026
-1.1618 4.6764 2.4026
-1.2750 4.6476 2.4026
-1.3874 4.6161 2.4026
-1.4991 4.5819 2.4026
-1.6100 4.5451 2.4026
-1.7199 4.5056 2.4026
-1.8289 4.4635 2.4026
-1.9369 4.4188 2.4026
-2.0438 4.3715 2.4026
-2.1495 4.3217 2.4026
-2.2541 4.2693 2.4026
-2.3574 4.2144 2.4026
-2.4593 4.1571 2.4026
-2.5599 4.0973 2.4026
-2.6590 4.0352 2.4026
-2.7567 3.9706 2.4026
-2.8528 3.9037 2.4026
-2.9472 3.8346 2.4026
-3.0401 3.7631 2.4026
-3.1311 3.6895 2.4026
-3.2205 3.6136 2.4026
-3.3080 3.5356 2.4026
-3.3936 3.4556 2.4026
-3.4773 3.3734 2.4026
-3.5590 3.2893 2.4026
-3.6387 3.2032 2.4026
-3.7163 3.1152 2.4026
-3.7918 3.0254 2.4026
-3.8652 2.9337 2.4026
-3.9363 2.8402 2.4026
-4.0052 2.7451 2.4026
-4.0718 2.6483 2.4026
-4.1361 2.5499 2.4026
-4.1980 2.4499 2.4026
-4.2575 2.3485 2.4026
-4.3145 2.2456 2.4026
-4.3691 2.1414 2.4026
-4.4212 2.0358 2.4026
-4.4707 1.9290 2.4026
-4.5177 1.8210 2.4026
-4.5620 1.7119 2.4026
-4.6037 1.6017 2.4026
-4.6428 1.4905 2.4026
-4.6791 1.3783 2.4026
-4.7128 1.2653 2.4026
-4.7437 1.1515 2.4026
-4.7719 1.0369 2.4026
-4.7973 0.9216 2.4026
-4.8199 0.8057 2.4026
-4.8398 0.6893 2.4026
-4.8568 0.5724 2.4026
-4.8710 0.4550 2.4026
-4.8823 0.3373 2.4026
-4.8908 0.2194 2.4026
-4.8965 0.1013 2.4026
-4.8992 -0.0170 2.4026
-4.8991 -0.1354 2.4026
-4.8962 -0.2537 2.4026
-4.8904 -0.3720 2.4026
-4.8817 -0.4901 2.4026
-4.8701 -0.6081 2.4026
-4.8557 -0.7257 2.4026
-4.8384 -0.8430 2.4026
-4.8183 -0.9599 2.4026
-4.7954 -1.0762 2.4026
-4.7696 -1.1921 2.4026
-4.7410 -1.3072 2.4026
-4.7096 -1.4217 2.4026
-4.6754 -1.5354 2.4026
-4.6385 -1.6483 2.4026
-4.5988 -1.7603 2.4026
-4.5564 -1.8713 2.4026
-4.5113 -1.9813 2.4026
-4.4636 -2.0902 2.4026
-4.4131 -2.1979 2.4026
-4.3601 -2.3043 2.4026
-4.3045 -2.4095 2.4026
-4.2463 -2.5133 2.4026
-4.1856 -2.6157 2.4026
-4.1224 -2.7166 2.4026
-4.0567 -2.8159 2.4026
-3.9886 -2.9137 2.4026
-3.9182 -3.0097 2.4026
-3.8454 -3.1040 2.4026
-3.6663 -3.1087 2.4026
-3.5911 -3.1969 2.4026
-3.5137 -3.2832 2.4026
-3.4343 -3.3677 2.4026
-3.3528 -3.4502 2.4026
-3.2693 -3.5306 2.4026
-3.1838 -3.6091 2.4026
-3.0965 -3.6854 2.4026
-3.0073 -3.7596 2.4026
-2.9163 -3.8316 2.4026
-2.8235 -3.9014 2.4026
-2.7291 -3.9689 2.4026
-2.6330 -4.0341 2.4026
-2.5354 -4.0969 2.4026
-2.4362 -4.1573 2.4026
-2.3356 -4.2153 2.4026
-2.2336 -4.2708 2.4026
-2.1303 -4.3238 2.4026
-2.0257 -4.3742 2.4026
-1.9199 -4.4221 2.4026
-1.8129 -4.4674 2.4026
-1.7048 -4.5101 2.4026
-1.5958 -4.5501 2.4026
-1.4858 -4.5874 2.4026
-1.3749 -4.6221 2.4026
-1.2632 -4.6540 2.4026
-1.1507 -4.6832 2.4026
-1.0376 -4.7096 2.4026
-0.9238 -4.7332 2.4026
-0.8095 -4.7541 2.4026
-0.6947 -4.7722 2.4026
-0.5795 -4.7874 2.4026
-0.4640 -4.7998 2.4026
-0.3482 -4.8094 2.4026
-0.2322 -4.8162 2.4026
-0.1161 -4.8201 2.4026
0.0000 -4.8212 2.4026
0.1162 -4.8194 2.4026
0.2322 -4.8148 2.4026
0.3481 -4.8074 2.4026
0.4638 -4.7971 2.4026
0.5792 -4.7840 2.4026
0.6942 -4.7681 2.4026
0.8088 -4.7494 2.4026
0.9229 -4.7279 2.4026
1.0364 -4.7036 2.4026
1.1493 -4.6766 2.4026
1.2614 -4.6468 2.4026
1.3728 -4.6143 2.4026
1.4834 -4.5791 2.4026
1.5930 -4.5412 2.4026
1.7017 -4.5006 2.4026
1.8093 -4.4574 2.4026
1.9158 -4.4116 2.4026
2.0212 -4.3633 2.4026
2.1253 -4.3123 2.4026
2.2282 -4.2589 2.4026
2.3297 -4.2030 2.4026
2.4297 -4.1446 2.4026
2.5283 -4.0838 2.4026
2.6254 -4.0207 2.4026
2.7116 -3.9416 2.3943
2.7287 -3.7686 2.3291
2.7822 -3.6536 2.2995
2.8687 -3.5844 2.2995
2.9845 -3.5501 2.3236
3.0365 -3.4400 2.2995
3.1177 -3.3648 2.2995
3.1970 -3.2876 2.2995
3.2744 -3.2086 2.2995
3.3498 -3.1277 2.2995
3.4232 -3.0450 2.2995
3.4946 -2.9606 2.2995
3.5639 -2.8745 2.2995
3.6310 -2.7868 2.2995
3.6960 -2.6975 2.2995
3.7588 -2.6067 2.2995
3.8194 -2.5143 2.2995
3.8776 -2.4206 2.2995
3.9336 -2.3255 2.2995
3.9872 -2.2291 2.2995
4.0385 -2.1315 2.2995
4.0874 -2.0326 2.2995
4.1338 -1.9327 2.2995
4.1778 -1.8317 2.2995
4.2193 -1.7296 2.2995
4.2584 -1.6267 2.2995
4.2949 -1.5228 2.2995
4.3289 -1.4181 2.2995
4.3603 -1.3126 2.2995
4.3892 -1.2065 2.2995
4.4154 -1.0997 2.2995
4.4391 -0.9924 2.2995
4.4602 -0.8845 2.2995
4.4787 -0.7762 2.2995
4.4945 -0.6675 2.2995
4.5077 -0.5585 2.2995
4.5183 -0.4492 2.2995
4.5262 -0.3397 2.2995
4.5315 -0.2301 2.2995
4.5341 -0.1205 2.2995
4.5341 -0.0108 2.2995
4.5314 0.0988 2.2995
4.5261 0.2082 2.2995
4.5182 0.3175 2.2995
4.5077 0.4265 2.2995
4.4945 0.5353 2.2995
4.4787 0.6436 2.2995
4.4603 0.7515 2.2995
4.4394 0.8589 2.2995
4.4158 0.9657 2.2995
4.3897 1.0719 2.2995
4.3611 1.1774 2.2995
4.3300 1.2822 2.2995
4.2963 1.3862 2.2995
4.2602 1.4893 2.2995
4.2216 1.5914 2.2995
4.1806 1.6926 2.2995
4.1372 1.7928 2.2995
4.0914 1.8919 2.2995
4.0432 1.9898 2.2995
3.9927 2.0865 2.2995
3.9399 2.1819 2.2995
3.8849 2.2761 2.2995
3.8277 2.3689 2.2995
3.7682 2.4602 2.2995
3.7066 2.5501 2.2995
3.6428 2.6384 2.2995
3.5770 2.7253 2.2995
3.5091 2.8104 2.2995
3.4393 2.8939 2.2995
3.3674 2.9757 2.2995
3.2936 3.0558 2.2995
3.2180 3.1340 2.2995
3.1405 3.2104 2.2995
3.0612 3.2849 2.2995
2.9802 3.3575 2.2995
2.8975 3.4281 2.2995
2.8131 3.4967 2.2995
2.7271 3.5633 2.2995
2.6396 3.6278 2.2995
2.5964 3.7566 2.3409
2.5703 3.9185 2.4026
2.4742 3.9791 2.4026
2.3768 4.0374 2.4026
2.2780 4.0933 2.4026
2.1779 4.1469 2.4026
2.0766 4.1981 2.4026
1.9740 4.2468 2.4026
1.8704 4.2930 2.4026
1.7657 4.3368 2.4026
1.6599 4.3780 2.4026
1.5533 4.4167 2.4026
1.4457 4.4529 2.4026
1.3373 4.4864 2.4026
1.2281 4.5174 2.4026
1.1182 4.5457 2.4026
1.0077 4.5715 2.4026
0.8966 4.5945 2.4026
0.7850 4.6149 2.4026
0.6729 4.6327 2.4026
0.5605 4.6477 2.4026
0.4477 4.6601 2.4026
0.3346 4.6697 2.4026
0.2213 4.6767 2.4026
0.1079 4.6810 2.4026
-0.0055 4.6825 2.4026
-0.1190 4.6813 2.4026
-0.2325 4.6775 2.4026
-0.3458 4.6709 2.4026
-0.4590 4.6616 2.4026
-0.5718 4.6496 2.4026
-0.6844 4.6349 2.4026
-0.7966 4.6175 2.4026
-0.9084 4.5975 2.4026
-1.0197 4.5748 2.4026
-1.1304 4.5494 2.4026
-1.2405 4.5214 2.4026
-1.3499 4.4907 2.4026
-1.4586 4.4574 2.4026
-1.5664 4.4216 2.4026
-1.6734 4.3832 2.4026
-1.7794 4.3422 2.4026
-1.8845 4.2987 2.4026
-1.9885 4.2526 2.4026
-2.0913 4.2041 2.4026
-2.1930 4.1532 2.4026
-2.2935 4.0998 2.4026
-2.3927 4.0440 2.4026
-2.4905 3.9858 2.4026
-2.5870 3.9253 2.4026
-2.6819 3.8625 2.4026
-2.7754 3.7974 2.4026
-2.8673 3.7301 2.4026
-2.9576 3.6605 2.4026
-3.0462 3.5889 2.4026
-3.1330 3.5150 2.4026
-3.2181 3.4392 2.4026
-3.3014 3.3613 2.4026
-3.3828 3.2814 2.4026
-3.4623 3.1995 2.4026
-3.5398 3.1157 2.4026
-3.6153 3.0301 2.4026
-3.6887 2.9426 2.4026
-3.7600 2.8534 2.4026
-3.8292 2.7625 2.4026
-3.8962 2.6699 2.4026
-3.9609 2.5758 2.4026
-4.0234 2.4800 2.4026
-4.0836 2.3828 2.4026
-4.1415 2.2841 2.4026
-4.1969 2.1840 2.4026
-4.2500 2.0826 2.4026
-4.3006 1.9799 2.4026
-4.3488 1.8760 2.4026
-4.3944 1.7709 2.4026
-4.4375 1.6648 2.4026
-4.4780 1.5575 2.4026
-4.5160 1.4494 2.4026
-4.5513 1.3403 2.4026
-4.5840 1.2303 2.4026
-4.6141 1.1196 2.4026
-4.6414 1.0081 2.4026
-4.6661 0.8960 2.4026
-4.6881 0.7833 2.4026
-4.7073 0.6700 2.4026
-4.7238 0.5563 2.4026
-4.7376 0.4422 2.4026
-4.7486 0.3277 2.4026
-4.7568 0.2130 2.4026
-4.7623 0.0981 2.4026
-4.7649 -0.0169 2.4026
-4.7648 -0.1320 2.4026
-4.7619 -0.2471 2.4026
-4.7562 -0.3622 2.4026
-4.7477 -0.4771 2.4026
-4.7364 -0.5917 2.4026
-4.7224 -0.7062 2.4026
-4.7055 -0.8202 2.4026
-4.6860 -0.9339 2.4026
-4.6636 -1.0470 2.4026
-4.6385 -1.1596 2.4026
-4.6107 -1.2717 2.4026
-4.5801 -1.3830 2.4026
-4.5468 -1.4936 2.4026
-4.5109 -1.6033 2.4026
-4.4723 -1.7122 2.4026
-4.4310 -1.8202 2.4026
-4.3871 -1.9271 2.4026
-4.3406 -2.0330 2.4026
-4.2916 -2.1377 2.4026
-4.2400 -2.2412 2.4026
-4.1858 -2.3434 2.4026
-4.1292 -2.4444 2.4026
-4.0702 -2.5439 2.4026
-4.0087 -2.6420 2.4026
-3.9448 -2.7386 2.4026
-3.8786 -2.8336 2.4026
-3.8101 -2.9270 2.4026
-3.7393 -3.0187 2.4026
-3.5667 -3.0246 2.4026
-3.4936 -3.1104 2.4026
-3.4183 -3.1944 2.4026
-3.3410 -3.2765 2.4026
-3.2617 -3.3567 2.4026
-3.1804 -3.4350 2.4026
-3.0973 -3.5113 2.4026
-3.0123 -3.5856 2.4026
-2.9255 -3.6577 2.4026
-2.8370 -3.7277 2.4026
-2.7468 -3.7956 2.4026
-2.6549 -3.8613 2.4026
-2.5615 -3.9246 2.4026
-2.4665 -3.9857 2.4026
-2.3700 -4.0445 2.4026
-2.2721 -4.1009 2.4026
-2.1729 -4.1549 2.4026
-2.0724 -4.2064 2.4026
-1.9706 -4.2555 2.4026
-1.8677 -4.3021 2.4026
-1.7636 -4.3461 2.4026
-1.6585 -4.3876 2.4026
-1.5524 -4.4266 2.4026
-1.4454 -4.4629 2.4026
-1.3375 -4.4966 2.4026
-1.2288 -4.5276 2.4026
-1.1194 -4.5560 2.4026
-1.0094 -4.5817 2.4026
-0.8987 -4.6047 2.4026
-0.7875 -4.6250 2.4026
-0.6759 -4.6425 2.4026
-0.5638 -4.6574 2.4026
-0.4515 -4.6695 2.4026
-0.3388 -4.6788 2.4026
-0.2260 -4.6854 2.4026
-0.1131 -4.6892 2.4026
-0.0001 -4.6902 2.4026
0.1129 -4.6885 2.4026
0.2258 -4.6841 2.4026
0.3386 -4.6768 2.4026
0.4511 -4.6669 2.4026
0.5634 -4.6541 2.4026
0.6752 -4.6387 2.4026
0.7867 -4.6205 2.4026
0.8977 -4.5996 2.4026
1.0081 -4.5760 2.4026
1.1179 -4.5497 2.4026
1.2271 -4.5208 2.4026
1.3354 -4.4891 2.4026
1.4430 -4.4549 2.4026
1.5496 -4.4181 2.4026
1.6553 -4.3786 2.4026
1.7601 -4.3366 2.4026
1.8637 -4.2921 2.4026
1.9662 -4.2450 2.4026
2.0675 -4.1955 2.4026
2.1676 -4.1435 2.4026
2.2663 -4.0892 2.4026
2.3637 -4.0324 2.4026
2.4596 -3.9733 2.4026
2.5541 -3.9119 2.4026
2.6470 -3.8482 2.4026
2.7093 -3.7423 2.3771
2.7294 -3.5848 2.3189
2.7908 -3.4876 2.2995
2.8733 -3.4183 2.2995
2.9826 -3.3795 2.3217
3.0331 -3.2739 2.2995
3.1102 -3.1989 2.2995
3.1856 -3.1220 2.2995
3.2590 -3.0433 2.2995
3.3304 -2.9629 2.2995
3.3999 -2.8808 2.2995
3.4673 -2.7971 2.2995
3.5327 -2.7117 2.2995
3.5960 -2.6249 2.2995
3.6571 -2.5365 2.2995
3.7160 -2.4467 2.2995
3.7727 -2.3555 2.2995
3.8272 -2.2630 2.2995
3.8794 -2.1692 2.2995
3.9293 -2.0743 2.2995
3.9769 -1.9781 2.2995
4.0221 -1.8809 2.2995
4.0650 -1.7826 2.2995
4.1054 -1.6833 2.2995
4.1434 -1.5831 2.2995
4.1790 -1.4821 2.2995
4.2121 -1.3802 2.2995
4.2427 -1.2776 2.2995
4.2708 -1.1743 2.2995
4.2964 -1.0704 2.2995
4.3195 -0.9660 2.2995
4.3400 -0.8610 2.2995
4.3580 -0.7556 2.2995
4.3735 -0.6499 2.2995
4.3864 -0.5438 2.2995
4.3967 -0.4375 2.2995
4.4044 -0.3310 2.2995
4.4096 -0.2243 2.2995
4.4122 -0.1176 2.2995
4.4122 -0.0109 2.2995
4.4096 0.0958 2.2995
4.4045 0.2023 2.2995
4.3968 0.3086 2.2995
4.3866 0.4147 2.2995
4.3738 0.5205 2.2995
4.3585 0.6260 2.2995
4.3406 0.7310 2.2995
4.3203 0.8355 2.2995
4.2974 0.9395 2.2995
4.2720 1.0428 2.2995
4.2442 1.1455 2.2995
4.2139 1.2475 2.2995
4.1812 1.3487 2.2995
4.1461 1.4490 2.2995
4.1085 1.5485 2.2995
4.0686 1.6470 2.2995
4.0264 1.7445 2.2995
3.9819 1.8409 2.2995
3.9350 1.9362 2.2995
3.8859 2.0303 2.2995
3.8346 2.1233 2.2995
3.7810 2.2149 2.2995
3.7253 2.3052 2.2995
3.6675 2.3941 2.2995
3.6075 2.4816 2.2995
3.5455 2.5676 2.2995
3.4815 2.6521 2.2995
3.4154 2.7351 2.2995
3.3474 2.8164 2.2995
3.2775 2.8960 2.2995
3.2057 2.9739 2.2995
3.1321 3.0501 2.2995
3.0567 3.1244 2.2995
2.9795 3.1970 2.2995
2.9007 3.2677 2.2995
2.8602 3.3838 2.3321
2.7380 3.4032 2.2995
2.6543 3.4680 2.2995
2.6025 3.5766 2.3293
2.5828 3.7366 2.3924
2.5017 3.8137 2.4026
2.4083 3.8727 2.4026
2.3134 3.9295 2.4026
2.2173 3.9839 2.4026
2.1198 4.0361 2.4026
2.0212 4.0859 2.4026
1.9214 4.1333 2.4026
1.8205 4.1783 2.4026
1.7186 4.2209 2.4026
1.6157 4.2611 2.4026
1.5118 4.2988 2.4026
1.4071 4.3339 2.4026
1.3016 4.3666 2.4026
1.1953 4.3967 2.4026
1.0884 4.4243 2.4026
0.9808 4.4494 2.4026
0.8727 4.4718 2.4026
0.7640 4.4917 2.4026
0.6549 4.5089 2.4026
0.5455 4.5236 2.4026
0.4357 4.5356 2.4026
0.3256 4.5450 2.4026
0.2154 4.5518 2.4026
0.1050 4.5560 2.4026
-0.0055 4.5574 2.4026
-0.1160 4.5563 2.4026
-0.2264 4.5525 2.4026
-0.3367 4.5461 2.4026
-0.4468 4.5371 2.4026
-0.5567 4.5254 2.4026
-0.6663 4.5111 2.4026
-0.7755 4.4942 2.4026
-0.8843 4.4746 2.4026
-0.9926 4.4525 2.4026
-1.1004 4.4278 2.4026
-1.2075 4.4005 2.4026
-1.3140 4.3706 2.4026
-1.4198 4.3383 2.4026
-1.5247 4.3033 2.4026
-1.6288 4.2659 2.4026
-1.7321 4.2260 2.4026
-1.8343 4.1836 2.4026
-1.9355 4.1388 2.4026
-2.0356 4.0916 2.4026
-2.1346 4.0419 2.4026
-2.2324 3.9899 2.4026
-2.3289 3.9356 2.4026
-2.4241 3.8790 2.4026
-2.5179 3.8201 2.4026
-2.6104 3.7589 2.4026
-2.7013 3.6955 2.4026
-2.7907 3.6300 2.4026
-2.8786 3.5623 2.4026
-2.9648 3.4925 2.4026
-3.0493 3.4207 2.4026
-3.1321 3.3468 2.4026
-3.2132 3.2710 2.4026
-3.3697 3.1135 2.4026
-3.2924 3.1932 2.4026
-3.4451 3.0319 2.4026
-4.0304 2.2224 2.4026
-3.5185 2.9486 2.4026
-4.0844 2.1250 2.4026
-3.5900 2.8634 2.4026
-3.6594 2.7766 2.4026
-4.1360 2.0263 2.4026
-3.7267 2.6881 2.4026
-4.1852 1.9264 2.4026
-3.7918 2.5980 2.4026
-4.2320 1.8252 2.4026
-3.8548 2.5063 2.4026
-4.2764 1.7230 2.4026
-3.9156 2.4131 2.4026
-4.3183 1.6196 2.4026
-3.9742 2.3185 2.4026
-4.4607 1.1968 2.4026
-4.3577 1.5153 2.4026
-4.4899 1.0891 2.4026
-4.3946 1.4100 2.4026
-4.5166 0.9806 2.4026
-4.4290 1.3038 2.4026
-4.5405 0.8715 2.4026
-4.5619 0.7618 2.4026
-4.6338 0.0951 2.4026
-4.5806 0.6516 2.4026
-4.6364 -0.0169 2.4026
-4.5966 0.5409 2.4026
-4.6363 -0.1289 2.4026
-4.6099 0.4299 2.4026
-4.6334 -0.2408 2.4026
-4.6206 0.3185 2.4026
-4.6278 -0.3528 2.4026
-4.6286 0.2069 2.4026
-4.6195 -0.4646 2.4026
-4.5375 -1.0191 2.4026
-4.6085 -0.5761 2.4026
-4.5130 -1.1287 2.4026
-4.4859 -1.2376 2.4026
-4.5948 -0.6874 2.4026
-4.4562 -1.3459 2.4026
-4.5784 -0.7984 2.4026
-4.4238 -1.4535 2.4026
-4.3888 -1.5603 2.4026
-4.5593 -0.9090 2.4026
-4.3512 -1.6662 2.4026
-4.3110 -1.7712 2.4026
-4.1753 -2.0801 2.4026
-4.1250 -2.1808 2.4026
-4.2683 -1.8752 2.4026
-4.2230 -1.9782 2.4026
-4.0724 -2.2803 2.4026
-4.0173 -2.3784 2.4026
-3.9598 -2.4753 2.4026
-3.8999 -2.5707 2.4026
-3.8378 -2.6646 2.4026
-3.7734 -2.7570 2.4026
-3.7067 -2.8479 2.4026
-3.6378 -2.9371 2.4026
-3.4714 -2.9441 2.4026
-3.4001 -3.0275 2.4026
-3.3269 -3.1093 2.4026
-3.2516 -3.1892 2.4026
-3.1745 -3.2672 2.4026
-3.0954 -3.3434 2.4026
-3.0144 -3.4177 2.4026
-2.9317 -3.4899 2.4026
-2.8472 -3.5601 2.4026
-2.7611 -3.6283 2.4026
-2.6733 -3.6943 2.4026
-2.5838 -3.7582 2.4026
-2.4929 -3.8198 2.4026
-2.4004 -3.8793 2.4026
-2.3066 -3.9365 2.4026
-2.2113 -3.9913 2.4026
-2.1147 -4.0439 2.4026
-2.0169 -4.0940 2.4026
-1.9178 -4.1418 2.4026
-1.8177 -4.1871 2.4026
-1.7164 -4.2300 2.4026
-1.6141 -4.2703 2.4026
-1.5108 -4.3082 2.4026
-1.4067 -4.3436 2.4026
-1.3017 -4.3764 2.4026
-1.1959 -4.4066 2.4026
-1.0895 -4.4342 2.4026
-0.9824 -4.4592 2.4026
-0.8747 -4.4816 2.4026
-0.7665 -4.5013 2.4026
-0.6578 -4.5184 2.4026
-0.5488 -4.5328 2.4026
-0.4394 -4.5446 2.4026
-0.3298 -4.5537 2.4026
-0.2200 -4.5601 2.4026
-0.1101 -4.5638 2.4026
-0.0001 -4.5649 2.4026
0.1098 -4.5632 2.4026
0.2197 -4.5589 2.4026
0.3294 -4.5519 2.4026
0.4389 -4.5422 2.4026
0.5482 -4.5298 2.4026
0.6571 -4.5147 2.4026
0.7656 -4.4971 2.4026
0.8736 -4.4767 2.4026
0.9810 -4.4538 2.4026
1.0879 -4.4282 2.4026
1.1941 -4.4000 2.4026
1.2996 -4.3693 2.4026
1.4042 -4.3360 2.4026
1.5081 -4.3001 2.4026
1.6109 -4.2618 2.4026
1.7129 -4.2209 2.4026
1.8137 -4.1776 2.4026
1.9135 -4.1318 2.4026
2.0121 -4.0836 2.4026
2.1095 -4.0331 2.4026
2.2056 -3.9802 2.4026
2.3004 -3.9249 2.4026
2.3938 -3.8674 2.4026
2.4857 -3.8077 2.4026
2.5761 -3.7457 2.4026
2.6650 -3.6816 2.4026
2.7104 -3.5602 2.3660
2.7295 -3.4114 2.3108
2.7965 -3.3274 2.2995
2.8751 -3.2581 2.2995
2.9800 -3.2171 2.3213
3.0272 -3.1139 2.2995
3.1005 -3.0391 2.2995
3.1720 -2.9625 2.2995
3.2415 -2.8843 2.2995
3.3092 -2.8044 2.2995
3.3748 -2.7229 2.2995
3.4385 -2.6398 2.2995
3.5001 -2.5553 2.2995
3.5596 -2.4693 2.2995
3.6170 -2.3819 2.2995
3.6722 -2.2932 2.2995
3.7253 -2.2031 2.2995
3.7761 -2.1119 2.2995
3.8247 -2.0194 2.2995
3.8711 -1.9259 2.2995
3.9151 -1.8312 2.2995
3.9568 -1.7356 2.2995
3.9962 -1.6389 2.2995
4.0333 -1.5414 2.2995
4.0679 -1.4431 2.2995
4.1002 -1.3439 2.2995
4.1300 -1.2441 2.2995
4.1574 -1.1436 2.2995
4.1824 -1.0424 2.2995
4.2048 -0.9407 2.2995
4.2249 -0.8386 2.2995
4.2424 -0.7360 2.2995
4.2575 -0.6330 2.2995
4.2701 -0.5297 2.2995
4.2801 -0.4262 2.2995
4.2877 -0.3226 2.2995
4.2928 -0.2187 2.2995
4.2953 -0.1148 2.2995
4.2954 -0.0110 2.2995
4.2929 0.0929 2.2995
4.2880 0.1966 2.2995
4.2805 0.3001 2.2995
4.2706 0.4034 2.2995
4.2582 0.5064 2.2995
4.2433 0.6091 2.2995
4.2259 0.7113 2.2995
4.2061 0.8131 2.2995
4.1839 0.9143 2.2995
4.1592 1.0149 2.2995
4.1321 1.1149 2.2995
4.1027 1.2142 2.2995
4.0708 1.3128 2.2995
4.0367 1.4105 2.2995
4.0002 1.5073 2.2995
3.9613 1.6032 2.2995
3.9202 1.6982 2.2995
3.8769 1.7921 2.2995
3.8313 1.8849 2.2995
3.7835 1.9765 2.2995
3.7335 2.0670 2.2995
3.6814 2.1562 2.2995
3.6272 2.2442 2.2995
3.5709 2.3308 2.2995
3.5126 2.4160 2.2995
3.4522 2.4998 2.2995
3.3898 2.5820 2.2995
3.3255 2.6628 2.2995
3.2593 2.7420 2.2995
3.1913 2.8195 2.2995
3.1214 2.8954 2.2995
3.0497 2.9696 2.2995
2.9763 3.0420 2.2995
2.9012 3.1127 2.2995
2.8626 3.2245 2.3306
2.7460 3.2484 2.2995
2.6661 3.3135 2.2995
2.6076 3.4066 2.3200
2.5844 3.5515 2.3756
2.5256 3.6536 2.4026
2.4360 3.7132 2.4026
2.3450 3.7707 2.4026
2.2526 3.8260 2.4026
2.1590 3.8790 2.4026
2.0641 3.9298 2.4026
1.9681 3.9783 2.4026
1.8709 4.0245 2.4026
1.7727 4.0684 2.4026
1.6734 4.1098 2.4026
1.5732 4.1489 2.4026
1.4721 4.1856 2.4026
1.3701 4.2199 2.4026
1.2674 4.2517 2.4026
1.1639 4.2811 2.4026
1.0598 4.3079 2.4026
0.9550 4.3323 2.4026
0.8497 4.3542 2.4026
0.7439 4.3735 2.4026
0.6377 4.3903 2.4026
0.5311 4.4046 2.4026
0.4242 4.4163 2.4026
0.3170 4.4255 2.4026
0.2096 4.4321 2.4026
0.1021 4.4361 2.4026
-0.0054 4.4375 2.4026
-0.1130 4.4364 2.4026
-0.2205 4.4327 2.4026
-0.3279 4.4265 2.4026
-0.4352 4.4177 2.4026
-0.5422 4.4063 2.4026
-0.6489 4.3923 2.4026
-0.7552 4.3759 2.4026
-0.8612 4.3568 2.4026
-0.9666 4.3352 2.4026
-1.0716 4.3112 2.4026
-1.1759 4.2846 2.4026
-1.2796 4.2555 2.4026
-1.3826 4.2239 2.4026
-1.4848 4.1899 2.4026
-1.5861 4.1535 2.4026
-1.6866 4.1146 2.4026
-1.7862 4.0733 2.4026
-1.8847 4.0297 2.4026
-1.9822 3.9837 2.4026
-2.0786 3.9353 2.4026
-2.1738 3.8847 2.4026
-2.2677 3.8318 2.4026
-2.3604 3.7766 2.4026
-2.4518 3.7192 2.4026
-2.5418 3.6596 2.4026
-2.6303 3.5979 2.4026
-2.7174 3.5341 2.4026
-2.8029 3.4682 2.4026
-2.8868 3.4002 2.4026
-2.9691 3.3302 2.4026
-3.0497 3.2583 2.4026
-3.1286 3.1844 2.4026
-3.2057 3.1086 2.4026
-3.2809 3.0310 2.4026
-3.3543 2.9516 2.4026
-3.4258 2.8704 2.4026
-3.4953 2.7875 2.4026
-3.5629 2.7030 2.4026
-3.6284 2.6168 2.4026
-3.6918 2.5290 2.4026
-3.7531 2.4398 2.4026
-3.8123 2.3490 2.4026
-3.8692 2.2568 2.4026
-3.9240 2.1633 2.4026
-3.9765 2.0685 2.4026
-4.0267 1.9724 2.4026
-4.0746 1.8750 2.4026
-4.1201 1.7766 2.4026
-4.1633 1.6770 2.4026
-4.2041 1.5764 2.4026
-4.2424 1.4748 2.4026
-4.2783 1.3723 2.4026
-4.3117 1.2689 2.4026
-4.3426 1.1647 2.4026
-4.3710 1.0598 2.4026
-4.3969 0.9542 2.4026
-4.4202 0.8480 2.4026
-4.4409 0.7412 2.4026
-4.4591 0.6339 2.4026
-4.4747 0.5262 2.4026
-4.4876 0.4181 2.4026
-4.4980 0.3097 2.4026
-4.5057 0.2010 2.4026
-4.5108 0.0922 2.4026
-4.5133 -0.0168 2.4026
-4.5131 -0.1258 2.4026
-4.5103 -0.2348 2.4026
-4.5048 -0.3438 2.4026
-4.4967 -0.4526 2.4026
-4.4859 -0.5612 2.4026
-4.4726 -0.6695 2.4026
-4.4566 -0.7775 2.4026
-4.4379 -0.8852 2.4026
-4.4167 -0.9923 2.4026
-4.3929 -1.0989 2.4026
-4.3665 -1.2050 2.4026
-4.3374 -1.3104 2.4026
-4.3059 -1.4151 2.4026
-4.2718 -1.5190 2.4026
-4.2352 -1.6221 2.4026
-4.1960 -1.7243 2.4026
-4.1544 -1.8256 2.4026
-4.1104 -1.9258 2.4026
-4.0639 -2.0249 2.4026
-4.0149 -2.1229 2.4026
-3.9637 -2.2197 2.4026
-3.9100 -2.3153 2.4026
-3.8540 -2.4095 2.4026
-3.7958 -2.5023 2.4026
-3.7353 -2.5938 2.4026
-3.6725 -2.6837 2.4026
-3.6076 -2.7721 2.4026
-3.5406 -2.8589 2.4026
-3.3800 -2.8668 2.4026
-3.3106 -2.9481 2.4026
-3.2392 -3.0276 2.4026
-3.1660 -3.1055 2.4026
-3.0908 -3.1814 2.4026
-3.0138 -3.2556 2.4026
-2.9350 -3.3279 2.4026
-2.8544 -3.3982 2.4026
-2.7722 -3.4666 2.4026
-2.6883 -3.5329 2.4026
-2.6028 -3.5972 2.4026
-2.5157 -3.6593 2.4026
-2.4271 -3.7194 2.4026
-2.3371 -3.7772 2.4026
-2.2457 -3.8329 2.4026
-2.1530 -3.8863 2.4026
-2.0589 -3.9374 2.4026
-1.9637 -3.9863 2.4026
-1.8673 -4.0328 2.4026
-1.7697 -4.0769 2.4026
-1.6711 -4.1186 2.4026
-1.5715 -4.1579 2.4026
-1.4710 -4.1948 2.4026
-1.3696 -4.2292 2.4026
-1.2674 -4.2611 2.4026
-1.1644 -4.2905 2.4026
-1.0608 -4.3174 2.4026
-0.9565 -4.3417 2.4026
-0.8516 -4.3635 2.4026
-0.7463 -4.3828 2.4026
-0.6405 -4.3994 2.4026
-0.5343 -4.4135 2.4026
-0.4279 -4.4249 2.4026
-0.3212 -4.4338 2.4026
-0.2143 -4.4400 2.4026
-0.1073 -4.4436 2.4026
-0.0002 -4.4446 2.4026
0.1069 -4.4430 2.4026
0.2138 -4.4388 2.4026
0.3207 -4.4320 2.4026
0.4273 -4.4226 2.4026
0.5336 -4.4105 2.4026
0.6396 -4.3959 2.4026
0.7453 -4.3787 2.4026
0.8504 -4.3589 2.4026
0.9551 -4.3366 2.4026
1.0591 -4.3117 2.4026
1.1625 -4.2843 2.4026
1.2652 -4.2544 2.4026
1.3671 -4.2220 2.4026
1.4682 -4.1871 2.4026
1.5684 -4.1497 2.4026
1.6676 -4.1100 2.4026
1.7658 -4.0678 2.4026
1.8630 -4.0233 2.4026
1.9590 -3.9764 2.4026
2.0538 -3.9272 2.4026
2.1474 -3.8757 2.4026
2.2397 -3.8219 2.4026
2.3306 -3.7659 2.4026
2.4202 -3.7078 2.4026
2.5082 -3.6475 2.4026
2.5948 -3.5850 2.4026
2.6798 -3.5205 2.4026
2.7108 -3.3885 2.3570
2.7289 -3.2475 2.3046
2.7994 -3.1727 2.2995
2.8743 -3.1034 2.2995
2.9766 -3.0623 2.3222
3.0189 -2.9595 2.2995
3.0885 -2.8850 2.2995
3.1563 -2.8088 2.2995
3.2222 -2.7311 2.2995
3.2861 -2.6517 2.2995
3.3481 -2.5709 2.2995
3.4081 -2.4886 2.2995
3.4661 -2.4049 2.2995
3.5220 -2.3198 2.2995
3.5758 -2.2334 2.2995
3.6275 -2.1457 2.2995
3.6770 -2.0569 2.2995
3.7244 -1.9668 2.2995
3.7695 -1.8757 2.2995
3.8125 -1.7836 2.2995
3.8531 -1.6905 2.2995
3.8915 -1.5964 2.2995
3.9276 -1.5014 2.2995
3.9614 -1.4057 2.2995
3.9928 -1.3091 2.2995
4.0219 -1.2119 2.2995
4.0486 -1.1140 2.2995
4.0729 -1.0155 2.2995
4.0949 -0.9165 2.2995
4.1144 -0.8170 2.2995
4.1315 -0.7171 2.2995
4.1462 -0.6168 2.2995
4.1585 -0.5163 2.2995
4.1683 -0.4155 2.2995
4.1757 -0.3145 2.2995
4.1807 -0.2134 2.2995
4.1832 -0.1122 2.2995
4.1833 -0.0110 2.2995
4.1809 0.0901 2.2995
4.1761 0.1911 2.2995
4.1689 0.2920 2.2995
4.1593 0.3926 2.2995
4.1472 0.4929 2.2995
4.1327 0.5929 2.2995
4.1158 0.6924 2.2995
4.0966 0.7916 2.2995
4.0749 0.8902 2.2995
4.0509 0.9882 2.2995
4.0246 1.0856 2.2995
3.9959 1.1823 2.2995
3.9650 1.2783 2.2995
3.9317 1.3735 2.2995
3.8962 1.4678 2.2995
3.8584 1.5612 2.2995
3.8184 1.6537 2.2995
3.7762 1.7452 2.2995
3.7318 1.8356 2.2995
3.6852 1.9249 2.2995
3.6366 2.0130 2.2995
3.5859 2.0999 2.2995
3.5331 2.1856 2.2995
3.4782 2.2700 2.2995
3.4214 2.3530 2.2995
3.1748 2.6706 2.2995
3.3626 2.4346 2.2995
3.1085 2.7461 2.2995
3.3019 2.5148 2.2995
3.0405 2.8201 2.2995
3.2393 2.5934 2.2995
2.9707 2.8923 2.2995
2.5461 3.4985 2.4026
2.8992 2.9629 2.2995
2.4602 3.5587 2.4026
2.8640 3.0725 2.3304
2.3729 3.6168 2.4026
2.7512 3.0988 2.2995
2.2843 3.6728 2.4026
2.6749 3.1640 2.2995
2.1943 3.7267 2.4026
2.6119 3.2458 2.3126
2.1031 3.7783 2.4026
2.5898 3.3832 2.3654
2.0107 3.8278 2.4026
1.6301 4.0032 2.4026
1.9171 3.8751 2.4026
1.5325 4.0413 2.4026
1.8225 3.9201 2.4026
1.4340 4.0771 2.4026
1.7268 3.9628 2.4026
1.3347 4.1104 2.4026
0.6211 4.2765 2.4026
1.2346 4.1414 2.4026
0.5173 4.2904 2.4026
1.1338 4.1700 2.4026
-0.4240 4.3030 2.4026
0.4131 4.3018 2.4026
1.0323 4.1962 2.4026
-0.5282 4.2920 2.4026
0.3087 4.3107 2.4026
-0.6322 4.2784 2.4026
0.9303 4.2200 2.4026
0.2041 4.3171 2.4026
-0.7358 4.2623 2.4026
0.8277 4.2413 2.4026
-0.8390 4.2437 2.4026
0.0994 4.3210 2.4026
0.7246 4.2601 2.4026
-0.9417 4.2227 2.4026
-0.0053 4.3225 2.4026
-1.0439 4.1993 2.4026
-1.4464 4.0811 2.4026
-1.1455 4.1733 2.4026
-0.1101 4.3213 2.4026
-1.5451 4.0456 2.4026
-1.2465 4.1450 2.4026
-0.2149 4.3178 2.4026
-1.6430 4.0077 2.4026
-1.3468 4.1142 2.4026
-0.3195 4.3116 2.4026
-2.3883 3.6224 2.4026
-1.7400 3.9675 2.4026
-3.1957 2.9519 2.4026
-2.4759 3.5644 2.4026
-1.8359 3.9249 2.4026
-2.5621 3.5042 2.4026
-3.2672 2.8745 2.4026
-2.6469 3.4420 2.4026
-1.9309 3.8801 2.4026
-3.3368 2.7954 2.4026
-2.7302 3.3778 2.4026
-2.0248 3.8330 2.4026
-2.8119 3.3116 2.4026
-3.4045 2.7147 2.4026
-2.1175 3.7836 2.4026
-2.8921 3.2434 2.4026
-3.4703 2.6323 2.4026
-2.9706 3.1733 2.4026
-2.2090 3.7321 2.4026
-3.5341 2.5483 2.4026
-3.0474 3.1013 2.4026
-3.1225 3.0275 2.4026
-2.2993 3.6783 2.4026
-3.5958 2.4629 2.4026
-3.8219 2.1066 2.4026
-4.2293 1.1340 2.4026
-3.6555 2.3759 2.4026
-3.8730 2.0142 2.4026
-4.2569 1.0318 2.4026
-3.9218 1.9206 2.4026
-3.7131 2.2875 2.4026
-3.9685 1.8258 2.4026
-4.2821 0.9289 2.4026
-3.7686 2.1977 2.4026
-4.0128 1.7299 2.4026
-4.3048 0.8255 2.4026
-4.0548 1.6329 2.4026
-4.3928 0.0894 2.4026
-4.0945 1.5349 2.4026
-4.3249 0.7215 2.4026
-4.3951 -0.0167 2.4026
-4.1318 1.4360 2.4026
-4.3426 0.6170 2.4026
-4.3949 -0.1229 2.4026
-4.1667 1.3361 2.4026
-4.3922 -0.2290 2.4026
-4.3577 0.5121 2.4026
-4.1992 1.2354 2.4026
-4.3868 -0.3351 2.4026
-4.3008 -0.9666 2.4026
-4.3703 0.4068 2.4026
-4.3789 -0.4411 2.4026
-4.2776 -1.0705 2.4026
-4.3684 -0.5468 2.4026
-4.2519 -1.1737 2.4026
-4.3804 0.3012 2.4026
-4.3553 -0.6523 2.4026
-4.2236 -1.2764 2.4026
-4.3878 0.1954 2.4026
-4.3397 -0.7575 2.4026
-4.1928 -1.3783 2.4026
-4.1596 -1.4795 2.4026
-4.3216 -0.8623 2.4026
-4.1239 -1.5799 2.4026
-3.9570 -1.9720 2.4026
-4.0858 -1.6794 2.4026
-4.0453 -1.7779 2.4026
-3.9094 -2.0674 2.4026
-4.0023 -1.8755 2.4026
-3.8594 -2.1617 2.4026
-3.8072 -2.2547 2.4026
-3.7526 -2.3464 2.4026
-3.6959 -2.4368 2.4026
-3.6370 -2.5258 2.4026
-3.5759 -2.6134 2.4026
-3.5126 -2.6994 2.4026
-3.4473 -2.7839 2.4026
-3.2922 -2.7927 2.4026
-3.2246 -2.8718 2.4026
-3.1551 -2.9493 2.4026
-3.0837 -3.0251 2.4026
-3.0105 -3.0991 2.4026
-2.9355 -3.1713 2.4026
-2.8587 -3.2417 2.4026
-2.7803 -3.3102 2.4026
-2.7001 -3.3767 2.4026
-2.6184 -3.4413 2.4026
-2.5351 -3.5039 2.4026
-2.4503 -3.5645 2.4026
-2.3640 -3.6229 2.4026
-2.2764 -3.6793 2.4026
-2.1873 -3.7335 2.4026
-2.0970 -3.7855 2.4026
-2.0054 -3.8353 2.4026
-1.9126 -3.8828 2.4026
-1.8187 -3.9281 2.4026
-1.7237 -3.9711 2.4026
-1.6277 -4.0117 2.4026
-1.5307 -4.0500 2.4026
-1.4328 -4.0859 2.4026
-1.3340 -4.1194 2.4026
-1.2345 -4.1505 2.4026
-1.1342 -4.1791 2.4026
-1.0332 -4.2053 2.4026
-0.9317 -4.2290 2.4026
-0.6239 -4.2852 2.4026
-0.8295 -4.2502 2.4026
-0.5205 -4.2989 2.4026
-0.7269 -4.2690 2.4026
-0.4168 -4.3100 2.4026
0.4161 -4.3078 2.4026
1.4299 -4.0785 2.4026
-0.3129 -4.3187 2.4026
0.5197 -4.2961 2.4026
1.5275 -4.0422 2.4026
0.6229 -4.2819 2.4026
-0.2088 -4.3247 2.4026
1.6242 -4.0035 2.4026
1.7199 -3.9624 2.4026
0.7258 -4.2651 2.4026
-0.1045 -4.3283 2.4026
1.8145 -3.9190 2.4026
0.8282 -4.2459 2.4026
-0.0003 -4.3293 2.4026
1.9080 -3.8734 2.4026
0.9301 -4.2241 2.4026
0.1040 -4.3277 2.4026
2.0004 -3.8255 2.4026
1.0315 -4.1999 2.4026
2.0915 -3.7753 2.4026
1.1322 -4.1732 2.4026
1.2322 -4.1441 2.4026
0.2082 -4.3236 2.4026
1.3315 -4.1125 2.4026
2.3573 -3.6119 2.4026
2.4430 -3.5531 2.4026
2.1815 -3.7230 2.4026
2.5274 -3.4924 2.4026
2.6102 -3.4295 2.4026
0.3122 -4.3170 2.4026
3.0084 -2.8106 2.2995
2.6914 -3.3647 2.4026
2.7106 -3.2261 2.3501
2.2700 -3.6685 2.4026
2.7278 -3.0920 2.3004
2.7997 -3.0233 2.2995
3.5819 -2.0040 2.2995
2.8710 -2.9541 2.2995
3.0744 -2.7364 2.2995
2.9724 -2.9143 2.3243
4.0755 -0.1097 2.2995
3.9441 -1.0856 2.2995
4.0756 -0.0111 2.2995
3.6281 -1.9164 2.2995
4.0734 0.0874 2.2995
3.1386 -2.6607 2.2995
4.0687 0.1858 2.2995
4.0617 0.2841 2.2995
3.9679 -0.9897 2.2995
4.0523 0.3821 2.2995
3.6721 -1.8276 2.2995
4.0406 0.4799 2.2995
3.2010 -2.5834 2.2995
4.0265 0.5773 2.2995
3.9893 -0.8932 2.2995
4.0101 0.6743 2.2995
3.9914 0.7709 2.2995
3.7139 -1.7379 2.2995
3.9703 0.8670 2.2995
3.2614 -2.5047 2.2995
3.9470 0.9625 2.2995
4.0083 -0.7963 2.2995
3.9213 1.0574 2.2995
3.8934 1.1516 2.2995
3.7535 -1.6471 2.2995
3.8632 1.2452 2.2995
3.3198 -2.4245 2.2995
3.8309 1.3379 2.2995
4.0250 -0.6990 2.2995
3.7963 1.4298 2.2995
3.7910 -1.5555 2.2995
3.7595 1.5209 2.2995
3.3763 -2.3430 2.2995
3.7205 1.6110 2.2995
4.0394 -0.6013 2.2995
3.6794 1.7001 2.2995
3.6362 1.7882 2.2995
3.8261 -1.4630 2.2995
3.5908 1.8753 2.2995
3.4308 -2.2601 2.2995
3.5435 1.9612 2.2995
4.0514 -0.5033 2.2995
3.4940 2.0459 2.2995
3.8591 -1.3697 2.2995
3.4426 2.1294 2.2995
3.4832 -2.1759 2.2995
3.3892 2.2116 2.2995
3.3338 2.2925 2.2995
4.0610 -0.4051 2.2995
3.2766 2.3720 2.2995
3.8897 -1.2757 2.2995
3.2174 2.4501 2.2995
3.5336 -2.0906 2.2995
3.1564 2.5268 2.2995
4.0682 -0.3067 2.2995
2.4810 3.4089 2.4026
3.9181 -1.1810 2.2995
2.3973 3.4675 2.4026
3.0936 2.6020 2.2995
2.3123 3.5241 2.4026
4.0731 -0.2082 2.2995
2.2259 3.5787 2.4026
2.1382 3.6312 2.4026
1.5884 3.9008 2.4026
2.0494 3.6816 2.4026
3.0290 2.6756 2.2995
1.9593 3.7298 2.4026
0.6052 4.1671 2.4026
1.8681 3.7759 2.4026
1.7759 3.8197 2.4026
1.4933 3.9379 2.4026
1.6827 3.8614 2.4026
2.9627 2.7477 2.2995
0.5040 4.1806 2.4026
-0.4132 4.1929 2.4026
1.3973 3.9727 2.4026
0.4025 4.1917 2.4026
2.8947 2.8181 2.2995
0.3008 4.2004 2.4026
-0.5148 4.1821 2.4026
2.8644 2.9271 2.3315
1.3005 4.0053 2.4026
0.1989 4.2067 2.4026
-0.6161 4.1688 2.4026
0.0968 4.2105 2.4026
2.7538 2.9539 2.2995
1.2030 4.0355 2.4026
-0.0053 4.2118 2.4026
-0.7171 4.1532 2.4026
1.1048 4.0634 2.4026
-0.1074 4.2108 2.4026
2.6809 3.0193 2.2995
-0.8176 4.1351 2.4026
-0.2095 4.2073 2.4026
1.0059 4.0889 2.4026
2.6153 3.0932 2.3072
-0.3114 4.2013 2.4026
-0.9177 4.1146 2.4026
0.9065 4.1120 2.4026
-1.4095 3.9765 2.4026
2.5943 3.2238 2.3574
-1.0173 4.0917 2.4026
-1.5057 3.9419 2.4026
0.8065 4.1328 2.4026
-1.1164 4.0665 2.4026
2.5633 3.3482 2.4026
-1.6011 3.9049 2.4026
0.7061 4.1511 2.4026
-1.6956 3.8657 2.4026
-1.2148 4.0388 2.4026
-2.3273 3.5294 2.4026
-1.7891 3.8243 2.4026
-3.1139 2.8759 2.4026
-1.3125 4.0088 2.4026
-2.4126 3.4728 2.4026
-1.8816 3.7806 2.4026
-3.1835 2.8005 2.4026
-1.9731 3.7346 2.4026
-2.4967 3.4142 2.4026
-3.7238 2.0521 2.4026
-2.0634 3.6866 2.4026
-2.1526 3.6363 2.4026
-3.2513 2.7234 2.4026
-2.5793 3.3536 2.4026
-3.7735 1.9621 2.4026
-2.2406 3.5839 2.4026
-2.6604 3.2910 2.4026
-4.1205 1.1044 2.4026
-3.8211 1.8709 2.4026
-3.3173 2.6447 2.4026
-4.1474 1.0048 2.4026
-2.7400 3.2264 2.4026
-3.8665 1.7785 2.4026
-4.1718 0.9046 2.4026
-3.3813 2.5644 2.4026
-2.8181 3.1600 2.4026
-3.9097 1.6850 2.4026
-4.1939 0.8038 2.4026
-3.4435 2.4826 2.4026
-2.8946 3.0917 2.4026
-3.9506 1.5905 2.4026
-4.2135 0.7025 2.4026
-3.5036 2.3993 2.4026
-2.9694 3.0215 2.4026
-4.2307 0.6007 2.4026
-3.9892 1.4950 2.4026
-3.5617 2.3145 2.4026
-4.2454 0.4985 2.4026
-3.0425 2.9496 2.4026
-3.6178 2.2284 2.4026
-4.0255 1.3986 2.4026
-4.2576 0.3959 2.4026
-4.2794 0.0867 2.4026
-4.0595 1.3014 2.4026
-3.6718 2.1409 2.4026
-4.2674 0.2931 2.4026
-4.2817 -0.0167 2.4026
-4.1896 -0.9420 2.4026
-4.2747 0.1900 2.4026
-4.0912 1.2033 2.4026
-4.2815 -0.1201 2.4026
-4.1669 -1.0431 2.4026
-3.8545 -1.9212 2.4026
-4.2787 -0.2235 2.4026
-4.1418 -1.1437 2.4026
-3.8080 -2.0142 2.4026
-4.2735 -0.3268 2.4026
-4.1143 -1.2437 2.4026
-3.7593 -2.1059 2.4026
-4.2658 -0.4300 2.4026
-3.7084 -2.1965 2.4026
-4.0843 -1.3430 2.4026
-4.2555 -0.5331 2.4026
-3.6553 -2.2859 2.4026
-4.0519 -1.4415 2.4026
-4.2428 -0.6358 2.4026
-3.6000 -2.3739 2.4026
-4.2275 -0.7383 2.4026
-4.0171 -1.5393 2.4026
-3.5426 -2.4606 2.4026
-4.2098 -0.8403 2.4026
-3.9800 -1.6362 2.4026
-3.4831 -2.5459 2.4026
-3.9405 -1.7322 2.4026
-3.4215 -2.6297 2.4026
-3.8986 -1.8272 2.4026
-3.3578 -2.7120 2.4026
-3.2079 -2.7215 2.4026
-3.1420 -2.7986 2.4026
-2.4701 -3.4143 2.4026
-3.0743 -2.8740 2.4026
-2.3875 -3.4733 2.4026
-3.0047 -2.9478 2.4026
-2.3034 -3.5303 2.4026
-1.5859 -3.9090 2.4026
-2.2180 -3.5852 2.4026
-2.9334 -3.0199 2.4026
-2.1312 -3.6380 2.4026
-2.8603 -3.0903 2.4026
-2.7855 -3.1589 2.4026
-2.7090 -3.2256 2.4026
-0.6079 -4.1754 2.4026
-2.6309 -3.2904 2.4026
-1.4914 -3.9463 2.4026
-2.5513 -3.3534 2.4026
-2.0432 -3.6886 2.4026
0.4053 -4.1975 2.4026
0.5062 -4.1861 2.4026
-0.5072 -4.1888 2.4026
0.6069 -4.1722 2.4026
-1.3960 -3.9813 2.4026
0.7071 -4.1559 2.4026
0.8069 -4.1372 2.4026
-1.9540 -3.7371 2.4026
0.9062 -4.1160 2.4026
-0.4062 -4.1997 2.4026
1.0049 -4.0924 2.4026
-1.2998 -4.0139 2.4026
1.1031 -4.0664 2.4026
1.2005 -4.0381 2.4026
-1.8636 -3.7835 2.4026
1.2972 -4.0073 2.4026
1.3932 -3.9742 2.4026
-0.3049 -4.2080 2.4026
1.4883 -3.9388 2.4026
-1.2028 -4.0442 2.4026
1.5824 -3.9011 2.4026
-1.7721 -3.8276 2.4026
1.6757 -3.8611 2.4026
1.7679 -3.8189 2.4026
-0.2035 -4.2140 2.4026
1.8590 -3.7744 2.4026
-1.1051 -4.0721 2.4026
1.9490 -3.7278 2.4026
-1.6795 -3.8694 2.4026
2.0379 -3.6789 2.4026
2.1255 -3.6280 2.4026
-0.1019 -4.2174 2.4026
2.2118 -3.5749 2.4026
-1.0067 -4.0976 2.4026
2.9675 -2.7728 2.3278
2.2968 -3.5197 2.4026
2.9958 -2.6668 2.2995
3.0583 -2.5930 2.2995
-0.0003 -4.2184 2.4026
