ply
format ascii 1.0
element vertex 2069
property float32 x
property float32 y
property float32 z
end_header
0.6725 -27.2046 1.9282
1.6552 -33.8472 2.4017
2.3650 -32.3344 2.2985
3.1438 -32.2552 2.2985
3.9199 -32.1547 2.2985
4.6926 -32.0332 2.2985
2.7910 -16.2975 1.1746
2.7521 -14.0259 1.0161
5.6873 -25.6856 1.8717
6.3152 -25.5783 1.8760
6.6636 -24.4379 1.8053
7.2472 -24.2547 1.8060
7.8615 -24.1669 1.8151
8.8877 -25.2334 1.9129
9.6971 -25.5453 1.9561
10.9399 -26.8468 2.0781
11.4250 -26.2079 2.0522
11.8963 -25.5840 2.0282
12.4008 -25.0672 2.0134
13.0089 -24.7726 2.0176
14.1101 -25.3622 2.0962
15.5814 -26.4806 2.2228
18.0002 -28.9673 2.4717
18.6604 -28.4722 2.4717
16.0752 -23.2813 2.0581
16.5294 -22.7441 2.0493
16.9928 -22.2323 2.0436
17.4103 -21.6730 2.0344
17.7713 -21.0598 2.0209
18.2237 -20.5669 2.0196
13.6918 -14.7201 1.4808
14.0340 -14.3757 1.4832
22.3995 -21.8627 2.3161
22.8670 -21.2652 2.3161
23.3179 -20.6571 2.3161
23.7519 -20.0389 2.3161
24.1688 -19.4111 2.3161
24.5685 -18.7743 2.3161
24.9508 -18.1289 2.3161
25.3156 -17.4756 2.3161
25.6627 -16.8148 2.3161
25.9921 -16.1469 2.3161
26.3036 -15.4727 2.3161
26.5972 -14.7925 2.3161
26.8729 -14.1070 2.3161
27.1305 -13.4165 2.3161
27.3700 -12.7216 2.3161
27.5916 -12.0229 2.3161
27.7951 -11.3207 2.3161
27.9805 -10.6157 2.3161
28.1480 -9.9082 2.3161
28.2975 -9.1988 2.3161
28.4291 -8.4879 2.3161
28.5429 -7.7760 2.3161
28.6389 -7.0636 2.3161
24.1314 -5.3369 1.9462
19.5065 -3.8222 1.5699
16.3941 -2.8029 1.3174
18.8368 -2.7539 1.5124
28.8566 -3.5090 2.3161
28.8485 -2.8025 2.3161
26.2326 -1.9099 2.1079
20.0255 -0.9723 1.6115
19.5826 -0.4769 1.5790
16.5292 -0.0030 1.3363
16.4254 0.3940 1.3321
17.7844 0.8569 1.4477
19.7550 1.4311 1.6151
28.1906 2.7283 2.3161
26.7771 3.2464 2.2120
23.3286 3.4022 1.9388
23.0955 3.9404 1.9322
22.9709 4.4930 1.9356
21.9144 4.8390 1.8610
20.9410 5.1578 1.7933
26.8047 7.2935 2.3161
26.5496 7.9181 2.3161
26.2810 8.5348 2.3161
25.9991 9.1436 2.3161
25.7041 9.7442 2.3161
25.3963 10.3363 2.3161
25.0760 10.9196 2.3161
24.2605 11.2697 2.2709
23.2858 11.5092 2.2104
22.9455 12.0398 2.2104
22.6837 12.6109 2.2192
22.6892 13.3419 2.2559
22.6948 14.0944 2.2949
22.5032 14.7409 2.3161
22.0916 15.2470 2.3161
21.6697 15.7426 2.3161
21.2379 16.2275 2.3161
20.7963 16.7017 2.3161
20.3453 17.1648 2.3161
3.2341 2.8652 0.3767
2.9655 2.7580 0.3537
2.9373 2.8674 0.3592
2.7997 2.8684 0.3514
2.6286 2.8268 0.3390
3.5328 3.9883 0.4688
3.4721 4.1161 0.4746
15.6729 19.5188 2.2096
15.1726 19.8610 2.2096
14.8042 20.3821 2.2305
14.8124 21.4664 2.3126
14.2905 21.8206 2.3161
13.7402 22.1301 2.3161
13.1841 22.4270 2.3161
12.6225 22.7114 2.3161
12.0555 22.9831 2.3161
11.4834 23.2420 2.3161
10.9065 23.4882 2.3161
10.3251 23.7216 2.3161
9.7394 23.9420 2.3161
9.1496 24.1494 2.3161
8.5560 24.3439 2.3161
7.9588 24.5252 2.3161
7.3583 24.6934 2.3161
6.7548 24.8485 2.3161
6.1368 24.9432 2.3117
5.4976 24.9297 2.2986
4.8910 25.0443 2.2986
3.2056 18.8232 1.7207
3.2516 22.3466 2.0356
3.0597 25.3088 2.2986
2.4462 25.3705 2.2986
1.8317 25.4189 2.2986
1.2193 25.5157 2.3042
0.6236 26.4562 2.3871
-0.0165 26.6299 2.4019
-0.6607 26.6292 2.4023
-1.3049 26.6148 2.4027
-1.9490 26.5865 2.4031
-2.5927 26.5444 2.4035
-3.2355 26.4876 2.4039
-3.8774 26.4171 2.4043
-2.3339 13.6027 1.2422
-2.3638 12.0243 1.1023
-2.3876 10.7634 0.9911
-2.4071 9.7319 0.9006
-2.5989 9.5141 0.8854
-2.8306 9.4563 0.8854
-3.0612 9.3935 0.8854
-3.2906 9.3256 0.8854
-3.5267 9.2737 0.8875
-3.7878 9.2786 0.8955
-4.0545 9.2837 0.9042
-4.3271 9.2888 0.9136
-8.4008 16.9503 1.6845
-8.7090 16.5535 1.6634
-12.6010 22.6071 2.2986
-11.6872 19.8247 2.0410
-12.3476 19.8326 2.0690
-13.0288 19.8408 2.0990
-13.7325 19.8492 2.1310
-15.3505 21.0798 2.2986
-15.2159 19.8670 2.2022
-15.9907 19.8646 2.2403
-16.8065 19.8744 2.2825
-17.6106 19.8323 2.3217
-18.1187 19.4370 2.3217
-18.6190 19.0297 2.3217
-19.1112 18.6106 2.3217
-19.5950 18.1797 2.3217
-20.0700 17.7372 2.3217
-20.5362 17.2832 2.3217
-20.8896 16.7348 2.3103
-21.1272 16.1024 2.2878
-19.9609 14.4642 2.1182
-20.2574 13.9449 2.1085
-20.9717 13.7014 2.1428
-21.7002 13.4404 2.1782
-22.1296 12.9768 2.1839
-22.0818 12.2414 2.1441
-22.5482 11.7966 2.1558
-23.0334 11.3500 2.1698
-23.3975 10.8346 2.1733
-23.7135 10.2924 2.1733
-24.0178 9.7416 2.1733
-24.3102 9.1824 2.1733
-13.9751 4.8961 1.2350
-24.8584 8.0399 2.1733
-25.1135 7.4570 2.1733
-25.3585 6.8675 2.1735
-25.6105 6.2755 2.1754
-25.9069 5.6882 2.1822
-26.1745 5.0872 2.1876
-24.0978 4.0820 1.9995
-26.5149 3.8347 2.1855
-16.6645 2.0003 1.3653
-26.6993 2.5521 2.1755
-26.7683 1.9073 2.1705
-26.8713 1.2630 2.1694
-27.0203 0.6162 2.1733
-23.5316 -0.0321 1.8867
-23.9849 -0.6124 1.9180
-27.3016 -1.3578 2.1789
-27.3683 -2.0250 2.1811
-27.3914 -2.6935 2.1811
-27.3367 -3.3567 2.1762
-27.2503 -4.0166 2.1700
-27.1308 -4.6712 2.1626
-26.9528 -5.3141 2.1517
-19.9046 -4.4265 1.5925
-25.9588 -6.4348 2.0826
-23.5867 -6.4554 1.8988
-21.5780 -6.4699 1.7442
-19.8707 -6.4851 1.6137
-18.3751 -6.4921 1.5003
-17.0774 -6.5018 1.4028
-15.9313 -6.5103 1.3175
-14.9107 -6.5179 1.2423
-13.9989 -6.5264 1.1759
-13.1717 -6.5326 1.1163
-5.9148 -3.1137 0.5061
-5.7785 -3.2225 0.4997
-11.0986 -6.5459 0.9705
-10.5166 -6.5500 0.9308
-10.0021 -6.5701 0.8967
-21.2611 -14.7130 1.9325
-20.8687 -15.1996 1.9249
-20.5306 -15.7261 1.9234
-20.1711 -16.2385 1.9213
-17.8495 -15.0967 1.9911
-17.5488 -15.5847 1.9950
-17.3569 -16.1807 2.0130
-12.7228 -12.4483 1.5071
-16.8724 -17.3254 2.0438
-16.5459 -17.8321 2.0520
-16.3002 -18.4410 2.0724
-16.1656 -19.2040 2.1100
-16.0427 -20.0200 2.1528
-15.9439 -20.9122 2.2031
-15.7942 -21.7875 2.2508
-15.5810 -22.6235 2.2941
-15.1581 -23.1888 2.3102
-14.6743 -23.6780 2.3197
-14.1301 -24.0797 2.3217
-13.5624 -24.4459 2.3217
-12.9844 -24.7973 2.3217
-12.3967 -25.1335 2.3217
-11.7996 -25.4544 2.3217
-11.1935 -25.7595 2.3217
-10.5790 -26.0484 2.3217
-9.9564 -26.3211 2.3217
-8.9995 -25.6463 2.2404
-8.6025 -26.5499 2.2986
-7.9649 -26.7700 2.2986
-7.3213 -26.9730 2.2986
-6.6720 -27.1587 2.2986
-5.5858 -25.3658 2.1337
-5.5991 -28.7099 2.4017
-4.9063 -28.8487 2.4017
-4.2098 -28.9688 2.4017
-3.5102 -29.0701 2.4017
-2.8079 -29.1526 2.4017
-2.1035 -29.2161 2.4017
-1.3976 -29.2605 2.4017
-0.6413 -27.1866 2.2296
0.0165 -29.2921 2.4017
0.6732 -27.2410 2.2345
1.4300 -29.2474 2.4017
2.1352 -29.1965 2.4017
2.7165 -27.8744 2.2985
3.3873 -27.7894 2.2985
4.0553 -27.6863 2.2985
2.7907 -16.2977 1.3589
2.7516 -14.0251 1.1754
5.7350 -25.9039 2.1833
6.2567 -25.3446 2.1499
6.6249 -24.2991 2.0758
7.2964 -24.4225 2.1026
7.8344 -24.0869 2.0914
9.0732 -25.7633 2.2575
9.7582 -25.7095 2.2752
10.9901 -26.9735 2.4126
11.4828 -26.3437 2.3832
12.0441 -25.9051 2.3721
12.5995 -25.4722 2.3627
13.3135 -25.3559 2.3843
13.5044 -24.2766 2.3161
14.0659 -23.9082 2.3161
14.6167 -23.5256 2.3161
15.1565 -23.1291 2.3161
15.6849 -22.7192 2.3161
16.2015 -22.2961 2.3161
16.7062 -21.8604 2.3161
17.1984 -21.4123 2.3161
17.6780 -20.9523 2.3161
18.1447 -20.4808 2.3161
13.6895 -14.7198 1.7048
14.0301 -14.3739 1.7068
19.4644 -19.0010 2.3161
19.8768 -18.4874 2.3161
20.2750 -17.9644 2.3161
20.6589 -17.4324 2.3161
21.0283 -16.8918 2.3161
21.3830 -16.3430 2.3161
21.7229 -15.7865 2.3161
22.0479 -15.2227 2.3161
22.3577 -14.6521 2.3161
22.6524 -14.0751 2.3161
22.9317 -13.4922 2.3161
23.1958 -12.9036 2.3161
23.4443 -12.3100 2.3161
23.6774 -11.7117 2.3161
23.8949 -11.1092 2.3161
24.0969 -10.5029 2.3161
24.2832 -9.8932 2.3161
24.4540 -9.2806 2.3161
24.6092 -8.6654 2.3161
24.7488 -8.0480 2.3161
24.8728 -7.4290 2.3161
24.9814 -6.8086 2.3161
25.0745 -6.1873 2.3161
24.1565 -5.3451 2.2244
19.5228 -3.8276 1.7933
16.4056 -2.8067 1.5041
18.8362 -2.7559 1.7248
25.3105 -3.0805 2.3161
25.3124 -2.4617 2.3161
25.2995 -1.8447 2.3161
20.0191 -0.9741 1.8347
19.5819 -0.4790 1.7976
16.5282 -0.0048 1.5207
16.4224 0.3922 1.5153
17.7894 0.8553 1.6470
19.7602 1.4293 1.8367
24.8041 2.3979 2.3161
24.6773 2.9892 2.3161
24.5370 3.5758 2.3161
24.3833 4.1575 2.3161
22.9757 4.4914 2.1974
21.9188 4.8376 2.1120
20.9450 5.1565 2.0345
23.6388 6.4295 2.3161
23.4212 6.9824 2.3161
23.1914 7.5289 2.3161
22.9496 8.0686 2.3161
22.6961 8.6013 2.3161
22.4309 9.1268 2.3161
22.1544 9.6448 2.3161
21.8668 10.1553 2.3161
21.5682 10.6578 2.3161
21.2589 11.1523 2.3161
20.9391 11.6385 2.3161
20.6091 12.1163 2.3161
20.2691 12.5854 2.3161
19.9192 13.0458 2.3161
19.5597 13.4971 2.3161
19.1909 13.9393 2.3161
18.8130 14.3723 2.3161
18.4261 14.7957 2.3161
18.0306 15.2096 2.3161
3.2346 2.8652 0.4250
2.9658 2.7579 0.3990
2.9378 2.8674 0.4051
2.8001 2.8684 0.3962
2.6219 2.8191 0.3812
3.5328 3.9878 0.5283
3.4706 4.1138 0.5345
14.5826 18.1586 2.3161
14.1196 18.4802 2.3161
13.6503 18.7910 2.3161
13.1748 19.0908 2.3161
12.6935 19.3798 2.3161
12.2065 19.6575 2.3161
11.7142 19.9242 2.3161
11.2166 20.1796 2.3161
10.7142 20.4237 2.3161
10.2070 20.6564 2.3161
9.6954 20.8776 2.3161
9.1795 21.0873 2.3161
8.6597 21.2854 2.3161
8.1360 21.4719 2.3161
7.6088 21.6468 2.3161
7.0783 21.8098 2.3161
6.5324 21.9197 2.3117
5.9631 21.9340 2.2986
5.4281 22.0606 2.2986
4.8907 22.1755 2.2986
4.3512 22.2784 2.2986
3.4541 20.2809 2.0840
3.2519 22.3467 2.2882
2.7223 22.5161 2.2986
2.2207 23.0293 2.3452
1.7029 23.6301 2.4018
1.1310 23.6670 2.4022
0.5584 23.6915 2.4026
-0.0148 23.7034 2.4031
-0.5882 23.7029 2.4035
-1.1617 23.6898 2.4039
-1.7350 23.6640 2.4043
-2.3079 23.6256 2.4047
-2.8793 23.5686 2.4045
-3.4493 23.4976 2.4042
-2.3339 13.6011 1.3963
-2.3638 12.0228 1.2392
-2.3876 10.7621 1.1143
-2.4071 9.7307 1.0126
-2.5284 9.2548 0.9685
-2.7720 9.2594 0.9750
-3.0194 9.2641 0.9822
-3.2710 9.2688 0.9900
-3.5271 9.2737 0.9984
-3.7883 9.2786 1.0076
-4.0550 9.2837 1.0175
-4.3277 9.2888 1.0282
-8.7325 17.6174 1.9707
-8.7204 16.5730 1.8748
-9.3078 16.6966 1.9114
-9.5810 16.2499 1.8839
-9.8653 15.8434 1.8615
-9.9752 15.1886 1.8100
-13.2810 19.1941 2.3217
-13.7610 18.8943 2.3217
-14.2349 18.5835 2.3217
-14.7024 18.2617 2.3217
-15.1635 17.9290 2.3217
-15.6179 17.5855 2.3217
-16.0651 17.2313 2.3217
-16.4534 16.8137 2.3144
-16.8330 16.3895 2.3074
-17.1998 15.9549 2.3000
-17.5151 15.4766 2.2872
-17.7571 14.9417 2.2667
-17.9511 14.3783 2.2422
-18.2094 13.8760 2.2275
-18.4993 13.4025 2.2183
-18.8569 12.9783 2.2184
-19.2591 12.5800 2.2247
-19.5456 12.1033 2.2187
-19.6343 11.5111 2.1918
-19.7809 10.9633 2.1733
-20.0840 10.5050 2.1733
-20.3773 10.0387 2.1733
-20.6604 9.5647 2.1733
-20.9332 9.0831 2.1733
-21.1954 8.5943 2.1733
-21.4468 8.0984 2.1733
-13.9377 4.8814 1.3967
-16.3770 5.2949 1.6240
-22.1346 6.5700 2.1733
-17.6975 4.7908 1.7216
-22.5355 5.5195 2.1733
-22.7181 4.9855 2.1733
-22.8886 4.4461 2.1733
-23.0743 3.9061 2.1759
-23.2655 3.3623 2.1801
-16.6535 1.9972 1.5517
-23.5295 2.2465 2.1811
-23.6369 1.6816 2.1811
-23.7310 1.1128 2.1811
-23.8118 0.5405 2.1811
-23.8790 -0.0351 2.1811
-23.9325 -0.6136 2.1811
-23.9722 -1.1948 2.1811
-23.9979 -1.7782 2.1811
-24.0096 -2.3635 2.1811
-24.0071 -2.9505 2.1811
-23.9902 -3.5386 2.1811
-23.9590 -4.1277 2.1811
-23.9133 -4.7174 2.1811
-19.8675 -4.4205 1.8167
-23.7400 -5.8874 2.1776
-23.5771 -6.4553 2.1708
-21.5698 -6.4698 1.9948
-19.8637 -6.4850 1.8464
-18.3704 -6.4926 1.7174
-17.0728 -6.5020 1.6063
-15.9273 -6.5105 1.5092
-14.9072 -6.5180 1.4236
-13.9951 -6.5263 1.3479
-13.1683 -6.5325 1.2800
-5.9147 -3.1144 0.5807
-5.6624 -3.1585 0.5620
-11.0965 -6.5460 1.1141
-10.5146 -6.5501 1.0688
-9.9755 -6.5539 1.0275
-9.5804 -6.6310 1.0008
-18.7651 -13.6699 1.9899
-18.4605 -14.1429 1.9890
-18.1674 -14.6279 1.9907
-16.8709 -14.2713 2.1290
-16.7276 -14.8578 2.1517
-16.5769 -15.4559 2.1759
-12.7203 -12.4477 1.7057
-15.9894 -16.4211 2.1930
-15.7412 -16.9672 2.2109
-15.5462 -17.5904 2.2390
-15.3007 -18.1791 2.2627
-14.9966 -18.7171 2.2805
-14.6668 -19.2396 2.2970
-14.3322 -19.7733 2.3154
-13.8903 -20.1711 2.3189
-13.4330 -20.5523 2.3217
-12.9492 -20.8970 2.3217
-12.4560 -21.2292 2.3217
-11.9536 -21.5487 2.3217
-11.4426 -21.8552 2.3217
-10.9231 -22.1484 2.3217
-10.3956 -22.4281 2.3217
-9.8604 -22.6939 2.3217
-9.2253 -22.7176 2.2986
-8.6814 -22.9529 2.2986
-8.1310 -23.1738 2.2986
-7.5747 -23.3801 2.2986
-7.0127 -23.5718 2.2986
-6.4455 -23.7486 2.2986
-5.8749 -23.9160 2.2992
-5.5347 -25.1358 2.4017
-4.9283 -25.2728 2.4017
-4.3184 -25.3938 2.4017
-3.7052 -25.4984 2.4017
-3.0894 -25.5868 2.4017
-2.4712 -25.6587 2.4017
-1.8513 -25.7141 2.4017
-1.2301 -25.7530 2.4017
-0.6080 -25.7753 2.4017
0.0144 -25.7810 2.4017
0.6367 -25.7701 2.4017
1.2584 -25.7427 2.4017
1.8791 -25.6986 2.4017
2.3908 -24.5359 2.2985
2.9813 -24.4623 2.2985
3.5695 -24.3730 2.2985
2.7903 -16.2978 1.5436
2.7511 -14.0244 1.3349
5.3154 -24.0121 2.2985
5.8897 -23.8612 2.2985
6.5090 -23.8768 2.3161
7.0781 -23.6945 2.3161
7.6417 -23.4973 2.3161
8.1996 -23.2855 2.3161
8.7511 -23.0591 2.3161
9.2960 -22.8184 2.3161
9.8339 -22.5637 2.3161
10.3644 -22.2952 2.3161
10.8872 -22.0132 2.3161
11.4018 -21.7178 2.3161
11.9078 -21.4093 2.3161
12.4051 -21.0880 2.3161
12.8932 -20.7543 2.3161
13.3718 -20.4083 2.3161
13.8406 -20.0505 2.3161
14.2993 -19.6811 2.3161
14.7477 -19.3004 2.3161
15.1854 -18.9088 2.3161
15.6122 -18.5065 2.3161
16.0278 -18.0940 2.3161
13.6871 -14.7196 1.9292
14.0261 -14.3721 1.9309
17.2053 -16.7983 2.3161
17.5739 -16.3482 2.3161
17.9303 -15.8896 2.3161
18.2743 -15.4229 2.3161
18.6057 -14.9483 2.3161
18.9243 -14.4664 2.3161
19.2300 -13.9775 2.3161
19.5227 -13.4819 2.3161
19.8022 -12.9800 2.3161
20.0685 -12.4722 2.3161
20.3214 -11.9589 2.3161
20.5609 -11.4404 2.3161
20.7869 -10.9172 2.3161
20.9992 -10.3896 2.3161
21.1979 -9.8579 2.3161
21.3830 -9.3226 2.3161
21.5543 -8.7840 2.3161
21.7119 -8.2425 2.3161
21.8558 -7.6984 2.3161
21.9859 -7.1521 2.3161
22.1024 -6.6040 2.3161
22.2050 -6.0544 2.3161
22.2941 -5.5037 2.3161
22.3694 -4.9522 2.3161
19.5393 -3.8330 2.0175
16.4171 -2.8104 1.6915
18.8356 -2.7578 1.9377
22.5355 -2.7452 2.3161
22.5435 -2.1949 2.3161
22.5383 -1.6458 2.3161
22.5199 -1.0982 2.3161
22.4884 -0.5525 2.3161
16.5271 -0.0066 1.7055
16.4194 0.3903 1.6987
17.7945 0.8536 1.8468
19.7656 1.4276 2.0589
22.1392 2.1379 2.3161
22.0318 2.6664 2.3161
21.9123 3.1909 2.3161
21.7807 3.7114 2.3161
21.6373 4.2274 2.3161
21.4821 4.7389 2.3161
21.3154 5.2454 2.3161
21.1372 5.7467 2.3161
20.9478 6.2428 2.3161
20.7474 6.7331 2.3161
20.5360 7.2177 2.3161
20.3139 7.6962 2.3161
20.0813 8.1685 2.3161
19.8383 8.6342 2.3161
19.5852 9.0934 2.3161
19.3221 9.5456 2.3161
19.0492 9.9908 2.3161
18.7667 10.4288 2.3161
18.4748 10.8593 2.3161
18.1738 11.2822 2.3161
17.8637 11.6973 2.3161
17.5448 12.1045 2.3161
17.2174 12.5036 2.3161
16.8815 12.8945 2.3161
15.7773 12.6666 2.2096
15.4414 13.0233 2.2096
3.2351 2.8652 0.4735
2.9662 2.7579 0.4444
2.9382 2.8674 0.4512
2.8005 2.8684 0.4412
2.6255 2.8226 0.4248
3.5329 3.9873 0.5879
3.4691 4.1115 0.5945
13.1072 16.3192 2.3161
12.6927 16.6105 2.3161
12.2725 16.8922 2.3161
11.8465 17.1640 2.3161
11.4152 17.4260 2.3161
10.9786 17.6779 2.3161
10.5369 17.9198 2.3161
10.0905 18.1515 2.3161
9.6395 18.3729 2.3161
9.1841 18.5841 2.3161
8.7245 18.7849 2.3161
8.2611 18.9753 2.3161
7.7938 19.1552 2.3161
7.3231 19.3246 2.3161
6.8491 19.4833 2.3161
6.3239 19.4834 2.2986
5.8476 19.6197 2.2986
5.3686 19.7454 2.2986
4.8872 19.8605 2.2986
4.4036 19.9648 2.2986
3.9180 20.0583 2.2986
3.4306 20.1410 2.2986
2.9417 20.2129 2.2986
2.5613 21.1832 2.4017
2.0481 21.2384 2.4020
1.5339 21.2830 2.4024
1.0187 21.3161 2.4028
0.5029 21.3378 2.4032
-0.0134 21.3481 2.4036
-0.5299 21.3470 2.4039
-1.0464 21.3345 2.4043
-1.5628 21.3106 2.4047
-2.0781 21.2702 2.4045
-2.5924 21.2167 2.4041
-3.1054 21.1518 2.4038
-2.3339 13.5994 1.5508
-2.3638 12.0213 1.3764
-2.3876 10.7608 1.2377
-2.4071 9.7296 1.1248
-2.5287 9.2548 1.0761
-2.7724 9.2594 1.0834
-3.0198 9.2641 1.0914
-3.2714 9.2689 1.1001
-3.5276 9.2737 1.1096
-3.7888 9.2787 1.1199
-4.0555 9.2837 1.1310
-4.3283 9.2889 1.1430
-8.7386 17.6273 2.1923
-8.7318 16.5927 2.0872
-9.3175 16.7119 2.1276
-9.3276 15.8179 2.0397
-9.3368 14.9927 1.9595
-9.3357 14.2129 1.8843
-11.9377 17.2502 2.3217
-12.3673 16.9784 2.3217
-9.9669 13.0098 1.8091
-10.2927 12.7826 1.8091
-13.6147 16.0954 2.3206
-13.9872 15.7471 2.3151
-14.3421 15.3809 2.3081
-14.6786 14.9977 2.2997
-15.0254 14.6271 2.2943
-15.3687 14.2540 2.2897
-15.6633 13.8380 2.2793
-15.9464 13.4158 2.2688
-16.2648 13.0252 2.2648
-16.6750 12.7044 2.2745
-17.0852 12.3757 2.2848
-17.3965 11.9709 2.2829
-17.5998 11.4938 2.2683
-17.7473 10.9875 2.2481
-17.7585 10.4091 2.2128
-17.8729 9.9036 2.1923
-18.0641 9.4462 2.1828
-18.2478 8.9874 2.1738
-18.4927 8.5589 2.1733
-13.8702 6.0168 1.6091
-18.9625 7.6867 2.1733
-19.1828 7.2412 2.1733
-19.3931 6.7898 2.1733
-19.5932 6.3325 2.1733
-19.7831 5.8698 2.1733
-19.9624 5.4017 2.1733
-20.1311 4.9284 2.1733
-20.2889 4.4502 2.1733
-20.4358 3.9674 2.1733
-20.5715 3.4801 2.1733
-20.7131 2.9911 2.1751
-16.6425 1.9941 1.7381
-20.9546 1.9984 2.1779
-21.0551 1.4957 2.1790
-21.1537 0.9897 2.1811
-21.2198 0.4793 2.1811
-15.5077 -0.0245 1.5899
-21.3156 -0.5488 2.1811
-21.3450 -1.0661 2.1811
-21.3619 -1.5852 2.1811
-21.3663 -2.1056 2.1811
-21.3581 -2.6272 2.1811
-21.3371 -3.1496 2.1811
-21.3033 -3.6725 2.1811
-21.2567 -4.1957 2.1811
-19.8180 -4.4116 2.0392
-21.1247 -5.2411 2.1811
-21.0391 -5.7628 2.1811
-20.9406 -6.2834 2.1811
-19.8568 -6.4850 2.0793
-18.3657 -6.4930 1.9347
-17.0682 -6.5022 1.8101
-15.9232 -6.5106 1.7011
-14.9036 -6.5182 1.6051
-13.9913 -6.5262 1.5201
-13.1649 -6.5324 1.4440
-5.9146 -3.1150 0.6554
-5.7276 -3.1956 0.6418
-11.0944 -6.5461 1.2579
-10.5127 -6.5502 1.2071
-9.9738 -6.5540 1.1607
-9.5805 -6.6323 1.1311
-17.2444 -12.5644 2.0671
-17.1222 -13.1198 2.0859
-17.0105 -13.6986 2.1081
-15.9502 -13.4947 2.2469
-15.7176 -13.9629 2.2573
-15.5088 -14.4623 2.2733
-12.7179 -12.4472 1.9047
-14.9387 -15.3442 2.2888
-14.6563 -15.8001 2.2999
-14.3445 -16.2330 2.3086
-14.0004 -16.6364 2.3140
-13.6459 -17.0335 2.3196
-13.2602 -17.3967 2.3217
-12.8526 -17.7341 2.3217
-12.4358 -18.0612 2.3217
-12.0103 -18.3778 2.3217
-11.5762 -18.6834 2.3217
-11.1338 -18.9780 2.3217
-10.6835 -19.2613 2.3217
-10.2256 -19.5329 2.3217
-9.6632 -19.5959 2.2986
-9.1956 -19.8413 2.2986
-8.7213 -20.0744 2.2986
-8.2407 -20.2953 2.2986
-7.7542 -20.5036 2.2986
-7.2620 -20.6992 2.2986
-6.7646 -20.8819 2.2986
-6.2623 -21.0516 2.2986
-5.7554 -21.2081 2.2986
-5.4795 -22.3089 2.4017
-4.9416 -22.4444 2.4017
-4.4001 -22.5658 2.4017
-3.8553 -22.6728 2.4017
-3.3078 -22.7656 2.4017
-2.7580 -22.8438 2.4017
-2.2061 -22.9076 2.4017
-1.6527 -22.9567 2.4017
-1.0981 -22.9913 2.4017
-0.5428 -23.0112 2.4017
0.0128 -23.0164 2.4017
0.5683 -23.0070 2.4017
1.1233 -22.9829 2.4017
1.6774 -22.9442 2.4017
2.2302 -22.8909 2.4017
2.6616 -21.8419 2.2985
3.1869 -21.7631 2.2985
2.7900 -16.2979 1.7286
2.7506 -14.0236 1.4947
4.7465 -21.4446 2.2985
5.2597 -21.3113 2.2985
5.7689 -21.1646 2.2985
6.2738 -21.0047 2.2985
6.8259 -20.9915 2.3161
7.3249 -20.8042 2.3161
7.8184 -20.6040 2.3161
8.3061 -20.3911 2.3161
8.7877 -20.1658 2.3161
9.2629 -19.9281 2.3161
9.7312 -19.6784 2.3161
10.1924 -19.4168 2.3161
10.6463 -19.1436 2.3161
11.0924 -18.8589 2.3161
11.5304 -18.5631 2.3161
11.9602 -18.2564 2.3161
12.3814 -17.9391 2.3161
12.7938 -17.6113 2.3161
13.1970 -17.2735 2.3161
13.5910 -16.9259 2.3161
13.9753 -16.5686 2.3161
14.3498 -16.2022 2.3161
13.6848 -14.7193 2.1540
14.0222 -14.3702 2.1553
15.4124 -15.0502 2.3161
15.7456 -14.6498 2.3161
16.0680 -14.2416 2.3161
16.3794 -13.8260 2.3161
16.6797 -13.4033 2.3161
16.9687 -12.9739 2.3161
17.2463 -12.5380 2.3161
17.5124 -12.0960 2.3161
17.7669 -11.6482 2.3161
18.0096 -11.1950 2.3161
18.2404 -10.7366 2.3161
18.4593 -10.2734 2.3161
18.6661 -9.8057 2.3161
18.8609 -9.3339 2.3161
19.0436 -8.8583 2.3161
19.2141 -8.3793 2.3161
19.3723 -7.8970 2.3161
19.5183 -7.4120 2.3161
19.6521 -6.9244 2.3161
19.7735 -6.4346 2.3161
19.8827 -5.9430 2.3161
19.9795 -5.4498 2.3161
20.0642 -4.9554 2.3161
20.1365 -4.4601 2.3161
19.5557 -3.8383 2.2426
16.4287 -2.8142 1.8795
20.2805 -2.9716 2.3161
20.3043 -2.4756 2.3161
20.3161 -1.9802 2.3161
20.3159 -1.4857 2.3161
20.3038 -0.9924 2.3161
20.2800 -0.5004 2.3161
16.5260 -0.0084 1.8907
16.4164 0.3885 1.8825
17.7997 0.8519 2.0471
20.0683 1.4473 2.3161
19.9869 1.9279 2.3161
19.8942 2.4055 2.3161
19.7905 2.8798 2.3161
19.6759 3.3506 2.3161
19.5504 3.8176 2.3161
19.4142 4.2805 2.3161
19.2674 4.7393 2.3161
19.1102 5.1935 2.3161
18.9428 5.6431 2.3161
18.7652 6.0877 2.3161
18.5777 6.5273 2.3161
18.3803 6.9615 2.3161
18.1733 7.3903 2.3161
17.9568 7.8133 2.3161
17.7309 8.2304 2.3161
17.4959 8.6414 2.3161
17.2519 9.0461 2.3161
16.9990 9.4444 2.3161
16.7375 9.8360 2.3161
16.4676 10.2209 2.3161
16.1893 10.5989 2.3161
15.9029 10.9697 2.3161
15.6086 11.3332 2.3161
15.3065 11.6894 2.3161
14.9968 12.0380 2.3161
14.6798 12.3790 2.3161
3.2356 2.8652 0.5220
2.9666 2.7578 0.4899
2.9386 2.8674 0.4973
2.8009 2.8684 0.4862
2.6326 2.8298 0.4694
3.5329 3.9868 0.6477
3.4676 4.1092 0.6546
11.9003 14.8146 2.3161
11.5254 15.0809 2.3161
11.1450 15.3384 2.3161
10.7593 15.5869 2.3161
10.3686 15.8264 2.3161
9.9730 16.0568 2.3161
9.5727 16.2780 2.3161
9.1679 16.4900 2.3161
8.7589 16.6926 2.3161
8.3458 16.8859 2.3161
7.9288 17.0697 2.3161
7.5081 17.2439 2.3161
7.0839 17.4086 2.3161
6.6063 17.4312 2.2986
6.1790 17.5754 2.2986
5.7489 17.7100 2.2986
5.3161 17.8349 2.2986
4.8809 17.9499 2.2986
4.4434 18.0553 2.2986
4.0038 18.1508 2.2986
3.5624 18.2364 2.2986
3.1194 18.3121 2.2986
2.6891 18.4760 2.3109
2.3291 19.2611 2.4018
1.8623 19.3104 2.4020
1.3946 19.3493 2.4021
0.9261 19.3781 2.4023
0.4571 19.3968 2.4026
-0.0122 19.4050 2.4028
-0.4818 19.4026 2.4031
-0.9512 19.3896 2.4033
-1.4204 19.3661 2.4035
-1.8887 19.3288 2.4033
-2.3561 19.2804 2.4030
-2.8224 19.2216 2.4027
-2.3339 13.5977 1.7057
-2.3638 12.0199 1.5139
-2.3877 10.7595 1.3614
-2.4072 9.7284 1.2373
-2.5291 9.2548 1.1839
-2.7727 9.2594 1.1920
-3.0202 9.2641 1.2009
-3.2718 9.2689 1.2106
-3.5280 9.2737 1.2211
-3.7893 9.2787 1.2325
-4.0561 9.2837 1.2449
-4.3288 9.2889 1.2582
-8.3240 16.7889 2.2986
-8.7358 16.5982 2.2986
-9.1437 16.3980 2.2986
-9.3276 15.8159 2.2457
-9.3369 14.9908 2.1577
-9.3455 14.2259 2.0773
-9.3535 13.5141 2.0035
-9.3609 12.8493 1.9357
-9.4218 12.2966 1.8839
-9.8919 12.2831 1.9156
-9.8963 11.6977 1.8587
-10.2090 11.4918 1.8622
-13.0887 14.0346 2.3217
-13.4177 13.7073 2.3173
-13.7110 13.3454 2.3083
-14.0108 12.9924 2.3018
-14.3170 12.6465 2.2977
-14.6170 12.2952 2.2940
-14.8672 11.9039 2.2838
-15.0869 11.4923 2.2706
-15.2792 11.0654 2.2549
-15.5444 10.6943 2.2515
-15.8314 10.3369 2.2524
-16.0028 9.9053 2.2383
-16.0798 9.4231 2.2127
-16.2979 9.0288 2.2081
-16.4615 8.6061 2.1975
-16.6114 8.1794 2.1865
-16.7994 7.7732 2.1819
-16.9781 7.3630 2.1773
-17.1618 6.9547 2.1746
-17.3473 6.5463 2.1733
-17.5340 6.1369 2.1733
-17.7114 5.7223 2.1733
-17.8794 5.3029 2.1733
-18.0377 4.8788 2.1733
-18.1863 4.4502 2.1733
-18.3250 4.0174 2.1733
-18.4537 3.5805 2.1733
-18.5723 3.1399 2.1733
-16.5381 2.3864 1.9240
-16.5163 1.9771 1.9115
-18.8660 1.7972 2.1733
-18.9427 1.3436 2.1733
-19.0088 0.8873 2.1733
-19.0640 0.4286 2.1733
-19.1248 -0.0323 2.1752
-19.1901 -0.4962 2.1788
-19.2209 -0.9621 2.1798
-19.2324 -1.4292 2.1798
-19.2430 -1.8985 2.1811
-19.2312 -2.3677 2.1811
-19.2080 -2.8374 2.1811
-19.1733 -3.3074 2.1811
-19.1270 -3.7774 2.1811
-19.0691 -4.2470 2.1811
-18.9997 -4.7160 2.1811
-18.9185 -5.1840 2.1811
-18.8256 -5.6509 2.1811
-18.7191 -6.1155 2.1809
-18.3610 -6.4934 2.1525
-17.0636 -6.5023 2.0142
-15.9192 -6.5108 1.8935
-14.9000 -6.5183 1.7870
-13.9875 -6.5260 1.6927
-13.1615 -6.5322 1.6083
-5.9145 -3.1157 0.7303
-11.7227 -6.5418 1.4639
-11.0923 -6.5462 1.4020
-10.5108 -6.5503 1.3456
-9.9720 -6.5541 1.2942
-9.5806 -6.6336 1.2616
-16.3882 -11.9427 2.1917
-16.2634 -12.4639 2.2108
-16.1124 -12.9776 2.2286
-14.8206 -12.5411 2.3058
-14.5632 -12.9394 2.3103
-14.2754 -13.3141 2.3117
-12.7154 -12.4466 2.1042
-13.6936 -14.0673 2.3185
-13.3864 -14.4331 2.3217
-13.0509 -14.7711 2.3217
-12.7065 -15.1009 2.3217
-12.3533 -15.4220 2.3217
-11.9915 -15.7343 2.3217
-11.6215 -16.0375 2.3217
-11.2434 -16.3314 2.3217
-10.8574 -16.6157 2.3217
-10.4639 -16.8903 2.3217
-10.0630 -17.1548 2.3217
-9.5590 -17.2359 2.2986
-9.1484 -17.4774 2.2986
-8.7313 -17.7082 2.2986
-8.3081 -17.9283 2.2986
-7.8789 -18.1375 2.2986
-7.4442 -18.3357 2.2986
-7.0042 -18.5225 2.2986
-6.5592 -18.6980 2.2986
-6.1096 -18.8619 2.2986
-5.6568 -19.0182 2.2991
-5.4307 -20.0134 2.4017
-4.9482 -20.1476 2.4017
-4.4622 -20.2691 2.4017
-3.9731 -20.3780 2.4017
-3.4811 -20.4740 2.4017
-2.9867 -20.5572 2.4017
-2.4902 -20.6274 2.4017
-1.9919 -20.6846 2.4017
-1.4922 -20.7288 2.4017
-0.9915 -20.7599 2.4017
-0.4902 -20.7778 2.4017
0.0115 -20.7827 2.4017
0.5130 -20.7743 2.4017
1.0141 -20.7529 2.4017
1.5144 -20.7184 2.4017
2.0136 -20.6708 2.4017
2.4071 -19.7562 2.3022
2.8776 -19.6537 2.2985
2.7900 -16.3004 1.9143
2.7308 -13.9244 1.6433
4.2865 -19.3688 2.2985
4.7502 -19.2495 2.2985
5.2104 -19.1182 2.2985
5.6668 -18.9750 2.2985
6.1191 -18.8201 2.2985
6.6172 -18.7966 2.3161
7.0636 -18.6172 2.3161
7.5049 -18.4265 2.3161
7.9408 -18.2245 2.3161
8.3709 -18.0114 2.3161
8.7950 -17.7875 2.3161
9.2128 -17.5529 2.3161
9.6241 -17.3078 2.3161
10.0284 -17.0523 2.3161
10.4257 -16.7868 2.3161
10.8156 -16.5115 2.3161
11.1979 -16.2265 2.3161
11.5723 -15.9321 2.3161
11.9386 -15.6285 2.3161
12.2966 -15.3161 2.3161
12.6460 -14.9949 2.3161
12.9868 -14.6653 2.3161
13.3185 -14.3276 2.3161
13.6412 -13.9821 2.3161
13.9545 -13.6288 2.3161
14.2584 -13.2682 2.3161
14.5526 -12.9006 2.3161
14.8370 -12.5262 2.3161
15.1114 -12.1452 2.3161
15.3758 -11.7581 2.3161
15.6299 -11.3650 2.3161
15.8737 -10.9663 2.3161
16.1071 -10.5621 2.3161
16.3299 -10.1530 2.3161
16.5421 -9.7390 2.3161
16.7435 -9.3206 2.3161
16.9341 -8.8980 2.3161
17.1139 -8.4715 2.3161
17.2827 -8.0413 2.3161
17.4405 -7.6079 2.3161
17.5874 -7.1715 2.3161
17.7231 -6.7323 2.3161
17.8479 -6.2908 2.3161
17.9614 -5.8470 2.3161
18.0639 -5.4014 2.3161
18.1553 -4.9543 2.3161
18.2355 -4.5058 2.3161
18.3047 -4.0564 2.3161
18.3628 -3.6062 2.3161
16.4403 -2.8180 2.0683
18.4459 -2.7048 2.3161
18.4709 -2.2541 2.3161
18.4850 -1.8038 2.3161
18.4882 -1.3541 2.3161
18.4807 -0.9052 2.3161
18.4623 -0.4576 2.3161
16.5250 -0.0102 2.0763
16.4134 0.3866 2.0667
17.8048 0.8503 2.2481
18.2829 1.3166 2.3161
18.2119 1.7548 2.3161
18.1307 2.1903 2.3161
18.0393 2.6230 2.3161
17.9379 3.0527 2.3161
17.8266 3.4790 2.3161
17.7054 3.9018 2.3161
17.5746 4.3209 2.3161
17.4341 4.7361 2.3161
17.2842 5.1471 2.3161
17.1250 5.5537 2.3161
16.9566 5.9558 2.3161
16.7791 6.3532 2.3161
16.5928 6.7456 2.3161
16.3976 7.1329 2.3161
16.1938 7.5150 2.3161
15.9816 7.8915 2.3161
15.7611 8.2625 2.3161
15.5323 8.6276 2.3161
15.2956 8.9867 2.3161
15.0510 9.3398 2.3161
14.7987 9.6865 2.3161
14.5388 10.0269 2.3161
14.2716 10.3606 2.3161
13.9972 10.6877 2.3161
13.7158 11.0079 2.3161
13.4275 11.3211 2.3161
3.2361 2.8652 0.5707
2.9669 2.7577 0.5356
2.9391 2.8674 0.5436
2.8013 2.8684 0.5314
2.6465 2.8444 0.5156
3.5329 3.9862 0.7076
3.4662 4.1069 0.7148
10.8947 13.5609 2.3161
10.5524 13.8060 2.3161
10.2051 14.0430 2.3161
9.8528 14.2718 2.3161
9.4958 14.4923 2.3161
9.1342 14.7046 2.3161
8.7683 14.9083 2.3161
8.3981 15.1036 2.3161
8.0240 15.2904 2.3161
7.6461 15.4684 2.3161
7.2645 15.6378 2.3161
6.8795 15.7984 2.3161
6.4422 15.8299 2.2986
6.0538 15.9717 2.2986
5.6626 16.1047 2.2986
5.2686 16.2288 2.2986
4.8722 16.3439 2.2986
4.4735 16.4500 2.2986
4.0726 16.5471 2.2986
3.6699 16.6351 2.2986
3.2653 16.7141 2.2986
2.8593 16.7838 2.2986
2.5618 17.6000 2.4017
2.1349 17.6537 2.4017
1.7069 17.6979 2.4017
1.2781 17.7325 2.4017
0.8487 17.7574 2.4017
0.4188 17.7727 2.4017
-0.0113 17.7783 2.4017
-0.4414 17.7743 2.4017
-0.8715 17.7606 2.4017
-1.3011 17.7373 2.4017
-1.7302 17.7043 2.4017
-2.1586 17.6617 2.4017
-2.5860 17.6094 2.4017
-2.3340 13.5961 1.8609
-2.3638 12.0184 1.6517
-2.3877 10.7582 1.4854
-2.4072 9.7272 1.3500
-2.5294 9.2549 1.2920
-2.7731 9.2595 1.3009
-3.0205 9.2642 1.3107
-3.2722 9.2689 1.3213
-3.5285 9.2738 1.3329
-3.7898 9.2787 1.3455
-4.0566 9.2837 1.3590
-4.3294 9.2889 1.3737
-7.6247 15.3765 2.2986
-8.0013 15.2006 2.2986
-8.3742 15.0160 2.2986
-8.7431 14.8229 2.2986
-9.1079 14.6212 2.2986
-9.3455 14.2240 2.2688
-9.3535 13.5123 2.1884
-9.3610 12.8476 2.1145
-9.3680 12.2246 2.0464
-9.3746 11.6390 1.9835
-9.3808 11.0867 1.9252
-9.4507 10.6366 1.8839
-11.9753 12.8387 2.3217
-12.2980 12.5614 2.3217
-12.6147 12.2764 2.3217
-12.9252 11.9838 2.3217
-13.2294 11.6838 2.3217
-13.5270 11.3764 2.3217
-13.8070 11.0530 2.3199
-14.0577 10.7064 2.3144
-14.2994 10.3539 2.3089
-14.4424 9.9342 2.2891
-14.5872 9.5226 2.2713
-14.7239 9.1118 2.2541
-14.8446 8.6973 2.2362
-14.9661 8.2892 2.2201
-15.1219 7.9039 2.2106
-15.2872 7.5255 2.2038
-15.5098 7.1746 2.2066
-15.6635 6.7910 2.2007
-15.8370 6.4160 2.1988
-15.9874 6.0313 2.1950
-16.1043 5.6346 2.1879
-16.1990 5.2318 2.1791
-16.3135 4.8366 2.1742
-16.4478 4.4469 2.1733
-16.5805 4.0554 2.1733
-16.7041 3.6602 2.1733
-16.8185 3.2614 2.1733
-16.9235 2.8593 2.1733
-16.3574 2.3585 2.0888
-16.4246 1.9644 2.0868
-17.1818 1.6349 2.1733
-17.2487 1.2215 2.1733
-14.0886 0.6561 1.7693
-17.3527 0.3882 2.1733
-17.3898 -0.0312 2.1733
-17.4168 -0.4522 2.1733
-17.4368 -0.8747 2.1737
-17.4438 -1.2982 2.1737
-17.4398 -1.7224 2.1736
-17.4247 -2.1471 2.1735
-17.3987 -2.5720 2.1733
-17.3640 -2.9972 2.1733
-17.3189 -3.4222 2.1733
-17.2634 -3.8467 2.1733
-17.1973 -4.2705 2.1733
-17.1207 -4.6933 2.1733
-17.0335 -5.1148 2.1733
-16.8325 -5.5011 2.1600
-16.4857 -5.8320 2.1291
-16.3815 -6.2443 2.1307
-15.9151 -6.5110 2.0861
-14.8964 -6.5185 1.9692
-13.9837 -6.5259 1.8656
-13.1581 -6.5321 1.7729
-5.9145 -3.1164 0.8054
-11.7203 -6.5419 1.6144
-11.0902 -6.5463 1.5463
-10.5088 -6.5504 1.4845
-9.9703 -6.5542 1.4280
-9.5808 -6.6349 1.3925
-15.5070 -11.3025 2.2893
-15.3305 -11.7510 2.3010
-15.0720 -12.1416 2.3020
-13.6233 -11.5298 2.3205
-13.3659 -11.8775 2.3217
-13.0923 -12.2126 2.3217
-12.7129 -12.4461 2.3041
-12.5191 -12.8626 2.3217
-12.2198 -13.1771 2.3217
-11.9122 -13.4842 2.3217
-11.5965 -13.7836 2.3217
-11.2730 -14.0752 2.3217
-10.9417 -14.3587 2.3217
-10.6031 -14.6340 2.3217
-10.2571 -14.9007 2.3217
-9.9041 -15.1587 2.3217
-9.4494 -15.2545 2.2986
-9.0866 -15.4921 2.2986
-8.7175 -15.7204 2.2986
-8.3424 -15.9393 2.2986
-7.9614 -16.1486 2.2986
-7.5750 -16.3482 2.2986
-7.1832 -16.5378 2.2986
-6.7865 -16.7174 2.2986
-6.3850 -16.8868 2.2986
-5.9790 -17.0458 2.2986
-5.6383 -17.4085 2.3273
-5.3860 -18.1095 2.4017
-4.9496 -18.2423 2.4017
-4.5097 -18.3639 2.4017
-4.0667 -18.4741 2.4017
-3.6208 -18.5727 2.4017
-3.1724 -18.6597 2.4017
-2.7217 -18.7351 2.4017
-2.2692 -18.7988 2.4017
-1.8151 -18.8507 2.4017
-1.3598 -18.8907 2.4017
-0.9036 -18.9190 2.4017
-0.4467 -18.9353 2.4017
0.0104 -18.9398 2.4017
0.4674 -18.9324 2.4017
0.9241 -18.9131 2.4017
1.3800 -18.8820 2.4017
1.8349 -18.8390 2.4017
2.2884 -18.7843 2.4017
2.6226 -17.9145 2.2986
2.7901 -16.3032 2.1006
2.7291 -13.9177 1.8020
3.9068 -17.6554 2.2985
4.3296 -17.5474 2.2985
4.7494 -17.4286 2.2985
5.1657 -17.2991 2.2985
5.5783 -17.1589 2.2985
5.9868 -17.0081 2.2985
6.3911 -16.8470 2.2985
6.8430 -16.8034 2.3161
7.2409 -16.6204 2.3161
7.6338 -16.4275 2.3161
8.0212 -16.2246 2.3161
8.4029 -16.0119 2.3161
8.7788 -15.7897 2.3161
9.1485 -15.5581 2.3161
9.5118 -15.3174 2.3161
9.8685 -15.0676 2.3161
10.2183 -14.8091 2.3161
10.5611 -14.5420 2.3161
10.8966 -14.2665 2.3161
11.2246 -13.9828 2.3161
11.5449 -13.6912 2.3161
11.8573 -13.3919 2.3161
12.1617 -13.0851 2.3161
12.4578 -12.7711 2.3161
12.7456 -12.4501 2.3161
13.0247 -12.1223 2.3161
13.2952 -11.7880 2.3161
13.5568 -11.4474 2.3161
13.8094 -11.1008 2.3161
14.0529 -10.7484 2.3161
14.2871 -10.3906 2.3161
14.5120 -10.0275 2.3161
14.7274 -9.6594 2.3161
14.9332 -9.2866 2.3161
15.1294 -8.9093 2.3161
15.3159 -8.5278 2.3161
15.4926 -8.1424 2.3161
15.6593 -7.7534 2.3161
15.8161 -7.3609 2.3161
15.9630 -6.9653 2.3161
16.0998 -6.5668 2.3161
16.2266 -6.1658 2.3161
16.3432 -5.7623 2.3161
16.4498 -5.3568 2.3161
16.5461 -4.9495 2.3161
16.6324 -4.5406 2.3161
16.7085 -4.1304 2.3161
16.7745 -3.7192 2.3161
16.8303 -3.3071 2.3161
16.8760 -2.8946 2.3161
16.9117 -2.4817 2.3161
16.9372 -2.0688 2.3161
16.9528 -1.6561 2.3161
16.9584 -1.2439 2.3161
16.9540 -0.8323 2.3161
16.9398 -0.4217 2.3161
16.5239 -0.0120 2.2624
16.4103 0.3848 2.2514
16.8384 0.8023 2.3161
16.7853 1.2069 2.3161
16.7227 1.6094 2.3161
16.6506 2.0097 2.3161
16.5691 2.4074 2.3161
16.4784 2.8025 2.3161
16.3785 3.1946 2.3161
16.2695 3.5836 2.3161
16.1515 3.9693 2.3161
16.0247 4.3514 2.3161
15.8891 4.7299 2.3161
15.7449 5.1044 2.3161
15.5922 5.4748 2.3161
15.4311 5.8410 2.3161
15.2617 6.2027 2.3161
15.0842 6.5598 2.3161
14.8987 6.9122 2.3161
14.7053 7.2596 2.3161
14.5042 7.6018 2.3161
14.2954 7.9388 2.3161
14.0792 8.2704 2.3161
13.8557 8.5963 2.3161
13.6250 8.9166 2.3161
13.3873 9.2310 2.3161
13.1428 9.5394 2.3161
12.8915 9.8416 2.3161
12.6336 10.1376 2.3161
12.3693 10.4272 2.3161
3.2111 2.8425 0.6147
2.9673 2.7576 0.5813
2.9395 2.8674 0.5900
2.8017 2.8684 0.5767
2.6717 2.8711 0.5647
3.5330 3.9857 0.7677
3.4647 4.1046 0.7751
10.0436 12.4998 2.3161
9.7288 12.7268 2.3161
9.4093 12.9463 2.3161
9.0852 13.1582 2.3161
8.7566 13.3626 2.3161
8.4238 13.5592 2.3161
8.0868 13.7480 2.3161
7.7459 13.9291 2.3161
7.4013 14.1021 2.3161
7.0531 14.2672 2.3161
6.7014 14.4242 2.3161
6.2987 14.4632 2.2986
5.9435 14.6029 2.2986
5.5854 14.7344 2.2986
5.2246 14.8577 2.2986
4.8614 14.9727 2.2986
4.4957 15.0795 2.2986
4.1279 15.1779 2.2986
3.7582 15.2679 2.2986
3.3866 15.3496 2.2986
3.0133 15.4227 2.2986
2.6535 15.5744 2.3115
2.3642 16.2408 2.4017
1.9702 16.2906 2.4017
1.5753 16.3316 2.4017
1.1795 16.3636 2.4017
0.7832 16.3866 2.4017
0.3865 16.4007 2.4017
-0.0105 16.4059 2.4017
-0.4075 16.4021 2.4017
-0.8043 16.3893 2.4017
-1.2008 16.3676 2.4017
-1.5968 16.3368 2.4017
-1.9921 16.2972 2.4017
-2.3865 16.2486 2.4017
-2.3340 13.5944 2.0165
-2.3638 12.0170 1.7899
-2.3877 10.7569 1.6097
-2.4072 9.7260 1.4631
-2.5297 9.2549 1.4004
-2.7734 9.2595 1.4101
-3.0209 9.2642 1.4208
-3.2726 9.2689 1.4324
-3.5289 9.2738 1.4451
-3.7903 9.2787 1.4587
-4.0571 9.2838 1.4735
-4.3300 9.2889 1.4895
-7.0323 14.1800 2.2986
-7.3792 14.0168 2.2986
-7.7225 13.8456 2.2986
-8.0621 13.6666 2.2986
-8.3979 13.4796 2.2986
-8.7297 13.2849 2.2986
-9.0572 13.0824 2.2986
-9.3610 12.8458 2.2939
-9.3680 12.2229 2.2202
-9.3746 11.6373 2.1521
-9.3808 11.0851 2.0891
-9.3867 10.5629 2.0306
-9.3922 10.0679 1.9762
-9.3975 9.5973 1.9257
-9.4298 9.1754 1.8839
-9.6609 8.9558 1.8839
-9.9183 8.7581 1.8899
-9.9214 8.3426 1.8491
-9.9426 7.9581 1.8142
-10.1170 7.7037 1.8091
-10.3144 7.4671 1.8091
-13.4696 9.2632 2.3192
-13.6890 8.9344 2.3158
-13.9014 8.6010 2.3126
-14.1067 8.2632 2.3094
-14.3156 7.9271 2.3081
-14.4574 7.5548 2.2974
-14.5917 7.1813 2.2870
-14.7419 6.8176 2.2805
-14.8761 6.4478 2.2729
-14.9831 6.0683 2.2626
-15.0371 5.6710 2.2458
-15.1036 5.2827 2.2323
-15.1529 4.8922 2.2179
-15.1843 4.5001 2.2023
-15.2059 4.1095 2.1868
-15.2797 3.7356 2.1801
-15.3480 3.3613 2.1740
-15.4459 2.9935 2.1733
-15.5401 2.6238 2.1733
-15.6256 2.2513 2.1733
-15.7023 1.8763 2.1733
-15.7702 1.4988 2.1733
-15.8291 1.1193 2.1733
-15.8790 0.7378 2.1733
-15.9197 0.3545 2.1733
-15.9513 -0.0303 2.1733
-15.9736 -0.4165 2.1733
-14.0488 -0.7062 1.9098
-15.9903 -1.1917 2.1733
-15.9846 -1.5804 2.1733
-15.9694 -1.9695 2.1733
-15.9447 -2.3588 2.1733
-15.8569 -2.7388 2.1660
-15.7975 -3.1233 2.1638
-15.6856 -3.4969 2.1557
-15.5574 -3.8650 2.1467
-15.5876 -4.2748 2.1608
-15.6429 -4.6990 2.1799
-15.5732 -5.0913 2.1830
-15.5689 -5.5095 2.1968
-15.5433 -5.9266 2.2090
-15.5004 -6.3431 2.2204
-14.8928 -6.5186 2.1518
-13.9799 -6.5258 2.0389
-13.1547 -6.5320 1.9379
-5.9146 -3.1171 0.8808
-11.7180 -6.5420 1.7652
-11.0880 -6.5465 1.6911
-10.5069 -6.5505 1.6236
-9.9685 -6.5543 1.5621
-9.5809 -6.6362 1.5238
-14.3697 -10.4755 2.3217
-14.1323 -10.8344 2.3217
-13.8700 -11.1752 2.3190
-12.5411 -10.6156 2.3217
-12.2963 -10.9287 2.3217
-12.0434 -11.2359 2.3217
-11.7825 -11.5368 2.3217
-11.5138 -11.8315 2.3217
-11.2374 -12.1195 2.3217
-10.9535 -12.4007 2.3217
-10.6623 -12.6749 2.3217
-10.3639 -12.9419 2.3217
-10.0585 -13.2014 2.3217
-9.7464 -13.4533 2.3217
-9.3339 -13.5612 2.2986
-9.0120 -13.7949 2.2986
-8.6839 -14.0205 2.2986
-8.3499 -14.2378 2.2986
-8.0102 -14.4466 2.2986
-7.6650 -14.6468 2.2986
-7.3146 -14.8382 2.2986
-6.9591 -15.0206 2.2986
-6.5988 -15.1940 2.2986
-6.2340 -15.3582 2.2986
-5.8649 -15.5130 2.2986
-5.6230 -16.0325 2.3536
-5.3442 -16.5024 2.4017
-4.9467 -16.6340 2.4017
-4.5457 -16.7555 2.4017
-4.1416 -16.8665 2.4017
-3.7346 -16.9672 2.4017
-3.3251 -17.0573 2.4017
-2.9132 -17.1369 2.4017
-2.4994 -17.2058 2.4017
-2.0838 -17.2640 2.4017
-1.6668 -17.3115 2.4017
-1.2487 -17.3481 2.4017
-0.8297 -17.3740 2.4017
-0.4103 -17.3890 2.4017
0.0095 -17.3932 2.4017
0.4291 -17.3865 2.4017
0.8485 -17.3690 2.4017
1.2671 -17.3406 2.4017
1.6849 -17.3015 2.4017
2.1014 -17.2516 2.4017
2.4272 -16.5818 2.3166
2.7903 -16.3060 2.2875
2.7275 -13.9109 1.9609
3.5880 -16.2168 2.2985
3.9765 -16.1183 2.2985
4.3622 -16.0098 2.2985
4.7448 -15.8916 2.2985
5.1240 -15.7635 2.2985
5.4996 -15.6259 2.2985
5.8714 -15.4787 2.2985
6.2390 -15.3221 2.2985
6.6528 -15.2725 2.3161
7.0142 -15.0961 2.3161
7.3707 -14.9107 2.3161
7.7220 -14.7164 2.3161
8.0680 -14.5132 2.3161
8.4084 -14.3015 2.3161
8.7431 -14.0814 2.3161
9.0717 -13.8529 2.3161
9.3941 -13.6165 2.3161
9.7101 -13.3721 2.3161
10.0194 -13.1199 2.3161
10.3220 -12.8603 2.3161
10.6175 -12.5934 2.3161
10.9059 -12.3193 2.3161
11.1870 -12.0383 2.3161
11.4606 -11.7507 2.3161
11.7265 -11.4565 2.3161
11.9847 -11.1561 2.3161
12.2349 -10.8496 2.3161
12.4770 -10.5374 2.3161
12.7109 -10.2195 2.3161
12.9365 -9.8963 2.3161
13.1536 -9.5680 2.3161
13.3622 -9.2348 2.3161
13.5622 -8.8969 2.3161
13.7534 -8.5546 2.3161
13.9358 -8.2082 2.3161
14.1093 -7.8578 2.3161
14.2737 -7.5037 2.3161
14.4292 -7.1461 2.3161
14.5756 -6.7853 2.3161
14.7128 -6.4215 2.3161
14.8408 -6.0550 2.3161
14.9595 -5.6860 2.3161
15.0690 -5.3148 2.3161
15.1692 -4.9416 2.3161
15.2601 -4.5665 2.3161
15.3416 -4.1900 2.3161
15.4139 -3.8121 2.3161
15.4767 -3.4332 2.3161
15.5303 -3.0534 2.3161
15.5745 -2.6731 2.3161
15.6095 -2.2923 2.3161
15.6351 -1.9115 2.3161
15.6515 -1.5307 2.3161
15.6587 -1.1502 2.3161
15.6567 -0.7703 2.3161
15.6456 -0.3912 2.3161
15.6254 -0.0130 2.3161
15.5962 0.3640 2.3161
15.5580 0.7396 2.3161
15.5110 1.1136 2.3161
15.4550 1.4858 2.3161
15.3903 1.8559 2.3161
15.3170 2.2238 2.3161
15.2350 2.5893 2.3161
15.1445 2.9523 2.3161
15.0455 3.3123 2.3161
14.9383 3.6694 2.3161
14.8228 4.0234 2.3161
14.6991 4.3740 2.3161
14.5674 4.7210 2.3161
14.4278 5.0643 2.3161
14.2804 5.4038 2.3161
14.1252 5.7392 2.3161
13.9625 6.0704 2.3161
13.7923 6.3972 2.3161
13.6147 6.7195 2.3161
13.4299 7.0372 2.3161
13.2380 7.3500 2.3161
13.0391 7.6578 2.3161
12.8335 7.9605 2.3161
12.6210 8.2580 2.3161
12.4021 8.5501 2.3161
12.1767 8.8366 2.3161
11.9450 9.1175 2.3161
11.7071 9.3926 2.3161
11.4632 9.6618 2.3161
3.1706 2.8063 0.6549
2.9677 2.7575 0.6272
2.9400 2.8674 0.6366
2.8021 2.8684 0.6222
10.1589 10.9155 2.3161
3.5330 3.9852 0.8280
3.4632 4.1022 0.8355
9.3137 11.5900 2.3161
9.0225 11.8013 2.3161
8.7268 12.0056 2.3161
8.4267 12.2030 2.3161
8.1224 12.3933 2.3161
7.8141 12.5764 2.3161
7.5020 12.7523 2.3161
7.1861 12.9209 2.3161
6.8668 13.0821 2.3161
6.4947 13.1361 2.2986
6.1711 13.2813 2.2986
5.8446 13.4191 2.2986
5.5152 13.5492 2.2986
5.1832 13.6717 2.2986
4.8485 13.7867 2.2986
4.5115 13.8939 2.2986
4.1723 13.9934 2.2986
3.8311 14.0851 2.2986
3.4880 14.1690 2.2986
3.1432 14.2451 2.2986
2.7968 14.3133 2.2986
2.5589 15.0182 2.4017
2.1944 15.0730 2.4017
1.8287 15.1194 2.4017
1.4621 15.1575 2.4017
1.0948 15.1873 2.4017
0.7269 15.2088 2.4017
0.3587 15.2219 2.4017
-0.0098 15.2266 2.4017
-0.3783 15.2230 2.4017
-0.7466 15.2110 2.4017
-1.1147 15.1907 2.4017
-1.4822 15.1620 2.4017
-1.8491 15.1249 2.4017
-2.2151 15.0796 2.4017
-2.1836 12.7169 2.0327
-2.3639 12.0155 1.9285
-2.3877 10.7556 1.7344
-2.4072 9.7248 1.5765
-2.5300 9.2549 1.5092
-2.7738 9.2595 1.5197
-3.0213 9.2642 1.5313
-3.2731 9.2690 1.5439
-3.5294 9.2738 1.5576
-3.7908 9.2787 1.5724
-4.0576 9.2838 1.5884
-4.3305 9.2890 1.6057
-6.5239 13.1531 2.2986
-6.8453 13.0010 2.2986
-7.1634 12.8415 2.2986
-7.4780 12.6746 2.2986
-7.7889 12.5004 2.2986
-8.0960 12.3190 2.2986
-8.3992 12.1304 2.2986
-8.6983 11.9347 2.2986
-8.9930 11.7320 2.2986
-9.2834 11.5224 2.2986
-9.3808 11.0835 2.2534
-9.3867 10.5613 2.1905
-9.3922 10.0663 2.1320
-9.3975 9.5958 2.0776
-9.4026 9.1475 2.0269
-9.4074 8.7193 1.9796
-9.4120 8.3096 1.9355
-9.4066 7.9083 1.8922
-9.5651 7.6545 1.8839
-9.9273 7.5579 1.9163
-10.2262 7.4018 1.9364
-12.4882 8.5866 2.3217
-12.7089 8.2930 2.3217
-12.9230 7.9940 2.3217
-13.1304 7.6896 2.3217
-13.3306 7.3800 2.3217
-13.5204 7.0634 2.3210
-13.7107 6.7460 2.3217
-13.8897 6.4218 2.3217
-14.0613 6.0930 2.3217
-14.2254 5.7597 2.3217
-14.3642 5.4156 2.3189
-14.4333 5.0466 2.3062
-14.4382 4.6598 2.2849
-14.4375 4.2771 2.2643
-14.2839 3.8586 2.2215
-14.0657 3.4372 2.1706
-14.0789 3.0818 2.1572
-14.1333 2.7376 2.1514
-14.1837 2.3932 2.1462
-14.1035 2.0305 2.1227
-14.1648 1.6910 2.1218
-14.2188 1.3498 2.1210
-14.2402 1.0054 2.1165
-14.2880 0.6623 2.1172
-14.3266 0.3174 2.1178
-14.3545 -0.0289 2.1180
-14.3756 -0.3764 2.1184
-14.3871 -0.7248 2.1187
-14.3724 -1.0727 2.1163
-14.3417 -1.4196 2.1128
-14.3029 -1.7656 2.1094
-14.2589 -2.1110 2.1064
-14.2020 -2.4545 2.1028
-14.1912 -2.8073 2.1073
-14.3190 -3.1938 2.1337
-14.4445 -3.5901 2.1613
-14.5445 -3.9903 2.1866
-14.7195 -4.4233 2.2249
-14.8759 -4.8650 2.2621
-14.8677 -5.2630 2.2760
-14.8040 -5.6464 2.2830
-14.7464 -6.0363 2.2925
-14.6716 -6.4235 2.3008
-13.9761 -6.5256 2.2126
-13.1513 -6.5319 2.1033
-5.9146 -3.1179 0.9563
-11.7156 -6.5422 1.9164
-11.0859 -6.5466 1.8362
-10.5050 -6.5506 1.7632
-9.9667 -6.5544 1.6966
-9.5810 -6.6375 1.6555
-13.2255 -9.6431 2.3217
-13.0058 -9.9726 2.3217
-12.7776 -10.2968 2.3217
-11.6101 -9.8291 2.3217
-11.3824 -10.1181 2.3217
-11.1473 -10.4015 2.3217
-10.9049 -10.6792 2.3217
-10.6553 -10.9510 2.3217
-10.3987 -11.2166 2.3217
-10.1352 -11.4759 2.3217
-9.8650 -11.7287 2.3217
-9.4929 -11.8558 2.2986
-9.2125 -12.0926 2.2986
-8.9260 -12.3224 2.2986
-8.6334 -12.5451 2.2986
-8.3351 -12.7604 2.2986
-8.0312 -12.9682 2.2986
-7.7218 -13.1684 2.2986
-7.4072 -13.3607 2.2986
-7.0876 -13.5451 2.2986
-6.7632 -13.7213 2.2986
-6.4342 -13.8893 2.2986
-6.1009 -14.0490 2.2986
-5.7633 -14.2001 2.2986
-5.6142 -14.8513 2.3802
-5.3044 -15.1256 2.4017
-4.9401 -15.2561 2.4017
-4.5725 -15.3773 2.4017
-4.2017 -15.4891 2.4017
-3.8281 -15.5914 2.4017
-3.4518 -15.6840 2.4017
-3.0733 -15.7670 2.4017
-2.6925 -15.8402 2.4017
-2.3100 -15.9037 2.4017
-1.9259 -15.9572 2.4017
-1.5405 -16.0010 2.4017
-1.1541 -16.0347 2.4017
-0.7669 -16.0586 2.4017
-0.3792 -16.0725 2.4017
0.0087 -16.0763 2.4017
0.3965 -16.0703 2.4017
0.7841 -16.0542 2.4017
1.1710 -16.0282 2.4017
1.5571 -15.9923 2.4017
1.9421 -15.9465 2.4017
2.3257 -15.8907 2.4017
2.5912 -15.1449 2.2985
2.7258 -13.9041 2.1202
3.3165 -14.9915 2.2985
3.6757 -14.9009 2.2985
4.0324 -14.8012 2.2985
4.3862 -14.6925 2.2985
4.7370 -14.5747 2.2985
5.0844 -14.4481 2.2985
5.4284 -14.3127 2.2985
5.7685 -14.1687 2.2985
6.1047 -14.0160 2.2985
6.4367 -13.8550 2.2985
6.8161 -13.7906 2.3161
7.1414 -13.6117 2.3161
7.4619 -13.4247 2.3161
7.7773 -13.2297 2.3161
8.0873 -13.0270 2.3161
8.3919 -12.8166 2.3161
8.6907 -12.5987 2.3161
8.9837 -12.3736 2.3161
9.2707 -12.1412 2.3161
9.5514 -11.9020 2.3161
9.8257 -11.6559 2.3161
10.0934 -11.4032 2.3161
10.3545 -11.1441 2.3161
10.6086 -10.8788 2.3161
10.8558 -10.6075 2.3161
11.0957 -10.3303 2.3161
11.3284 -10.0475 2.3161
11.5537 -9.7593 2.3161
11.7714 -9.4659 2.3161
11.9815 -9.1675 2.3161
12.1838 -8.8643 2.3161
12.3783 -8.5565 2.3161
12.5648 -8.2443 2.3161
12.7433 -7.9280 2.3161
12.9136 -7.6078 2.3161
13.0757 -7.2838 2.3161
13.2296 -6.9564 2.3161
13.3751 -6.6257 2.3161
13.5122 -6.2919 2.3161
13.6409 -5.9553 2.3161
13.7611 -5.6162 2.3161
13.8727 -5.2746 2.3161
13.9758 -4.9309 2.3161
14.0703 -4.5852 2.3161
14.1561 -4.2378 2.3161
14.2334 -3.8889 2.3161
14.3020 -3.5387 2.3161
14.3620 -3.1875 2.3161
14.4133 -2.8354 2.3161
14.4560 -2.4827 2.3161
14.4900 -2.1295 2.3161
14.5155 -1.7762 2.3161
14.5324 -1.4229 2.3161
14.5407 -1.0697 2.3161
14.5405 -0.7170 2.3161
14.5318 -0.3649 2.3161
14.5146 -0.0137 2.3161
14.4891 0.3366 2.3161
14.4553 0.6856 2.3161
14.4131 1.0332 2.3161
14.3627 1.3792 2.3161
14.3041 1.7234 2.3161
14.2375 2.0655 2.3161
14.1628 2.4056 2.3161
14.0801 2.7432 2.3161
13.9897 3.0783 2.3161
13.8914 3.4108 2.3161
13.7854 3.7403 2.3161
13.6718 4.0667 2.3161
13.5507 4.3900 2.3161
13.4221 4.7098 2.3161
13.2863 5.0261 2.3161
13.1432 5.3387 2.3161
12.9931 5.6474 2.3161
12.8359 5.9521 2.3161
12.6718 6.2527 2.3161
12.5010 6.5489 2.3161
12.3235 6.8407 2.3161
12.1394 7.1279 2.3161
11.9490 7.4104 2.3161
11.7522 7.6880 2.3161
11.5493 7.9606 2.3161
11.3403 8.2282 2.3161
11.1254 8.4904 2.3161
10.9048 8.7474 2.3161
10.6784 8.9989 2.3161
10.4466 9.2447 2.3161
2.9681 2.7575 0.6733
2.9404 2.8674 0.6833
2.7479 2.8125 0.6548
9.4668 10.1704 2.3161
3.5330 3.9847 0.8885
3.4617 4.0999 0.8961
8.6808 10.8010 2.3161
8.4099 10.9986 2.3161
8.1347 11.1897 2.3161
7.8554 11.3743 2.3161
7.5722 11.5523 2.3161
7.2852 11.7236 2.3161
6.9945 11.8882 2.3161
6.7003 12.0460 2.3161
6.3545 12.1049 2.2986
6.0561 12.2477 2.2986
5.7547 12.3836 2.2986
5.4504 12.5125 2.2986
5.1434 12.6344 2.2986
4.8339 12.7491 2.2986
4.5219 12.8566 2.2986
4.2078 12.9570 2.2986
3.8915 13.0501 2.2986
3.5733 13.1360 2.2986
3.2534 13.2146 2.2986
2.9318 13.2858 2.2986
2.6341 13.4792 2.3209
2.3869 14.0073 2.4017
2.0469 14.0586 2.4017
1.7058 14.1020 2.4017
1.3638 14.1377 2.4017
1.0212 14.1655 2.4017
0.6780 14.1856 2.4017
0.3345 14.1978 2.4017
-0.0092 14.2022 2.4017
-0.3529 14.1987 2.4017
-0.6965 14.1875 2.4017
-1.0398 14.1684 2.4017
-1.3827 14.1414 2.4017
-1.7248 14.1067 2.4017
-2.0662 14.0641 2.4017
-2.4066 14.0138 2.4017
-2.3639 12.0140 2.0676
-2.3877 10.7543 1.8595
-2.4072 9.7236 1.6903
-2.5304 9.2549 1.6183
-2.7741 9.2595 1.6297
-3.0217 9.2642 1.6421
-3.2735 9.2690 1.6557
-3.5298 9.2738 1.6705
-3.7913 9.2788 1.6864
-4.0582 9.2838 1.7037
-4.3311 9.2890 1.7223
-6.0827 12.2620 2.2986
-6.3821 12.1196 2.2986
-6.6783 11.9703 2.2986
-6.9712 11.8140 2.2986
-7.2606 11.6510 2.2986
-7.5465 11.4812 2.2986
-7.8287 11.3048 2.2986
-8.1069 11.1217 2.2986
-8.3811 10.9321 2.2986
-8.6511 10.7360 2.2986
-8.9167 10.5336 2.2986
-9.1779 10.3249 2.2986
-9.3923 10.0648 2.2883
-9.3975 9.5943 2.2301
-9.4026 9.1460 2.1759
-9.4074 8.7179 2.1253
-9.4120 8.3082 2.0780
-9.4164 7.9152 2.0338
-9.4207 7.5376 1.9925
-9.4248 7.1740 1.9538
-9.4189 6.8161 1.9155
-9.4345 6.4857 1.8839
-9.6004 6.2633 1.8839
-12.0294 7.4397 2.3217
-12.2213 7.1557 2.3217
-12.4068 6.8669 2.3217
-12.5856 6.5735 2.3217
-9.9666 4.9026 1.8138
-10.0696 4.6544 1.8091
-10.1930 4.4155 1.8091
-10.3109 4.1736 1.8091
-10.4232 3.9285 1.8091
-13.4731 4.7093 2.3147
-13.5714 4.3785 2.3095
-13.5559 4.0144 2.2864
-13.5467 3.6579 2.2660
-13.5509 3.3098 2.2494
-13.5847 2.9721 2.2392
-13.3937 2.5928 2.1936
-13.2448 2.2333 2.1565
-13.2552 1.9069 2.1469
-13.2560 1.5810 2.1371
-13.2553 1.2569 2.1283
-13.2716 0.9355 2.1235
-13.2826 0.6142 2.1191
-13.2903 0.2930 2.1154
-13.2747 -0.0281 2.1092
-13.2842 -0.3492 2.1083
-13.2894 -0.6710 2.1079
-13.2679 -0.9917 2.1045
-13.2633 -1.3143 2.1051
-13.2535 -1.6375 2.1060
-13.2683 -1.9658 2.1122
-13.2897 -2.2983 2.1206
-13.3064 -2.6337 2.1297
-13.3922 -2.9886 2.1512
-13.5819 -3.3772 2.1909
-13.7765 -3.7812 2.2331
-13.9594 -4.1964 2.2752
-14.0957 -4.6114 2.3116
-14.0616 -4.9793 2.3217
-13.9571 -5.3250 2.3217
-13.8439 -5.6684 2.3217
-13.7220 -6.0094 2.3217
-13.5916 -6.3477 2.3217
-13.1478 -6.5317 2.2691
-5.9147 -3.1186 1.0321
-11.7133 -6.5423 2.0681
-11.0838 -6.5467 1.9817
-10.5030 -6.5507 1.9031
-9.9649 -6.5545 1.8314
-9.5812 -6.6389 1.7876
-12.2471 -8.9313 2.3217
-12.0425 -9.2355 2.3217
-11.8302 -9.5349 2.3217
-10.8051 -9.1492 2.3217
-10.5924 -9.4173 2.3217
-10.3729 -9.6804 2.3217
-10.1466 -9.9380 2.3217
-9.9136 -10.1901 2.3217
-9.5780 -10.3328 2.2986
-9.3346 -10.5709 2.2986
-9.0851 -10.8030 2.2986
-8.8296 -11.0289 2.2986
-8.5683 -11.2485 2.2986
-8.3013 -11.4616 2.2986
-8.0288 -11.6680 2.2986
-7.7509 -11.8675 2.2986
-7.4679 -12.0601 2.2986
-7.1798 -12.2456 2.2986
-6.8870 -12.4238 2.2986
-6.5895 -12.5946 2.2986
-6.2876 -12.7579 2.2986
-5.9815 -12.9135 2.2986
-5.6714 -13.0614 2.2986
-5.5977 -13.7934 2.4017
-5.2658 -13.9313 2.4017
-4.9305 -14.0607 2.4017
-4.5917 -14.1816 2.4017
-4.2499 -14.2939 2.4017
-3.9052 -14.3974 2.4017
