ply
format ascii 1.0
element vertex 2108
property float32 x
property float32 y
property float32 z
end_header
1.1709 16.2478 2.4015
0.7774 16.2710 2.4015
0.3834 16.2854 2.4015
-0.0108 16.2910 2.4015
-0.4051 16.2877 2.4015
-0.7993 16.2756 2.4015
-1.1931 16.2546 2.4015
-1.5865 16.2248 2.4015
-1.9792 16.1862 2.4015
-2.3711 16.1387 2.4015
-2.7620 16.0825 2.4015
-3.1516 16.0174 2.4015
-3.5399 15.9436 2.4015
-3.9266 15.8611 2.4015
-4.3115 15.7698 2.4015
-4.6946 15.6698 2.4015
-5.0755 15.5612 2.4015
-5.4541 15.4439 2.4015
-5.6528 14.8518 2.3284
-5.9375 14.5319 2.2984
-6.2922 14.3951 2.2984
-6.6441 14.2503 2.2984
-6.0288 12.1538 1.9815
-7.3385 13.9365 2.2984
-7.6807 13.7677 2.2984
-8.0193 13.5910 2.2984
-8.3542 13.4065 2.2984
-8.6851 13.2142 2.2984
-9.0120 13.0143 2.2984
-9.3346 12.8068 2.2984
-9.5767 12.4924 2.2803
-9.5733 11.8813 2.2077
-9.5701 11.3062 2.1407
-9.5671 10.7635 2.0785
-9.5642 10.2498 2.0208
-9.5615 9.7625 1.9672
-9.5489 9.2892 1.9152
-9.6233 8.9188 1.8837
-10.0505 8.8726 1.9220
-10.0465 8.4456 1.8789
-10.1543 8.1253 1.8590
-12.9412 9.8517 2.3215
-13.1958 9.5504 2.3215
-13.4437 9.2428 2.3215
-13.6269 8.8914 2.3117
-13.6237 8.4268 2.2722
-13.6730 8.0067 2.2438
-13.7586 7.6163 2.2233
-13.6214 7.1156 2.1691
-13.5699 6.6762 2.1309
-13.6944 6.3309 2.1222
-13.8086 5.9829 2.1132
-13.9608 5.6520 2.1112
-14.1370 5.3294 2.1140
-14.3053 5.0013 2.1167
-14.4900 4.6760 2.1228
-14.7090 4.3570 2.1350
-14.9177 4.0293 2.1466
-15.1153 3.6931 2.1575
-15.3016 3.3489 2.1679
-15.4433 2.9908 2.1730
-15.5334 2.6205 2.1721
-15.5856 2.2434 2.1671
-15.6274 1.8651 2.1619
-15.7005 1.4900 2.1622
-15.7251 1.1097 2.1572
-15.7518 0.7297 2.1537
-15.8190 0.3501 2.1570
-15.9671 -0.0325 2.1724
-15.9597 -0.4182 2.1680
-15.8978 -0.8013 2.1575
-15.9514 -1.1909 2.1638
-15.9482 -1.5789 2.1638
-15.1164 -1.8663 2.0525
-12.4397 -1.8419 1.6914
-10.5447 -1.8227 1.4366
-9.4972 -1.8789 1.2972
-15.8753 -3.5412 2.1753
-15.8520 -3.9402 2.1804
-15.8229 -4.3413 2.1861
-15.7944 -4.7466 2.1933
-15.7814 -5.1614 2.2041
-15.7382 -5.5714 2.2122
-15.7254 -5.9980 2.2260
-15.7100 -6.4309 2.2412
-15.6617 -6.8573 2.2532
-15.5935 -7.2811 2.2640
-15.5001 -7.6987 2.2728
-15.3883 -8.1121 2.2806
-15.2482 -8.5149 2.2857
-15.0541 -8.8900 2.2843
-12.4916 -7.7896 1.9203
-14.7071 -9.6719 2.2923
-14.5273 -10.0643 2.2978
-14.3359 -10.4528 2.3032
-14.1305 -10.8350 2.3079
-13.9066 -11.2067 2.3114
-12.6101 -10.6760 2.3215
-12.3654 -10.9920 2.3215
-12.1124 -11.3022 2.3215
-11.8514 -11.6062 2.3215
-11.5823 -11.9038 2.3215
-11.3055 -12.1948 2.3215
-11.0210 -12.4789 2.3215
-10.7290 -12.7560 2.3215
-10.4297 -13.0258 2.3215
-10.1233 -13.2882 2.3215
-9.8100 -13.5428 2.3215
-9.4899 -13.7896 2.3215
-9.0722 -13.8887 2.2984
-8.7426 -14.1168 2.2984
-8.4069 -14.3365 2.2984
-8.0654 -14.5477 2.2984
-7.7183 -14.7501 2.2984
-7.3659 -14.9437 2.2984
-7.0083 -15.1282 2.2984
-6.6458 -15.3035 2.2984
-6.2787 -15.4695 2.2984
-5.9072 -15.6260 2.2984
-5.5323 -15.7749 2.2987
-5.3330 -16.4685 2.3791
-4.9829 -16.7567 2.4015
-4.5791 -16.8793 2.4015
-4.1721 -16.9915 2.4015
-3.7623 -17.0931 2.4015
-3.3497 -17.1840 2.4015
-2.9349 -17.2641 2.4015
-2.5180 -17.3335 2.4015
-2.0994 -17.3920 2.4015
-1.6794 -17.4396 2.4015
-1.2582 -17.4763 2.4015
-0.8362 -17.5019 2.4015
-0.4137 -17.5166 2.4015
0.0091 -17.5203 2.4015
0.4317 -17.5130 2.4015
0.8540 -17.4946 2.4015
1.2756 -17.4653 2.4015
1.6962 -17.4250 2.4015
2.1155 -17.3739 2.4015
2.5332 -17.3118 2.4015
2.8222 -16.4978 2.2982
3.2181 -16.4178 2.2982
3.6116 -16.3276 2.2982
4.0024 -16.2272 2.2982
3.0900 -11.3434 1.6175
4.7750 -15.9965 2.2982
2.9522 -9.0842 1.3158
5.5337 -15.7263 2.2982
5.9072 -15.5767 2.2982
6.2765 -15.4177 2.2982
6.6413 -15.2493 2.2982
7.0550 -15.1872 2.3159
7.4128 -14.9991 2.3159
7.7653 -14.8020 2.3159
8.1123 -14.5960 2.3159
8.4536 -14.3814 2.3159
8.7890 -14.1583 2.3159
9.1182 -13.9270 2.3159
9.4411 -13.6875 2.3159
9.7574 -13.4401 2.3159
10.0669 -13.1850 2.3159
10.3695 -12.9224 2.3159
10.6649 -12.6524 2.3159
10.9531 -12.3754 2.3159
11.2338 -12.0914 2.3159
11.5069 -11.8009 2.3159
11.7721 -11.5038 2.3159
12.0295 -11.2005 2.3159
12.2788 -10.8913 2.3159
12.5198 -10.5763 2.3159
12.7526 -10.2557 2.3159
12.9769 -9.9299 2.3159
13.1926 -9.5990 2.3159
13.3997 -9.2633 2.3159
13.5980 -8.9230 2.3159
13.7875 -8.5784 2.3159
13.9680 -8.2298 2.3159
14.1396 -7.8772 2.3159
14.3021 -7.5211 2.3159
14.4554 -7.1616 2.3159
14.5996 -6.7990 2.3159
14.7346 -6.4336 2.3159
14.8603 -6.0655 2.3159
14.9767 -5.6951 2.3159
15.0838 -5.3225 2.3159
15.1815 -4.9480 2.3159
15.2699 -4.5719 2.3159
15.3489 -4.1944 2.3159
15.4186 -3.8157 2.3159
15.4789 -3.4361 2.3159
15.5298 -3.0557 2.3159
15.5715 -2.6749 2.3159
15.6038 -2.2939 2.3159
15.6268 -1.9128 2.3159
15.6407 -1.5320 2.3159
15.6453 -1.1516 2.3159
15.6408 -0.7719 2.3159
15.6271 -0.3931 2.3159
15.6045 -0.0153 2.3159
15.5728 0.3611 2.3159
15.5322 0.7361 2.3159
15.4827 1.1093 2.3159
15.4245 1.4805 2.3159
15.3576 1.8497 2.3159
15.2820 2.2165 2.3159
15.1980 2.5808 2.3159
15.1054 2.9424 2.3159
15.0045 3.3011 2.3159
14.8954 3.6567 2.3159
14.7781 4.0091 2.3159
14.6528 4.3580 2.3159
14.5195 4.7033 2.3159
14.3784 5.0448 2.3159
14.2295 5.3824 2.3159
14.0731 5.7158 2.3159
13.9091 6.0451 2.3159
13.7378 6.3699 2.3159
13.5593 6.6901 2.3159
13.3736 7.0055 2.3159
13.1809 7.3162 2.3159
12.9814 7.6218 2.3159
12.7752 7.9223 2.3159
12.5623 8.2175 2.3159
12.3430 8.5073 2.3159
12.1174 8.7915 2.3159
11.8856 9.0702 2.3159
11.6478 9.3430 2.3159
11.4040 9.6099 2.3159
11.1545 9.8709 2.3159
10.8994 10.1257 2.3159
10.6389 10.3743 2.3159
10.3730 10.6166 2.3159
10.1020 10.8525 2.3159
9.8260 11.0818 2.3159
9.5451 11.3046 2.3159
9.2595 11.5206 2.3159
8.9693 11.7299 2.3159
8.6747 11.9323 2.3159
8.3759 12.1277 2.3159
8.0730 12.3162 2.3159
7.7662 12.4975 2.3159
7.4555 12.6717 2.3159
7.1413 12.8387 2.3159
6.8236 12.9983 2.3159
6.5026 13.1506 2.3159
6.1318 13.1953 2.2984
5.8072 13.3316 2.2984
5.4797 13.4606 2.2984
3.3968 8.9589 1.5161
4.8170 13.6958 2.2984
4.4821 13.8021 2.2984
4.1450 13.9007 2.2984
3.8059 13.9917 2.2984
3.4650 14.0749 2.2984
3.1224 14.1504 2.2984
2.7783 14.2182 2.2984
2.4328 14.2781 2.2984
2.1797 14.9730 2.4015
1.8164 15.0192 2.4015
1.4523 15.0573 2.4015
1.0873 15.0871 2.4015
0.7219 15.1087 2.4015
0.3560 15.1221 2.4015
-0.0101 15.1272 2.4015
-0.3763 15.1240 2.4015
-0.7423 15.1126 2.4015
-1.1081 15.0929 2.4015
-1.4734 15.0650 2.4015
-1.8380 15.0288 2.4015
-2.2019 14.9844 2.4015
-2.5648 14.9318 2.4015
-2.9265 14.8710 2.4015
-3.2869 14.8020 2.4015
-3.6459 14.7248 2.4015
-4.0031 14.6395 2.4015
-4.3586 14.5461 2.4015
-4.7120 14.4446 2.4015
-5.0633 14.3351 2.4015
-5.4122 14.2176 2.4015
-5.6404 13.8027 2.3522
-5.8404 13.3595 2.2984
-6.1666 13.2243 2.2984
-6.0265 12.1474 2.1342
-6.8103 12.9315 2.2984
-7.1274 12.7740 2.2984
-7.4411 12.6091 2.2984
-7.7513 12.4371 2.2984
-8.0577 12.2578 2.2984
-8.3603 12.0713 2.2984
-8.6589 11.8779 2.2984
-8.9533 11.6774 2.2984
-9.2434 11.4700 2.2984
-9.5290 11.2558 2.2984
-9.5670 10.7616 2.2415
-9.5642 10.2481 2.1795
-9.5615 9.7608 2.1218
-9.5589 9.2972 2.0681
-9.5564 8.8552 2.0180
-9.5541 8.4328 1.9713
-9.5518 8.0282 1.9276
-9.5397 7.6321 1.8848
-9.7296 7.4053 1.8837
-12.2253 8.8462 2.3215
-12.4517 8.5590 2.3211
-12.6278 8.2376 2.3127
-12.7974 7.9138 2.3046
-12.7575 7.4688 2.2608
-12.8506 7.1118 2.2427
-12.9304 6.7528 2.2241
-12.9820 6.3852 2.2023
-13.0470 6.0299 2.1844
-13.1120 5.6793 2.1682
-13.1693 5.3298 2.1522
-13.2049 4.9762 2.1342
-13.2382 4.6265 2.1174
-13.3077 4.2927 2.1078
-13.3726 3.9595 2.0987
-13.4701 3.6366 2.0960
-13.5897 3.3187 2.0980
-13.7012 2.9969 2.0997
-13.7945 2.6698 2.0999
-13.8745 2.3389 2.0992
-13.9989 2.0133 2.1063
-14.1578 1.6880 2.1198
-14.3580 1.3609 2.1404
-14.5412 1.0244 2.1596
-14.6949 0.6790 2.1755
-14.8331 0.3265 2.1902
-15.0265 -0.0324 2.2143
-15.1302 -0.3983 2.2264
-15.1764 -0.7668 2.2313
-15.2054 -1.1371 2.2350
-15.2223 -1.5089 2.2382
-15.1016 -1.8663 2.2225
-12.4279 -1.8417 1.8318
-10.5374 -1.8227 1.5564
-9.4973 -1.8801 1.4066
-15.1299 -3.3768 2.2484
-15.1040 -3.7562 2.2534
-15.0650 -4.1352 2.2579
-15.0489 -4.5244 2.2673
-15.0261 -4.9162 2.2772
-14.9752 -5.3032 2.2844
-14.9561 -5.7065 2.2980
-14.8756 -6.0913 2.3037
-14.7819 -6.4740 2.3089
-14.6558 -6.8451 2.3106
-14.5062 -7.2069 2.3101
-14.3631 -7.5735 2.3120
-14.2121 -7.9382 2.3143
-14.0398 -8.2929 2.3146
-12.4889 -7.7896 2.0861
-13.6696 -8.9915 2.3154
-13.4849 -9.3441 2.3182
-13.2918 -9.6934 2.3212
-13.0742 -10.0270 2.3215
-12.8464 -10.3542 2.3215
-11.6692 -9.8811 2.3215
-11.4416 -10.1726 2.3215
-11.2065 -10.4586 2.3215
-10.9639 -10.7388 2.3215
-10.7140 -11.0131 2.3215
-10.4570 -11.2813 2.3215
-10.1929 -11.5431 2.3215
-9.9221 -11.7984 2.3215
-9.6445 -12.0469 2.3215
-9.2673 -12.1663 2.2984
-8.9798 -12.3984 2.2984
-8.6861 -12.6233 2.2984
-8.3866 -12.8408 2.2984
-8.0813 -13.0508 2.2984
-7.7705 -13.2530 2.2984
-7.4544 -13.4473 2.2984
-7.1332 -13.6336 2.2984
-6.8071 -13.8117 2.2984
-6.4763 -13.9814 2.2984
-6.1410 -14.1427 2.2984
-5.8015 -14.2954 2.2984
-5.4580 -14.4393 2.2984
-5.3400 -15.2281 2.4015
-4.9734 -15.3600 2.4015
-4.6035 -15.4823 2.4015
-4.2303 -15.5951 2.4015
-3.8542 -15.6983 2.4015
-3.4755 -15.7917 2.4015
-3.0944 -15.8753 2.4015
-2.7111 -15.9491 2.4015
-2.3260 -16.0129 2.4015
-1.9393 -16.0668 2.4015
-1.5513 -16.1106 2.4015
-1.1623 -16.1444 2.4015
-0.7725 -16.1681 2.4015
-0.3822 -16.1816 2.4015
0.0083 -16.1851 2.4015
0.3987 -16.1785 2.4015
0.7888 -16.1617 2.4015
1.1782 -16.1349 2.4015
1.5667 -16.0980 2.4015
1.9541 -16.0511 2.4015
2.3400 -15.9942 2.4015
2.7073 -15.8286 2.3866
2.9729 -15.1692 2.2982
3.3365 -15.0864 2.2982
3.6977 -14.9942 2.2982
3.0895 -11.3435 1.7505
4.4119 -14.7823 2.2982
2.9517 -9.0841 1.4238
5.1135 -14.5342 2.2982
5.4589 -14.3967 2.2982
5.8005 -14.2506 2.2982
6.1380 -14.0958 2.2982
6.4712 -13.9325 2.2982
6.8519 -13.8664 2.3159
7.1783 -13.6851 2.3159
7.4996 -13.4957 2.3159
7.8158 -13.2983 2.3159
8.1265 -13.0931 2.3159
8.4315 -12.8802 2.3159
8.7308 -12.6598 2.3159
9.0241 -12.4321 2.3159
9.3112 -12.1972 2.3159
9.5919 -11.9553 2.3159
9.8661 -11.7067 2.3159
10.1337 -11.4515 2.3159
10.3944 -11.1899 2.3159
10.6481 -10.9221 2.3159
10.8947 -10.6483 2.3159
11.1340 -10.3687 2.3159
11.3659 -10.0835 2.3159
11.5903 -9.7929 2.3159
11.8070 -9.4972 2.3159
12.0160 -9.1965 2.3159
12.2171 -8.8911 2.3159
12.4103 -8.5812 2.3159
12.5954 -8.2670 2.3159
12.7724 -7.9487 2.3159
12.9411 -7.6266 2.3159
13.1016 -7.3008 2.3159
13.2537 -6.9717 2.3159
13.3975 -6.6393 2.3159
13.5327 -6.3040 2.3159
13.6595 -5.9660 2.3159
13.7777 -5.6255 2.3159
13.8873 -5.2826 2.3159
13.9883 -4.9378 2.3159
14.0807 -4.5911 2.3159
14.1644 -4.2427 2.3159
14.2395 -3.8930 2.3159
14.3059 -3.5421 2.3159
14.3636 -3.1903 2.3159
14.4127 -2.8377 2.3159
14.4532 -2.4846 2.3159
14.4850 -2.1312 2.3159
14.5082 -1.7777 2.3159
14.5229 -1.4243 2.3159
14.5290 -1.0712 2.3159
14.5266 -0.7187 2.3159
14.5157 -0.3668 2.3159
14.4964 -0.0160 2.3159
14.4687 0.3338 2.3159
14.4328 0.6822 2.3159
14.3886 1.0292 2.3159
14.3362 1.3743 2.3159
14.2757 1.7177 2.3159
14.2072 2.0589 2.3159
14.1306 2.3979 2.3159
14.0463 2.7344 2.3159
13.9541 3.0683 2.3159
13.8541 3.3994 2.3159
13.7466 3.7275 2.3159
13.6315 4.0526 2.3159
13.5090 4.3743 2.3159
13.3792 4.6925 2.3159
13.2421 5.0072 2.3159
13.0979 5.3181 2.3159
12.9467 5.6251 2.3159
12.7886 5.9280 2.3159
12.6236 6.2268 2.3159
12.4520 6.5212 2.3159
12.2739 6.8111 2.3159
12.0892 7.0964 2.3159
11.8983 7.3769 2.3159
11.7012 7.6525 2.3159
11.4979 7.9232 2.3159
11.2888 8.1887 2.3159
11.0738 8.4490 2.3159
10.8531 8.7040 2.3159
10.6269 8.9535 2.3159
10.3953 9.1974 2.3159
10.1583 9.4356 2.3159
9.9163 9.6681 2.3159
9.6692 9.8946 2.3159
9.4172 10.1152 2.3159
9.1606 10.3298 2.3159
8.8993 10.5382 2.3159
8.6336 10.7403 2.3159
8.3636 10.9362 2.3159
8.0894 11.1256 2.3159
7.8112 11.3085 2.3159
7.5291 11.4849 2.3159
7.2433 11.6547 2.3159
6.9540 11.8178 2.3159
6.6612 11.9741 2.3159
6.3167 12.0313 2.2982
6.0198 12.1729 2.2982
5.7203 12.3083 2.2984
5.4177 12.4360 2.2984
5.1124 12.5568 2.2984
3.3968 8.9580 1.6249
4.4944 12.7771 2.2984
4.1820 12.8766 2.2984
3.8676 12.9690 2.2984
3.5513 13.0541 2.2984
3.2332 13.1321 2.2983
2.9136 13.2027 2.2983
2.5925 13.2661 2.2983
2.3721 13.9201 2.4015
2.0341 13.9711 2.4015
1.6950 14.0144 2.4015
1.3552 14.0500 2.4015
1.0146 14.0779 2.4015
0.6736 14.0981 2.4015
0.3321 14.1105 2.4015
-0.0095 14.1152 2.4015
-0.3512 14.1122 2.4015
-0.6928 14.1014 2.4015
-1.0341 14.0829 2.4015
-1.3750 14.0566 2.4015
-1.7153 14.0226 2.4015
-2.0548 13.9809 2.4015
-2.3933 13.9315 2.4015
-2.7308 13.8744 2.4015
-3.0670 13.8097 2.4015
-3.4018 13.7372 2.4015
-3.7351 13.6572 2.4015
-4.0666 13.5696 2.4015
-4.3961 13.4744 2.4015
-4.7237 13.3717 2.4015
-5.0490 13.2615 2.4015
-5.3719 13.1439 2.4015
-5.6285 12.8729 2.3746
-5.7519 12.3332 2.2984
-6.0242 12.1409 2.2873
-6.3516 12.0588 2.2984
-6.6470 11.9112 2.2984
-6.9391 11.7568 2.2984
-7.2279 11.5956 2.2984
-7.5132 11.4277 2.2984
-7.7949 11.2531 2.2984
-8.0727 11.0720 2.2984
-8.3466 10.8843 2.2984
-8.6163 10.6902 2.2984
-8.8819 10.4897 2.2984
-9.1431 10.2830 2.2984
-9.3997 10.0700 2.2984
-9.5615 9.7590 2.2769
-9.5589 9.2955 2.2195
-9.5564 8.8535 2.1659
-9.5540 8.4312 2.1159
-9.5518 8.0267 2.0692
-9.5496 7.6385 2.0255
-9.5476 7.2652 1.9847
-9.5455 6.9056 1.9464
-9.5337 6.5518 1.9085
-9.5766 6.2458 1.8837
-9.7384 6.0207 1.8837
-12.1947 7.1376 2.3215
-10.0194 5.5435 1.8786
-10.0164 5.2296 1.8511
-10.0191 4.9265 1.8263
-10.0530 4.6448 1.8088
-10.1776 4.4070 1.8088
-10.2968 4.1659 1.8088
-12.6426 4.7627 2.1967
-12.6913 4.4337 2.1825
-12.7005 4.0952 2.1630
-12.7248 3.7660 2.1476
-12.7973 3.4534 2.1417
-12.8852 3.1450 2.1397
-12.9693 2.8353 2.1382
-13.0576 2.5255 2.1386
-13.1416 2.2137 2.1395
-13.2394 1.9024 2.1438
-13.4074 1.5969 2.1606
-13.6206 1.2893 2.1857
-13.8348 0.9730 2.2120
-14.0443 0.6472 2.2386
-14.2505 0.3119 2.2659
-14.4448 -0.0329 2.2924
-14.5353 -0.3844 2.3037
-14.5404 -0.7364 2.3029
-14.5403 -1.0891 2.3026
-14.5468 -1.4437 2.3046
-14.5358 -1.7981 2.3053
-12.4162 -1.8414 1.9724
-10.5301 -1.8227 1.6765
-9.4974 -1.8813 1.5164
-14.4339 -3.2232 2.3126
-14.3957 -3.5818 2.3159
-14.3503 -3.9408 2.3195
-14.2859 -4.2967 2.3215
-14.2005 -4.6478 2.3215
-14.1063 -4.9972 2.3215
-14.0034 -5.3448 2.3215
-13.8917 -5.6901 2.3215
-13.7713 -6.0331 2.3215
-13.6326 -6.3689 2.3198
-13.4959 -6.7067 2.3200
-13.3560 -7.0442 2.3210
-13.2038 -7.3768 2.3215
-13.0407 -7.7046 2.3215
-12.4862 -7.7896 2.2524
-12.6894 -8.3485 2.3215
-12.5014 -8.6643 2.3215
-12.3053 -8.9757 2.3215
-12.1011 -9.2825 2.3215
-11.8891 -9.5843 2.3215
-10.8563 -9.1944 2.3215
-10.6436 -9.4648 2.3215
-10.4240 -9.7300 2.3215
-10.1976 -9.9899 2.3215
-9.9644 -10.2442 2.3215
-9.7246 -10.4928 2.3215
-9.3840 -10.6286 2.2984
-9.1340 -10.8629 2.2984
-8.8778 -11.0908 2.2984
-8.6157 -11.3125 2.2984
-8.3478 -11.5275 2.2984
-8.0744 -11.7358 2.2984
-7.7954 -11.9373 2.2984
-7.5112 -12.1317 2.2984
-7.2220 -12.3190 2.2984
-6.9278 -12.4989 2.2984
-6.6289 -12.6714 2.2984
-6.3256 -12.8362 2.2984
-6.0179 -12.9933 2.2984
-5.7061 -13.1426 2.2984
-5.3904 -13.2839 2.2984
-5.2985 -14.0189 2.4015
-4.9612 -14.1495 2.4015
-4.6205 -14.2715 2.4015
-4.2767 -14.3847 2.4015
-3.9299 -14.4892 2.4015
-3.5804 -14.5846 2.4015
-3.2285 -14.6711 2.4015
-2.8745 -14.7485 2.4015
-2.5184 -14.8168 2.4015
-2.1607 -14.8758 2.4015
-1.8015 -14.9257 2.4015
-1.4410 -14.9663 2.4015
-1.0797 -14.9976 2.4015
-0.7176 -15.0196 2.4015
-0.3551 -15.0322 2.4015
0.0076 -15.0355 2.4015
0.3702 -15.0295 2.4015
0.7326 -15.0141 2.4015
1.0943 -14.9894 2.4015
1.4553 -14.9553 2.4015
1.8151 -14.9121 2.4015
2.1737 -14.8595 2.4015
2.5306 -14.7978 2.4015
2.7617 -14.0938 2.2982
3.0996 -14.0173 2.2982
3.4353 -13.9322 2.2982
3.0891 -11.3436 1.8839
4.0991 -13.7363 2.2982
2.9512 -9.0839 1.5322
4.7514 -13.5069 2.2982
5.0726 -13.3798 2.2982
5.3903 -13.2447 2.2982
5.7042 -13.1015 2.2982
6.0142 -12.9505 2.2982
6.3200 -12.7917 2.2982
6.6214 -12.6252 2.2982
6.9713 -12.5468 2.3159
7.2656 -12.3641 2.3159
7.5549 -12.1741 2.3159
7.8391 -11.9770 2.3159
8.1179 -11.7729 2.3159
8.3912 -11.5621 2.3159
8.6589 -11.3445 2.3159
8.9206 -11.1205 2.3159
9.1764 -10.8901 2.3159
9.4260 -10.6536 2.3159
9.6693 -10.4111 2.3159
9.9062 -10.1629 2.3159
10.1365 -9.9090 2.3159
10.3600 -9.6497 2.3159
10.5768 -9.3852 2.3159
10.7866 -9.1156 2.3159
10.9893 -8.8412 2.3159
11.1849 -8.5622 2.3159
11.3732 -8.2787 2.3159
11.5541 -7.9910 2.3159
11.7276 -7.6992 2.3159
11.8936 -7.4035 2.3159
12.0519 -7.1043 2.3159
12.2026 -6.8016 2.3159
12.3456 -6.4957 2.3159
12.4808 -6.1867 2.3159
12.6081 -5.8750 2.3159
12.7275 -5.5606 2.3159
12.8390 -5.2439 2.3159
12.9426 -4.9250 2.3159
13.0381 -4.6040 2.3159
13.1256 -4.2813 2.3159
13.2051 -3.9571 2.3159
13.2765 -3.6314 2.3159
13.3398 -3.3046 2.3159
13.3951 -2.9769 2.3159
13.4424 -2.6483 2.3159
13.4816 -2.3192 2.3159
13.5127 -1.9898 2.3159
13.5358 -1.6602 2.3159
13.5510 -1.3306 2.3159
13.5581 -1.0013 2.3159
13.5573 -0.6723 2.3159
13.5486 -0.3440 2.3159
13.5321 -0.0165 2.3159
13.5077 0.3100 2.3159
13.4756 0.6354 2.3159
13.4357 0.9594 2.3159
13.3882 1.2818 2.3159
13.3331 1.6026 2.3159
13.2704 1.9215 2.3159
13.2003 2.2384 2.3159
13.1228 2.5530 2.3159
13.0380 2.8653 2.3159
12.9459 3.1750 2.3159
12.8467 3.4819 2.3159
12.7404 3.7861 2.3159
12.6272 4.0872 2.3159
12.5070 4.3851 2.3159
12.3800 4.6797 2.3159
12.2464 4.9708 2.3159
12.1061 5.2583 2.3159
11.9593 5.5421 2.3159
11.8061 5.8220 2.3159
11.6466 6.0978 2.3159
11.4810 6.3695 2.3159
11.3092 6.6369 2.3159
11.1315 6.9000 2.3159
10.9480 7.1584 2.3159
10.7587 7.4123 2.3159
10.5638 7.6614 2.3159
10.3634 7.9055 2.3159
10.1577 8.1447 2.3159
9.9467 8.3788 2.3159
9.7306 8.6078 2.3159
9.5095 8.8314 2.3159
9.2835 9.0496 2.3159
9.0528 9.2623 2.3159
8.8174 9.4695 2.3159
8.5776 9.6710 2.3159
8.3335 9.8667 2.3159
8.0851 10.0566 2.3159
7.8327 10.2405 2.3159
7.5763 10.4185 2.3159
7.3161 10.5904 2.3159
7.0523 10.7561 2.3159
6.7850 10.9157 2.3159
6.4646 10.9847 2.2982
6.1927 11.1305 2.2982
5.9178 11.2700 2.2982
5.6398 11.4030 2.2982
5.3591 11.5296 2.2982
5.0757 11.6497 2.2982
4.7898 11.7632 2.2982
3.3968 8.9570 1.7342
4.2111 11.9704 2.2982
3.9185 12.0640 2.2982
3.6240 12.1508 2.2982
3.3277 12.2309 2.2982
3.0297 12.3044 2.2983
2.7302 12.3708 2.2982
2.4335 12.4513 2.3021
2.2229 13.0439 2.4015
1.9062 13.0918 2.4015
1.5885 13.1325 2.4015
1.2700 13.1659 2.4015
0.9508 13.1921 2.4015
0.6312 13.2110 2.4015
0.3112 13.2227 2.4015
-0.0090 13.2270 2.4015
-0.3293 13.2241 2.4015
-0.6494 13.2139 2.4015
-0.9692 13.1964 2.4015
-1.2887 13.1716 2.4015
-1.6075 13.1396 2.4015
-1.9256 13.1003 2.4015
-2.2429 13.0537 2.4015
-2.5591 12.9999 2.4015
-2.8741 12.9389 2.4015
-3.1877 12.8707 2.4015
-3.4999 12.7954 2.4015
-3.8104 12.7129 2.4015
-4.1191 12.6233 2.4015
-4.4258 12.5266 2.4015
-4.7304 12.4229 2.4015
-5.0327 12.3122 2.4015
-5.3327 12.1945 2.4015
-5.5988 12.0030 2.3882
-5.6703 11.4260 2.2984
-5.9495 11.2937 2.2984
-6.2259 11.1549 2.2984
-6.4992 11.0097 2.2984
-6.7693 10.8581 2.2984
-7.0361 10.7003 2.2984
-7.2994 10.5362 2.2984
-7.5591 10.3659 2.2984
-7.8151 10.1896 2.2984
-8.0672 10.0072 2.2984
-8.3152 9.8189 2.2984
-8.5592 9.6246 2.2984
-8.7988 9.4246 2.2984
-9.0339 9.2189 2.2984
-9.2645 9.0076 2.2984
-9.4904 8.7907 2.2984
-9.5540 8.4296 2.2611
-9.5518 8.0251 2.2114
-9.5496 7.6370 2.1649
-9.5475 7.2637 2.1213
-9.5455 6.9042 2.0806
-9.5436 6.5571 2.0424
-9.5417 6.2216 2.0066
-9.5399 5.8966 1.9731
-9.5382 5.5813 1.9416
-9.5265 5.2695 1.9102
-9.5303 4.9745 1.8837
-9.6611 4.7491 1.8837
-9.7868 4.5205 1.8837
-10.0081 4.3322 1.9029
-10.0054 4.0467 1.8805
-12.0626 4.5426 2.2427
-12.0800 4.2186 2.2230
-12.1369 3.9119 2.2122
-12.2129 3.6130 2.2062
-12.2888 3.3146 2.2015
-12.3607 3.0155 2.1974
-12.4529 2.7208 2.1982
-12.5697 2.4296 2.2044
-12.6838 2.1351 2.2114
-12.7981 1.8374 2.2195
-12.9610 1.5422 2.2372
-13.1234 1.2407 2.2559
-13.2839 0.9326 2.2755
-13.3817 0.6150 2.2855
-13.5015 0.2939 2.3005
-13.6153 -0.0327 2.3157
-13.6656 -0.3631 2.3215
-13.6740 -0.6941 2.3215
-13.6744 -1.0259 2.3215
-13.6668 -1.3580 2.3215
-13.6510 -1.6903 2.3215
-12.4044 -1.8412 2.1132
-10.5227 -1.8227 1.7968
-9.4975 -1.8824 1.6266
-13.5067 -3.0178 2.3215
-13.4502 -3.3482 2.3215
-13.3856 -3.6775 2.3215
-13.3128 -4.0057 2.3215
-13.2318 -4.3324 2.3215
-13.1426 -4.6575 2.3215
-13.0454 -4.9808 2.3215
-12.9400 -5.3020 2.3215
-12.8266 -5.6209 2.3215
-12.7051 -5.9373 2.3215
-12.5757 -6.2511 2.3215
-12.4383 -6.5619 2.3215
-12.2931 -6.8697 2.3215
-12.1400 -7.1741 2.3215
-11.9792 -7.4750 2.3215
-11.8107 -7.7721 2.3215
-11.6347 -8.0653 2.3215
-11.4511 -8.3543 2.3215
-11.2601 -8.6390 2.3215
-11.0618 -8.9191 2.3215
-10.1467 -8.5950 2.3215
-9.9473 -8.8471 2.3215
-9.7413 -9.0943 2.3215
-9.5290 -9.3365 2.3215
-9.2179 -9.4782 2.2984
-8.9954 -9.7075 2.2984
-8.7670 -9.9313 2.2984
-8.5329 -10.1495 2.2984
-8.2931 -10.3618 2.2984
-8.0477 -10.5682 2.2984
-7.7971 -10.7685 2.2984
-7.5412 -10.9624 2.2984
-7.2803 -11.1500 2.2984
-7.0145 -11.3310 2.2984
-6.7441 -11.5053 2.2984
-6.4691 -11.6727 2.2984
-6.1897 -11.8332 2.2984
-5.9062 -11.9866 2.2984
-5.6187 -12.1328 2.2984
-5.3776 -12.3875 2.3201
-5.2582 -12.9595 2.4015
-4.9465 -13.0890 2.4015
-4.6315 -13.2105 2.4015
-4.3133 -13.3240 2.4015
-3.9922 -13.4294 2.4015
-3.6684 -13.5265 2.4015
-3.3421 -13.6153 2.4015
-3.0136 -13.6958 2.4015
-2.6831 -13.7678 2.4015
-2.3507 -13.8313 2.4015
-2.0168 -13.8863 2.4015
-1.6815 -13.9327 2.4015
-1.3451 -13.9705 2.4015
-1.0078 -13.9997 2.4015
-0.6699 -14.0202 2.4015
-0.3315 -14.0320 2.4015
0.0070 -14.0351 2.4015
0.3455 -14.0296 2.4015
0.6837 -14.0153 2.4015
1.0213 -13.9924 2.4015
1.3582 -13.9609 2.4015
1.6942 -13.9207 2.4015
2.0289 -13.8719 2.4015
2.3621 -13.8146 2.4015
2.6876 -13.7178 2.3961
2.8950 -13.0942 2.2996
3.2068 -13.0075 2.2982
3.0887 -11.3437 2.0178
3.8268 -12.8255 2.2982
2.9148 -8.9730 1.6209
4.4360 -12.6123 2.2982
4.7362 -12.4942 2.2982
5.0330 -12.3685 2.2982
5.3264 -12.2354 2.2982
5.6160 -12.0950 2.2982
5.9019 -11.9473 2.2982
6.1837 -11.7924 2.2982
6.4613 -11.6306 2.2982
6.7861 -11.5498 2.3159
7.0568 -11.3731 2.3159
7.3226 -11.1897 2.3159
7.5836 -10.9997 2.3159
7.8394 -10.8034 2.3159
8.0899 -10.6008 2.3159
8.3351 -10.3922 2.3159
8.5747 -10.1777 2.3159
8.8085 -9.9574 2.3159
9.0366 -9.7315 2.3159
9.2586 -9.5002 2.3159
9.4745 -9.2636 2.3159
9.6843 -9.0219 2.3159
9.8877 -8.7754 2.3159
10.0846 -8.5241 2.3159
10.2750 -8.2682 2.3159
10.4587 -8.0079 2.3159
10.6357 -7.7435 2.3159
10.8058 -7.4751 2.3159
10.9690 -7.2028 2.3159
11.1252 -6.9269 2.3159
11.2743 -6.6476 2.3159
11.4163 -6.3649 2.3159
11.5511 -6.0793 2.3159
11.6787 -5.7908 2.3159
11.7989 -5.4995 2.3159
11.9117 -5.2058 2.3159
12.0172 -4.9098 2.3159
12.1152 -4.6117 2.3159
12.2058 -4.3117 2.3159
12.2889 -4.0100 2.3159
12.3644 -3.7068 2.3159
12.4325 -3.4022 2.3159
12.4930 -3.0964 2.3159
12.5460 -2.7897 2.3159
12.5914 -2.4822 2.3159
12.6293 -2.1742 2.3159
12.6597 -1.8658 2.3159
12.6826 -1.5571 2.3159
12.6979 -1.2484 2.3159
12.7059 -0.9399 2.3159
12.7063 -0.6317 2.3159
12.6994 -0.3240 2.3159
12.6850 -0.0170 2.3159
12.6634 0.2891 2.3159
12.6344 0.5942 2.3159
12.5982 0.8981 2.3159
12.5548 1.2005 2.3159
12.5043 1.5015 2.3159
12.4467 1.8007 2.3159
12.3820 2.0981 2.3159
12.3105 2.3935 2.3159
12.2320 2.6866 2.3159
12.1467 2.9774 2.3159
12.0546 3.2658 2.3159
11.9559 3.5514 2.3159
11.8506 3.8343 2.3159
11.7388 4.1143 2.3159
11.6206 4.3911 2.3159
11.4961 4.6648 2.3159
11.3653 4.9351 2.3159
11.2284 5.2019 2.3159
11.0855 5.4651 2.3159
10.9366 5.7246 2.3159
10.7818 5.9802 2.3159
10.6213 6.2318 2.3159
10.4552 6.4793 2.3159
10.2835 6.7225 2.3159
10.1065 6.9615 2.3159
9.9241 7.1959 2.3159
9.7365 7.4258 2.3159
9.5438 7.6511 2.3159
9.3462 7.8716 2.3159
9.1437 8.0872 2.3159
8.9364 8.2978 2.3159
8.7246 8.5034 2.3159
8.5083 8.7038 2.3159
8.2876 8.8990 2.3159
8.0626 9.0889 2.3159
7.8335 9.2734 2.3159
7.6005 9.4524 2.3159
7.3635 9.6258 2.3159
7.1229 9.7935 2.3159
6.8786 9.9556 2.3159
6.6308 10.1119 2.3159
6.3311 10.1842 2.2982
6.0788 10.3277 2.2982
5.8233 10.4652 2.2982
5.5649 10.5967 2.2982
5.3037 10.7222 2.2982
5.0399 10.8416 2.2982
4.7736 10.9549 2.2982
4.5048 11.0620 2.2982
3.3969 8.9561 1.8439
3.9607 11.2574 2.2982
3.6856 11.3457 2.2982
3.4086 11.4276 2.2982
3.1300 11.5032 2.2982
2.8498 11.5723 2.2982
2.5681 11.6350 2.2982
2.3878 12.2165 2.4015
2.0910 12.2685 2.4015
1.7930 12.3137 2.4015
1.4942 12.3520 2.4015
1.1946 12.3836 2.4015
0.8944 12.4082 2.4015
0.5937 12.4261 2.4015
0.2926 12.4370 2.4015
-0.0085 12.4411 2.4015
-0.3098 12.4382 2.4015
-0.6109 12.4285 2.4015
-0.9118 12.4120 2.4015
-1.2123 12.3885 2.4015
-1.5122 12.3582 2.4015
-1.8114 12.3211 2.4015
-2.1098 12.2771 2.4015
-2.4071 12.2262 2.4015
-2.7034 12.1686 2.4015
-2.9983 12.1042 2.4015
-3.2918 12.0330 2.4015
-3.5838 11.9551 2.4015
-3.8740 11.8705 2.4015
-4.1623 11.7792 2.4015
-4.4486 11.6813 2.4015
-4.7328 11.5767 2.4015
-5.0147 11.4657 2.4015
-5.2941 11.3481 2.4015
-5.5709 11.2240 2.4015
-5.5972 10.6232 2.2997
-5.8536 10.4864 2.2984
-6.1103 10.3494 2.2984
-6.3639 10.2064 2.2984
-6.6144 10.0575 2.2984
-6.8616 9.9027 2.2984
-7.1054 9.7422 2.2984
-7.3456 9.5759 2.2984
-7.5821 9.4039 2.2984
-7.8148 9.2264 2.2984
-8.0435 9.0433 2.2984
-8.2682 8.8548 2.2984
-8.4887 8.6610 2.2984
-8.7048 8.4618 2.2984
-8.9164 8.2575 2.2984
-9.1235 8.0481 2.2984
-9.3259 7.8338 2.2984
-9.5235 7.6145 2.2984
-9.5475 7.2622 2.2585
-9.5455 6.9027 2.2153
-9.5436 6.5557 2.1748
-9.5417 6.2202 2.1369
-9.5399 5.8952 2.1013
-9.5382 5.5799 2.0680
-9.5365 5.2736 2.0368
-9.5348 4.9755 2.0076
-9.5332 4.6849 1.9802
-9.5316 4.4013 1.9546
-9.5300 4.1240 1.9307
-9.5186 3.8486 1.9064
-9.5171 3.5828 1.8857
-9.6042 3.3528 1.8837
-9.6958 3.1239 1.8837
-9.7821 2.8926 1.8837
-11.8540 3.1958 2.2640
-11.9075 2.9034 2.2569
-12.0212 2.6250 2.2626
-12.1430 2.3456 2.2709
-12.2621 2.0625 2.2799
-12.3612 1.7732 2.2864
-12.4562 1.4806 2.2934
-9.9803 0.9423 1.8302
-9.9806 0.6995 1.8239
-9.9805 0.4575 1.8187
-9.9847 0.2161 1.8153
-9.9883 -0.0252 1.8129
-9.9901 -0.2666 1.8112
-12.8110 -0.6519 2.3215
-12.8101 -0.9626 2.3215
-12.8017 -1.2736 2.3215
-12.7858 -1.5848 2.3215
-12.3926 -1.8409 2.2542
-10.5153 -1.8227 1.9174
-9.4976 -1.8836 1.7371
-12.6458 -2.8270 2.3215
-12.5918 -3.1360 2.3215
-12.5301 -3.4441 2.3215
-12.4607 -3.7509 2.3215
-12.3838 -4.0563 2.3215
-12.2992 -4.3602 2.3215
-12.2071 -4.6623 2.3215
-12.1074 -4.9624 2.3215
-12.0002 -5.2603 2.3215
-11.8856 -5.5559 2.3215
-11.7634 -5.8489 2.3215
-11.6339 -6.1391 2.3215
-11.4971 -6.4264 2.3215
-11.3530 -6.7105 2.3215
-11.2017 -6.9913 2.3215
-11.0432 -7.2685 2.3215
-10.8777 -7.5421 2.3215
-10.7052 -7.8117 2.3215
-10.5258 -8.0772 2.3215
-10.3396 -8.3383 2.3215
-9.4272 -7.9870 2.2984
-9.2413 -8.2206 2.2984
-9.0494 -8.4498 2.2984
-8.8516 -8.6742 2.2984
-8.6481 -8.8938 2.2984
-8.4389 -9.1083 2.2984
-8.2241 -9.3178 2.2984
-8.0040 -9.5219 2.2984
-7.7786 -9.7205 2.2984
-7.5482 -9.9136 2.2984
-7.3127 -10.1009 2.2984
-7.0724 -10.2823 2.2984
-6.8274 -10.4577 2.2984
-6.5778 -10.6269 2.2984
-6.3239 -10.7899 2.2984
-6.0658 -10.9464 2.2984
-5.8036 -11.0965 2.2984
-5.5375 -11.2399 2.2984
-5.3786 -11.6159 2.3468
-5.2185 -12.0225 2.4015
-4.9295 -12.1509 2.4015
-4.6372 -12.2719 2.4015
-4.3417 -12.3855 2.4015
-4.0434 -12.4916 2.4015
-3.7423 -12.5900 2.4015
-3.4387 -12.6808 2.4015
-3.1328 -12.7638 2.4015
-2.8248 -12.8390 2.4015
-2.5150 -12.9063 2.4015
-2.2034 -12.9657 2.4015
-1.8904 -13.0171 2.4015
-1.5761 -13.0605 2.4015
-1.2608 -13.0959 2.4015
-0.9447 -13.1231 2.4015
-0.6279 -13.1423 2.4015
-0.3108 -13.1534 2.4015
0.0065 -13.1564 2.4015
0.3238 -13.1513 2.4015
0.6407 -13.1380 2.4015
0.9572 -13.1167 2.4015
1.2730 -13.0873 2.4015
1.5879 -13.0498 2.4015
1.9017 -13.0043 2.4015
2.2141 -12.9508 2.4015
2.5249 -12.8894 2.4015
2.7122 -12.2689 2.2982
3.0061 -12.1951 2.2982
3.0883 -11.3438 2.1521
3.5874 -12.0252 2.2982
2.9129 -8.9685 1.7278
4.1589 -11.8261 2.2982
4.4404 -11.7158 2.2982
4.7189 -11.5984 2.2982
4.9942 -11.4741 2.2982
5.2660 -11.3428 2.2982
5.5343 -11.2048 2.2982
5.7988 -11.0602 2.2982
6.0594 -10.9089 2.2982
6.3159 -10.7513 2.2982
6.5682 -10.5873 2.2982
6.8683 -10.4970 2.3159
7.1134 -10.3194 2.3159
7.3538 -10.1358 2.3159
7.5893 -9.9464 2.3159
7.8197 -9.7513 2.3159
8.0450 -9.5506 2.3159
8.2649 -9.3445 2.3159
8.4794 -9.1331 2.3159
8.6883 -8.9166 2.3159
8.8916 -8.6952 2.3159
9.0890 -8.4690 2.3159
9.2806 -8.2381 2.3159
9.4661 -8.0028 2.3159
9.6455 -7.7632 2.3159
9.8187 -7.5194 2.3159
9.9855 -7.2717 2.3159
10.1460 -7.0202 2.3159
10.3000 -6.7651 2.3159
10.4475 -6.5065 2.3159
10.5884 -6.2446 2.3159
10.7226 -5.9797 2.3159
10.8501 -5.7118 2.3159
10.9707 -5.4413 2.3159
11.0846 -5.1681 2.3159
11.1915 -4.8926 2.3159
11.2915 -4.6148 2.3159
11.3845 -4.3351 2.3159
11.4706 -4.0535 2.3159
11.5496 -3.7703 2.3159
11.6216 -3.4856 2.3159
11.6865 -3.1995 2.3159
11.7444 -2.9124 2.3159
11.7952 -2.6243 2.3159
11.8389 -2.3354 2.3159
11.8756 -2.0459 2.3159
11.9051 -1.7560 2.3159
11.9276 -1.4659 2.3159
11.9431 -1.1757 2.3159
11.9515 -0.8855 2.3159
11.9530 -0.5957 2.3159
11.9474 -0.3063 2.3159
11.9349 -0.0175 2.3159
11.9156 0.2706 2.3159
11.8893 0.5577 2.3159
11.8562 0.8437 2.3159
11.8163 1.1285 2.3159
11.7697 1.4119 2.3159
11.7164 1.6937 2.3159
11.6565 1.9738 2.3159
11.5900 2.2520 2.3159
11.5171 2.5282 2.3159
11.4376 2.8022 2.3159
11.3518 3.0739 2.3159
11.2597 3.3432 2.3159
11.1614 3.6099 2.3159
11.0570 3.8739 2.3159
10.9464 4.1350 2.3159
10.8299 4.3931 2.3159
10.7075 4.6481 2.3159
10.5792 4.8998 2.3159
10.4453 5.1481 2.3159
10.3057 5.3930 2.3159
10.1606 5.6342 2.3159
10.0100 5.8717 2.3159
9.8541 6.1054 2.3159
9.6929 6.3351 2.3159
9.5266 6.5607 2.3159
9.3552 6.7821 2.3159
9.1789 6.9993 2.3159
8.9978 7.2120 2.3159
8.8120 7.4203 2.3159
8.6216 7.6240 2.3159
8.4266 7.8231 2.3159
8.2273 8.0174 2.3159
8.0237 8.2068 2.3159
7.8160 8.3913 2.3159
7.6042 8.5708 2.3159
7.3885 8.7452 2.3159
7.1690 8.9144 2.3159
6.9458 9.0784 2.3159
6.7191 9.2371 2.3159
6.4395 9.3188 2.2982
6.2078 9.4655 2.2982
5.9729 9.6067 2.2982
5.7350 9.7424 2.2982
5.4942 9.8725 2.2982
5.2506 9.9969 2.2982
5.0043 10.1157 2.2982
4.7555 10.2286 2.2982
4.5043 10.3358 2.2982
4.2508 10.4371 2.2982
3.3969 8.9552 1.9540
3.7376 10.6220 2.2982
3.4780 10.7056 2.2982
3.2167 10.7831 2.2982
2.9538 10.8546 2.2982
2.6894 10.9200 2.2982
2.4596 11.1423 2.3323
2.2535 11.5282 2.4015
1.9734 11.5773 2.4015
1.6922 11.6201 2.4015
1.4101 11.6563 2.4015
1.1274 11.6862 2.4015
0.8441 11.7095 2.4015
0.5602 11.7263 2.4015
0.2761 11.7366 2.4015
-0.0081 11.7404 2.4015
-0.2925 11.7377 2.4015
-0.5766 11.7285 2.4015
-0.8606 11.7127 2.4015
-1.1442 11.6905 2.4015
-1.4272 11.6618 2.4015
-1.7096 11.6265 2.4015
-1.9911 11.5848 2.4015
-2.2717 11.5367 2.4015
-2.5512 11.4821 2.4015
-2.8295 11.4210 2.4015
-3.1064 11.3536 2.4015
-3.3818 11.2798 2.4015
-3.6556 11.1997 2.4015
-3.9276 11.1132 2.4015
-4.1976 11.0205 2.4015
-4.4656 10.9216 2.4015
-4.7314 10.8164 2.4015
-4.9948 10.7051 2.4015
-5.2558 10.5877 2.4015
-5.5142 10.4642 2.4015
-5.5856 10.0047 2.3248
-5.7703 9.7720 2.3009
-6.0030 9.6261 2.2984
-6.2390 9.4852 2.2984
-6.4719 9.3388 2.2984
-6.7015 9.1869 2.2984
-6.9277 9.0296 2.2984
-7.1504 8.8670 2.2984
-7.3695 8.6991 2.2984
-7.5848 8.5260 2.2984
-7.7962 8.3479 2.2984
-8.0036 8.1646 2.2984
-8.2069 7.9764 2.2984
-8.4060 7.7833 2.2984
-8.6007 7.5855 2.2984
-8.7909 7.3829 2.2984
-8.9766 7.1758 2.2984
-9.1575 6.9641 2.2984
-9.3337 6.7480 2.2984
-9.5049 6.5276 2.2984
-9.5417 6.2187 2.2676
-9.5399 5.8938 2.2301
-9.5382 5.5786 2.1949
-9.5365 5.2723 2.1619
-9.5348 4.9742 2.1310
-9.5332 4.6836 2.1021
-9.5316 4.4000 2.0751
-9.5300 4.1227 2.0499
-9.5285 3.8513 2.0264
-9.5270 3.5852 2.0045
-9.5256 3.3241 1.9841
-9.5241 3.0673 1.9652
-9.5227 2.8147 1.9477
-9.5214 2.5657 1.9316
-9.5101 2.3176 1.9148
-9.5087 2.0752 1.9014
-9.5074 1.8353 1.8891
-9.5345 1.6026 1.8837
-9.5834 1.3736 1.8837
-9.6270 1.1431 1.8837
-9.6650 0.9114 1.8837
-9.6975 0.6785 1.8837
-9.7244 0.4446 1.8837
-9.7457 0.2098 1.8837
-9.7614 -0.0258 1.8837
-9.7714 -0.2619 1.8837
-12.0475 -0.6145 2.3215
-12.0457 -0.9066 2.3215
-9.7670 -0.9728 1.8837
-9.7540 -1.2101 1.8837
-9.7352 -1.4473 1.8837
-9.7106 -1.6843 1.8837
-9.4977 -1.8848 1.8482
-11.8853 -2.6585 2.3215
-11.8335 -2.9487 2.3215
-11.7745 -3.2378 2.3215
-11.7084 -3.5259 2.3215
-11.6351 -3.8126 2.3215
-11.5548 -4.0977 2.3215
-11.4673 -4.3812 2.3215
-11.3727 -4.6627 2.3215
-11.2712 -4.9422 2.3215
-11.1626 -5.2194 2.3215
-11.0470 -5.4941 2.3215
-10.9246 -5.7662 2.3215
-10.7952 -6.0356 2.3215
-10.6591 -6.3019 2.3215
-10.5163 -6.5650 2.3215
-10.3668 -6.8248 2.3215
-10.2106 -7.0811 2.3215
-10.0480 -7.3336 2.3215
-9.8790 -7.5823 2.3215
-9.7036 -7.8269 2.3215
-8.8782 -7.5232 2.2984
-8.7026 -7.7428 2.2984
-8.5214 -7.9581 2.2984
-8.3347 -8.1690 2.2984
-8.1426 -8.3753 2.2984
-7.9452 -8.5768 2.2984
-7.7426 -8.7736 2.2984
-7.5350 -8.9653 2.2984
-7.3225 -9.1519 2.2984
-7.1052 -9.3331 2.2984
-6.8832 -9.5090 2.2984
-6.6567 -9.6793 2.2984
-6.4259 -9.8440 2.2984
-6.1907 -10.0029 2.2984
-5.9515 -10.1558 2.2984
-5.7084 -10.3028 2.2984
-5.4615 -10.4436 2.2984
-5.3847 -10.9309 2.3750
-5.1793 -11.1867 2.4015
-4.9104 -11.3140 2.4015
-4.6383 -11.4345 2.4015
-4.3632 -11.5481 2.4015
-4.0851 -11.6547 2.4015
-3.8043 -11.7542 2.4015
-3.5209 -11.8466 2.4015
-3.2353 -11.9318 2.4015
-2.9474 -12.0097 2.4015
-2.6576 -12.0802 2.4015
-2.3661 -12.1434 2.4015
-2.0729 -12.1991 2.4015
-1.7784 -12.2474 2.4015
-1.4828 -12.2881 2.4015
-1.1861 -12.3213 2.4015
-0.8887 -12.3470 2.4015
-0.5908 -12.3650 2.4015
-0.2924 -12.3754 2.4015
0.0060 -12.3783 2.4015
0.3045 -12.3735 2.4015
0.6027 -12.3611 2.4015
0.9004 -12.3412 2.4015
1.1976 -12.3136 2.4015
1.4938 -12.2786 2.4015
1.7890 -12.2359 2.4015
2.0830 -12.1859 2.4015
2.3755 -12.1283 2.4015
2.6663 -12.0633 2.4015
2.8283 -11.4755 2.2982
3.0878 -11.3439 2.2871
3.3754 -11.3162 2.2982
2.9110 -8.9639 1.8351
3.9133 -11.1295 2.2982
4.1784 -11.0261 2.2982
4.4406 -10.9160 2.2982
4.6998 -10.7993 2.2982
4.9558 -10.6762 2.2982
5.2085 -10.5468 2.2982
5.4577 -10.4110 2.2982
5.7032 -10.2691 2.2982
5.9449 -10.1212 2.2982
6.1826 -9.9673 2.2982
6.4162 -9.8076 2.2982
6.6455 -9.6421 2.2982
6.9231 -9.5437 2.3159
7.1452 -9.3659 2.3159
7.3625 -9.1827 2.3159
7.5750 -8.9942 2.3159
7.7825 -8.8006 2.3159
7.9850 -8.6020 2.3159
8.1822 -8.3987 2.3159
8.3741 -8.1906 2.3159
8.5606 -7.9781 2.3159
8.7415 -7.7611 2.3159
8.9168 -7.5399 2.3159
9.0864 -7.3147 2.3159
9.2501 -7.0855 2.3159
9.4080 -6.8526 2.3159
9.5598 -6.6161 2.3159
9.7056 -6.3761 2.3159
9.8452 -6.1328 2.3159
9.9787 -5.8865 2.3159
10.1058 -5.6372 2.3159
10.2267 -5.3851 2.3159
10.3412 -5.1304 2.3159
10.4492 -4.8733 2.3159
10.5508 -4.6139 2.3159
10.6458 -4.3524 2.3159
10.7343 -4.0889 2.3159
10.8163 -3.8237 2.3159
10.8916 -3.5569 2.3159
10.9603 -3.2886 2.3159
11.0224 -3.0191 2.3159
11.0778 -2.7485 2.3159
11.1265 -2.4769 2.3159
11.1686 -2.2046 2.3159
11.2040 -1.9316 2.3159
11.2327 -1.6582 2.3159
11.2548 -1.3846 2.3159
11.2702 -1.1108 2.3159
11.2790 -0.8371 2.3159
11.2813 -0.5636 2.3159
11.2769 -0.2905 2.3159
11.2659 -0.0179 2.3159
11.2484 0.2541 2.3159
11.2245 0.5251 2.3159
11.1941 0.7952 2.3159
11.1572 1.0642 2.3159
11.1140 1.3318 2.3159
11.0645 1.5981 2.3159
11.0087 1.8627 2.3159
10.9467 2.1256 2.3159
10.8785 2.3867 2.3159
10.8042 2.6457 2.3159
10.7239 2.9026 2.3159
10.6377 3.1572 2.3159
10.5455 3.4094 2.3159
10.4475 3.6590 2.3159
10.3437 3.9060 2.3159
10.2343 4.1501 2.3159
10.1192 4.3914 2.3159
9.9987 4.6296 2.3159
9.8727 4.8646 2.3159
9.7414 5.0964 2.3159
9.6047 5.3247 2.3159
9.4630 5.5495 2.3159
9.3161 5.7708 2.3159
9.1643 5.9883 2.3159
9.0075 6.2019 2.3159
8.8460 6.4117 2.3159
8.6798 6.6174 2.3159
8.5090 6.8189 2.3159
8.3337 7.0162 2.3159
8.1539 7.2093 2.3159
7.9700 7.3979 2.3159
7.7818 7.5820 2.3159
7.5896 7.7615 2.3159
7.3934 7.9364 2.3159
7.1934 8.1066 2.3159
6.9897 8.2719 2.3159
6.7823 8.4323 2.3159
6.5714 8.5878 2.3159
6.3087 8.6717 2.2982
6.0928 8.8160 2.2982
5.8738 8.9551 2.2982
5.6518 9.0890 2.2982
5.4268 9.2177 2.2982
5.1991 9.3411 2.2982
4.9687 9.4591 2.2982
4.7358 9.5717 2.2982
4.5005 9.6789 2.2982
4.2628 9.7805 2.2982
4.0230 9.8766 2.2982
3.3969 8.9543 2.0647
3.5374 10.0521 2.2982
3.2918 10.1313 2.2982
3.0446 10.2049 2.2982
2.7958 10.2727 2.2982
2.5455 10.3347 2.2982
2.3970 10.8579 2.4015
2.1330 10.9106 2.4015
1.8678 10.9572 2.4015
1.6017 10.9978 2.4015
1.3347 11.0322 2.4015
1.0671 11.0604 2.4015
0.7989 11.0825 2.4015
0.5303 11.0985 2.4015
0.2613 11.1082 2.4015
-0.0078 11.1118 2.4015
-0.2769 11.1092 2.4015
-0.5459 11.1004 2.4015
-0.8147 11.0854 2.4015
-1.0831 11.0643 2.4015
-1.3510 11.0369 2.4015
-1.6182 11.0035 2.4015
-1.8847 10.9638 2.4015
-2.1503 10.9181 2.4015
-2.4148 10.8662 2.4015
-2.6781 10.8082 2.4015
-2.9401 10.7442 2.4015
-3.2007 10.6741 2.4015
-3.4597 10.5980 2.4015
-3.7170 10.5160 2.4015
-3.9725 10.4280 2.4015
-4.2260 10.3340 2.4015
-4.4774 10.2342 2.4015
-4.7265 10.1285 2.4015
-4.9733 10.0171 2.4015
-5.2176 9.8999 2.4015
-5.4593 9.7771 2.4015
-5.5748 9.4396 2.3495
-5.6796 9.1060 2.2984
-5.9026 8.9724 2.2984
-6.1227 8.8335 2.2984
-6.3396 8.6894 2.2984
-6.5533 8.5403 2.2984
-6.7637 8.3861 2.2984
-6.9706 8.2268 2.2984
-7.1739 8.0628 2.2984
-7.3735 7.8938 2.2984
-7.5693 7.7201 2.2984
-7.7611 7.5418 2.2984
-7.9490 7.3588 2.2984
-8.1326 7.1713 2.2984
-8.3121 6.9794 2.2984
-8.4871 6.7831 2.2984
-8.6577 6.5826 2.2984
-8.8237 6.3780 2.2984
-8.9851 6.1693 2.2984
-9.1416 5.9566 2.2984
-9.2933 5.7401 2.2984
-9.4400 5.5198 2.2984
-9.5364 5.2709 2.2875
-9.5348 4.9728 2.2550
-9.5332 4.6823 2.2246
-9.5316 4.3987 2.1962
-9.5300 4.1214 2.1696
-9.5285 3.8500 2.1448
-9.5270 3.5840 2.1218
-9.5256 3.3228 2.1004
-9.5241 3.0661 2.0805
-9.5227 2.8135 2.0622
-9.5213 2.5645 2.0453
-9.5200 2.3188 2.0298
-9.5186 2.0761 2.0156
-9.5173 1.8361 2.0028
-9.5160 1.5983 1.9912
-9.5146 1.3625 1.9809
-9.5133 1.1284 1.9718
-9.5120 0.8958 1.9640
-9.5108 0.6643 1.9573
-9.5095 0.4336 1.9517
-9.5082 0.2035 1.9473
-9.5069 -0.0262 1.9441
-9.5056 -0.2560 1.9420
-9.5044 -0.4859 1.9410
-9.5031 -0.7164 1.9412
-9.5018 -0.9476 1.9425
-9.5005 -1.1798 1.9450
-9.4992 -1.4134 1.9486
-9.4979 -1.6486 1.9534
-9.4978 -1.8860 1.9597
-11.2083 -2.5084 2.3215
-11.1586 -2.7819 2.3215
-11.1022 -3.0544 2.3215
-11.0390 -3.3257 2.3215
-10.9692 -3.5958 2.3215
-10.8926 -3.8643 2.3215
-10.8094 -4.1312 2.3215
-10.7195 -4.3963 2.3215
-10.6230 -4.6594 2.3215
-10.5199 -4.9203 2.3215
-10.4103 -5.1789 2.3215
-10.2942 -5.4349 2.3215
-10.1717 -5.6883 2.3215
-10.0427 -5.9388 2.3215
-9.9075 -6.1863 2.3215
-9.7660 -6.4307 2.3215
-9.6183 -6.6717 2.3215
-9.3704 -6.8404 2.2984
-9.2122 -7.0719 2.2984
-9.0481 -7.2995 2.2984
-8.3875 -7.1087 2.2984
-8.2212 -7.3157 2.2984
-8.0496 -7.5188 2.2984
-7.8728 -7.7176 2.2984
-7.6910 -7.9121 2.2984
-7.5042 -8.1021 2.2984
-7.3125 -8.2875 2.2984
-7.1161 -8.4682 2.2984
-6.9151 -8.6440 2.2984
-6.7096 -8.8148 2.2984
-6.4998 -8.9805 2.2984
-6.2856 -9.1410 2.2984
-6.0674 -9.2962 2.2984
-5.8452 -9.4458 2.2984
-5.6192 -9.5899 2.2984
-5.4056 -9.7575 2.3053
-5.3874 -10.3033 2.4015
-5.1401 -10.4357 2.4015
-4.8894 -10.5620 2.4015
-4.6355 -10.6819 2.4015
-4.3786 -10.7953 2.4015
-4.1187 -10.9023 2.4015
-3.8561 -11.0027 2.4015
-3.5910 -11.0964 2.4015
-3.3235 -11.1834 2.4015
-3.0538 -11.2636 2.4015
-2.7820 -11.3369 2.4015
-2.5085 -11.4034 2.4015
-2.2333 -11.4629 2.4015
-1.9566 -11.5154 2.4015
-1.6786 -11.5608 2.4015
-1.3995 -11.5992 2.4015
-1.1196 -11.6305 2.4015
-0.8389 -11.6547 2.4015
-0.5576 -11.6717 2.4015
-0.2761 -11.6815 2.4015
0.0056 -11.6843 2.4015
0.2873 -11.6798 2.4015
0.5688 -11.6682 2.4015
0.8498 -11.6494 2.4015
1.1302 -11.6236 2.4015
1.4099 -11.5906 2.4015
1.6885 -11.5505 2.4015
1.9660 -11.5034 2.4015
2.2421 -11.4493 2.4015
2.5167 -11.3882 2.4015
2.6729 -10.8467 2.3010
2.9290 -10.7618 2.2982
3.1863 -10.6836 2.2982
2.9091 -8.9594 1.9427
3.1488 -8.9564 1.9589
3.9446 -10.4105 2.2982
4.1922 -10.3069 2.2982
4.4371 -10.1971 2.2982
4.6789 -10.0813 2.2982
4.9177 -9.9594 2.2982
5.1531 -9.8316 2.2982
5.3851 -9.6980 2.2982
5.6136 -9.5586 2.2982
5.8383 -9.4137 2.2982
6.0591 -9.2632 2.2982
6.2759 -9.1074 2.2982
6.4886 -8.9463 2.2982
6.7484 -8.8473 2.3159
6.9541 -8.6747 2.3159
7.1551 -8.4971 2.3159
7.3515 -8.3146 2.3159
7.5431 -8.1275 2.3159
7.7298 -7.9358 2.3159
7.9116 -7.7396 2.3159
8.0882 -7.5392 2.3159
8.2596 -7.3346 2.3159
8.4257 -7.1260 2.3159
8.5864 -6.9136 2.3159
8.7416 -6.6974 2.3159
8.8913 -6.4777 2.3159
9.0354 -6.2545 2.3159
9.1737 -6.0281 2.3159
9.3063 -5.7985 2.3159
9.4330 -5.5660 2.3159
9.5538 -5.3307 2.3159
9.6687 -5.0927 2.3159
9.7775 -4.8522 2.3159
9.8803 -4.6094 2.3159
9.9770 -4.3644 2.3159
10.0675 -4.1173 2.3159
10.1519 -3.8684 2.3159
10.2301 -3.6178 2.3159
10.3020 -3.3657 2.3159
10.3676 -3.1122 2.3159
10.4271 -2.8574 2.3159
10.4802 -2.6015 2.3159
10.5270 -2.3448 2.3159
10.5675 -2.0872 2.3159
10.6017 -1.8291 2.3159
10.6296 -1.5705 2.3159
10.6512 -1.3117 2.3159
10.6666 -1.0526 2.3159
10.6756 -0.7937 2.3159
10.6784 -0.5348 2.3159
10.6750 -0.2763 2.3159
10.6653 -0.0182 2.3159
10.6495 0.2392 2.3159
10.6275 0.4959 2.3159
10.5994 0.7517 2.3159
10.5652 1.0064 2.3159
10.5250 1.2600 2.3159
10.4787 1.5122 2.3159
10.4266 1.7629 2.3159
10.3685 2.0121 2.3159
10.3046 2.2595 2.3159
10.2349 2.5050 2.3159
10.1594 2.7485 2.3159
10.0783 2.9899 2.3159
9.9916 3.2290 2.3159
9.8993 3.4658 2.3159
9.8016 3.7000 2.3159
9.6985 3.9316 2.3159
9.5900 4.1605 2.3159
9.4763 4.3864 2.3159
9.3574 4.6095 2.3159
9.2334 4.8294 2.3159
9.1044 5.0461 2.3159
8.9705 5.2595 2.3159
8.8318 5.4695 2.3159
8.6882 5.6760 2.3159
8.5401 5.8788 2.3159
8.3874 6.0780 2.3159
8.2302 6.2733 2.3159
8.0686 6.4648 2.3159
7.9027 6.6522 2.3159
7.7326 6.8356 2.3159
7.5585 7.0147 2.3159
7.3804 7.1897 2.3159
7.1984 7.3603 2.3159
7.0126 7.5264 2.3159
6.8232 7.6881 2.3159
6.6301 7.8452 2.3159
6.3847 7.9368 2.2982
6.1864 8.0835 2.2982
5.9849 8.2254 2.2982
5.7802 8.3625 2.2982
5.5726 8.4947 2.2982
5.3621 8.6221 2.2982
5.1489 8.7444 2.2982
4.9330 8.8617 2.2982
4.7145 8.9739 2.2982
4.4936 9.0810 2.2982
4.2704 9.1829 2.2982
4.0450 9.2796 2.2982
3.8175 9.3710 2.2982
3.3970 8.9533 2.1758
3.3568 9.5378 2.2982
3.1238 9.6132 2.2982
2.8892 9.6831 2.2982
2.6531 9.7476 2.2982
2.4665 10.0129 2.3466
2.2748 10.3032 2.4015
2.0242 10.3533 2.4015
1.7726 10.3976 2.4015
1.5200 10.4362 2.4015
1.2667 10.4689 2.4015
1.0127 10.4958 2.4015
0.7581 10.5168 2.4015
0.5032 10.5319 2.4015
0.2479 10.5411 2.4015
-0.0074 10.5445 2.4015
-0.2629 10.5420 2.4015
-0.5181 10.5336 2.4015
-0.7732 10.5193 2.4015
-1.0280 10.4991 2.4015
-1.2822 10.4731 2.4015
-1.5358 10.4412 2.4015
-1.7886 10.4035 2.4015
-2.0406 10.3599 2.4015
-2.2916 10.3105 2.4015
-2.5415 10.2554 2.4015
-2.7901 10.1944 2.4015
-3.0373 10.1277 2.4015
-3.2830 10.0553 2.4015
-3.5271 9.9772 2.4015
-3.7694 9.8934 2.4015
-4.0099 9.8041 2.4015
-4.2483 9.7091 2.4015
-4.4846 9.6086 2.4015
-4.7186 9.5026 2.4015
-4.9502 9.3911 2.4015
-5.1794 9.2742 2.4015
-5.4058 9.1520 2.4015
-5.5701 8.9290 2.3761
-5.5993 8.5100 2.2984
-5.8079 8.3779 2.2984
-6.0134 8.2410 2.2984
-6.2159 8.0992 2.2984
-6.4151 7.9526 2.2984
-6.6111 7.8013 2.2984
-6.8036 7.6453 2.2984
-6.9926 7.4848 2.2984
-7.1780 7.3197 2.2984
-7.3596 7.1502 2.2984
-7.5373 6.9764 2.2984
-7.7111 6.7983 2.2984
-7.8808 6.6160 2.2984
-8.0464 6.4296 2.2984
-8.2077 6.2392 2.2984
-8.3647 6.0448 2.2984
-8.5172 5.8467 2.2984
-8.6651 5.6448 2.2984
-8.8084 5.4392 2.2984
-8.9470 5.2302 2.2984
-9.0807 5.0177 2.2984
-9.2095 4.8018 2.2984
-9.3333 4.5828 2.2984
-9.4520 4.3606 2.2984
-9.5300 4.1201 2.2898
-9.5285 3.8487 2.2638
-9.5270 3.5827 2.2397
-9.5256 3.3215 2.2172
-9.5241 3.0649 2.1964
-9.5227 2.8122 2.1771
-9.5213 2.5633 2.1594
-9.5200 2.3176 2.1432
-9.5186 2.0749 2.1284
-9.5173 1.8349 2.1150
-9.5160 1.5971 2.1029
-9.5146 1.3613 2.0922
-9.5133 1.1273 2.0827
-9.5120 0.8946 2.0745
-9.5108 0.6631 2.0676
-9.5095 0.4324 2.0619
-9.5082 0.2024 2.0574
-9.5069 -0.0274 2.0541
-9.5056 -0.2571 2.0520
-9.5043 -0.4871 2.0511
-9.5031 -0.7175 2.0515
-9.5018 -0.9488 2.0530
-9.5005 -1.1810 2.0557
-9.4992 -1.4146 2.0597
-9.4979 -1.6498 2.0649
-9.4979 -1.8872 2.0717
-10.6016 -2.3740 2.3215
-10.5540 -2.6325 2.3215
-10.4999 -2.8900 2.3215
-10.4395 -3.1464 2.3215
-10.3727 -3.4016 2.3215
-10.2997 -3.6553 2.3215
-10.2203 -3.9074 2.3215
-10.1347 -4.1578 2.3215
-10.0428 -4.4062 2.3215
-9.9448 -4.6526 2.3215
-9.8405 -4.8967 2.3215
-9.7302 -5.1385 2.3215
-9.6138 -5.3776 2.3215
-9.3970 -5.5583 2.2984
-9.2699 -5.7895 2.2984
-9.1370 -6.0178 2.2984
-8.9983 -6.2429 2.2984
-8.8539 -6.4647 2.2984
-8.7040 -6.6830 2.2984
-8.5485 -6.8977 2.2984
-7.9462 -6.7359 2.2984
-7.7882 -6.9317 2.2984
-7.6254 -7.1237 2.2984
-7.4576 -7.3117 2.2984
-7.2850 -7.4957 2.2984
-7.1078 -7.6753 2.2984
-6.9260 -7.8506 2.2984
-6.7397 -8.0214 2.2984
-6.5491 -8.1876 2.2984
-6.3542 -8.3491 2.2984
-6.1552 -8.5057 2.2984
-5.9523 -8.6574 2.2984
-5.7454 -8.8040 2.2984
-5.5348 -8.9454 2.2984
-5.4039 -9.2237 2.3343
-5.3318 -9.6256 2.4015
-5.1009 -9.7565 2.4015
-4.8666 -9.8817 2.4015
-4.6291 -10.0009 2.4015
-4.3886 -10.1142 2.4015
-4.1453 -10.2214 2.4015
-3.8992 -10.3224 2.4015
-3.6505 -10.4172 2.4015
-3.3995 -10.5058 2.4015
-3.1462 -10.5879 2.4015
-2.8908 -10.6637 2.4015
-2.6336 -10.7330 2.4015
-2.3746 -10.7958 2.4015
-2.1140 -10.8520 2.4015
-1.8521 -10.9016 2.4015
-1.5890 -10.9445 2.4015
-1.3248 -10.9808 2.4015
-1.0598 -11.0104 2.4015
-0.7941 -11.0332 2.4015
-0.5279 -11.0493 2.4015
-0.2614 -11.0586 2.4015
0.0053 -11.0612 2.4015
0.2719 -11.0571 2.4015
0.5383 -11.0461 2.4015
0.8043 -11.0285 2.4015
1.0698 -11.0041 2.4015
1.3345 -10.9730 2.4015
1.5983 -10.9352 2.4015
1.8610 -10.8907 2.4015
2.1224 -10.8397 2.4015
2.3824 -10.7820 2.4015
2.6407 -10.7178 2.4015
2.7727 -10.1894 2.2982
3.0164 -10.1155 2.2982
2.9071 -8.9548 2.0507
3.1467 -8.9518 2.0677
3.7346 -9.8578 2.2982
3.9691 -9.7599 2.2982
4.2011 -9.6562 2.2982
4.4302 -9.5468 2.2982
4.6564 -9.4317 2.2982
4.8795 -9.3110 2.2982
5.0994 -9.1848 2.2982
5.3159 -9.0532 2.2982
5.5289 -8.9162 2.2982
5.7382 -8.7741 2.2982
5.9438 -8.6268 2.2982
6.1455 -8.4746 2.2982
6.3432 -8.3174 2.2982
6.5367 -8.1555 2.2982
6.7776 -8.0501 2.3159
6.9640 -7.8777 2.3159
7.1458 -7.7007 2.3159
7.3230 -7.5195 2.3159
7.4955 -7.3340 2.3159
7.6632 -7.1445 2.3159
7.8260 -6.9510 2.3159
7.9838 -6.7537 2.3159
8.1365 -6.5527 2.3159
8.2841 -6.3482 2.3159
8.4264 -6.1403 2.3159
8.5633 -5.9291 2.3159
8.6949 -5.7148 2.3159
8.8211 -5.4975 2.3159
8.9417 -5.2774 2.3159
9.0567 -5.0546 2.3159
9.1661 -4.8292 2.3159
9.2698 -4.6015 2.3159
9.3678 -4.3716 2.3159
9.4600 -4.1395 2.3159
9.5464 -3.9055 2.3159
9.6270 -3.6697 2.3159
9.7017 -3.4323 2.3159
9.7705 -3.1933 2.3159
9.8334 -2.9531 2.3159
9.8903 -2.7116 2.3159
9.9413 -2.4690 2.3159
9.9863 -2.2256 2.3159
10.0254 -1.9814 2.3159
10.0584 -1.7366 2.3159
10.0855 -1.4914 2.3159
10.1066 -1.2459 2.3159
10.1218 -1.0001 2.3159
10.1310 -0.7544 2.3159
10.1343 -0.5088 2.3159
10.1316 -0.2635 2.3159
10.1230 -0.0186 2.3159
10.1086 0.2258 2.3159
10.0884 0.4695 2.3159
10.0623 0.7124 2.3159
10.0304 0.9542 2.3159
9.9928 1.1950 2.3159
9.9495 1.4346 2.3159
9.9005 1.6727 2.3159
9.8460 1.9094 2.3159
9.7858 2.1445 2.3159
9.7202 2.3778 2.3159
9.6490 2.6092 2.3159
9.5725 2.8386 2.3159
9.4907 3.0659 2.3159
9.4036 3.2910 2.3159
9.3112 3.5137 2.3159
9.2137 3.7339 2.3159
9.1112 3.9515 2.3159
9.0036 4.1664 2.3159
8.8911 4.3786 2.3159
8.7737 4.5877 2.3159
8.6516 4.7939 2.3159
8.5247 4.9970 2.3159
8.3933 5.1968 2.3159
8.2573 5.3933 2.3159
8.1168 5.5863 2.3159
7.9720 5.7758 2.3159
7.8230 5.9618 2.3159
7.6697 6.1440 2.3159
7.5123 6.3224 2.3159
7.3510 6.4970 2.3159
7.1857 6.6676 2.3159
7.0167 6.8342 2.3159
6.8439 6.9966 2.3159
6.6675 7.1549 2.3159
6.4382 7.2533 2.2982
6.2563 7.4018 2.2982
6.0711 7.5459 2.2982
5.8827 7.6856 2.2982
5.6913 7.8208 2.2982
5.4969 7.9514 2.2982
5.2996 8.0774 2.2982
5.0995 8.1987 2.2982
4.8968 8.3153 2.2982
4.6916 8.4271 2.2982
4.4839 8.5340 2.2982
4.2739 8.6361 2.2982
4.0617 8.7332 2.2982
3.8474 8.8253 2.2982
3.6311 8.9124 2.2982
3.3970 8.9524 2.2875
3.1930 9.0714 2.2982
2.9714 9.1432 2.2982
2.7483 9.2099 2.2982
2.5238 9.2714 2.2982
2.4012 9.7467 2.4015
2.1639 9.8000 2.4015
1.9256 9.8478 2.4015
1.6862 9.8900 2.4015
1.4460 9.9267 2.4015
1.2050 9.9579 2.4015
0.9633 9.9835 2.4015
0.7212 10.0035 2.4015
0.4786 10.0179 2.4015
0.2358 10.0267 2.4015
-0.0071 10.0298 2.4015
-0.2501 10.0274 2.4015
-0.4930 10.0194 2.4015
-0.7356 10.0057 2.4015
-0.9779 9.9865 2.4015
-1.2198 9.9616 2.4015
-1.4610 9.9312 2.4015
-1.7015 9.8952 2.4015
-1.9412 9.8536 2.4015
-2.1799 9.8065 2.4015
-2.4176 9.7539 2.4015
-2.6540 9.6957 2.4015
-2.8891 9.6321 2.4015
-3.1228 9.5631 2.4015
-3.3549 9.4886 2.4015
-3.5853 9.4087 2.4015
-3.8139 9.3235 2.4015
-4.0406 9.2329 2.4015
-4.2652 9.1371 2.4015
-4.4876 9.0361 2.4015
-4.7078 8.9298 2.4015
-4.9255 8.8184 2.4015
-5.1408 8.7019 2.4015
-5.3534 8.5804 2.4015
-5.5633 8.4538 2.4015
