ply
format ascii 1.0
element vertex 2173
property float32 x
property float32 y
property float32 z
end_header
-6.1091 0.5699 2.2989
-6.1248 0.4224 2.2989
-6.1369 0.2744 2.2989
-6.1455 0.1260 2.2989
-6.1504 -0.0225 2.2989
-6.1518 -0.1713 2.2989
-6.1496 -0.3200 2.2989
-6.1438 -0.4688 2.2989
-6.1344 -0.6175 2.2989
-6.1214 -0.7660 2.2989
-6.1048 -0.9141 2.2989
-6.0846 -1.0620 2.2989
-6.0608 -1.2094 2.2989
-6.0334 -1.3562 2.2989
-6.0025 -1.5024 2.2989
-5.9680 -1.6479 2.2989
-5.9300 -1.7926 2.2989
-5.8885 -1.9363 2.2989
-5.8434 -2.0792 2.2989
-5.7949 -2.2209 2.2989
-5.7429 -2.3615 2.2989
-5.6875 -2.5008 2.2989
-5.6286 -2.6389 2.2989
-5.5664 -2.7755 2.2989
-5.5009 -2.9106 2.2989
-5.4320 -3.0442 2.2989
-5.4105 -3.2061 2.3207
-5.4034 -3.3806 2.3506
-5.4027 -3.5644 2.3858
-5.3540 -3.7208 2.4020
-5.2654 -3.8508 2.4020
-5.1736 -3.9787 2.4020
-5.0787 -4.1044 2.4020
-4.8149 -4.0877 2.4020
-4.7171 -4.2046 2.4020
-4.6165 -4.3191 2.4020
-4.5130 -4.4311 2.4020
-4.4068 -4.5407 2.4020
-4.2979 -4.6476 2.4020
-4.1863 -4.7518 2.4020
-4.0722 -4.8534 2.4020
-3.9556 -4.9521 2.4020
-3.8366 -5.0480 2.4020
-3.7152 -5.1409 2.4020
-3.5915 -5.2309 2.4020
-3.4656 -5.3178 2.4020
-3.3376 -5.4017 2.4020
-3.2075 -5.4823 2.4020
-3.0754 -5.5598 2.4020
-2.9414 -5.6340 2.4020
-2.8056 -5.7050 2.4020
-2.6681 -5.7725 2.4020
-2.5289 -5.8367 2.4020
-2.3881 -5.8974 2.4020
-2.2459 -5.9547 2.4020
-2.1023 -6.0085 2.4020
-1.9573 -6.0587 2.4020
-1.8111 -6.1053 2.4020
-1.6638 -6.1483 2.4020
-1.5155 -6.1877 2.4020
-1.3662 -6.2234 2.4020
-1.2161 -6.2554 2.4020
-1.0652 -6.2838 2.4020
-0.9136 -6.3083 2.4020
-0.7614 -6.3292 2.4020
-0.6088 -6.3462 2.4020
-0.4558 -6.3595 2.4020
-0.3025 -6.3691 2.4020
-0.1490 -6.3748 2.4020
0.0046 -6.3768 2.4020
0.1582 -6.3749 2.4020
0.3117 -6.3693 2.4020
0.4651 -6.3598 2.4020
0.6181 -6.3466 2.4020
0.7708 -6.3296 2.4020
0.9230 -6.3089 2.4020
1.0746 -6.2844 2.4020
1.2256 -6.2561 2.4020
1.3758 -6.2242 2.4020
1.5252 -6.1886 2.4020
1.6736 -6.1492 2.4020
1.8210 -6.1063 2.4020
1.9673 -6.0597 2.4020
2.1123 -6.0095 2.4020
2.2561 -5.9558 2.4020
2.3984 -5.8986 2.4020
2.5393 -5.8379 2.4020
2.6509 -5.7140 2.3772
2.6952 -5.4608 2.2988
2.8253 -5.3930 2.2988
2.9537 -5.3219 2.2988
3.0802 -5.2478 2.2988
3.2048 -5.1705 2.2988
3.3275 -5.0903 2.2988
3.4481 -5.0070 2.2988
3.5666 -4.9209 2.2988
3.6829 -4.8318 2.2988
3.7970 -4.7400 2.2988
3.9087 -4.6455 2.2988
4.0181 -4.5482 2.2988
4.1250 -4.4483 2.2988
4.2293 -4.3459 2.2988
4.3311 -4.2409 2.2988
4.4303 -4.1336 2.2988
4.5267 -4.0238 2.2988
3.0082 -2.5469 1.4967
4.7113 -3.7976 2.2988
4.7993 -3.6812 2.2988
4.8844 -3.5627 2.2988
4.9666 -3.4423 2.2988
5.0457 -3.3199 2.2988
5.1218 -3.1957 2.2988
5.1948 -3.0697 2.2988
5.2647 -2.9420 2.2988
5.3314 -2.8127 2.2988
5.3949 -2.6818 2.2988
5.4552 -2.5495 2.2988
5.5122 -2.4159 2.2988
5.5659 -2.2809 2.2988
5.6163 -2.1448 2.2988
5.6633 -2.0075 2.2988
5.7069 -1.8692 2.2988
5.7472 -1.7300 2.2988
5.7840 -1.5898 2.2988
5.8174 -1.4489 2.2988
5.8473 -1.3073 2.2988
5.8738 -1.1651 2.2988
5.8968 -1.0223 2.2988
5.9163 -0.8791 2.2988
5.9324 -0.7356 2.2988
2.9461 -0.2932 1.1392
2.9521 -0.2220 1.1398
5.9595 -0.3036 2.2988
5.9616 -0.1594 2.2988
5.9602 -0.0153 2.2988
5.9553 0.1286 2.2988
5.9469 0.2723 2.2988
5.9351 0.4157 2.2988
5.9198 0.5586 2.2988
5.9011 0.7011 2.2988
5.8790 0.8431 2.2988
5.8535 0.9843 2.2988
5.8246 1.1249 2.2988
5.7923 1.2646 2.2988
5.7567 1.4035 2.2988
5.7178 1.5414 2.2988
5.6756 1.6783 2.2988
5.6302 1.8140 2.2988
5.5815 1.9485 2.2988
5.5296 2.0818 2.2988
5.4746 2.2137 2.2988
5.4165 2.3442 2.2988
5.3553 2.4732 2.2988
5.2910 2.6006 2.2988
5.2237 2.7264 2.2988
5.1535 2.8505 2.2988
5.0804 2.9728 2.2988
5.0044 3.0933 2.2988
4.9256 3.2119 2.2988
4.8440 3.3285 2.2988
4.7596 3.4431 2.2988
4.6726 3.5556 2.2988
4.5830 3.6659 2.2988
4.4908 3.7740 2.2988
4.3961 3.8798 2.2988
4.2989 3.9834 2.2988
4.1994 4.0845 2.2988
4.0975 4.1832 2.2988
3.9933 4.2794 2.2988
3.8869 4.3730 2.2988
3.7783 4.4641 2.2988
3.6676 4.5525 2.2988
3.5549 4.6383 2.2988
3.4403 4.7213 2.2988
3.3237 4.8015 2.2988
3.2053 4.8789 2.2988
3.0851 4.9535 2.2988
2.9633 5.0252 2.2988
2.8398 5.0939 2.2988
2.7147 5.1597 2.2988
2.6177 5.2822 2.3251
2.5706 5.5195 2.4020
2.4355 5.5787 2.4020
2.2990 5.6347 2.4020
2.1613 5.6874 2.4020
2.0224 5.7368 2.4020
1.8823 5.7829 2.4020
1.7413 5.8257 2.4020
1.5993 5.8651 2.4020
1.4564 5.9012 2.4020
1.3127 5.9338 2.4020
1.1684 5.9630 2.4020
1.0233 5.9888 2.4020
0.8778 6.0112 2.4020
0.7317 6.0301 2.4020
0.5853 6.0455 2.4020
0.4385 6.0575 2.4020
0.2915 6.0660 2.4020
0.1444 6.0710 2.4020
-0.0028 6.0725 2.4020
-0.1500 6.0706 2.4020
-0.2971 6.0651 2.4020
-0.4441 6.0562 2.4020
-0.5908 6.0438 2.4020
-0.7371 6.0280 2.4020
-0.8831 6.0087 2.4020
-1.0286 5.9859 2.4020
-1.1735 5.9597 2.4020
-1.3177 5.9300 2.4020
-1.4612 5.8970 2.4020
-1.6039 5.8606 2.4020
-1.7457 5.8208 2.4020
-1.8866 5.7776 2.4020
-2.0264 5.7311 2.4020
-2.1651 5.6813 2.4020
-2.3026 5.6283 2.4020
-2.4388 5.5719 2.4020
-2.5737 5.5124 2.4020
-2.7072 5.4497 2.4020
-2.8391 5.3838 2.4020
-2.9695 5.3147 2.4020
-3.0983 5.2426 2.4020
-3.2253 5.1675 2.4020
-3.3506 5.0893 2.4020
-3.4740 5.0081 2.4020
-3.5954 4.9241 2.4020
-3.7149 4.8371 2.4020
-3.8323 4.7473 2.4020
-3.9476 4.6547 2.4020
-4.0606 4.5594 2.4020
-4.1714 4.4613 2.4020
-4.2799 4.3607 2.4020
-4.3860 4.2574 2.4020
-4.4897 4.1516 2.4020
-4.5908 4.0434 2.4020
-4.6894 3.9327 2.4020
-4.7853 3.8197 2.4020
-4.8786 3.7043 2.4020
-4.9691 3.5867 2.4020
-5.0568 3.4670 2.4020
-5.1417 3.3451 2.4020
-5.2237 3.2212 2.4020
-5.3027 3.0954 2.4020
-5.3787 2.9676 2.4020
-5.4255 2.8243 2.3905
-5.4249 2.6592 2.3600
-5.4280 2.4997 2.3331
-5.4331 2.3443 2.3090
-5.4673 2.2037 2.2989
-5.5219 2.0719 2.2989
-5.5735 1.9388 2.2989
-5.6218 1.8044 2.2989
-5.6670 1.6688 2.2989
-5.7089 1.5321 2.2989
-5.7475 1.3944 2.2989
-5.7828 1.2557 2.2989
-5.8148 1.1161 2.2989
-5.8434 0.9758 2.2989
-5.8687 0.8347 2.2989
-5.8906 0.6929 2.2989
-5.9091 0.5507 2.2989
-5.9241 0.4079 2.2989
-5.9357 0.2648 2.2989
-5.9439 0.1213 2.2989
-5.9486 -0.0224 2.2989
-5.9498 -0.1662 2.2989
-5.9476 -0.3101 2.2989
-5.9419 -0.4540 2.2989
-5.9327 -0.5978 2.2989
-5.9200 -0.7414 2.2989
-5.9038 -0.8847 2.2989
-5.8842 -1.0276 2.2989
-5.8611 -1.1701 2.2989
-5.8345 -1.3121 2.2989
-5.8045 -1.4535 2.2989
-5.7711 -1.5941 2.2989
-5.7342 -1.7340 2.2989
-5.6940 -1.8730 2.2989
-5.6503 -2.0111 2.2989
-5.6033 -2.1481 2.2989
-5.5529 -2.2840 2.2989
-5.4992 -2.4187 2.2989
-5.4422 -2.5521 2.2989
-5.4142 -2.7002 2.3127
-5.4079 -2.8621 2.3375
-5.4046 -3.0295 2.3658
-5.4040 -3.2029 2.3974
-5.3382 -3.3405 2.4020
-5.2588 -3.4701 2.4020
-5.1762 -3.5978 2.4020
-5.0904 -3.7235 2.4020
-5.0016 -3.8471 2.4020
-4.9097 -3.9685 2.4020
-4.6585 -3.9556 2.4020
-4.5638 -4.0687 2.4020
-4.4664 -4.1794 2.4020
-4.3663 -4.2877 2.4020
-4.2634 -4.3936 2.4020
-4.1580 -4.4970 2.4020
-4.0500 -4.5978 2.4020
-3.9396 -4.6960 2.4020
-3.8267 -4.7915 2.4020
-3.7116 -4.8842 2.4020
-3.5941 -4.9740 2.4020
-3.4744 -5.0610 2.4020
-3.3526 -5.1451 2.4020
-3.2287 -5.2261 2.4020
-3.1028 -5.3041 2.4020
-2.9750 -5.3790 2.4020
-2.8454 -5.4508 2.4020
-2.7140 -5.5193 2.4020
-2.5809 -5.5846 2.4020
-2.4463 -5.6467 2.4020
-2.3101 -5.7054 2.4020
-2.1725 -5.7608 2.4020
-2.0335 -5.8127 2.4020
-1.8933 -5.8613 2.4020
-1.7519 -5.9063 2.4020
-1.6094 -5.9479 2.4020
-1.4659 -5.9860 2.4020
-1.3215 -6.0205 2.4020
-1.1763 -6.0514 2.4020
-1.0303 -6.0788 2.4020
-0.8837 -6.1026 2.4020
-0.7365 -6.1227 2.4020
-0.5889 -6.1392 2.4020
-0.4408 -6.1520 2.4020
-0.2926 -6.1612 2.4020
-0.1441 -6.1668 2.4020
0.0045 -6.1687 2.4020
0.1531 -6.1669 2.4020
0.3016 -6.1614 2.4020
0.4499 -6.1523 2.4020
0.5979 -6.1395 2.4020
0.7456 -6.1231 2.4020
0.8928 -6.1030 2.4020
1.0395 -6.0793 2.4020
1.1855 -6.0520 2.4020
1.3308 -6.0212 2.4020
1.4753 -5.9867 2.4020
1.6189 -5.9487 2.4020
1.7614 -5.9072 2.4020
1.9029 -5.8621 2.4020
2.0433 -5.8136 2.4020
2.1823 -5.7617 2.4020
2.3200 -5.7064 2.4020
2.4563 -5.6477 2.4020
2.5911 -5.5856 2.4020
2.6523 -5.3745 2.3386
2.7330 -5.2174 2.2988
2.8616 -5.1566 2.3023
2.9796 -5.0770 2.2988
3.1002 -5.0023 2.2988
3.2189 -4.9247 2.2988
3.3356 -4.8443 2.2988
3.4503 -4.7610 2.2988
3.5629 -4.6749 2.2988
3.6732 -4.5861 2.2988
3.7814 -4.4947 2.2988
3.8872 -4.4006 2.2988
3.9907 -4.3040 2.2988
4.0917 -4.2050 2.2988
4.1902 -4.1035 2.2988
4.2861 -3.9997 2.2988
4.3795 -3.8936 2.2988
3.0083 -2.5473 1.5470
4.5582 -3.6748 2.2988
4.6434 -3.5622 2.2988
4.7258 -3.4476 2.2988
4.8054 -3.3311 2.2988
4.8820 -3.2128 2.2988
4.9557 -3.0926 2.2988
5.0264 -2.9707 2.2988
5.0941 -2.8472 2.2988
5.1587 -2.7222 2.2988
5.2203 -2.5956 2.2988
5.2787 -2.4676 2.2988
5.3339 -2.3383 2.2988
5.3859 -2.2078 2.2988
5.4348 -2.0761 2.2988
5.4803 -1.9433 2.2988
5.5226 -1.8095 2.2988
5.5617 -1.6747 2.2988
5.5974 -1.5391 2.2988
5.6298 -1.4028 2.2988
5.6589 -1.2658 2.2988
5.6846 -1.1281 2.2988
5.7069 -0.9900 2.2988
5.7259 -0.8514 2.2988
5.7415 -0.7125 2.2988
2.9460 -0.2935 1.1770
2.9518 -0.2223 1.1775
5.7681 -0.2944 2.2988
5.7702 -0.1549 2.2988
5.7690 -0.0155 2.2988
5.7643 0.1239 2.2988
5.7563 0.2630 2.2988
5.7450 0.4017 2.2988
5.7303 0.5401 2.2988
5.7123 0.6781 2.2988
5.6910 0.8155 2.2988
5.6663 0.9523 2.2988
5.6384 1.0883 2.2988
5.6073 1.2237 2.2988
5.5729 1.3581 2.2988
5.5353 1.4916 2.2988
5.4946 1.6241 2.2988
5.4507 1.7555 2.2988
5.4036 1.8858 2.2988
5.3535 2.0148 2.2988
5.3003 2.1426 2.2988
5.2441 2.2690 2.2988
5.1849 2.3939 2.2988
5.1228 2.5173 2.2988
5.0577 2.6391 2.2988
4.9898 2.7593 2.2988
4.9191 2.8778 2.2988
4.8456 2.9945 2.2988
4.7693 3.1094 2.2988
4.6904 3.2223 2.2988
4.6088 3.3333 2.2988
4.5246 3.4423 2.2988
4.4379 3.5492 2.2988
4.3486 3.6539 2.2988
4.2570 3.7564 2.2988
4.1630 3.8567 2.2988
4.0666 3.9547 2.2988
3.9680 4.0503 2.2988
3.8671 4.1435 2.2988
3.7641 4.2343 2.2988
3.6590 4.3225 2.2988
3.5519 4.4082 2.2988
3.4428 4.4913 2.2988
3.3318 4.5717 2.2988
3.2189 4.6495 2.2988
3.1043 4.7245 2.2988
2.9879 4.7968 2.2988
2.8699 4.8662 2.2988
2.7503 4.9328 2.2988
2.6292 4.9966 2.2988
2.6117 5.2694 2.3951
2.4897 5.3451 2.4020
2.3589 5.4025 2.4020
2.2267 5.4567 2.4020
2.0933 5.5078 2.4020
1.9588 5.5557 2.4020
1.8232 5.6004 2.4020
1.6865 5.6419 2.4020
1.5490 5.6801 2.4020
1.4106 5.7150 2.4020
1.2715 5.7467 2.4020
1.1317 5.7750 2.4020
0.9912 5.8000 2.4020
0.8502 5.8217 2.4020
0.7088 5.8400 2.4020
0.5669 5.8550 2.4020
0.4248 5.8666 2.4020
0.2824 5.8748 2.4020
0.1399 5.8797 2.4020
-0.0027 5.8811 2.4020
-0.1453 5.8793 2.4020
-0.2878 5.8740 2.4020
-0.4301 5.8653 2.4020
-0.5722 5.8533 2.4020
-0.7139 5.8380 2.4020
-0.8553 5.8193 2.4020
-0.9962 5.7972 2.4020
-1.1366 5.7718 2.4020
-1.2763 5.7431 2.4020
-1.4153 5.7111 2.4020
-1.5535 5.6758 2.4020
-1.6908 5.6372 2.4020
-1.8273 5.5954 2.4020
-1.9627 5.5503 2.4020
-2.0970 5.5021 2.4020
-2.2302 5.4506 2.4020
-2.3621 5.3960 2.4020
-2.4927 5.3383 2.4020
-2.6220 5.2775 2.4020
-2.7498 5.2137 2.4020
-2.8760 5.1468 2.4020
-3.0007 5.0769 2.4020
-3.1237 5.0041 2.4020
-3.2450 4.9283 2.4020
-3.3645 4.8497 2.4020
-3.4821 4.7682 2.4020
-3.5977 4.6840 2.4020
-3.7114 4.5970 2.4020
-3.8230 4.5072 2.4020
-3.9325 4.4149 2.4020
-4.0397 4.3199 2.4020
-4.1447 4.2224 2.4020
-4.2475 4.1223 2.4020
-4.3478 4.0198 2.4020
-4.4457 3.9149 2.4020
-4.5411 3.8077 2.4020
-4.6339 3.6982 2.4020
-4.7242 3.5865 2.4020
-4.8118 3.4726 2.4020
-4.8966 3.3566 2.4020
-4.9788 3.2385 2.4020
-5.0581 3.1185 2.4020
-5.1345 2.9966 2.4020
-5.2081 2.8728 2.4020
-5.2787 2.7473 2.4020
-5.3463 2.6200 2.4020
-5.4109 2.4911 2.4020
-5.4238 2.3397 2.3807
-5.4233 2.1854 2.3553
-5.4263 2.0355 2.3334
-5.4304 1.8884 2.3135
-5.4428 1.7463 2.2989
-5.4865 1.6151 2.2989
-5.5269 1.4827 2.2989
-5.5642 1.3493 2.2989
-5.6115 1.2179 2.3043
-5.6292 1.0799 2.2989
-5.6569 0.9440 2.2989
-5.6812 0.8074 2.2989
-5.7023 0.6702 2.2989
-5.7201 0.5325 2.2989
-5.7346 0.3942 2.2989
-5.7457 0.2557 2.2989
-5.7535 0.1168 2.2989
-5.7580 -0.0223 2.2989
-5.7591 -0.1615 2.2989
-5.7568 -0.3008 2.2989
-5.7512 -0.4401 2.2989
-5.7422 -0.5792 2.2989
-5.7298 -0.7182 2.2989
-5.7141 -0.8569 2.2989
-5.6950 -0.9952 2.2989
-5.6726 -1.1331 2.2989
-5.6468 -1.2705 2.2989
-5.6176 -1.4073 2.2989
-5.6013 -1.5478 2.3056
-5.5494 -1.6787 2.2989
-5.5103 -1.8132 2.2989
-5.4680 -1.9468 2.2989
-5.4224 -2.0794 2.2989
-5.4150 -2.2279 2.3166
-5.4097 -2.3800 2.3370
-5.4064 -2.5359 2.3601
-5.4058 -2.6967 2.3863
-5.3773 -2.8465 2.4020
-5.3098 -2.9770 2.4020
-5.2391 -3.1058 2.4020
-5.1653 -3.2330 2.4020
-5.0883 -3.3583 2.4020
-5.0083 -3.4818 2.4020
-4.9253 -3.6034 2.4020
-4.8393 -3.7229 2.4020
-4.7503 -3.8403 2.4020
-4.5107 -3.8308 2.4020
-4.4190 -3.9402 2.4020
-4.3246 -4.0473 2.4020
-4.2276 -4.1522 2.4020
-4.1280 -4.2547 2.4020
-4.0258 -4.3548 2.4020
-3.9213 -4.4523 2.4020
-3.8143 -4.5473 2.4020
-3.7050 -4.6397 2.4020
-3.5934 -4.7294 2.4020
-3.4797 -4.8163 2.4020
-3.3637 -4.9005 2.4020
-3.2458 -4.9818 2.4020
-3.1258 -5.0602 2.4020
-3.0039 -5.1357 2.4020
-2.8802 -5.2082 2.4020
-2.7546 -5.2776 2.4020
-2.6274 -5.3439 2.4020
-2.4986 -5.4071 2.4020
-2.3682 -5.4671 2.4020
-2.2363 -5.5240 2.4020
-2.1031 -5.5775 2.4020
-1.9686 -5.6278 2.4020
-1.8328 -5.6747 2.4020
-1.6959 -5.7183 2.4020
-1.5580 -5.7586 2.4020
-1.4191 -5.7954 2.4020
-1.2792 -5.8288 2.4020
-1.1386 -5.8587 2.4020
-0.9973 -5.8852 2.4020
-0.8554 -5.9082 2.4020
-0.7129 -5.9276 2.4020
-0.5700 -5.9436 2.4020
-0.4267 -5.9560 2.4020
-0.2832 -5.9649 2.4020
-0.1395 -5.9703 2.4020
0.0044 -5.9721 2.4020
0.1482 -5.9703 2.4020
0.2919 -5.9650 2.4020
0.4355 -5.9562 2.4020
0.5788 -5.9439 2.4020
0.7218 -5.9280 2.4020
0.8643 -5.9086 2.4020
1.0063 -5.8856 2.4020
1.1476 -5.8592 2.4020
1.2883 -5.8293 2.4020
1.4282 -5.7960 2.4020
1.5672 -5.7592 2.4020
1.7052 -5.7191 2.4020
1.8422 -5.6755 2.4020
1.9780 -5.6286 2.4020
2.1126 -5.5783 2.4020
2.2460 -5.5248 2.4020
2.3779 -5.4680 2.4020
2.5084 -5.4080 2.4020
2.6374 -5.3448 2.4020
2.6586 -5.0759 2.3099
2.7661 -4.9851 2.2988
2.8846 -4.9157 2.2988
3.0014 -4.8434 2.2988
3.1163 -4.7683 2.2988
3.2294 -4.6905 2.2988
3.3404 -4.6099 2.2988
3.4494 -4.5266 2.2988
3.5563 -4.4407 2.2988
3.6610 -4.3522 2.2988
3.7635 -4.2612 2.2988
3.8637 -4.1677 2.2988
3.9616 -4.0718 2.2988
4.0570 -3.9736 2.2988
4.1499 -3.8731 2.2988
4.2404 -3.7705 2.2988
3.0083 -2.5478 1.5977
4.4135 -3.5587 2.2988
4.4961 -3.4497 2.2988
4.5759 -3.3389 2.2988
4.6530 -3.2261 2.2988
4.7273 -3.1115 2.2988
4.7987 -2.9952 2.2988
4.8672 -2.8773 2.2988
4.9329 -2.7577 2.2988
4.9955 -2.6366 2.2988
5.0552 -2.5141 2.2988
5.1118 -2.3902 2.2988
5.1653 -2.2650 2.2988
5.2158 -2.1386 2.2988
5.2631 -2.0111 2.2988
5.3074 -1.8825 2.2988
5.3484 -1.7530 2.2988
5.3863 -1.6225 2.2988
5.4210 -1.4912 2.2988
5.4524 -1.3592 2.2988
5.4807 -1.2265 2.2988
5.5057 -1.0932 2.2988
5.5274 -0.9595 2.2988
5.5459 -0.8252 2.2988
5.5611 -0.6907 2.2988
2.9459 -0.2938 1.2151
2.9515 -0.2225 1.2155
5.5871 -0.2858 2.2988
5.5892 -0.1506 2.2988
5.5881 -0.0156 2.2988
5.5837 0.1194 2.2988
5.5760 0.2541 2.2988
5.5651 0.3886 2.2988
5.5510 0.5226 2.2988
5.5336 0.6563 2.2988
5.5130 0.7894 2.2988
5.4893 0.9219 2.2988
5.4623 1.0538 2.2988
5.4322 1.1849 2.2988
5.3990 1.3151 2.2988
5.3627 1.4445 2.2988
5.3233 1.5729 2.2988
5.2808 1.7002 2.2988
5.2353 1.8265 2.2988
5.1868 1.9515 2.2988
5.1354 2.0753 2.2988
5.0810 2.1978 2.2988
5.0237 2.3189 2.2988
4.9636 2.4385 2.2988
4.9006 2.5566 2.2988
4.8349 2.6731 2.2988
4.7664 2.7879 2.2988
4.6952 2.9010 2.2988
4.6214 3.0123 2.2988
4.5450 3.1219 2.2988
4.4660 3.2294 2.2988
4.3845 3.3351 2.2988
4.3005 3.4387 2.2988
4.2141 3.5402 2.2988
4.1253 3.6396 2.2988
4.0342 3.7368 2.2988
3.9409 3.8318 2.2988
3.8453 3.9246 2.2988
3.7476 4.0149 2.2988
3.6479 4.1029 2.2988
3.5461 4.1885 2.2988
3.4423 4.2715 2.2988
3.3366 4.3521 2.2988
3.2290 4.4301 2.2988
3.1197 4.5055 2.2988
3.0086 4.5783 2.2988
2.8958 4.6483 2.2988
2.7815 4.7157 2.2988
2.6656 4.7803 2.2988
2.6128 4.9647 2.3570
2.5386 5.1212 2.4020
2.4131 5.1799 2.4020
2.2863 5.2356 2.4020
2.1582 5.2882 2.4020
2.0289 5.3377 2.4020
1.8985 5.3842 2.4020
1.7671 5.4276 2.4020
1.6347 5.4678 2.4020
1.5014 5.5048 2.4020
1.3673 5.5387 2.4020
1.2324 5.5694 2.4020
1.0969 5.5969 2.4020
0.9608 5.6211 2.4020
0.8241 5.6422 2.4020
0.6870 5.6599 2.4020
0.5495 5.6745 2.4020
0.4118 5.6857 2.4020
0.2738 5.6937 2.4020
0.1356 5.6984 2.4020
-0.0026 5.6999 2.4020
-0.1408 5.6980 2.4020
-0.2789 5.6929 2.4020
-0.4169 5.6846 2.4020
-0.5546 5.6729 2.4020
-0.6920 5.6580 2.4020
-0.8290 5.6399 2.4020
-0.9656 5.6185 2.4020
-1.1016 5.5938 2.4020
-1.2370 5.5660 2.4020
-1.3718 5.5349 2.4020
-1.5057 5.5007 2.4020
-1.6388 5.4633 2.4020
-1.7711 5.4227 2.4020
-1.9023 5.3790 2.4020
-2.0325 5.3323 2.4020
-2.1616 5.2824 2.4020
-2.2894 5.2295 2.4020
-2.4160 5.1735 2.4020
-2.5413 5.1145 2.4020
-2.6651 5.0526 2.4020
-2.7875 4.9878 2.4020
-2.9083 4.9200 2.4020
-3.0275 4.8494 2.4020
-3.1450 4.7759 2.4020
-3.2608 4.6997 2.4020
-3.3747 4.6207 2.4020
-3.4868 4.5390 2.4020
-3.5969 4.4546 2.4020
-3.7050 4.3676 2.4020
-3.8111 4.2780 2.4020
-3.9150 4.1860 2.4020
-4.0168 4.0914 2.4020
-4.1162 3.9944 2.4020
-4.2134 3.8950 2.4020
-4.3082 3.7933 2.4020
-4.4007 3.6894 2.4020
-4.4906 3.5832 2.4020
-4.5780 3.4749 2.4020
-4.6628 3.3645 2.4020
-4.7450 3.2520 2.4020
-4.8245 3.1376 2.4020
-4.9013 3.0213 2.4020
-4.9754 2.9031 2.4020
-5.0466 2.7831 2.4020
-5.1149 2.6614 2.4020
-5.1804 2.5381 2.4020
-5.2429 2.4132 2.4020
-5.3024 2.2867 2.4020
-5.3589 2.1589 2.4020
-5.4123 2.0296 2.4020
-5.4222 1.8850 2.3842
-5.4217 1.7390 2.3635
-5.4221 1.5955 2.3450
-5.4252 1.4548 2.3292
-5.4280 1.3157 2.3148
-5.4306 1.1780 2.3018
-5.4536 1.0456 2.2989
-5.4803 0.9140 2.2989
-5.5039 0.7816 2.2989
-5.5242 0.6487 2.2989
-5.5414 0.5152 2.2989
-5.5553 0.3813 2.2989
-5.5660 0.2471 2.2989
-5.5735 0.1126 2.2989
-5.5777 -0.0222 2.2989
-5.5787 -0.1571 2.2989
-5.5764 -0.2920 2.2989
-5.5709 -0.4269 2.2989
-5.5621 -0.5616 2.2989
-5.5500 -0.6962 2.2989
-5.5347 -0.8306 2.2989
-5.5161 -0.9645 2.2989
-5.4943 -1.0981 2.2989
-5.4692 -1.2311 2.2989
-5.4409 -1.3636 2.2989
-5.4206 -1.4985 2.3037
-5.4170 -1.6393 2.3170
-5.4130 -1.7818 2.3318
-5.4088 -1.9263 2.3480
-5.4080 -2.0745 2.3675
-5.4075 -2.2254 2.3888
-5.3847 -2.3696 2.4020
-5.3287 -2.5002 2.4020
-5.2696 -2.6294 2.4020
-5.2073 -2.7572 2.4020
-5.1419 -2.8835 2.4020
-5.0734 -3.0082 2.4020
-5.0018 -3.1313 2.4020
-4.9272 -3.2526 2.4020
-4.8497 -3.3722 2.4020
-4.7692 -3.4898 2.4020
-4.6859 -3.6055 2.4020
-4.5997 -3.7192 2.4020
-4.3708 -3.7126 2.4020
-4.2819 -3.8185 2.4020
-4.1903 -3.9223 2.4020
-4.0963 -4.0239 2.4020
-3.9997 -4.1231 2.4020
-3.9007 -4.2200 2.4020
-3.7994 -4.3145 2.4020
-3.6957 -4.4065 2.4020
-3.5897 -4.4960 2.4020
-3.4816 -4.5829 2.4020
-3.3713 -4.6671 2.4020
-3.2590 -4.7486 2.4020
-3.1447 -4.8273 2.4020
-3.0284 -4.9032 2.4020
-2.9103 -4.9763 2.4020
-2.7904 -5.0465 2.4020
-2.6687 -5.1137 2.4020
-2.5455 -5.1779 2.4020
-2.4206 -5.2391 2.4020
-2.2943 -5.2972 2.4020
-2.1665 -5.3522 2.4020
-2.0375 -5.4041 2.4020
-1.9071 -5.4528 2.4020
-1.7756 -5.4982 2.4020
-1.6429 -5.5404 2.4020
-1.5093 -5.5794 2.4020
-1.3747 -5.6150 2.4020
-1.2393 -5.6473 2.4020
-1.1031 -5.6763 2.4020
-0.9662 -5.7019 2.4020
-0.8286 -5.7242 2.4020
-0.6906 -5.7430 2.4020
-0.5522 -5.7585 2.4020
-0.4134 -5.7705 2.4020
-0.2743 -5.7791 2.4020
-0.1351 -5.7843 2.4020
0.0043 -5.7860 2.4020
0.1436 -5.7843 2.4020
0.2828 -5.7792 2.4020
0.4219 -5.7707 2.4020
0.5608 -5.7587 2.4020
0.6992 -5.7433 2.4020
0.8373 -5.7245 2.4020
0.9748 -5.7023 2.4020
1.1118 -5.6768 2.4020
1.2481 -5.6478 2.4020
1.3836 -5.6155 2.4020
1.5182 -5.5799 2.4020
1.6519 -5.5410 2.4020
1.7847 -5.4988 2.4020
1.9163 -5.4534 2.4020
2.0467 -5.4048 2.4020
2.1759 -5.3529 2.4020
2.3037 -5.2979 2.4020
2.4302 -5.2398 2.4020
2.5551 -5.1786 2.4020
2.6486 -5.0573 2.3752
2.6799 -4.8302 2.2988
2.7947 -4.7630 2.2988
2.9079 -4.6930 2.2988
3.0192 -4.6203 2.2988
3.1288 -4.5449 2.2988
3.2364 -4.4668 2.2988
3.3420 -4.3862 2.2988
3.4456 -4.3030 2.2988
3.5471 -4.2173 2.2988
3.6464 -4.1292 2.2988
3.7435 -4.0386 2.2988
3.8384 -3.9458 2.2988
3.9309 -3.8507 2.2988
4.0210 -3.7534 2.2988
4.1087 -3.6539 2.2988
3.0083 -2.5482 1.6490
4.2765 -3.4488 2.2988
4.3566 -3.3433 2.2988
4.4340 -3.2359 2.2988
4.5087 -3.1266 2.2988
4.5808 -3.0157 2.2988
4.6500 -2.9030 2.2988
4.7165 -2.7887 2.2988
4.7801 -2.6729 2.2988
4.8409 -2.5556 2.2988
4.8988 -2.4369 2.2988
4.9537 -2.3169 2.2988
5.0057 -2.1956 2.2988
5.0547 -2.0731 2.2988
5.1006 -1.9496 2.2988
5.1435 -1.8250 2.2988
5.1834 -1.6995 2.2988
5.2202 -1.5731 2.2988
5.2539 -1.4458 2.2988
5.2844 -1.3179 2.2988
5.3119 -1.1893 2.2988
5.3362 -1.0602 2.2988
5.3573 -0.9305 2.2988
5.3753 -0.8004 2.2988
5.3901 -0.6700 2.2988
2.9459 -0.2941 1.2536
2.9511 -0.2228 1.2539
5.4156 -0.2776 2.2988
5.4177 -0.1466 2.2988
5.4167 -0.0157 2.2988
5.4125 0.1152 2.2988
5.4052 0.2458 2.2988
5.3947 0.3761 2.2988
5.3810 0.5061 2.2988
5.3643 0.6356 2.2988
5.3444 0.7647 2.2988
5.3215 0.8932 2.2988
5.2954 1.0210 2.2988
5.2663 1.1481 2.2988
5.2342 1.2744 2.2988
5.1991 1.3998 2.2988
5.1609 1.5243 2.2988
5.1198 1.6478 2.2988
5.0758 1.7702 2.2988
5.0289 1.8915 2.2988
4.9790 2.0115 2.2988
4.9264 2.1303 2.2988
4.8709 2.2477 2.2988
4.8127 2.3637 2.2988
4.7517 2.4783 2.2988
4.6880 2.5913 2.2988
4.6217 2.7026 2.2988
4.5527 2.8124 2.2988
4.4812 2.9204 2.2988
4.4071 3.0266 2.2988
4.3306 3.1309 2.2988
4.2516 3.2334 2.2988
4.1702 3.3339 2.2988
4.0864 3.4324 2.2988
4.0004 3.5288 2.2988
3.9121 3.6232 2.2988
3.8217 3.7153 2.2988
3.7290 3.8053 2.2988
3.6343 3.8929 2.2988
3.5376 3.9783 2.2988
3.4389 4.0613 2.2988
3.3383 4.1419 2.2988
3.2358 4.2201 2.2988
3.1315 4.2958 2.2988
3.0255 4.3689 2.2988
2.9178 4.4395 2.2988
2.8245 4.5331 2.3118
2.6976 4.5729 2.2988
2.6189 4.6959 2.3287
2.5825 4.9065 2.4020
2.4621 4.9663 2.4020
2.3404 5.0232 2.4020
2.2174 5.0772 2.4020
2.0932 5.1283 2.4020
1.9678 5.1764 2.4020
1.8414 5.2215 2.4020
1.7139 5.2636 2.4020
1.5855 5.3026 2.4020
1.4563 5.3386 2.4020
1.3262 5.3715 2.4020
1.1954 5.4012 2.4020
1.0639 5.4279 2.4020
0.9319 5.4515 2.4020
0.7993 5.4719 2.4020
0.6664 5.4891 2.4020
0.5330 5.5032 2.4020
0.3994 5.5141 2.4020
0.2656 5.5219 2.4020
0.1316 5.5265 2.4020
-0.0025 5.5279 2.4020
-0.1365 5.5261 2.4020
-0.2705 5.5212 2.4020
-0.4043 5.5130 2.4020
-0.5379 5.5017 2.4020
-0.6712 5.4873 2.4020
-0.8041 5.4697 2.4020
-0.9365 5.4489 2.4020
-1.0684 5.4250 2.4020
-1.1998 5.3980 2.4020
-1.3305 5.3679 2.4020
-1.4604 5.3346 2.4020
-1.5895 5.2983 2.4020
-1.7178 5.2590 2.4020
-1.8450 5.2166 2.4020
-1.9713 5.1712 2.4020
-2.0965 5.1228 2.4020
-2.2205 5.0714 2.4020
-2.3432 5.0171 2.4020
-2.4647 4.9599 2.4020
-2.5848 4.8998 2.4020
-2.7035 4.8369 2.4020
-2.8206 4.7711 2.4020
-2.9362 4.7026 2.4020
-3.0502 4.6313 2.4020
-3.1624 4.5573 2.4020
-3.2729 4.4807 2.4020
-3.3816 4.4014 2.4020
-3.4883 4.3195 2.4020
-3.5932 4.2352 2.4020
-3.6960 4.1482 2.4020
-3.7967 4.0589 2.4020
-3.8954 3.9672 2.4020
-3.9918 3.8731 2.4020
-4.0860 3.7767 2.4020
-4.1779 3.6780 2.4020
-4.2675 3.5772 2.4020
-4.3547 3.4742 2.4020
-4.4394 3.3691 2.4020
-4.5216 3.2620 2.4020
-4.6012 3.1529 2.4020
-4.6783 3.0419 2.4020
-4.7527 2.9291 2.4020
-4.8244 2.8144 2.4020
-4.8934 2.6981 2.4020
-4.9596 2.5801 2.4020
-5.0230 2.4604 2.4020
-5.0836 2.3393 2.4020
-5.1412 2.2166 2.4020
-5.1959 2.0926 2.4020
-5.2477 1.9673 2.4020
-5.2964 1.8407 2.4020
-5.3421 1.7129 2.4020
-5.3848 1.5840 2.4020
-5.4206 1.4530 2.4004
-5.4201 1.3132 2.3841
-5.4196 1.1751 2.3695
-5.4192 1.0384 2.3563
-5.4196 0.9032 2.3450
-5.4212 0.7693 2.3358
-5.4226 0.6362 2.3278
-5.4237 0.5037 2.3211
-5.4245 0.3718 2.3156
-5.4250 0.2403 2.3114
-5.4252 0.1090 2.3084
-5.4251 -0.0222 2.3067
-5.4248 -0.1533 2.3062
-5.4242 -0.2846 2.3069
-5.4232 -0.4161 2.3088
-5.4220 -0.5481 2.3120
-5.4205 -0.6806 2.3164
-5.4187 -0.8137 2.3221
-5.4167 -0.9477 2.3291
-5.4143 -1.0827 2.3373
-5.4116 -1.2188 2.3469
-5.4106 -1.3566 2.3587
-5.4101 -1.4962 2.3723
-5.4096 -1.6377 2.3874
-5.4042 -1.7796 2.4020
-5.3625 -1.9105 2.4020
-5.3177 -2.0404 2.4020
-5.2696 -2.1693 2.4020
-5.2184 -2.2971 2.4020
-5.1642 -2.4236 2.4020
-5.1068 -2.5488 2.4020
-5.0463 -2.6726 2.4020
-4.9829 -2.7950 2.4020
-4.9164 -2.9158 2.4020
-4.8470 -3.0350 2.4020
-4.7747 -3.1526 2.4020
-4.6995 -3.2684 2.4020
-4.6214 -3.3823 2.4020
-4.5406 -3.4944 2.4020
-4.4570 -3.6045 2.4020
-4.2380 -3.6004 2.4020
-4.1518 -3.7031 2.4020
-4.0630 -3.8037 2.4020
-3.9718 -3.9022 2.4020
-3.8781 -3.9984 2.4020
-3.7821 -4.0923 2.4020
-3.6837 -4.1839 2.4020
-3.5832 -4.2730 2.4020
-3.4804 -4.3597 2.4020
-3.3755 -4.4439 2.4020
-3.2686 -4.5255 2.4020
-3.1597 -4.6045 2.4020
-3.0488 -4.6808 2.4020
-2.9361 -4.7544 2.4020
-2.8215 -4.8252 2.4020
-2.7052 -4.8932 2.4020
-2.5873 -4.9583 2.4020
-2.4678 -5.0205 2.4020
-2.3467 -5.0798 2.4020
-2.2242 -5.1361 2.4020
-2.1004 -5.1894 2.4020
-1.9752 -5.2396 2.4020
-1.8488 -5.2868 2.4020
-1.7213 -5.3308 2.4020
-1.5927 -5.3717 2.4020
-1.4631 -5.4095 2.4020
-1.3327 -5.4440 2.4020
-1.2014 -5.4753 2.4020
-1.0693 -5.5034 2.4020
-0.9366 -5.5282 2.4020
-0.8033 -5.5498 2.4020
-0.6695 -5.5680 2.4020
-0.5353 -5.5830 2.4020
-0.4007 -5.5946 2.4020
-0.2659 -5.6030 2.4020
-0.1309 -5.6080 2.4020
0.0042 -5.6097 2.4020
0.1392 -5.6080 2.4020
0.2742 -5.6031 2.4020
0.4091 -5.5948 2.4020
0.5436 -5.5832 2.4020
0.6779 -5.5683 2.4020
0.8117 -5.5500 2.4020
0.9451 -5.5285 2.4020
1.0778 -5.5038 2.4020
1.2099 -5.4757 2.4020
1.3413 -5.4445 2.4020
1.4718 -5.4100 2.4020
1.6015 -5.3723 2.4020
1.7301 -5.3314 2.4020
1.8577 -5.2874 2.4020
1.9842 -5.2402 2.4020
2.1094 -5.1900 2.4020
2.2334 -5.1367 2.4020
2.3560 -5.0804 2.4020
2.4771 -5.0211 2.4020
2.5967 -4.9588 2.4020
2.6489 -4.7749 2.3437
2.7095 -4.6182 2.2988
2.8192 -4.5504 2.2988
2.9272 -4.4800 2.2988
3.0334 -4.4069 2.2988
3.1377 -4.3312 2.2988
3.2402 -4.2531 2.2988
3.3406 -4.1724 2.2988
3.4391 -4.0894 2.2988
3.5354 -4.0040 2.2988
3.6296 -3.9163 2.2988
3.7216 -3.8263 2.2988
3.8113 -3.7341 2.2988
3.8987 -3.6398 2.2988
3.9838 -3.5434 2.2988
3.0084 -2.5486 1.7007
4.1466 -3.3446 2.2988
4.2242 -3.2423 2.2988
4.2994 -3.1382 2.2988
4.3719 -3.0323 2.2988
4.4418 -2.9247 2.2988
4.5090 -2.8155 2.2988
4.5735 -2.7047 2.2988
4.6353 -2.5924 2.2988
4.6943 -2.4787 2.2988
4.7504 -2.3637 2.2988
4.8038 -2.2473 2.2988
4.8542 -2.1297 2.2988
4.9018 -2.0110 2.2988
4.9464 -1.8912 2.2988
4.9881 -1.7704 2.2988
5.0268 -1.6487 2.2988
5.0626 -1.5261 2.2988
5.0953 -1.4028 2.2988
5.1250 -1.2787 2.2988
5.1517 -1.1540 2.2988
5.1753 -1.0288 2.2988
5.1959 -0.9030 2.2988
5.2135 -0.7769 2.2988
5.2279 -0.6504 2.2988
2.9458 -0.2945 1.2925
2.9508 -0.2231 1.2927
5.2528 -0.2698 2.2988
5.2550 -0.1428 2.2988
5.2540 -0.0158 2.2988
5.2500 0.1111 2.2988
5.2430 0.2378 2.2988
5.2329 0.3642 2.2988
5.2197 0.4903 2.2988
5.2036 0.6160 2.2988
5.1844 0.7412 2.2988
5.1622 0.8658 2.2988
5.1370 0.9899 2.2988
5.1088 1.1132 2.2988
5.0777 1.2357 2.2988
5.0437 1.3574 2.2988
5.0068 1.4782 2.2988
4.9670 1.5980 2.2988
4.9243 1.7168 2.2988
4.8788 1.8345 2.2988
4.8306 1.9510 2.2988
4.7796 2.0662 2.2988
4.7258 2.1802 2.2988
4.6693 2.2928 2.2988
4.6102 2.4039 2.2988
4.5485 2.5136 2.2988
4.4842 2.6217 2.2988
4.4174 2.7282 2.2988
4.3480 2.8330 2.2988
4.2762 2.9361 2.2988
4.2020 3.0374 2.2988
4.1253 3.1368 2.2988
4.0464 3.2344 2.2988
3.9652 3.3300 2.2988
3.8818 3.4236 2.2988
3.7961 3.5152 2.2988
3.7084 3.6046 2.2988
3.6186 3.6920 2.2988
3.5267 3.7771 2.2988
3.4329 3.8599 2.2988
3.3371 3.9405 2.2988
3.2395 4.0188 2.2988
3.1401 4.0947 2.2988
3.0389 4.1682 2.2988
2.9361 4.2392 2.2988
2.8316 4.3077 2.2988
2.7255 4.3738 2.2988
2.6257 4.4504 2.3056
2.6138 4.6861 2.3949
2.5062 4.7610 2.4020
2.3895 4.8191 2.4020
2.2714 4.8744 2.4020
2.1520 4.9268 2.4020
2.0315 4.9764 2.4020
1.9098 5.0231 2.4020
1.7871 5.0669 2.4020
1.6634 5.1077 2.4020
1.5388 5.1456 2.4020
1.4133 5.1806 2.4020
1.2871 5.2125 2.4020
1.1602 5.2414 2.4020
1.0326 5.2674 2.4020
0.9044 5.2902 2.4020
0.7758 5.3100 2.4020
0.6467 5.3268 2.4020
0.5173 5.3405 2.4020
0.3876 5.3511 2.4020
0.2578 5.3586 2.4020
0.1277 5.3631 2.4020
-0.0024 5.3645 2.4020
-0.1325 5.3627 2.4020
-0.2625 5.3579 2.4020
-0.3924 5.3500 2.4020
-0.5220 5.3391 2.4020
-0.6514 5.3250 2.4020
-0.7803 5.3079 2.4020
-0.9089 5.2878 2.4020
-1.0369 5.2646 2.4020
-1.1644 5.2383 2.4020
-1.2912 5.2091 2.4020
-1.4173 5.1768 2.4020
-1.5426 5.1416 2.4020
-1.6671 5.1034 2.4020
-1.7906 5.0622 2.4020
-1.9131 5.0181 2.4020
-2.0346 4.9711 2.4020
-2.1549 4.9212 2.4020
-2.2741 4.8685 2.4020
-2.3919 4.8130 2.4020
-2.5085 4.7546 2.4020
-2.6236 4.6935 2.4020
-2.7373 4.6297 2.4020
-2.8495 4.5631 2.4020
-2.9600 4.4939 2.4020
-3.0690 4.4221 2.4020
-3.1762 4.3477 2.4020
-3.2816 4.2707 2.4020
-3.3852 4.1913 2.4020
-3.4869 4.1093 2.4020
-3.5866 4.0250 2.4020
-3.6844 3.9382 2.4020
-3.7800 3.8492 2.4020
-3.8736 3.7578 2.4020
-3.9650 3.6642 2.4020
-4.0541 3.5685 2.4020
-4.1410 3.4706 2.4020
-4.2255 3.3706 2.4020
-4.3077 3.2686 2.4020
-4.3874 3.1646 2.4020
-4.4647 3.0588 2.4020
-4.5394 2.9510 2.4020
-4.6115 2.8415 2.4020
-4.6811 2.7302 2.4020
-4.7480 2.6173 2.4020
-4.8121 2.5028 2.4020
-4.8736 2.3867 2.4020
-4.9323 2.2691 2.4020
-4.9881 2.1501 2.4020
-5.0412 2.0297 2.4020
-5.0913 1.9081 2.4020
-5.1385 1.7852 2.4020
-5.1828 1.6612 2.4020
-5.2242 1.5361 2.4020
-5.2625 1.4100 2.4020
-5.2978 1.2830 2.4020
-5.3300 1.1551 2.4020
-5.3592 1.0264 2.4020
-5.3853 0.8969 2.4020
-5.4083 0.7669 2.4020
-5.4177 0.6350 2.3974
-5.4172 0.5025 2.3899
-5.4168 0.3707 2.3837
-5.4163 0.2393 2.3790
-5.4158 0.1082 2.3757
-5.4154 -0.0227 2.3737
-5.4149 -0.1536 2.3732
-5.4144 -0.2847 2.3740
-5.4140 -0.4160 2.3762
-5.4135 -0.5478 2.3799
-5.4130 -0.6802 2.3849
-5.4125 -0.8134 2.3914
-5.4121 -0.9475 2.3993
-5.3967 -1.0798 2.4020
-5.3719 -1.2104 2.4020
-5.3439 -1.3405 2.4020
-5.3128 -1.4699 2.4020
-5.2786 -1.5986 2.4020
-5.2412 -1.7265 2.4020
-5.2007 -1.8534 2.4020
-5.1571 -1.9794 2.4020
-5.1104 -2.1044 2.4020
-5.0607 -2.2282 2.4020
-5.0080 -2.3509 2.4020
-4.9523 -2.4723 2.4020
-4.8936 -2.5923 2.4020
-4.8320 -2.7110 2.4020
-4.7675 -2.8281 2.4020
-4.7002 -2.9437 2.4020
-4.6300 -3.0576 2.4020
-4.5570 -3.1699 2.4020
-4.4813 -3.2803 2.4020
-4.4028 -3.3890 2.4020
-4.3217 -3.4957 2.4020
-4.1120 -3.4939 2.4020
-4.0282 -3.5935 2.4020
-3.9420 -3.6911 2.4020
-3.8535 -3.7866 2.4020
-3.7626 -3.8799 2.4020
-3.6694 -3.9710 2.4020
-3.5739 -4.0598 2.4020
-3.4763 -4.1462 2.4020
-3.3766 -4.2303 2.4020
-3.2748 -4.3119 2.4020
-3.1711 -4.3911 2.4020
-3.0653 -4.4676 2.4020
-2.9578 -4.5416 2.4020
-2.8484 -4.6130 2.4020
-2.7372 -4.6816 2.4020
-2.6244 -4.7476 2.4020
-2.5100 -4.8107 2.4020
-2.3940 -4.8710 2.4020
-2.2765 -4.9285 2.4020
-2.1577 -4.9831 2.4020
-2.0375 -5.0348 2.4020
-1.9161 -5.0835 2.4020
-1.7935 -5.1292 2.4020
-1.6698 -5.1719 2.4020
-1.5450 -5.2116 2.4020
-1.4193 -5.2481 2.4020
-1.2927 -5.2816 2.4020
-1.1654 -5.3120 2.4020
-1.0373 -5.3392 2.4020
-0.9085 -5.3632 2.4020
-0.7792 -5.3841 2.4020
-0.6494 -5.4018 2.4020
-0.5192 -5.4163 2.4020
-0.3887 -5.4276 2.4020
-0.2579 -5.4357 2.4020
-0.1270 -5.4406 2.4020
0.0041 -5.4422 2.4020
0.1351 -5.4406 2.4020
0.2660 -5.4358 2.4020
0.3968 -5.4278 2.4020
0.5274 -5.4165 2.4020
0.6576 -5.4021 2.4020
0.7874 -5.3844 2.4020
0.9168 -5.3635 2.4020
1.0456 -5.3395 2.4020
1.1737 -5.3123 2.4020
1.3011 -5.2820 2.4020
1.4278 -5.2485 2.4020
1.5535 -5.2120 2.4020
1.6784 -5.1724 2.4020
1.8021 -5.1297 2.4020
1.9248 -5.0840 2.4020
2.0463 -5.0353 2.4020
2.1666 -4.9836 2.4020
2.2855 -4.9290 2.4020
2.4030 -4.8715 2.4020
2.5191 -4.8111 2.4020
2.6336 -4.7479 2.4020
2.6538 -4.5239 2.3209
2.7349 -4.4150 2.2988
2.8562 -4.3719 2.3121
2.9428 -4.2758 2.2988
3.0440 -4.2024 2.2988
3.1434 -4.1266 2.2988
3.2409 -4.0485 2.2988
3.3365 -3.9679 2.2988
3.4300 -3.8851 2.2988
3.5214 -3.8000 2.2988
3.6106 -3.7128 2.2988
3.6977 -3.6233 2.2988
3.7826 -3.5319 2.2988
3.8651 -3.4384 2.2988
3.0084 -2.5491 1.7529
4.0232 -3.2456 2.2988
4.0986 -3.1464 2.2988
4.1715 -3.0454 2.2988
4.2419 -2.9427 2.2988
4.3098 -2.8383 2.2988
4.3750 -2.7324 2.2988
4.4377 -2.6249 2.2988
4.4977 -2.5160 2.2988
4.5550 -2.4057 2.2988
4.6095 -2.2941 2.2988
4.6613 -2.1812 2.2988
4.7103 -2.0671 2.2988
4.7565 -1.9520 2.2988
4.7999 -1.8357 2.2988
4.8404 -1.7186 2.2988
4.8781 -1.6004 2.2988
4.9128 -1.4815 2.2988
4.9446 -1.3618 2.2988
4.9735 -1.2415 2.2988
4.9995 -1.1205 2.2988
5.0225 -0.9989 2.2988
5.0425 -0.8769 2.2988
5.0596 -0.7545 2.2988
5.0737 -0.6318 2.2988
2.9457 -0.2948 1.3317
2.9505 -0.2234 1.3318
5.0981 -0.2624 2.2988
5.1002 -0.1391 2.2988
5.0994 -0.0158 2.2988
5.0956 0.1073 2.2988
5.0888 0.2303 2.2988
5.0791 0.3530 2.2988
5.0664 0.4754 2.2988
5.0507 0.5974 2.2988
5.0322 0.7189 2.2988
5.0107 0.8399 2.2988
4.9863 0.9603 2.2988
4.9591 1.0800 2.2988
4.9289 1.1990 2.2988
4.8960 1.3171 2.2988
4.8602 1.4344 2.2988
4.8216 1.5507 2.2988
4.7803 1.6661 2.2988
4.7362 1.7803 2.2988
4.6894 1.8934 2.2988
4.6399 2.0053 2.2988
4.5878 2.1160 2.2988
4.5330 2.2253 2.2988
4.4757 2.3332 2.2988
4.4158 2.4397 2.2988
4.3535 2.5447 2.2988
4.2886 2.6481 2.2988
4.2213 2.7499 2.2988
4.1516 2.8500 2.2988
4.0796 2.9484 2.2988
4.0053 3.0450 2.2988
3.9287 3.1397 2.2988
3.8499 3.2326 2.2988
3.7689 3.3235 2.2988
3.6858 3.4124 2.2988
3.6007 3.4993 2.2988
3.5135 3.5842 2.2988
3.4243 3.6668 2.2988
3.3332 3.7473 2.2988
3.2403 3.8256 2.2988
3.1456 3.9016 2.2988
3.0490 3.9754 2.2988
2.9508 4.0467 2.2988
2.8510 4.1157 2.2988
2.7495 4.1823 2.2988
2.6466 4.2465 2.2988
2.6147 4.4311 2.3644
2.5457 4.5634 2.4020
2.4337 4.6226 2.4020
2.3203 4.6790 2.4020
2.2056 4.7327 2.4020
2.0898 4.7837 2.4020
1.9727 4.8318 2.4020
1.8546 4.8772 2.4020
1.7354 4.9198 2.4020
1.6153 4.9595 2.4020
1.4943 4.9963 2.4020
1.3725 5.0302 2.4020
1.2499 5.0613 2.4020
1.1267 5.0894 2.4020
1.0028 5.1145 2.4020
0.8783 5.1368 2.4020
0.7534 5.1560 2.4020
0.6281 5.1723 2.4020
0.5024 5.1856 2.4020
0.3765 5.1959 2.4020
0.2503 5.2033 2.4020
0.1240 5.2076 2.4020
-0.0023 5.2089 2.4020
-0.1286 5.2073 2.4020
-0.2549 5.2026 2.4020
-0.3810 5.1949 2.4020
-0.5069 5.1843 2.4020
-0.6325 5.1706 2.4020
-0.7578 5.1540 2.4020
-0.8826 5.1344 2.4020
-1.0070 5.1119 2.4020
-1.1307 5.0864 2.4020
-1.2539 5.0580 2.4020
-1.3763 5.0266 2.4020
-1.4980 4.9924 2.4020
-1.6189 4.9553 2.4020
-1.7388 4.9153 2.4020
-1.8578 4.8724 2.4020
-1.9758 4.8268 2.4020
-2.0926 4.7783 2.4020
-2.2083 4.7271 2.4020
-2.3227 4.6732 2.4020
-2.4359 4.6165 2.4020
-2.5477 4.5571 2.4020
-2.6581 4.4951 2.4020
-2.7669 4.4304 2.4020
-2.8743 4.3632 2.4020
-2.9800 4.2934 2.4020
-3.0841 4.2211 2.4020
-3.1865 4.1464 2.4020
-3.2870 4.0692 2.4020
-3.3857 3.9896 2.4020
-3.4826 3.9076 2.4020
-3.5775 3.8234 2.4020
-3.6703 3.7369 2.4020
-3.7611 3.6482 2.4020
-3.8498 3.5573 2.4020
-3.9363 3.4642 2.4020
-4.0206 3.3692 2.4020
-4.1027 3.2721 2.4020
-4.1824 3.1730 2.4020
-4.2598 3.0720 2.4020
-4.3347 2.9692 2.4020
-4.4072 2.8646 2.4020
-4.4772 2.7582 2.4020
-4.5447 2.6501 2.4020
-4.6096 2.5405 2.4020
-4.6719 2.4292 2.4020
-4.7315 2.3165 2.4020
-4.7884 2.2023 2.4020
-4.8426 2.0867 2.4020
-4.8940 1.9699 2.4020
-4.9426 1.8518 2.4020
-4.9884 1.7325 2.4020
-5.0313 1.6121 2.4020
-5.0714 1.4906 2.4020
-5.1085 1.3682 2.4020
-5.1427 1.2449 2.4020
-5.1739 1.1207 2.4020
-5.2022 0.9957 2.4020
-5.2274 0.8701 2.4020
-5.2497 0.7438 2.4020
-5.2689 0.6170 2.4020
-5.2850 0.4897 2.4020
-5.2981 0.3620 2.4020
-5.3081 0.2339 2.4020
-5.3150 0.1056 2.4020
-5.3188 -0.0229 2.4020
-5.3195 -0.1515 2.4020
-5.3171 -0.2801 2.4020
-5.3116 -0.4087 2.4020
-5.3030 -0.5372 2.4020
-5.2913 -0.6655 2.4020
-5.2764 -0.7935 2.4020
-5.2585 -0.9212 2.4020
-5.2375 -1.0485 2.4020
-5.2133 -1.1753 2.4020
-5.1861 -1.3015 2.4020
-5.1559 -1.4271 2.4020
-5.1226 -1.5519 2.4020
-5.0862 -1.6760 2.4020
-5.0469 -1.7992 2.4020
-5.0045 -1.9215 2.4020
-4.9592 -2.0427 2.4020
-4.9109 -2.1629 2.4020
-4.8597 -2.2818 2.4020
-4.8055 -2.3996 2.4020
-4.7485 -2.5161 2.4020
-4.6887 -2.6311 2.4020
-4.6261 -2.7448 2.4020
-4.5606 -2.8569 2.4020
-4.4925 -2.9674 2.4020
-4.4216 -3.0763 2.4020
-4.3481 -3.1835 2.4020
-4.2719 -3.2888 2.4020
-4.1932 -3.3923 2.4020
-3.9920 -3.3926 2.4020
-3.9107 -3.4893 2.4020
-3.8269 -3.5839 2.4020
-3.7409 -3.6766 2.4020
-3.6526 -3.7671 2.4020
-3.5621 -3.8555 2.4020
-3.4695 -3.9417 2.4020
-3.3747 -4.0256 2.4020
-3.2778 -4.1072 2.4020
-3.1790 -4.1864 2.4020
-3.0783 -4.2632 2.4020
-2.9756 -4.3375 2.4020
-2.8711 -4.4093 2.4020
-2.7649 -4.4785 2.4020
-2.6570 -4.5451 2.4020
-2.5475 -4.6091 2.4020
-2.4364 -4.6703 2.4020
-2.3238 -4.7289 2.4020
-2.2098 -4.7846 2.4020
-2.0944 -4.8376 2.4020
-1.9777 -4.8877 2.4020
-1.8599 -4.9350 2.4020
-1.7409 -4.9793 2.4020
-1.6208 -5.0208 2.4020
-1.4997 -5.0592 2.4020
-1.3776 -5.0947 2.4020
-1.2548 -5.1272 2.4020
-1.1311 -5.1566 2.4020
-1.0068 -5.1830 2.4020
-0.8818 -5.2064 2.4020
-0.7563 -5.2266 2.4020
-0.6303 -5.2438 2.4020
-0.5039 -5.2579 2.4020
-0.3772 -5.2688 2.4020
-0.2503 -5.2767 2.4020
-0.1232 -5.2814 2.4020
0.0040 -5.2829 2.4020
0.1311 -5.2814 2.4020
0.2582 -5.2767 2.4020
0.3852 -5.2689 2.4020
0.5119 -5.2580 2.4020
0.6383 -5.2440 2.4020
0.7643 -5.2268 2.4020
0.8899 -5.2066 2.4020
1.0149 -5.1833 2.4020
1.1393 -5.1569 2.4020
1.2630 -5.1275 2.4020
1.3859 -5.0950 2.4020
1.5080 -5.0596 2.4020
1.6291 -5.0211 2.4020
1.7493 -4.9797 2.4020
1.8684 -4.9353 2.4020
1.9863 -4.8881 2.4020
2.1030 -4.8380 2.4020
2.2185 -4.7850 2.4020
2.3326 -4.7292 2.4020
2.4453 -4.6706 2.4020
2.5565 -4.6093 2.4020
2.6466 -4.5122 2.3845
2.6580 -4.2912 2.3015
2.7565 -4.2199 2.2988
2.8585 -4.1539 2.3003
2.9549 -4.0799 2.2988
3.0514 -4.0064 2.2988
3.1461 -3.9305 2.2988
3.2389 -3.8524 2.2988
3.3296 -3.7720 2.2988
3.4184 -3.6894 2.2988
3.5051 -3.6048 2.2988
3.5897 -3.5180 2.2988
3.6721 -3.4292 2.2988
3.7522 -3.3385 2.2988
3.0085 -2.5495 1.8056
3.9057 -3.1514 2.2988
3.9790 -3.0551 2.2988
4.0498 -2.9571 2.2988
4.1182 -2.8574 2.2988
4.1841 -2.7561 2.2988
4.2476 -2.6533 2.2988
4.3084 -2.5490 2.2988
4.3667 -2.4433 2.2988
4.4224 -2.3362 2.2988
4.4754 -2.2279 2.2988
4.5258 -2.1183 2.2988
4.5734 -2.0076 2.2988
4.6183 -1.8958 2.2988
4.6605 -1.7830 2.2988
4.6999 -1.6692 2.2988
4.7365 -1.5545 2.2988
4.7703 -1.4391 2.2988
4.8012 -1.3229 2.2988
4.8293 -1.2060 2.2988
4.8546 -1.0885 2.2988
4.8770 -0.9705 2.2988
4.8965 -0.8521 2.2988
4.9132 -0.7332 2.2988
4.9269 -0.6141 2.2988
2.9457 -0.2951 1.3714
2.9502 -0.2237 1.3712
4.9508 -0.2554 2.2988
4.9529 -0.1356 2.2988
4.9522 -0.0159 2.2988
4.9486 0.1037 2.2988
4.9420 0.2231 2.2988
4.9326 0.3423 2.2988
4.9204 0.4611 2.2988
4.9052 0.5796 2.2988
4.8873 0.6976 2.2988
4.8665 0.8152 2.2988
4.8429 0.9321 2.2988
4.8164 1.0484 2.2988
4.7872 1.1639 2.2988
4.7553 1.2787 2.2988
4.7206 1.3926 2.2988
4.6832 1.5057 2.2988
4.6431 1.6177 2.2988
4.6003 1.7287 2.2988
4.5549 1.8386 2.2988
4.5069 1.9473 2.2988
4.4563 2.0548 2.2988
4.4032 2.1610 2.2988
4.3476 2.2659 2.2988
4.2895 2.3693 2.2988
4.2289 2.4713 2.2988
4.1660 2.5718 2.2988
4.1006 2.6707 2.2988
4.0330 2.7680 2.2988
3.9631 2.8636 2.2988
3.8909 2.9575 2.2988
3.8166 3.0495 2.2988
3.7400 3.1398 2.2988
3.6614 3.2281 2.2988
3.5807 3.3146 2.2988
3.4980 3.3990 2.2988
3.4133 3.4814 2.2988
3.3268 3.5618 2.2988
3.2383 3.6400 2.2988
3.1480 3.7161 2.2988
3.0560 3.7900 2.2988
2.9623 3.8617 2.2988
2.8669 3.9310 2.2988
2.7699 3.9981 2.2988
2.6714 4.0628 2.2988
2.6177 4.1996 2.3402
2.5808 4.3731 2.4020
2.4734 4.4332 2.4020
2.3645 4.4906 2.4020
2.2544 4.5455 2.4020
2.1430 4.5977 2.4020
2.0304 4.6472 2.4020
1.9167 4.6941 2.4020
1.8020 4.7382 2.4020
1.6862 4.7795 2.4020
1.5695 4.8181 2.4020
1.4519 4.8539 2.4020
1.3336 4.8870 2.4020
1.2145 4.9171 2.4020
1.0947 4.9444 2.4020
0.9743 4.9689 2.4020
0.8534 4.9905 2.4020
0.7321 5.0092 2.4020
0.6103 5.0251 2.4020
0.4882 5.0380 2.4020
0.3658 5.0480 2.4020
0.2433 5.0552 2.4020
0.1206 5.0594 2.4020
-0.0022 5.0607 2.4020
-0.1250 5.0591 2.4020
-0.2476 5.0545 2.4020
-0.3702 5.0471 2.4020
-0.4925 5.0367 2.4020
-0.6146 5.0235 2.4020
-0.7363 5.0073 2.4020
-0.8576 4.9883 2.4020
-0.9784 4.9664 2.4020
-1.0986 4.9416 2.4020
-1.2183 4.9140 2.4020
-1.3373 4.8835 2.4020
-1.4555 4.8502 2.4020
-1.5729 4.8141 2.4020
-1.6895 4.7753 2.4020
-1.8051 4.7336 2.4020
-1.9197 4.6893 2.4020
-2.0332 4.6422 2.4020
-2.1456 4.5924 2.4020
-2.2567 4.5399 2.4020
-2.3667 4.4848 2.4020
-2.4753 4.4271 2.4020
-2.5825 4.3668 2.4020
-2.6883 4.3040 2.4020
-2.7926 4.2387 2.4020
-2.8953 4.1708 2.4020
-2.9964 4.1006 2.4020
-3.0958 4.0279 2.4020
-3.1935 3.9529 2.4020
-3.2894 3.8755 2.4020
-3.3834 3.7959 2.4020
-3.4756 3.7140 2.4020
-3.5658 3.6299 2.4020
-3.6540 3.5437 2.4020
-3.7401 3.4553 2.4020
-3.8241 3.3649 2.4020
-3.9060 3.2725 2.4020
-3.9857 3.1782 2.4020
-4.0631 3.0819 2.4020
-4.1382 2.9838 2.4020
-4.2110 2.8839 2.4020
-4.2814 2.7822 2.4020
-4.3493 2.6788 2.4020
-4.4148 2.5738 2.4020
-4.4778 2.4673 2.4020
-4.5382 2.3592 2.4020
-4.5961 2.2497 2.4020
-4.6513 2.1387 2.4020
-4.7039 2.0264 2.4020
-4.7538 1.9129 2.4020
-4.8010 1.7982 2.4020
-4.8454 1.6823 2.4020
-4.8870 1.5653 2.4020
-4.9259 1.4473 2.4020
-4.9619 1.3284 2.4020
-4.9950 1.2085 2.4020
-5.0253 1.0879 2.4020
-5.0527 0.9665 2.4020
-5.0772 0.8445 2.4020
-5.0987 0.7219 2.4020
-5.1173 0.5987 2.4020
-5.1329 0.4750 2.4020
-5.1455 0.3510 2.4020
-5.1551 0.2266 2.4020
-5.1618 0.1020 2.4020
-5.1654 -0.0228 2.4020
-5.1661 -0.1477 2.4020
-5.1637 -0.2726 2.4020
-5.1583 -0.3975 2.4020
-5.1498 -0.5223 2.4020
-5.1384 -0.6469 2.4020
-5.1239 -0.7712 2.4020
-5.1064 -0.8952 2.4020
-5.0859 -1.0188 2.4020
-5.0624 -1.1419 2.4020
-5.0360 -1.2644 2.4020
-5.0065 -1.3863 2.4020
-4.9741 -1.5075 2.4020
-4.9388 -1.6280 2.4020
-4.9005 -1.7476 2.4020
-4.8593 -1.8663 2.4020
-4.8152 -1.9840 2.4020
-4.7683 -2.1006 2.4020
-4.7185 -2.2161 2.4020
-4.6659 -2.3305 2.4020
-4.6105 -2.4435 2.4020
-4.5523 -2.5552 2.4020
-4.4914 -2.6655 2.4020
-4.4279 -2.7743 2.4020
-4.3616 -2.8816 2.4020
-4.2928 -2.9873 2.4020
-4.2214 -3.0913 2.4020
-4.1474 -3.1935 2.4020
-4.0709 -3.2940 2.4020
-3.8777 -3.2960 2.4020
-3.7986 -3.3899 2.4020
-3.7173 -3.4819 2.4020
-3.6337 -3.5718 2.4020
-3.5479 -3.6597 2.4020
-3.4600 -3.7455 2.4020
-3.3699 -3.8292 2.4020
-3.2778 -3.9107 2.4020
-3.1838 -3.9899 2.4020
-3.0877 -4.0668 2.4020
-2.9898 -4.1413 2.4020
-2.8901 -4.2135 2.4020
-2.7886 -4.2832 2.4020
-2.6855 -4.3504 2.4020
-2.5806 -4.4150 2.4020
-2.4742 -4.4771 2.4020
-2.3663 -4.5366 2.4020
-2.2569 -4.5934 2.4020
-2.1462 -4.6476 2.4020
-2.0341 -4.6990 2.4020
-1.9208 -4.7477 2.4020
-1.8063 -4.7935 2.4020
-1.6907 -4.8366 2.4020
-1.5741 -4.8768 2.4020
-1.4565 -4.9141 2.4020
-1.3380 -4.9486 2.4020
-1.2186 -4.9801 2.4020
-1.0985 -5.0087 2.4020
-0.9778 -5.0343 2.4020
-0.8564 -5.0569 2.4020
-0.7345 -5.0766 2.4020
-0.6121 -5.0933 2.4020
-0.4894 -5.1069 2.4020
-0.3663 -5.1175 2.4020
-0.2431 -5.1251 2.4020
-0.1196 -5.1297 2.4020
0.0039 -5.1312 2.4020
0.1274 -5.1298 2.4020
0.2508 -5.1252 2.4020
0.3741 -5.1176 2.4020
0.4972 -5.1070 2.4020
0.6199 -5.0934 2.4020
0.7423 -5.0768 2.4020
0.8643 -5.0571 2.4020
0.9857 -5.0345 2.4020
1.1065 -5.0089 2.4020
1.2266 -4.9803 2.4020
1.3460 -4.9488 2.4020
1.4646 -4.9144 2.4020
1.5822 -4.8771 2.4020
1.6989 -4.8369 2.4020
1.8146 -4.7938 2.4020
1.9291 -4.7479 2.4020
2.0425 -4.6993 2.4020
2.1547 -4.6478 2.4020
2.2655 -4.5937 2.4020
2.3749 -4.5368 2.4020
2.4829 -4.4773 2.4020
2.5894 -4.4152 2.4020
2.6458 -4.2721 2.3588
2.6773 -4.0991 2.2988
2.7745 -4.0323 2.2988
2.8700 -3.9632 2.2988
2.9638 -3.8918 2.2988
3.0558 -3.8182 2.2988
3.1459 -3.7423 2.2988
3.2341 -3.6643 2.2988
3.3203 -3.5841 2.2988
3.4046 -3.5019 2.2988
3.4867 -3.4176 2.2988
3.5668 -3.3314 2.2988
3.6447 -3.2433 2.2988
3.0085 -2.5500 1.8589
3.7939 -3.0616 2.2988
3.8650 -2.9681 2.2988
3.9339 -2.8730 2.2988
4.0004 -2.7762 2.2988
4.0645 -2.6778 2.2988
4.1261 -2.5780 2.2988
4.1853 -2.4767 2.2988
4.2419 -2.3740 2.2988
4.2961 -2.2700 2.2988
4.3476 -2.1648 2.2988
4.3966 -2.0584 2.2988
4.4429 -1.9508 2.2988
4.4866 -1.8422 2.2988
4.5276 -1.7326 2.2988
4.5659 -1.6221 2.2988
4.6015 -1.5108 2.2988
4.6344 -1.3986 2.2988
4.6645 -1.2857 2.2988
4.6919 -1.1722 2.2988
4.7165 -1.0581 2.2988
4.7383 -0.9435 2.2988
4.7574 -0.8284 2.2988
4.7736 -0.7129 2.2988
4.7870 -0.5972 2.2988
2.9456 -0.2954 1.4114
2.9499 -0.2240 1.4111
4.8104 -0.2487 2.2988
4.8125 -0.1323 2.2988
4.8118 -0.0160 2.2988
4.8084 0.1002 2.2988
4.8021 0.2162 2.2988
4.7930 0.3320 2.2988
4.7812 0.4475 2.2988
4.7665 0.5627 2.2988
4.7491 0.6774 2.2988
4.7290 0.7916 2.2988
4.7061 0.9052 2.2988
4.6804 1.0182 2.2988
4.6521 1.1306 2.2988
4.6211 1.2421 2.2988
4.5875 1.3528 2.2988
4.5512 1.4627 2.2988
4.5122 1.5716 2.2988
4.4707 1.6794 2.2988
4.4267 1.7863 2.2988
4.3801 1.8919 2.2988
4.3310 1.9964 2.2988
4.2794 2.0997 2.2988
4.2254 2.2016 2.2988
4.1689 2.3022 2.2988
4.1101 2.4014 2.2988
4.0490 2.4990 2.2988
3.9855 2.5952 2.2988
3.9198 2.6898 2.2988
3.8519 2.7827 2.2988
3.7818 2.8740 2.2988
3.7096 2.9635 2.2988
3.6352 3.0512 2.2988
3.5588 3.1372 2.2988
3.4804 3.2212 2.2988
3.4001 3.3033 2.2988
3.3178 3.3835 2.2988
3.2337 3.4616 2.2988
3.1477 3.5377 2.2988
3.0600 3.6117 2.2988
2.9706 3.6835 2.2988
2.8795 3.7532 2.2988
2.7868 3.8207 2.2988
2.6925 3.8859 2.2988
2.6231 3.9889 2.3221
2.6118 4.1895 2.4020
2.5088 4.2504 2.4020
2.4043 4.3089 2.4020
2.2986 4.3648 2.4020
2.1915 4.4181 2.4020
2.0832 4.4689 2.4020
1.9738 4.5171 2.4020
1.8633 4.5626 2.4020
1.7517 4.6055 2.4020
1.6392 4.6457 2.4020
1.5258 4.6833 2.4020
1.4115 4.7181 2.4020
1.2964 4.7502 2.4020
1.1807 4.7796 2.4020
1.0642 4.8061 2.4020
0.9472 4.8299 2.4020
0.8297 4.8510 2.4020
0.7117 4.8692 2.4020
0.5933 4.8846 2.4020
0.4746 4.8972 2.4020
0.3557 4.9069 2.4020
0.2365 4.9139 2.4020
0.1172 4.9180 2.4020
-0.0021 4.9192 2.4020
-0.1215 4.9176 2.4020
-0.2407 4.9132 2.4020
-0.3599 4.9060 2.4020
-0.4788 4.8959 2.4020
-0.5974 4.8830 2.4020
-0.7157 4.8673 2.4020
-0.8337 4.8488 2.4020
-0.9511 4.8275 2.4020
-1.0680 4.8034 2.4020
-1.1843 4.7766 2.4020
-1.3000 4.7469 2.4020
-1.4149 4.7145 2.4020
-1.5291 4.6795 2.4020
-1.6424 4.6416 2.4020
-1.7547 4.6012 2.4020
-1.8661 4.5580 2.4020
-1.9765 4.5122 2.4020
-2.0857 4.4638 2.4020
-2.1938 4.4128 2.4020
-2.3006 4.3592 2.4020
-2.4062 4.3031 2.4020
-2.5104 4.2444 2.4020
-2.6133 4.1833 2.4020
-2.7146 4.1198 2.4020
-2.8144 4.0538 2.4020
-2.9127 3.9855 2.4020
-3.0093 3.9149 2.4020
-3.1043 3.8419 2.4020
-3.1974 3.7667 2.4020
-3.2888 3.6892 2.4020
-3.3784 3.6096 2.4020
-3.4660 3.5278 2.4020
-3.5517 3.4440 2.4020
-3.6354 3.3581 2.4020
-3.7171 3.2702 2.4020
-3.7966 3.1804 2.4020
-3.8740 3.0886 2.4020
-3.9492 2.9950 2.4020
-4.0222 2.8996 2.4020
-4.0929 2.8025 2.4020
-4.1613 2.7036 2.4020
-4.2273 2.6031 2.4020
-4.2909 2.5011 2.4020
-4.3521 2.3975 2.4020
-4.4108 2.2924 2.4020
-4.4669 2.1859 2.4020
-4.5206 2.0781 2.4020
-4.5716 1.9689 2.4020
-4.6201 1.8585 2.4020
-4.6659 1.7470 2.4020
-4.7090 1.6344 2.4020
-4.7494 1.5207 2.4020
-4.7871 1.4060 2.4020
-4.8220 1.2904 2.4020
-4.8542 1.1739 2.4020
-4.8836 1.0567 2.4020
-4.9101 0.9387 2.4020
-4.9338 0.8201 2.4020
-4.9547 0.7009 2.4020
-4.9727 0.5812 2.4020
-4.9878 0.4610 2.4020
-5.0000 0.3405 2.4020
-5.0093 0.2196 2.4020
-5.0157 0.0986 2.4020
-5.0192 -0.0227 2.4020
-5.0198 -0.1441 2.4020
-5.0174 -0.2654 2.4020
-5.0120 -0.3868 2.4020
-5.0038 -0.5080 2.4020
-4.9926 -0.6291 2.4020
-4.9785 -0.7498 2.4020
-4.9614 -0.8703 2.4020
-4.9415 -0.9904 2.4020
-4.9186 -1.1100 2.4020
-4.8928 -1.2290 2.4020
-4.8641 -1.3475 2.4020
-4.8326 -1.4652 2.4020
-4.7982 -1.5822 2.4020
-4.7609 -1.6984 2.4020
-4.7209 -1.8137 2.4020
-4.6780 -1.9280 2.4020
-4.6323 -2.0413 2.4020
-4.5839 -2.1535 2.4020
-4.5328 -2.2645 2.4020
-4.4789 -2.3743 2.4020
-4.4224 -2.4828 2.4020
-4.3632 -2.5899 2.4020
-4.3014 -2.6956 2.4020
-4.2370 -2.7998 2.4020
-4.1701 -2.9024 2.4020
-4.1006 -3.0034 2.4020
-4.0287 -3.1027 2.4020
-3.9544 -3.2003 2.4020
-3.7686 -3.2039 2.4020
-3.6918 -3.2951 2.4020
-3.6127 -3.3844 2.4020
-3.5314 -3.4718 2.4020
-3.4480 -3.5573 2.4020
-3.3625 -3.6406 2.4020
-3.2750 -3.7219 2.4020
-3.1855 -3.8010 2.4020
-3.0940 -3.8780 2.4020
-3.0007 -3.9527 2.4020
-2.9055 -4.0251 2.4020
-2.8086 -4.0952 2.4020
-2.7099 -4.1629 2.4020
-2.6096 -4.2282 2.4020
-2.5078 -4.2910 2.4020
-2.4044 -4.3513 2.4020
-2.2995 -4.4091 2.4020
-2.1932 -4.4643 2.4020
-2.0855 -4.5168 2.4020
-1.9766 -4.5668 2.4020
-1.8665 -4.6140 2.4020
-1.7552 -4.6586 2.4020
-1.6429 -4.7004 2.4020
-1.5296 -4.7395 2.4020
-1.4153 -4.7757 2.4020
-1.3001 -4.8092 2.4020
-1.1841 -4.8398 2.4020
-1.0674 -4.8675 2.4020
-0.9501 -4.8924 2.4020
-0.8321 -4.9144 2.4020
-0.7137 -4.9335 2.4020
-0.5948 -4.9497 2.4020
-0.4755 -4.9630 2.4020
-0.3559 -4.9733 2.4020
-0.2362 -4.9807 2.4020
-0.1162 -4.9851 2.4020
0.0038 -4.9866 2.4020
0.1238 -4.9851 2.4020
0.2437 -4.9807 2.4020
0.3635 -4.9734 2.4020
0.4831 -4.9631 2.4020
0.6024 -4.9498 2.4020
0.7213 -4.9337 2.4020
0.8398 -4.9146 2.4020
0.9578 -4.8926 2.4020
1.0752 -4.8677 2.4020
1.1919 -4.8400 2.4020
1.3079 -4.8094 2.4020
1.4231 -4.7759 2.4020
1.5375 -4.7397 2.4020
1.6509 -4.7006 2.4020
1.7633 -4.6588 2.4020
1.8746 -4.6143 2.4020
1.9848 -4.5670 2.4020
2.0938 -4.5170 2.4020
2.2015 -4.4644 2.4020
2.3079 -4.4092 2.4020
2.4128 -4.3514 2.4020
2.5163 -4.2910 2.4020
2.6182 -4.2282 2.4020
