ply
format ascii 1.0
element vertex 2164
property float32 x
property float32 y
property float32 z
end_header
-3.4767 10.6582 2.4018
-3.7349 10.5744 2.4018
-3.9912 10.4846 2.4018
-4.2455 10.3889 2.4018
-4.4975 10.2872 2.4018
-4.7473 10.1797 2.4018
-4.9945 10.0664 2.4018
-5.2392 9.9473 2.4018
-5.3986 9.6743 2.3656
-5.4748 9.2760 2.2987
-5.7009 9.1458 2.2987
-5.9239 9.0102 2.2987
-6.1439 8.8695 2.2987
-6.3607 8.7236 2.2987
-6.5741 8.5725 2.2987
-6.7841 8.4165 2.2987
-6.9906 8.2555 2.2987
-7.1934 8.0895 2.2987
-7.3924 7.9188 2.2987
-7.5874 7.7434 2.2987
-7.7785 7.5633 2.2987
-7.9654 7.3786 2.2987
-8.1482 7.1895 2.2987
-8.3265 6.9960 2.2987
-8.5005 6.7982 2.2987
-8.6699 6.5962 2.2987
-8.8346 6.3901 2.2987
-8.9946 6.1800 2.2987
-9.1497 5.9660 2.2987
-9.2999 5.7482 2.2987
-9.5399 5.5823 2.3218
-9.6814 5.3550 2.3218
-9.8175 5.1242 2.3218
-9.9483 4.8901 2.3218
-10.0737 4.6527 2.3218
-10.1935 4.4122 2.3218
-10.3077 4.1686 2.3218
-10.4161 3.9222 2.3218
-10.5189 3.6730 2.3218
-10.6157 3.4212 2.3218
-10.7067 3.1669 2.3218
-10.7916 2.9102 2.3218
-10.8706 2.6513 2.3218
-10.9433 2.3904 2.3218
-11.0100 2.1275 2.3218
-11.0703 1.8628 2.3218
-11.1244 1.5964 2.3218
-11.1722 1.3285 2.3218
-11.2135 1.0593 2.3218
-11.2484 0.7889 2.3218
-11.2769 0.5174 2.3218
-11.2988 0.2450 2.3218
-11.3142 -0.0281 2.3218
-11.3230 -0.3018 2.3218
-11.3252 -0.5760 2.3218
-11.3208 -0.8504 2.3218
-11.3097 -1.1249 2.3218
-11.2920 -1.3994 2.3218
-11.2676 -1.6737 2.3218
-6.5816 -1.1407 1.3599
-6.5022 -1.2895 1.3481
-6.5028 -1.4537 1.3536
-6.6475 -1.6556 1.3900
-11.0455 -3.0360 2.3218
-10.1416 -3.0529 2.1443
-10.0790 -3.3015 2.1449
-8.5352 -3.0259 1.8294
-8.4044 -3.2100 1.8155
-10.6574 -4.3683 2.3218
-10.5600 -4.6293 2.3218
-10.4562 -4.8881 2.3218
-10.3460 -5.1445 2.3218
-10.2294 -5.3984 2.3218
-10.1064 -5.6495 2.3218
-9.9771 -5.8978 2.3218
-9.8417 -6.1431 2.3218
-9.7001 -6.3852 2.3218
-9.5524 -6.6239 2.3218
-9.3053 -6.7909 2.2987
-9.1473 -7.0201 2.2987
-8.9835 -7.2456 2.2987
-8.3301 -7.0583 2.2987
-8.1642 -7.2634 2.2987
-7.9932 -7.4645 2.2987
-7.8171 -7.6614 2.2987
-7.6361 -7.8541 2.2987
-7.4501 -8.0423 2.2987
-7.2594 -8.2260 2.2987
-7.0640 -8.4050 2.2987
-6.8641 -8.5791 2.2987
-6.6598 -8.7484 2.2987
-6.4512 -8.9125 2.2987
-6.2384 -9.0716 2.2987
-6.0216 -9.2253 2.2987
-5.8009 -9.3736 2.2987
-5.5764 -9.5165 2.2987
-5.4307 -9.8026 2.3342
-5.3460 -10.2241 2.4018
-5.1005 -10.3555 2.4018
-4.8517 -10.4808 2.4018
-4.1474 -9.5575 2.1656
-3.8761 -9.5574 2.1428
-3.6102 -9.5572 2.1217
-3.3490 -9.5571 2.1023
-3.0922 -9.5570 2.0845
-2.8395 -9.5569 2.0682
-2.5903 -9.5568 2.0534
-2.3444 -9.5567 2.0400
-2.2578 -10.2681 2.1790
-2.2156 -11.3777 2.4018
-1.9410 -11.4303 2.4018
-1.6651 -11.4761 2.4018
-1.3881 -11.5148 2.4018
-1.1101 -11.5466 2.4018
-0.8314 -11.5714 2.4018
-0.5521 -11.5891 2.4018
-0.2725 -11.5997 2.4018
0.0073 -11.6033 2.4018
0.2872 -11.5999 2.4018
0.5668 -11.5893 2.4018
0.8461 -11.5717 2.4018
1.1248 -11.5471 2.4018
1.4029 -11.5155 2.4018
1.6800 -11.4768 2.4018
1.9560 -11.4312 2.4018
2.2307 -11.3787 2.4018
2.5039 -11.3192 2.4018
2.6562 -10.7691 2.2985
2.9144 -10.6992 2.2985
3.1707 -10.6227 2.2985
3.4249 -10.5399 2.2985
3.6769 -10.4507 2.2985
3.9264 -10.3552 2.2985
4.1734 -10.2535 2.2985
4.4177 -10.1456 2.2985
4.6591 -10.0317 2.2985
4.8974 -9.9118 2.2985
5.1326 -9.7860 2.2985
5.3644 -9.6544 2.2985
5.5928 -9.5171 2.2985
5.8175 -9.3742 2.2985
6.0384 -9.2258 2.2985
6.2554 -9.0720 2.2985
4.9819 -6.8646 1.7703
7.1805 -9.4079 2.4718
5.5978 -6.9785 1.8697
7.6156 -9.0384 2.4718
5.3879 -6.0900 1.7018
5.4582 -5.8774 1.6799
5.5248 -5.6684 1.6590
5.8992 -5.7673 1.7305
6.0987 -5.6811 1.7496
6.1588 -5.4656 1.7299
6.3805 -5.3928 1.7566
6.5224 -5.2482 1.7617
6.6652 -5.1031 1.7680
6.7714 -4.9298 1.7657
6.1952 -4.2854 1.5894
7.0411 -4.6233 1.7788
6.8690 -4.2767 1.7103
7.1180 -4.1968 1.7482
7.1204 -3.9697 1.7264
7.0400 -3.7051 1.6863
6.9635 -3.4528 1.6491
7.5234 -3.5067 1.7629
7.4575 -3.2592 1.7302
10.7524 -4.3932 2.4718
10.1616 -3.8682 2.3162
10.2416 -3.6181 2.3162
10.3154 -3.3663 2.3162
10.3830 -3.1130 2.3162
10.4442 -2.8583 2.3162
10.4992 -2.6026 2.3162
10.5479 -2.3458 2.3162
10.5903 -2.0881 2.3162
10.6263 -1.8298 2.3162
10.6561 -1.5709 2.3162
10.6795 -1.3116 2.3162
10.6966 -1.0521 2.3162
10.7074 -0.7926 2.3162
10.7119 -0.5331 2.3162
10.7101 -0.2738 2.3162
10.7020 -0.0150 2.3162
10.6878 0.2434 2.3162
10.6673 0.5010 2.3162
10.6406 0.7578 2.3162
10.6079 1.0136 2.3162
10.5690 1.2684 2.3162
10.5240 1.5218 2.3162
10.4731 1.7738 2.3162
10.4161 2.0243 2.3162
10.3533 2.2731 2.3162
10.2846 2.5201 2.3162
10.2101 2.7651 2.3162
10.1298 3.0080 2.3162
10.0438 3.2487 2.3162
9.9523 3.4871 2.3162
9.8552 3.7229 2.3162
9.7525 3.9562 2.3162
9.6445 4.1867 2.3162
9.5312 4.4144 2.3162
9.4126 4.6392 2.3162
9.2888 4.8608 2.3162
9.1599 5.0793 2.3162
9.0260 5.2944 2.3162
8.8872 5.5062 2.3162
8.7435 5.7144 2.3162
8.5951 5.9190 2.3162
8.4421 6.1198 2.3162
8.2845 6.3169 2.3162
8.1224 6.5100 2.3162
7.9560 6.6990 2.3162
7.7853 6.8840 2.3162
7.6104 7.0648 2.3162
7.4315 7.2413 2.3162
7.2486 7.4134 2.3162
7.0619 7.5810 2.3162
6.8715 7.7441 2.3162
6.6266 7.8425 2.2985
6.4305 7.9951 2.2985
3.0478 3.9830 1.1243
6.0282 8.2861 2.2985
5.8223 8.4244 2.2985
5.6133 8.5577 2.2985
5.4014 8.6861 2.2985
5.1867 8.8094 2.2985
4.9693 8.9276 2.2985
4.7493 9.0406 2.2985
4.5269 9.1485 2.2985
4.3021 9.2510 2.2985
4.0751 9.3483 2.2985
3.8459 9.4403 2.2985
3.6148 9.5268 2.2985
3.3819 9.6079 2.2985
3.1472 9.6836 2.2985
2.9108 9.7537 2.2985
2.6730 9.8184 2.2985
2.5432 10.3211 2.4018
2.2920 10.3771 2.4018
2.0396 10.4271 2.4018
1.7861 10.4713 2.4018
1.5318 10.5095 2.4018
1.2767 10.5419 2.4018
1.0209 10.5683 2.4018
0.7647 10.5888 2.4018
0.5080 10.6034 2.4018
0.2511 10.6120 2.4018
-0.0059 10.6146 2.4018
-0.2629 10.6113 2.4018
-0.5198 10.6020 2.4018
-0.7764 10.5867 2.4018
-1.0325 10.5656 2.4018
-1.2882 10.5384 2.4018
-1.5431 10.5054 2.4018
-1.7973 10.4664 2.4018
-2.0506 10.4216 2.4018
-2.3027 10.3709 2.4018
-2.5537 10.3143 2.4018
-2.8034 10.2520 2.4018
-3.0516 10.1838 2.4018
-3.2982 10.1099 2.4018
-3.5431 10.0302 2.4018
-3.7862 9.9448 2.4018
-4.0273 9.8538 2.4018
-4.2663 9.7572 2.4018
-4.5031 9.6550 2.4018
-4.7375 9.5473 2.4018
-4.9695 9.4341 2.4018
-5.1989 9.3155 2.4018
-5.3993 9.1470 2.3902
-5.4112 8.6800 2.3005
-5.6184 8.5444 2.2987
-5.8269 8.4107 2.2987
-6.0323 8.2721 2.2987
-6.2345 8.1286 2.2987
-6.4334 7.9803 2.2987
-6.6290 7.8274 2.2987
-6.8210 7.6697 2.2987
-7.0095 7.5076 2.2987
-7.1942 7.3410 2.2987
-7.3751 7.1699 2.2987
-7.5520 6.9946 2.2987
-7.7249 6.8150 2.2987
-7.8937 6.6313 2.2987
-8.0583 6.4435 2.2987
-8.2185 6.2517 2.2987
-8.3743 6.0561 2.2987
-8.5256 5.8567 2.2987
-8.6722 5.6536 2.2987
-8.8142 5.4469 2.2987
-8.9514 5.2368 2.2987
-9.0836 5.0233 2.2987
-9.2109 4.8066 2.2987
-9.3332 4.5866 2.2987
-9.5452 4.4075 2.3218
-9.6583 4.1794 2.3218
-9.7660 3.9484 2.3218
-9.8682 3.7147 2.3218
-9.9650 3.4785 2.3218
-10.0563 3.2398 2.3218
-10.1419 2.9987 2.3218
-10.2218 2.7554 2.3218
-10.2960 2.5101 2.3218
-10.3644 2.2628 2.3218
-10.4269 2.0137 2.3218
-10.4835 1.7629 2.3218
-10.5341 1.5106 2.3218
-10.5787 1.2568 2.3218
-10.6172 1.0018 2.3218
-10.6497 0.7458 2.3218
-10.6760 0.4887 2.3218
-10.6962 0.2308 2.3218
-10.7101 -0.0278 2.3218
-10.7178 -0.2868 2.3218
-10.7193 -0.5463 2.3218
-10.7145 -0.8060 2.3218
-10.7034 -1.0658 2.3218
-10.6860 -1.3255 2.3218
-10.6623 -1.5849 2.3218
-6.5810 -1.1413 1.4371
-6.5020 -1.2902 1.4247
-6.5030 -1.4545 1.4307
-6.6493 -1.6568 1.4697
-10.4491 -2.8733 2.3218
-10.1399 -3.0535 2.2664
-10.0781 -3.3023 2.2674
-8.5341 -3.0265 1.9339
-8.4043 -3.2110 1.9195
-10.0791 -4.1324 2.3218
-9.9864 -4.3790 2.3218
-9.8877 -4.6235 2.3218
-9.7829 -4.8657 2.3218
-9.6721 -5.1055 2.3218
-9.5554 -5.3427 2.3218
-9.3389 -5.5217 2.2987
-9.2116 -5.7510 2.2987
-9.0786 -5.9772 2.2987
-8.9399 -6.2004 2.2987
-8.7957 -6.4202 2.2987
-8.6459 -6.6365 2.2987
-8.4907 -6.8492 2.2987
-7.8945 -6.6903 2.2987
-7.7370 -6.8845 2.2987
-7.5747 -7.0747 2.2987
-7.4075 -7.2611 2.2987
-7.2356 -7.4433 2.2987
-7.0591 -7.6214 2.2987
-6.8782 -7.7951 2.2987
-6.6928 -7.9644 2.2987
-6.5032 -8.1291 2.2987
-6.3094 -8.2892 2.2987
-6.1115 -8.4444 2.2987
-5.9098 -8.5948 2.2987
-5.7042 -8.7401 2.2987
-5.4949 -8.8804 2.2987
-5.4265 -9.2620 2.3616
-5.2930 -9.5553 2.4018
-5.0636 -9.6852 2.4018
-4.8310 -9.8095 2.4018
-4.5952 -9.9278 2.4018
-4.3563 -10.0403 2.4018
-4.1147 -10.1468 2.4018
-3.6098 -9.5574 2.2401
-3.3487 -9.5573 2.2196
-3.0919 -9.5572 2.2009
-2.8392 -9.5571 2.1837
-2.5901 -9.5570 2.1681
-2.3442 -9.5569 2.1540
-2.2850 -10.3926 2.3287
-2.0980 -10.7753 2.4018
-1.8380 -10.8251 2.4018
-1.5767 -10.8683 2.4018
-1.3144 -10.9049 2.4018
-1.0512 -10.9349 2.4018
-0.7872 -10.9582 2.4018
-0.5228 -10.9750 2.4018
-0.2580 -10.9850 2.4018
0.0070 -10.9884 2.4018
0.2719 -10.9851 2.4018
0.5367 -10.9752 2.4018
0.8012 -10.9585 2.4018
1.0652 -10.9353 2.4018
1.3284 -10.9054 2.4018
1.5908 -10.8688 2.4018
1.8522 -10.8257 2.4018
2.1123 -10.7761 2.4018
2.3711 -10.7199 2.4018
2.6174 -10.6128 2.3918
2.7599 -10.1329 2.2985
3.0026 -10.0607 2.2985
3.2434 -9.9824 2.2985
3.4821 -9.8981 2.2985
3.7185 -9.8078 2.2985
3.9525 -9.7117 2.2985
4.1839 -9.6098 2.2985
4.4126 -9.5021 2.2985
4.6385 -9.3888 2.2985
4.8613 -9.2699 2.2985
5.0810 -9.1455 2.2985
5.2974 -9.0157 2.2985
5.5104 -8.8805 2.2985
5.7199 -8.7402 2.2985
5.9256 -8.5948 2.2985
4.9715 -6.8511 1.8649
6.3256 -8.2889 2.2985
5.5958 -6.9769 1.9729
7.2150 -8.5641 2.4718
5.5153 -6.2348 1.8386
5.4621 -5.8824 1.7743
5.5728 -5.7185 1.7662
5.9527 -5.8205 1.8428
6.1177 -5.6997 1.8522
6.0045 -5.3295 1.7798
6.4004 -5.4105 1.8594
6.5428 -5.2655 1.8648
6.6861 -5.1200 1.8714
6.7450 -4.9115 1.8557
7.0087 -4.8491 1.8971
7.1810 -4.7161 1.9140
6.6890 -4.1655 1.7570
6.8654 -4.0487 1.7788
7.1287 -3.9752 1.8232
7.0480 -3.7101 1.7808
6.9713 -3.4574 1.7414
7.4841 -3.4893 1.8496
7.4192 -3.2433 1.8154
9.5538 -3.9046 2.3162
9.6360 -3.6692 2.3162
9.7124 -3.4322 2.3162
9.7828 -3.1935 2.3162
9.8474 -2.9535 2.3162
9.9060 -2.7121 2.3162
9.9587 -2.4697 2.3162
10.0054 -2.2262 2.3162
10.0461 -1.9819 2.3162
10.0808 -1.7369 2.3162
10.1095 -1.4914 2.3162
10.1323 -1.2455 2.3162
10.1490 -0.9994 2.3162
10.1598 -0.7531 2.3162
10.1646 -0.5069 2.3162
10.1634 -0.2609 2.3162
10.1563 -0.0153 2.3162
10.1433 0.2299 2.3162
10.1244 0.4744 2.3162
10.0997 0.7182 2.3162
10.0691 0.9611 2.3162
10.0327 1.2029 2.3162
9.9905 1.4436 2.3162
9.9427 1.6829 2.3162
9.8891 1.9208 2.3162
9.8300 2.1571 2.3162
9.7652 2.3917 2.3162
9.6949 2.6245 2.3162
9.6192 2.8553 2.3162
9.5380 3.0840 2.3162
9.4515 3.3105 2.3162
9.3598 3.5347 2.3162
9.2628 3.7564 2.3162
9.1606 3.9756 2.3162
9.0533 4.1920 2.3162
8.9411 4.4057 2.3162
8.8239 4.6165 2.3162
8.7019 4.8242 2.3162
8.5750 5.0288 2.3162
8.4435 5.2302 2.3162
8.3074 5.4283 2.3162
8.1667 5.6229 2.3162
8.0217 5.8140 2.3162
7.8722 6.0014 2.3162
7.7185 6.1852 2.3162
7.5607 6.3651 2.3162
7.3987 6.5412 2.3162
7.2328 6.7132 2.3162
7.0630 6.8812 2.3162
6.8895 7.0450 2.3162
6.6612 7.1498 2.2985
6.4818 7.3038 2.2985
6.2989 7.4536 2.2985
6.1127 7.5989 2.2985
3.0482 3.9831 1.1829
5.7307 7.8761 2.2985
5.5351 8.0077 2.2985
5.3366 8.1347 2.2985
5.1353 8.2570 2.2985
4.9313 8.3744 2.2985
4.7247 8.4870 2.2985
4.5156 8.5947 2.2985
3.0471 6.1573 1.6272
2.8845 6.2019 1.6208
3.8748 8.8878 2.2985
3.6570 8.9754 2.2985
3.4373 9.0579 2.2985
3.2158 9.1352 2.2985
2.9927 9.2073 2.2985
2.7680 9.2741 2.2985
2.6474 9.7232 2.3940
2.4185 9.8139 2.4018
2.1796 9.8672 2.4018
1.9396 9.9149 2.4018
1.6986 9.9570 2.4018
1.4568 9.9935 2.4018
1.2142 10.0243 2.4018
0.9709 10.0495 2.4018
0.7272 10.0690 2.4018
0.4832 10.0829 2.4018
0.2388 10.0911 2.4018
-0.0056 10.0936 2.4018
-0.2500 10.0905 2.4018
-0.4943 10.0816 2.4018
-0.7383 10.0671 2.4018
-0.9820 10.0469 2.4018
-1.2251 10.0211 2.4018
-1.4675 9.9896 2.4018
-1.7092 9.9525 2.4018
-1.9500 9.9098 2.4018
-2.1898 9.8615 2.4018
-2.4285 9.8076 2.4018
-2.6659 9.7482 2.4018
-2.9019 9.6832 2.4018
-3.1363 9.6128 2.4018
-3.3692 9.5369 2.4018
-3.6003 9.4556 2.4018
-3.8295 9.3689 2.4018
-4.0567 9.2768 2.4018
-4.2818 9.1795 2.4018
-4.5046 9.0769 2.4018
-4.7251 8.9690 2.4018
-4.9431 8.8561 2.4018
-5.1585 8.7380 2.4018
-5.3712 8.6148 2.4018
-5.4059 8.2202 2.3264
-5.5396 7.9951 2.2987
-5.7347 7.8630 2.2987
-5.9268 7.7264 2.2987
-6.1157 7.5852 2.2987
-6.3015 7.4396 2.2987
-6.4838 7.2895 2.2987
-6.6627 7.1352 2.2987
-6.8380 6.9766 2.2987
-7.0098 6.8138 2.2987
-7.1777 6.6469 2.2987
-7.3418 6.4759 2.2987
-7.5019 6.3011 2.2987
-7.6580 6.1224 2.2987
-7.8100 5.9399 2.2987
-7.9577 5.7538 2.2987
-8.1012 5.5641 2.2987
-8.2402 5.3709 2.2987
-8.3747 5.1743 2.2987
-8.5047 4.9744 2.2987
-8.6300 4.7714 2.2987
-8.7505 4.5652 2.2987
-8.8663 4.3561 2.2987
-8.9771 4.1442 2.2987
-9.0830 3.9294 2.2987
-9.1839 3.7120 2.2987
-9.2796 3.4921 2.2987
-9.3702 3.2698 2.2987
-9.5505 3.0758 2.3218
-9.6314 2.8467 2.3218
-9.7068 2.6155 2.3218
-9.7767 2.3824 2.3218
-9.8412 2.1475 2.3218
-9.9000 1.9108 2.3218
-9.9533 1.6726 2.3218
-10.0008 1.4330 2.3218
-10.0427 1.1921 2.3218
-10.0787 0.9499 2.3218
-10.1090 0.7068 2.3218
-10.1335 0.4628 2.3218
-10.1521 0.2180 2.3218
-10.1648 -0.0274 2.3218
-10.1716 -0.2733 2.3218
-10.1724 -0.5195 2.3218
-10.1674 -0.7659 2.3218
-10.1563 -1.0124 2.3218
-10.1393 -1.2587 2.3218
-10.1163 -1.5048 2.3218
-6.5805 -1.1420 1.5146
-6.5018 -1.2908 1.5017
-6.5032 -1.4552 1.5082
-6.6512 -1.6580 1.5498
-9.9114 -2.7265 2.3218
-9.8525 -2.9680 2.3218
-9.7877 -3.2083 2.3218
-8.5248 -3.0242 2.0369
-8.4041 -3.2119 2.0241
-9.5579 -3.9199 2.3218
-9.3754 -4.1122 2.2987
-9.2823 -4.3415 2.2987
-9.1835 -4.5687 2.2987
-9.0790 -4.7935 2.2987
-8.9690 -5.0159 2.2987
-8.8534 -5.2358 2.2987
-8.7323 -5.4529 2.2987
-8.6058 -5.6671 2.2987
-8.4740 -5.8783 2.2987
-8.3369 -6.0864 2.2987
-8.1946 -6.2912 2.2987
-8.0471 -6.4925 2.2987
-7.5004 -6.3574 2.2987
-7.3505 -6.5415 2.2987
-7.1959 -6.7221 2.2987
-7.0369 -6.8988 2.2987
-6.8733 -7.0717 2.2987
-6.7055 -7.2406 2.2987
-6.5333 -7.4054 2.2987
-6.3570 -7.5659 2.2987
-6.1767 -7.7221 2.2987
-5.9925 -7.8739 2.2987
-5.8044 -8.0211 2.2987
-5.6174 -8.1707 2.3007
-5.4350 -8.3287 2.3063
-5.4258 -8.7699 2.3901
-5.2410 -8.9464 2.4018
-5.0263 -9.0749 2.4018
-4.8083 -9.1981 2.4018
-4.5873 -9.3158 2.4018
-4.3633 -9.4280 2.4018
-4.1364 -9.5346 2.4018
-3.9069 -9.6356 2.4018
-3.6748 -9.7307 2.4018
-3.4404 -9.8201 2.4018
-3.2036 -9.9036 2.4018
-2.9648 -9.9812 2.4018
-2.7241 -10.0528 2.4018
-2.4816 -10.1183 2.4018
-2.2374 -10.1777 2.4018
-1.9918 -10.2310 2.4018
-1.7449 -10.2781 2.4018
-1.4968 -10.3191 2.4018
-1.2478 -10.3537 2.4018
-0.9979 -10.3822 2.4018
-0.7473 -10.4043 2.4018
-0.4963 -10.4201 2.4018
-0.2449 -10.4296 2.4018
0.0066 -10.4328 2.4018
0.2582 -10.4297 2.4018
0.5096 -10.4203 2.4018
0.7606 -10.4045 2.4018
1.0112 -10.3825 2.4018
1.2611 -10.3541 2.4018
1.5103 -10.3195 2.4018
1.7584 -10.2786 2.4018
2.0054 -10.2316 2.4018
2.2511 -10.1783 2.4018
2.4953 -10.1189 2.4018
2.6295 -9.6553 2.3067
2.8508 -9.5528 2.2985
3.0794 -9.4786 2.2985
3.3061 -9.3987 2.2985
3.5306 -9.3132 2.2985
3.7528 -9.2221 2.2985
3.9726 -9.1255 2.2985
4.1898 -9.0234 2.2985
4.4044 -8.9160 2.2985
4.6161 -8.8033 2.2985
4.8248 -8.6854 2.2985
5.0304 -8.5623 2.2985
5.2328 -8.4342 2.2985
5.4319 -8.3012 2.2985
5.6274 -8.1633 2.2985
4.9610 -6.8376 1.9595
5.6064 -7.3475 2.1451
5.3724 -6.6993 1.9943
6.3725 -7.5650 2.2985
5.7966 -6.5538 2.0345
5.4660 -5.8874 1.8693
5.6219 -5.7698 1.8757
6.0074 -5.8749 1.9578
6.2815 -5.8532 2.0020
5.8570 -5.1994 1.8275
6.4206 -5.4284 1.9634
6.5635 -5.2830 1.9690
6.6715 -5.1097 1.9654
6.7091 -4.8862 1.9427
7.0686 -4.8914 2.0136
6.8229 -4.4818 1.9138
6.5174 -4.0594 1.8016
7.0221 -4.1420 1.9145
7.1370 -3.9807 1.9207
7.0561 -3.7152 1.8759
6.9790 -3.4621 1.8343
7.4449 -3.4719 1.9359
8.9971 -3.9342 2.3162
9.0812 -3.7125 2.3162
9.1598 -3.4889 2.3162
9.2328 -3.2638 2.3162
9.3002 -3.0370 2.3162
9.3620 -2.8089 2.3162
9.4182 -2.5796 2.3162
9.4687 -2.3492 2.3162
9.5135 -2.1178 2.3162
9.5527 -1.8856 2.3162
9.5862 -1.6527 2.3162
9.6139 -1.4193 2.3162
9.6360 -1.1855 2.3162
9.6524 -0.9515 2.3162
9.6631 -0.7173 2.3162
9.6681 -0.4832 2.3162
9.6675 -0.2493 2.3162
9.6612 -0.0156 2.3162
9.6493 0.2176 2.3162
9.6318 0.4503 2.3162
9.6087 0.6823 2.3162
9.5800 0.9133 2.3162
9.5458 1.1435 2.3162
9.5062 1.3725 2.3162
9.4611 1.6004 2.3162
9.4106 1.8268 2.3162
9.3547 2.0518 2.3162
9.2935 2.2752 2.3162
9.2270 2.4968 2.3162
9.1554 2.7166 2.3162
9.0785 2.9344 2.3162
8.9966 3.1501 2.3162
8.9096 3.3637 2.3162
8.8177 3.5749 2.3162
8.7208 3.7837 2.3162
8.6191 3.9899 2.3162
8.5125 4.1935 2.3162
8.4013 4.3944 2.3162
8.2855 4.5923 2.3162
8.1650 4.7874 2.3162
8.0401 4.9793 2.3162
7.9108 5.1681 2.3162
7.7772 5.3536 2.3162
7.6393 5.5358 2.3162
7.4972 5.7146 2.3162
7.3511 5.8897 2.3162
7.2010 6.0613 2.3162
7.0471 6.2292 2.3162
6.8893 6.3933 2.3162
6.7278 6.5535 2.3162
6.5127 6.6587 2.2985
6.3454 6.8098 2.2985
6.1747 6.9568 2.2985
6.0007 7.0997 2.2985
5.8234 7.2383 2.2985
3.0487 3.9831 1.2418
5.4598 7.5028 2.2985
5.2736 7.6284 2.2985
5.0846 7.7496 2.2985
4.8929 7.8663 2.2985
4.6986 7.9784 2.2985
4.5019 8.0858 2.2985
4.3028 8.1886 2.2985
3.0458 6.1539 1.7070
2.8804 6.1923 1.6985
3.6924 8.4684 2.2985
3.4849 8.5521 2.2985
3.2756 8.6308 2.2985
3.0646 8.7046 2.2985
2.8583 8.7927 2.3036
2.6552 8.8949 2.3136
2.5313 9.2957 2.4018
2.3049 9.3519 2.4018
2.0773 9.4027 2.4018
1.8486 9.4483 2.4018
1.6189 9.4885 2.4018
1.3884 9.5234 2.4018
1.1572 9.5528 2.4018
0.9254 9.5769 2.4018
0.6931 9.5955 2.4018
0.4605 9.6088 2.4018
0.2276 9.6166 2.4018
-0.0053 9.6190 2.4018
-0.2383 9.6160 2.4018
-0.4711 9.6076 2.4018
-0.7037 9.5937 2.4018
-0.9359 9.5745 2.4018
-1.1676 9.5498 2.4018
-1.3986 9.5198 2.4018
-1.6290 9.4844 2.4018
-1.8585 9.4436 2.4018
-2.0870 9.3975 2.4018
-2.3144 9.3460 2.4018
-2.5406 9.2893 2.4018
-2.7655 9.2273 2.4018
-2.9890 9.1600 2.4018
-3.2108 9.0876 2.4018
-3.4310 9.0100 2.4018
-3.6494 8.9272 2.4018
-3.8658 8.8393 2.4018
-4.0802 8.7464 2.4018
-4.2925 8.6485 2.4018
-4.5025 8.5456 2.4018
-4.7102 8.4377 2.4018
-4.9153 8.3250 2.4018
-5.1179 8.2075 2.4018
-5.3177 8.0852 2.4018
-5.4013 7.7945 2.3524
-5.4638 7.4906 2.2987
-5.6467 7.3603 2.2987
-5.8266 7.2256 2.2987
-6.0033 7.0866 2.2987
-6.1769 6.9435 2.2987
-6.3471 6.7962 2.2987
-6.5140 6.6449 2.2987
-6.6773 6.4896 2.2987
-6.8371 6.3304 2.2987
-6.9931 6.1674 2.2987
-7.1454 6.0007 2.2987
-7.2939 5.8303 2.2987
-7.4384 5.6563 2.2987
-7.5788 5.4788 2.2987
-7.7151 5.2979 2.2987
-7.8472 5.1138 2.2987
-7.9750 4.9264 2.2987
-8.0985 4.7358 2.2987
-8.2175 4.5423 2.2987
-8.3319 4.3459 2.2987
-8.4418 4.1466 2.2987
-8.5470 3.9446 2.2987
-8.6475 3.7400 2.2987
-8.7431 3.5329 2.2987
-8.8339 3.3234 2.2987
-8.9197 3.1116 2.2987
-9.0006 2.8976 2.2987
-9.0764 2.6816 2.2987
-9.1470 2.4637 2.2987
-9.2126 2.2439 2.2987
-9.2729 2.0224 2.2987
-9.3279 1.7994 2.2987
-9.3776 1.5749 2.2987
-9.4220 1.3490 2.2987
-9.5560 1.1333 2.3218
-9.5899 0.9028 2.3218
-9.6182 0.6715 2.3218
-9.6411 0.4393 2.3218
-9.6583 0.2063 2.3218
-9.6699 -0.0271 2.3218
-9.6759 -0.2610 2.3218
-9.6763 -0.4952 2.3218
-9.6710 -0.7296 2.3218
-9.6600 -0.9640 2.3218
-9.6434 -1.1982 2.3218
-9.6210 -1.4322 2.3218
-6.5799 -1.1426 1.5925
-6.5017 -1.2915 1.5792
-6.5034 -1.4560 1.5861
-6.6532 -1.6592 1.6304
-9.3302 -2.5677 2.2987
-9.2744 -2.7949 2.2987
-9.2129 -3.0210 2.2987
-8.5635 -3.0389 2.1523
-8.4279 -3.2219 2.1352
-8.9954 -3.6902 2.2987
-8.9119 -3.9099 2.2987
-8.8230 -4.1277 2.2987
-8.7286 -4.3434 2.2987
-8.6290 -4.5569 2.2987
-8.5240 -4.7681 2.2987
-8.4138 -4.9769 2.2987
-8.2984 -5.1829 2.2987
-8.1778 -5.3863 2.2987
-8.0522 -5.5868 2.2987
-7.9216 -5.7843 2.2987
-7.7860 -5.9786 2.2987
-7.6456 -6.1697 2.2987
-7.1419 -6.0546 2.2987
-6.9989 -6.2297 2.2987
-6.8515 -6.4014 2.2987
-6.6998 -6.5695 2.2987
-6.5439 -6.7339 2.2987
-6.3839 -6.8944 2.2987
-6.2198 -7.0511 2.2987
-6.0518 -7.2037 2.2987
-5.8800 -7.3522 2.2987
-5.7044 -7.4964 2.2987
-5.5252 -7.6363 2.2987
-5.4276 -7.8957 2.3353
-5.3876 -8.2572 2.4018
-5.1896 -8.3892 2.4018
-4.9884 -8.5163 2.4018
-4.7839 -8.6384 2.4018
-4.5764 -8.7555 2.4018
-4.3659 -8.8673 2.4018
-4.1526 -8.9739 2.4018
-3.9366 -9.0752 2.4018
-3.7181 -9.1711 2.4018
-3.4972 -9.2615 2.4018
-3.2740 -9.3464 2.4018
-3.0487 -9.4257 2.4018
-2.8214 -9.4994 2.4018
-2.5923 -9.5674 2.4018
-2.3615 -9.6296 2.4018
-2.1291 -9.6861 2.4018
-1.8954 -9.7367 2.4018
-1.6604 -9.7814 2.4018
-1.4243 -9.8203 2.4018
-1.1873 -9.8532 2.4018
-0.9495 -9.8802 2.4018
-0.7111 -9.9012 2.4018
-0.4722 -9.9162 2.4018
-0.2330 -9.9253 2.4018
0.0063 -9.9283 2.4018
0.2457 -9.9253 2.4018
0.4849 -9.9164 2.4018
0.7238 -9.9014 2.4018
0.9622 -9.8804 2.4018
1.2001 -9.8535 2.4018
1.4371 -9.8206 2.4018
1.6732 -9.7818 2.4018
1.9083 -9.7371 2.4018
2.1421 -9.6865 2.4018
2.3746 -9.6301 2.4018
2.6054 -9.5679 2.4018
2.7128 -9.0915 2.2985
2.9304 -9.0210 2.2985
3.1462 -8.9451 2.2985
3.3599 -8.8638 2.2985
3.5714 -8.7773 2.2985
3.7807 -8.6855 2.2985
3.9875 -8.5885 2.2985
4.1917 -8.4865 2.2985
4.3933 -8.3794 2.2985
4.5920 -8.2673 2.2985
4.7879 -8.1504 2.2985
4.9806 -8.0287 2.2985
5.1702 -7.9022 2.2985
5.3564 -7.7712 2.2985
4.9506 -6.8241 2.0543
5.0309 -6.5942 2.0221
5.4928 -6.8504 2.1420
6.0663 -7.2025 2.2985
5.8326 -6.5954 2.1504
5.4699 -5.8925 1.9649
5.6722 -5.8223 1.9879
6.0094 -5.8777 2.0571
6.0453 -5.6340 2.0237
5.7159 -5.0749 1.8731
6.4410 -5.4466 2.0686
6.5362 -5.2620 2.0593
6.6267 -5.0763 2.0501
6.6576 -4.8496 2.0244
6.7384 -4.6638 2.0157
6.8415 -4.4949 2.0151
7.0076 -4.3656 2.0340
6.8349 -4.0324 1.9566
6.9714 -3.8892 1.9699
7.0642 -3.7203 1.9718
6.9869 -3.4669 1.9279
7.4059 -3.4546 2.0216
8.5706 -3.7487 2.3162
8.6510 -3.5376 2.3162
8.7262 -3.3248 2.3162
8.7961 -3.1104 2.3162
8.8607 -2.8945 2.3162
8.9200 -2.6773 2.3162
8.9739 -2.4589 2.3162
9.0224 -2.2395 2.3162
9.0655 -2.0191 2.3162
9.1032 -1.7979 2.3162
9.1355 -1.5760 2.3162
9.1624 -1.3537 2.3162
9.1838 -1.1309 2.3162
9.1999 -0.9079 2.3162
9.2105 -0.6847 2.3162
9.2156 -0.4616 2.3162
9.2154 -0.2386 2.3162
9.2098 -0.0159 2.3162
9.1989 0.2065 2.3162
9.1826 0.4283 2.3162
9.1609 0.6495 2.3162
9.1340 0.8698 2.3162
9.1018 1.0893 2.3162
9.0644 1.3078 2.3162
9.0218 1.5251 2.3162
8.9740 1.7411 2.3162
8.9211 1.9557 2.3162
8.8631 2.1688 2.3162
8.8001 2.3803 2.3162
8.7321 2.5900 2.3162
8.6591 2.7979 2.3162
8.5813 3.0038 2.3162
8.4987 3.2076 2.3162
8.4113 3.4092 2.3162
8.3192 3.6085 2.3162
8.2225 3.8054 2.3162
8.1212 3.9998 2.3162
8.0154 4.1915 2.3162
7.9052 4.3806 2.3162
7.7905 4.5668 2.3162
7.6716 4.7501 2.3162
7.5485 4.9304 2.3162
7.4213 5.1077 2.3162
7.2899 5.2817 2.3162
7.1546 5.4524 2.3162
7.0155 5.6198 2.3162
6.8724 5.7837 2.3162
6.7257 5.9441 2.3162
6.5253 6.0545 2.2985
6.3725 6.2064 2.2985
6.2163 6.3546 2.2985
6.0568 6.4990 2.2985
5.8940 6.6395 2.2985
5.7280 6.7761 2.2985
5.5590 6.9087 2.2985
3.0492 3.9832 1.3010
5.2121 7.1614 2.2985
5.0345 7.2816 2.2985
4.8542 7.3974 2.2985
4.6713 7.5090 2.2985
4.4859 7.6161 2.2985
4.2982 7.7189 2.2985
4.1082 7.8172 2.2985
3.0445 6.1505 1.7870
2.8770 6.1844 1.7768
3.5256 8.0848 2.2985
3.3275 8.1648 2.2985
3.1277 8.2401 2.2985
2.9263 8.3107 2.2985
2.7233 8.3765 2.2985
2.6321 8.8166 2.4018
2.4172 8.8754 2.4018
2.2010 8.9291 2.4018
1.9836 8.9778 2.4018
1.7652 9.0214 2.4018
1.5460 9.0599 2.4018
1.3259 9.0932 2.4018
1.1051 9.1214 2.4018
0.8837 9.1444 2.4018
0.6619 9.1623 2.4018
0.4398 9.1750 2.4018
0.2174 9.1825 2.4018
-0.0051 9.1848 2.4018
-0.2275 9.1819 2.4018
-0.4498 9.1738 2.4018
-0.6719 9.1606 2.4018
-0.8937 9.1422 2.4018
-1.1149 9.1186 2.4018
-1.3356 9.0899 2.4018
-1.5556 9.0560 2.4018
-1.7747 9.0170 2.4018
-1.9929 8.9729 2.4018
-2.2101 8.9237 2.4018
-2.4261 8.8694 2.4018
-2.6408 8.8101 2.4018
-2.8541 8.7458 2.4018
-3.0659 8.6765 2.4018
-3.2761 8.6023 2.4018
-3.4846 8.5232 2.4018
-3.6912 8.4391 2.4018
-3.8959 8.3503 2.4018
-4.0985 8.2566 2.4018
-4.2990 8.1582 2.4018
-4.4971 8.0551 2.4018
-4.6929 7.9473 2.4018
-4.8862 7.8350 2.4018
-5.0769 7.7181 2.4018
-5.2649 7.5966 2.4018
-5.4019 7.4048 2.3806
-5.4119 7.0533 2.3078
-5.5622 6.8968 2.2987
-5.7308 6.7639 2.2987
-5.8963 6.6271 2.2987
-6.0586 6.4864 2.2987
-6.2177 6.3418 2.2987
-6.3735 6.1934 2.2987
-6.5258 6.0412 2.2987
-6.6745 5.8855 2.2987
-6.8197 5.7261 2.2987
-6.9611 5.5633 2.2987
-7.0988 5.3971 2.2987
-7.2326 5.2275 2.2987
-7.3624 5.0548 2.2987
-7.4882 4.8789 2.2987
-7.6099 4.6999 2.2987
-7.7274 4.5179 2.2987
-7.8407 4.3331 2.2987
-7.9496 4.1455 2.2987
-8.0542 3.9552 2.2987
-8.1542 3.7624 2.2987
-8.2498 3.5670 2.2987
-8.3407 3.3693 2.2987
-8.4270 3.1693 2.2987
-8.5085 2.9672 2.2987
-8.5853 2.7630 2.2987
-8.6572 2.5568 2.2987
-8.7243 2.3489 2.2987
-8.7864 2.1392 2.2987
-8.8436 1.9278 2.2987
-8.8957 1.7150 2.2987
-8.9427 1.5009 2.2987
-8.9847 1.2855 2.2987
-9.0214 1.0689 2.2987
-9.0531 0.8513 2.2987
-9.0794 0.6329 2.2987
-9.1006 0.4137 2.2987
-9.1165 0.1938 2.2987
-9.1271 -0.0266 2.2987
-9.1323 -0.2473 2.2987
-9.1323 -0.4684 2.2987
-9.1269 -0.6895 2.2987
-9.1161 -0.9107 2.2987
-9.1000 -1.1317 2.2987
-9.0785 -1.3524 2.2987
-6.5793 -1.1432 1.6708
-6.5015 -1.2922 1.6570
-6.5036 -1.4567 1.6644
-6.6552 -1.6605 1.7114
-8.8906 -2.4477 2.2987
-8.8370 -2.6641 2.2987
-8.7781 -2.8794 2.2987
-8.7139 -3.0933 2.2987
-8.6445 -3.3057 2.2987
-8.5698 -3.5166 2.2987
-8.4899 -3.7258 2.2987
-8.4048 -3.9331 2.2987
-8.3146 -4.1384 2.2987
-8.2193 -4.3416 2.2987
-8.1190 -4.5426 2.2987
-8.0137 -4.7412 2.2987
-7.9035 -4.9374 2.2987
-7.7884 -5.1308 2.2987
-7.6685 -5.3216 2.2987
-7.5438 -5.5094 2.2987
-7.4144 -5.6943 2.2987
-7.2804 -5.8760 2.2987
-6.8144 -5.7779 2.2987
-6.6777 -5.9448 2.2987
-6.5369 -6.1084 2.2987
-6.3920 -6.2686 2.2987
-6.2431 -6.4252 2.2987
-6.0902 -6.5782 2.2987
-5.9335 -6.7275 2.2987
-5.7731 -6.8729 2.2987
-5.6155 -7.0225 2.3014
-5.4414 -7.1518 2.2987
-5.4239 -7.4974 2.3657
-5.3244 -7.7466 2.4018
-5.1388 -7.8769 2.4018
-4.9498 -8.0027 2.4018
-4.7578 -8.1237 2.4018
-4.5627 -8.2400 2.4018
-4.3646 -8.3514 2.4018
-4.1638 -8.4579 2.4018
-3.9603 -8.5594 2.4018
-3.7543 -8.6559 2.4018
-3.5458 -8.7472 2.4018
-3.3351 -8.8333 2.4018
-3.1222 -8.9141 2.4018
-2.9073 -8.9896 2.4018
-2.6905 -9.0597 2.4018
-2.4720 -9.1245 2.4018
-2.2518 -9.1837 2.4018
-2.0302 -9.2374 2.4018
-1.8073 -9.2856 2.4018
-1.5832 -9.3282 2.4018
-1.3581 -9.3652 2.4018
-1.1321 -9.3965 2.4018
-0.9054 -9.4222 2.4018
-0.6781 -9.4422 2.4018
-0.4503 -9.4565 2.4018
-0.2222 -9.4651 2.4018
0.0061 -9.4680 2.4018
0.2343 -9.4651 2.4018
0.4624 -9.4566 2.4018
0.6902 -9.4423 2.4018
0.9175 -9.4224 2.4018
1.1443 -9.3967 2.4018
1.3704 -9.3654 2.4018
1.5955 -9.3284 2.4018
1.8197 -9.2859 2.4018
2.0427 -9.2377 2.4018
2.2643 -9.1840 2.4018
2.4845 -9.1248 2.4018
2.6244 -8.7961 2.3318
2.7945 -8.6034 2.2985
3.0002 -8.5312 2.2985
3.2041 -8.4538 2.2985
3.4059 -8.3714 2.2985
3.6055 -8.2840 2.2985
3.8028 -8.1916 2.2985
3.9976 -8.0944 2.2985
4.1899 -7.9924 2.2985
4.3796 -7.8857 2.2985
4.5664 -7.7744 2.2985
4.7503 -7.6584 2.2985
4.9313 -7.5380 2.2985
5.1090 -7.4132 2.2985
4.9401 -6.8105 2.1491
5.1404 -6.7385 2.1661
5.6195 -7.0094 2.2973
5.7867 -6.8715 2.2985
5.9015 -6.6743 2.2809
5.3590 -5.7739 2.0180
5.7237 -5.8760 2.1027
6.1209 -5.9877 2.1963
6.3037 -5.8757 2.2118
6.2755 -5.5727 2.1556
6.3694 -5.3869 2.1440
6.4612 -5.2024 2.1335
6.5510 -5.0192 2.1241
6.6066 -4.8133 2.1053
6.7123 -4.6466 2.1042
7.4060 -4.8667 2.2859
6.9209 -4.3125 2.1051
6.6564 -3.9279 1.9967
7.1539 -3.9919 2.1181
7.0724 -3.7255 2.0684
6.9948 -3.4716 2.0222
7.3672 -3.4374 2.1070
8.1805 -3.5790 2.3162
8.2576 -3.3777 2.3162
8.3297 -3.1747 2.3162
8.3968 -2.9702 2.3162
8.4588 -2.7642 2.3162
8.5157 -2.5569 2.3162
8.5675 -2.3485 2.3162
8.6141 -2.1391 2.3162
8.6556 -1.9288 2.3162
8.6920 -1.7176 2.3162
8.7232 -1.5059 2.3162
8.7492 -1.2936 2.3162
8.7700 -1.0809 2.3162
8.7856 -0.8680 2.3162
8.7961 -0.6549 2.3162
8.8014 -0.4418 2.3162
8.8016 -0.2288 2.3162
8.7966 -0.0161 2.3162
8.7864 0.1963 2.3162
8.7712 0.4081 2.3162
8.7509 0.6194 2.3162
8.7255 0.8300 2.3162
8.6951 1.0397 2.3162
8.6597 1.2484 2.3162
8.6193 1.4561 2.3162
8.5740 1.6625 2.3162
8.5238 1.8676 2.3162
8.4687 2.0713 2.3162
8.4088 2.2735 2.3162
8.3441 2.4740 2.3162
8.2748 2.6727 2.3162
8.2007 2.8696 2.3162
8.1220 3.0644 2.3162
8.0388 3.2572 2.3162
7.9511 3.4478 2.3162
7.8589 3.6361 2.3162
7.7624 3.8221 2.3162
7.6615 4.0055 2.3162
7.5564 4.1863 2.3162
7.4471 4.3645 2.3162
7.3337 4.5399 2.3162
7.2162 4.7124 2.3162
7.0948 4.8820 2.3162
6.9695 5.0485 2.3162
6.8403 5.2119 2.3162
6.6564 5.3312 2.2985
6.5209 5.4869 2.2985
6.3818 5.6393 2.2985
6.2393 5.7882 2.2985
6.0934 5.9337 2.2985
5.9442 6.0756 2.2985
5.7918 6.2138 2.2985
5.6363 6.3483 2.2985
5.4777 6.4791 2.2985
5.3162 6.6060 2.2985
3.0496 3.9832 1.3606
4.9847 6.8481 2.2985
4.8150 6.9631 2.2985
4.6426 7.0741 2.2985
4.4678 7.1809 2.2985
4.2906 7.2836 2.2985
4.1111 7.3820 2.2985
3.9294 7.4761 2.2985
3.0432 6.1471 1.8675
2.8737 6.1764 1.8554
3.3723 7.7325 2.2985
3.1830 7.8091 2.2985
2.9919 7.8813 2.2985
2.7992 7.9489 2.2985
2.6482 8.1444 2.3365
2.5179 8.4330 2.4018
2.3123 8.4893 2.4018
2.1055 8.5408 2.4018
1.8976 8.5875 2.4018
1.6887 8.6292 2.4018
1.4789 8.6661 2.4018
1.2684 8.6980 2.4018
1.0572 8.7251 2.4018
0.8454 8.7471 2.4018
0.6333 8.7643 2.4018
0.4207 8.7764 2.4018
0.2080 8.7836 2.4018
-0.0048 8.7858 2.4018
-0.2176 8.7831 2.4018
-0.4303 8.7754 2.4018
-0.6428 8.7627 2.4018
-0.8549 8.7451 2.4018
-1.0666 8.7225 2.4018
-1.2777 8.6949 2.4018
-1.4881 8.6625 2.4018
-1.6978 8.6251 2.4018
-1.9065 8.5829 2.4018
-2.1142 8.5357 2.4018
-2.3208 8.4837 2.4018
-2.5262 8.4269 2.4018
-2.7302 8.3653 2.4018
-2.9328 8.2990 2.4018
-3.1339 8.2279 2.4018
-3.3332 8.1520 2.4018
-3.5308 8.0715 2.4018
-3.7266 7.9864 2.4018
-3.9203 7.8967 2.4018
-4.1120 7.8025 2.4018
-4.3015 7.7037 2.4018
-4.4887 7.6005 2.4018
-4.6735 7.4929 2.4018
-4.8558 7.3809 2.4018
-5.0355 7.2646 2.4018
-5.2125 7.1441 2.4018
-5.3867 7.0194 2.4018
-5.4059 6.7021 2.3361
-5.4805 6.4677 2.2987
-5.6387 6.3367 2.2987
-5.7938 6.2019 2.2987
-5.9458 6.0635 2.2987
-6.0945 5.9214 2.2987
-6.2400 5.7758 2.2987
-6.3821 5.6267 2.2987
-6.5207 5.4742 2.2987
-6.6558 5.3184 2.2987
-6.7872 5.1593 2.2987
-6.9149 4.9970 2.2987
-7.0388 4.8317 2.2987
-7.1589 4.6634 2.2987
-7.2750 4.4921 2.2987
-7.3871 4.3180 2.2987
-7.4951 4.1412 2.2987
-7.5990 3.9617 2.2987
-7.6987 3.7797 2.2987
-7.7940 3.5952 2.2987
-7.8851 3.4084 2.2987
-7.9717 3.2193 2.2987
-8.0539 3.0281 2.2987
-8.1315 2.8348 2.2987
-8.2046 2.6395 2.2987
-8.2731 2.4424 2.2987
-8.3368 2.2436 2.2987
-8.3959 2.0431 2.2987
-8.4502 1.8411 2.2987
-8.4996 1.6378 2.2987
-8.5443 1.4331 2.2987
-8.5840 1.2272 2.2987
-8.6188 1.0202 2.2987
-8.6487 0.8123 2.2987
-8.6736 0.6036 2.2987
-8.6934 0.3942 2.2987
-8.7082 0.1842 2.2987
-8.7180 -0.0263 2.2987
-8.7227 -0.2372 2.2987
-8.7223 -0.4483 2.2987
-8.7168 -0.6595 2.2987
-8.7062 -0.8707 2.2987
-8.6904 -1.0817 2.2987
-8.6696 -1.2925 2.2987
-6.5788 -1.1439 1.7496
-6.5013 -1.2929 1.7352
-6.5038 -1.4575 1.7432
-6.6573 -1.6617 1.7930
-8.4885 -2.3380 2.2987
-8.4370 -2.5445 2.2987
-8.3804 -2.7499 2.2987
-8.3188 -2.9540 2.2987
-8.2522 -3.1567 2.2987
-8.1805 -3.3579 2.2987
-8.1040 -3.5574 2.2987
-8.0225 -3.7551 2.2987
-7.9361 -3.9510 2.2987
-7.8449 -4.1448 2.2987
-7.7488 -4.3365 2.2987
-7.6481 -4.5259 2.2987
-7.5426 -4.7129 2.2987
-7.4325 -4.8973 2.2987
-7.3178 -5.0792 2.2987
-7.1986 -5.2583 2.2987
-7.0749 -5.4345 2.2987
-6.9468 -5.6077 2.2987
-6.5139 -5.5241 2.2987
-6.3831 -5.6835 2.2987
-6.2483 -5.8397 2.2987
-6.1096 -5.9926 2.2987
-5.9671 -6.1422 2.2987
-5.8208 -6.2882 2.2987
-5.6709 -6.4307 2.2987
-5.5174 -6.5695 2.2987
-5.4278 -6.7887 2.3276
-5.4234 -7.1291 2.3974
-5.2624 -7.2752 2.4018
-5.0882 -7.4039 2.4018
-4.9106 -7.5283 2.4018
-4.7300 -7.6483 2.4018
-4.5464 -7.7638 2.4018
-4.3599 -7.8747 2.4018
-4.1705 -7.9811 2.4018
-3.9786 -8.0827 2.4018
-3.7841 -8.1795 2.4018
-3.5871 -8.2716 2.4018
-3.3879 -8.3586 2.4018
-3.1865 -8.4408 2.4018
-2.9830 -8.5179 2.4018
-2.7777 -8.5899 2.4018
-2.5705 -8.6568 2.4018
-2.3617 -8.7186 2.4018
-2.1514 -8.7751 2.4018
-1.9397 -8.8263 2.4018
-1.7267 -8.8723 2.4018
-1.5126 -8.9129 2.4018
-1.2975 -8.9482 2.4018
-1.0816 -8.9781 2.4018
-0.8649 -9.0025 2.4018
-0.6478 -9.0216 2.4018
-0.4301 -9.0352 2.4018
-0.2122 -9.0434 2.4018
0.0058 -9.0462 2.4018
0.2238 -9.0435 2.4018
0.4417 -9.0353 2.4018
0.6594 -9.0217 2.4018
0.8766 -9.0026 2.4018
1.0933 -8.9782 2.4018
1.3092 -8.9483 2.4018
1.5243 -8.9130 2.4018
1.7385 -8.8724 2.4018
1.9515 -8.8265 2.4018
2.1633 -8.7752 2.4018
2.3737 -8.7187 2.4018
2.5826 -8.6570 2.4018
2.6699 -8.2208 2.2985
2.8665 -8.1518 2.2985
3.0613 -8.0780 2.2985
3.2542 -7.9994 2.2985
3.4449 -7.9160 2.2985
3.6335 -7.8279 2.2985
3.8197 -7.7351 2.2985
4.0035 -7.6378 2.2985
4.1848 -7.5360 2.2985
4.3634 -7.4297 2.2985
4.5393 -7.3191 2.2985
4.7122 -7.2041 2.2985
4.8822 -7.0850 2.2985
4.8134 -6.6368 2.1913
5.2128 -6.8344 2.2985
5.3732 -6.7031 2.2985
5.5303 -6.5679 2.2985
5.6838 -6.4290 2.2985
5.4064 -5.8258 2.1301
5.7636 -5.9178 2.2153
6.1227 -5.9904 2.2985
6.1351 -5.7195 2.2521
6.2031 -5.5093 2.2291
6.2963 -5.3260 2.2172
6.3874 -5.1439 2.2064
6.4766 -4.9630 2.1968
6.5561 -4.7774 2.1855
6.6862 -4.6294 2.1926
7.4369 -4.8880 2.4011
7.0467 -4.3918 2.2419
6.4861 -3.8282 2.0350
6.9764 -3.8937 2.1604
7.0806 -3.7307 2.1658
7.0027 -3.4764 2.1174
7.3286 -3.4203 2.1920
7.8225 -3.4233 2.3162
7.8965 -3.2309 2.3162
7.9657 -3.0369 2.3162
8.0301 -2.8414 2.3162
8.0897 -2.6445 2.3162
8.1444 -2.4464 2.3162
8.1942 -2.2471 2.3162
8.2391 -2.0469 2.3162
8.2791 -1.8458 2.3162
8.3142 -1.6439 2.3162
8.3443 -1.4414 2.3162
8.3695 -1.2384 2.3162
8.3897 -1.0350 2.3162
8.4050 -0.8313 2.3162
8.4153 -0.6275 2.3162
8.4207 -0.4236 2.3162
8.4211 -0.2199 2.3162
8.4167 -0.0163 2.3162
8.4073 0.1869 2.3162
8.3930 0.3896 2.3162
8.3739 0.5918 2.3162
8.3499 0.7933 2.3162
8.3211 0.9940 2.3162
8.2875 1.1939 2.3162
8.2492 1.3926 2.3162
8.2061 1.5903 2.3162
8.1583 1.7866 2.3162
8.1059 1.9817 2.3162
8.0488 2.1752 2.3162
7.9872 2.3672 2.3162
7.9211 2.5575 2.3162
7.8504 2.7461 2.3162
7.7754 2.9327 2.3162
7.6960 3.1174 2.3162
7.6123 3.3000 2.3162
7.5243 3.4804 2.3162
7.4321 3.6585 2.3162
7.3357 3.8343 2.3162
7.2353 4.0076 2.3162
7.1309 4.1783 2.3162
7.0225 4.3463 2.3162
6.9102 4.5117 2.3162
6.7941 4.6742 2.3162
6.6235 4.7970 2.2985
6.5010 4.9525 2.2985
6.3749 5.1048 2.2985
6.2453 5.2541 2.2985
6.1123 5.4002 2.2985
5.9759 5.5430 2.2985
5.8363 5.6824 2.2985
5.6936 5.8185 2.2985
5.5477 5.9510 2.2985
5.3989 6.0800 2.2985
5.2471 6.2054 2.2985
5.0925 6.3271 2.2985
3.0501 3.9833 1.4206
4.7752 6.5593 2.2985
4.6127 6.6696 2.2985
4.4476 6.7761 2.2985
4.2802 6.8785 2.2985
4.1105 6.9770 2.2985
3.9387 7.0714 2.2985
3.7647 7.1618 2.2985
3.0419 6.1436 1.9483
2.8703 6.1684 1.9343
3.2311 7.4077 2.2985
3.0497 7.4812 2.2985
2.8667 7.5504 2.2985
2.6821 7.6153 2.2985
2.6083 8.0207 2.4018
2.4126 8.0793 2.4018
2.2156 8.1334 2.4018
2.0175 8.1828 2.4018
1.8183 8.2276 2.4018
1.6182 8.2676 2.4018
1.4172 8.3030 2.4018
1.2154 8.3337 2.4018
1.0130 8.3596 2.4018
0.8101 8.3808 2.4018
0.6068 8.3972 2.4018
0.4032 8.4089 2.4018
0.1993 8.4158 2.4018
-0.0046 8.4180 2.4018
-0.2085 8.4153 2.4018
-0.4123 8.4079 2.4018
-0.6159 8.3958 2.4018
-0.8192 8.3789 2.4018
-1.0220 8.3572 2.4018
-1.2243 8.3308 2.4018
-1.4259 8.2996 2.4018
-1.6268 8.2638 2.4018
-1.8268 8.2232 2.4018
-2.0258 8.1780 2.4018
-2.2238 8.1282 2.4018
-2.4205 8.0737 2.4018
-2.6160 8.0146 2.4018
-2.8101 7.9509 2.4018
-3.0027 7.8826 2.4018
-3.1937 7.8099 2.4018
-3.3830 7.7327 2.4018
-3.5705 7.6510 2.4018
-3.7561 7.5650 2.4018
-3.9397 7.4746 2.4018
-4.1211 7.3798 2.4018
-4.3004 7.2808 2.4018
-4.4774 7.1776 2.4018
-4.6519 7.0702 2.4018
-4.8240 6.9587 2.4018
-4.9935 6.8431 2.4018
-5.1603 6.7235 2.4018
-5.3243 6.6000 2.4018
-5.4034 6.3758 2.3659
-5.4142 6.0835 2.3042
-5.5498 5.9399 2.2987
-5.6952 5.8071 2.2987
-5.8376 5.6709 2.2987
-5.9768 5.5313 2.2987
-6.1127 5.3883 2.2987
-6.2453 5.2421 2.2987
-6.3745 5.0927 2.2987
-6.5002 4.9402 2.2987
-6.6223 4.7847 2.2987
-6.7408 4.6262 2.2987
-6.8556 4.4649 2.2987
-6.9666 4.3008 2.2987
-7.0737 4.1339 2.2987
-7.1769 3.9645 2.2987
-7.2762 3.7925 2.2987
-7.3714 3.6181 2.2987
-7.4625 3.4414 2.2987
-7.5494 3.2624 2.2987
-7.6321 3.0813 2.2987
-7.7105 2.8981 2.2987
-7.7846 2.7129 2.2987
-7.8543 2.5259 2.2987
-7.9196 2.3372 2.2987
-7.9803 2.1468 2.2987
-8.0366 1.9548 2.2987
-8.0883 1.7614 2.2987
-8.1353 1.5667 2.2987
-8.1778 1.3707 2.2987
-8.2155 1.1736 2.2987
-8.2485 0.9755 2.2987
-8.2768 0.7765 2.2987
-8.3003 0.5767 2.2987
-8.3190 0.3763 2.2987
-8.3329 0.1753 2.2987
-8.3419 -0.0261 2.2987
-8.3461 -0.2279 2.2987
-8.3454 -0.4298 2.2987
-8.3399 -0.6319 2.2987
-8.3294 -0.8339 2.2987
-8.3140 -1.0358 2.2987
-8.2938 -1.2374 2.2987
-6.5782 -1.1445 1.8288
-6.5012 -1.2936 1.8139
-6.5040 -1.4583 1.8225
-6.6595 -1.6630 1.8752
-8.1191 -2.2371 2.2987
-8.0695 -2.4346 2.2987
-8.0151 -2.6309 2.2987
-7.9559 -2.8261 2.2987
-7.8919 -3.0198 2.2987
-7.8231 -3.2121 2.2987
-7.7496 -3.4028 2.2987
-7.6714 -3.5918 2.2987
-7.5886 -3.7789 2.2987
-7.5011 -3.9641 2.2987
-7.4090 -4.1472 2.2987
-7.3124 -4.3282 2.2987
-7.2114 -4.5068 2.2987
-7.1059 -4.6831 2.2987
-6.9960 -4.8568 2.2987
-6.8818 -5.0278 2.2987
-6.7633 -5.1961 2.2987
-6.6407 -5.3616 2.2987
-6.2372 -5.2903 2.2987
-6.1118 -5.4428 2.2987
-5.9826 -5.5922 2.2987
-5.8496 -5.7385 2.2987
-5.7130 -5.8816 2.2987
-5.5729 -6.0213 2.2987
-5.4331 -6.1620 2.3004
-5.4224 -6.4573 2.3597
-5.3619 -6.7073 2.4018
-5.2014 -6.8383 2.4018
-5.0377 -6.9654 2.4018
-4.8707 -7.0885 2.4018
-4.7007 -7.2074 2.4018
-4.5277 -7.3221 2.4018
-4.3518 -7.4325 2.4018
-4.1732 -7.5386 2.4018
-3.9919 -7.6403 2.4018
-3.8081 -7.7374 2.4018
-3.6219 -7.8300 2.4018
-3.4333 -7.9179 2.4018
-3.2426 -8.0012 2.4018
-3.0498 -8.0797 2.4018
-2.8550 -8.1534 2.4018
-2.6584 -8.2222 2.4018
-2.4601 -8.2862 2.4018
-2.2603 -8.3451 2.4018
-2.0590 -8.3991 2.4018
-1.8563 -8.4481 2.4018
-1.6525 -8.4920 2.4018
-1.4476 -8.5309 2.4018
-1.2417 -8.5646 2.4018
-1.0351 -8.5931 2.4018
-0.8277 -8.6165 2.4018
-0.6199 -8.6347 2.4018
-0.4116 -8.6477 2.4018
-0.2031 -8.6556 2.4018
0.0056 -8.6582 2.4018
0.2142 -8.6556 2.4018
0.4228 -8.6478 2.4018
0.6311 -8.6347 2.4018
0.8389 -8.6165 2.4018
1.0463 -8.5932 2.4018
1.2530 -8.5646 2.4018
1.4588 -8.5309 2.4018
1.6638 -8.4921 2.4018
1.8677 -8.4482 2.4018
2.0704 -8.3992 2.4018
2.2718 -8.3452 2.4018
2.4717 -8.2861 2.4018
2.6212 -8.0716 2.3578
2.7435 -7.8028 2.2985
2.9300 -7.7322 2.2985
3.1146 -7.6571 2.2985
3.2972 -7.5774 2.2985
3.4777 -7.4931 2.2985
3.6560 -7.4045 2.2985
3.8320 -7.3114 2.2985
4.0056 -7.2141 2.2985
4.1766 -7.1125 2.2985
4.3450 -7.0067 2.2985
4.5107 -6.8968 2.2985
4.6735 -6.7829 2.2985
4.8333 -6.6651 2.2985
4.9901 -6.5433 2.2985
5.1438 -6.4178 2.2985
5.2942 -6.2885 2.2985
5.4414 -6.1556 2.2985
5.4549 -5.8789 2.2450
5.7253 -5.8794 2.2985
5.8620 -5.7362 2.2985
5.9743 -5.5705 2.2906
6.1242 -5.4401 2.2985
6.2244 -5.2660 2.2892
6.3149 -5.0864 2.2782
6.4034 -4.9078 2.2683
6.5061 -4.7418 2.2649
6.6602 -4.6123 2.2808
6.7051 -4.4079 2.2606
7.0665 -4.4050 2.3476
6.9881 -4.1254 2.2895
6.7909 -3.7910 2.1958
7.0889 -3.7360 2.2641
7.0108 -3.4813 2.2133
7.2902 -3.4032 2.2766
7.4925 -3.2798 2.3162
7.5637 -3.0956 2.3162
7.6302 -2.9099 2.3162
7.6922 -2.7227 2.3162
7.7495 -2.5342 2.3162
7.8021 -2.3445 2.3162
7.8501 -2.1537 2.3162
7.8934 -1.9619 2.3162
7.9320 -1.7693 2.3162
7.9658 -1.5759 2.3162
7.9950 -1.3819 2.3162
8.0193 -1.1875 2.3162
8.0390 -0.9926 2.3162
8.0539 -0.7975 2.3162
8.0641 -0.6022 2.3162
8.0695 -0.4069 2.3162
8.0702 -0.2116 2.3162
8.0662 -0.0165 2.3162
8.0575 0.1782 2.3162
8.0441 0.3725 2.3162
8.0260 0.5663 2.3162
8.0033 0.7595 2.3162
7.9759 0.9519 2.3162
7.9440 1.1435 2.3162
7.9075 1.3341 2.3162
7.8665 1.5236 2.3162
7.8209 1.7119 2.3162
7.7709 1.8989 2.3162
7.7165 2.0845 2.3162
7.6576 2.2687 2.3162
7.5945 2.4512 2.3162
7.5270 2.6321 2.3162
7.4553 2.8111 2.3162
7.3794 2.9883 2.3162
7.2993 3.1634 2.3162
7.2151 3.3365 2.3162
7.1269 3.5074 2.3162
7.0348 3.6761 2.3162
6.9387 3.8424 2.3162
6.8387 4.0062 2.3162
6.7349 4.1675 2.3162
6.5770 4.2933 2.2985
6.4667 4.4481 2.2985
6.3528 4.6001 2.2985
6.2355 4.7493 2.2985
6.1147 4.8956 2.2985
5.9905 5.0389 2.2985
5.8631 5.1792 2.2985
5.7324 5.3163 2.2985
5.5987 5.4501 2.2985
5.4618 5.5808 2.2985
5.3221 5.7081 2.2985
5.1794 5.8319 2.2985
5.0339 5.9524 2.2985
4.8857 6.0693 2.2985
3.0506 3.9833 1.4809
4.5814 6.2923 2.2985
4.4256 6.3982 2.2985
4.2673 6.5005 2.2985
4.1068 6.5989 2.2985
3.9440 6.6935 2.2985
3.7792 6.7842 2.2985
3.6123 6.8710 2.2985
3.0406 6.1402 2.0296
2.8669 6.1603 2.0135
3.1005 7.1073 2.2985
2.9264 7.1779 2.2985
2.7508 7.2444 2.2985
2.6442 7.5067 2.3614
2.5029 7.6958 2.4018
2.3152 7.7522 2.4018
2.1262 7.8041 2.4018
1.9361 7.8516 2.4018
1.7449 7.8946 2.4018
1.5529 7.9331 2.4018
1.3600 7.9671 2.4018
1.1664 7.9966 2.4018
0.9722 8.0215 2.4018
0.7775 8.0419 2.4018
0.5824 8.0577 2.4018
0.3869 8.0689 2.4018
0.1913 8.0755 2.4018
-0.0044 8.0776 2.4018
-0.2001 8.0751 2.4018
-0.3957 8.0680 2.4018
-0.5911 8.0563 2.4018
-0.7861 8.0400 2.4018
-0.9808 8.0192 2.4018
-1.1749 7.9939 2.4018
-1.3684 7.9639 2.4018
-1.5611 7.9295 2.4018
-1.7531 7.8905 2.4018
-1.9441 7.8471 2.4018
-2.1340 7.7992 2.4018
-2.3228 7.7468 2.4018
-2.5104 7.6900 2.4018
-2.6966 7.6288 2.4018
-2.8814 7.5633 2.4018
-3.0646 7.4934 2.4018
-3.2462 7.4192 2.4018
-3.4261 7.3408 2.4018
-3.6041 7.2581 2.4018
-3.7802 7.1712 2.4018
-3.9543 7.0802 2.4018
-4.1263 6.9851 2.4018
-4.2960 6.8860 2.4018
-4.4634 6.7828 2.4018
-4.6284 6.6757 2.4018
-4.7910 6.5647 2.4018
-4.9509 6.4498 2.4018
-5.1081 6.3312 2.4018
-5.2626 6.2088 2.4018
-5.4039 6.0711 2.3972
-5.4075 5.7868 2.3347
-5.4636 5.5701 2.2987
-5.6001 5.4393 2.2987
-5.7334 5.3052 2.2987
-5.8637 5.1680 2.2987
-5.9907 5.0276 2.2987
-6.1145 4.8842 2.2987
-6.2349 4.7378 2.2987
-6.3519 4.5885 2.2987
-6.4654 4.4364 2.2987
-6.5753 4.2815 2.2987
-6.6816 4.1240 2.2987
-6.7842 3.9639 2.2987
-6.8830 3.8012 2.2987
-6.9780 3.6362 2.2987
-7.0690 3.4689 2.2987
-7.1562 3.2993 2.2987
-7.2393 3.1276 2.2987
-7.3184 2.9538 2.2987
-7.3934 2.7780 2.2987
-7.4642 2.6004 2.2987
-7.5308 2.4210 2.2987
-7.5931 2.2400 2.2987
-7.6512 2.0573 2.2987
-7.7048 1.8732 2.2987
-7.7541 1.6878 2.2987
-7.7990 1.5010 2.2987
-7.8394 1.3131 2.2987
-7.8753 1.1241 2.2987
-7.9067 0.9342 2.2987
-7.9336 0.7434 2.2987
-7.9559 0.5519 2.2987
-7.9735 0.3598 2.2987
-7.9866 0.1672 2.2987
-7.9949 -0.0259 2.2987
-7.9987 -0.2193 2.2987
-7.9978 -0.4128 2.2987
-7.9922 -0.6064 2.2987
-7.9819 -0.8000 2.2987
-7.9669 -0.9934 2.2987
-7.9472 -1.1865 2.2987
-6.5776 -1.1451 1.9084
-6.5010 -1.2943 1.8931
-6.5042 -1.4591 1.9022
-6.6541 -1.6624 1.9556
-7.7785 -2.1442 2.2987
-7.7307 -2.3333 2.2987
-7.6784 -2.5213 2.2987
-7.6214 -2.7081 2.2987
-7.5598 -2.8936 2.2987
-7.4937 -3.0777 2.2987
-7.4231 -3.2603 2.2987
-7.3480 -3.4412 2.2987
-7.2684 -3.6204 2.2987
-7.1843 -3.7976 2.2987
-7.0960 -3.9729 2.2987
-7.0032 -4.1461 2.2987
-6.9062 -4.3170 2.2987
-6.8050 -4.4857 2.2987
-6.6996 -4.6519 2.2987
-6.5900 -4.8156 2.2987
-6.4764 -4.9766 2.2987
-6.3588 -5.1349 2.2987
-5.9815 -5.0743 2.2987
-5.8611 -5.2204 2.2987
-5.7370 -5.3636 2.2987
-5.6135 -5.5078 2.3004
-5.4783 -5.6408 2.2987
-5.4250 -5.8624 2.3337
-5.4219 -6.1502 2.3941
-5.2919 -6.3028 2.4018
-5.1411 -6.4320 2.4018
-4.9871 -6.5575 2.4018
-4.8300 -6.6793 2.4018
-4.6699 -6.7971 2.4018
-4.5068 -6.9110 2.4018
-4.3408 -7.0209 2.4018
-4.1722 -7.1266 2.4018
-4.0008 -7.2282 2.4018
-3.8270 -7.3255 2.4018
-3.6507 -7.4185 2.4018
-3.4721 -7.5072 2.4018
-3.2913 -7.5914 2.4018
-3.1084 -7.6711 2.4018
-2.9236 -7.7462 2.4018
-2.7368 -7.8168 2.4018
-2.5484 -7.8827 2.4018
-2.3583 -7.9439 2.4018
-2.1666 -8.0004 2.4018
-1.9736 -8.0521 2.4018
-1.7794 -8.0989 2.4018
-1.5840 -8.1410 2.4018
-1.3875 -8.1781 2.4018
-1.1902 -8.2104 2.4018
-0.9921 -8.2377 2.4018
-0.7934 -8.2601 2.4018
-0.5942 -8.2775 2.4018
-0.3945 -8.2900 2.4018
-0.1947 -8.2975 2.4018
0.0054 -8.3000 2.4018
0.2054 -8.2975 2.4018
0.4053 -8.2900 2.4018
0.6049 -8.2775 2.4018
0.8042 -8.2601 2.4018
1.0029 -8.2377 2.4018
1.2010 -8.2104 2.4018
1.3984 -8.1781 2.4018
1.5948 -8.1409 2.4018
1.7903 -8.0989 2.4018
1.9846 -8.0520 2.4018
2.1777 -8.0003 2.4018
2.3693 -7.9438 2.4018
2.5595 -7.8825 2.4018
2.6339 -7.4920 2.3021
2.8087 -7.4130 2.2985
2.9857 -7.3410 2.2985
3.1608 -7.2647 2.2985
3.3339 -7.1841 2.2985
3.5049 -7.0992 2.2985
3.6736 -7.0101 2.2985
3.8401 -6.9169 2.2985
4.0041 -6.8196 2.2985
4.1656 -6.7183 2.2985
4.3245 -6.6130 2.2985
4.4807 -6.5039 2.2985
4.6340 -6.3910 2.2985
4.7844 -6.2744 2.2985
4.9319 -6.1542 2.2985
5.0762 -6.0304 2.2985
5.2174 -5.9031 2.2985
5.3553 -5.7725 2.2985
5.4899 -5.6385 2.2985
5.6211 -5.5013 2.2985
5.7487 -5.3610 2.2985
5.8728 -5.2177 2.2985
5.9933 -5.0714 2.2985
6.1100 -4.9223 2.2985
6.2230 -4.7704 2.2985
6.3322 -4.6159 2.2985
6.4374 -4.4588 2.2985
6.5387 -4.2994 2.2985
6.6360 -4.1375 2.2985
7.2666 -4.2907 2.4821
6.8706 -3.8364 2.3162
6.9562 -3.6669 2.3162
7.0189 -3.4861 2.3100
7.1147 -3.3221 2.3162
7.1875 -3.1471 2.3162
7.2559 -2.9705 2.3162
7.3199 -2.7924 2.3162
7.3796 -2.6129 2.3162
7.4348 -2.4321 2.3162
7.4855 -2.2502 2.3162
7.5318 -2.0672 2.3162
7.5736 -1.8833 2.3162
7.6108 -1.6985 2.3162
7.6435 -1.5130 2.3162
7.6717 -1.3269 2.3162
7.6954 -1.1403 2.3162
7.7144 -0.9534 2.3162
7.7290 -0.7661 2.3162
7.7390 -0.5788 2.3162
7.7445 -0.3913 2.3162
7.7454 -0.2039 2.3162
7.7418 -0.0167 2.3162
7.7336 0.1702 2.3162
7.7210 0.3567 2.3162
7.7039 0.5428 2.3162
7.6823 0.7282 2.3162
7.6563 0.9129 2.3162
7.6259 1.0968 2.3162
7.5911 1.2798 2.3162
7.5519 1.4618 2.3162
7.5084 1.6426 2.3162
7.4606 1.8222 2.3162
7.4086 2.0005 2.3162
7.3523 2.1774 2.3162
7.2919 2.3527 2.3162
7.2273 2.5264 2.3162
7.1587 2.6984 2.3162
7.0860 2.8686 2.3162
7.0093 3.0369 2.3162
6.9287 3.2032 2.3162
6.8442 3.3674 2.3162
6.7558 3.5295 2.3162
6.6130 3.6612 2.2985
6.5179 3.8174 2.2985
6.4192 3.9713 2.2985
6.3169 4.1226 2.2985
6.2111 4.2714 2.2985
6.1019 4.4175 2.2985
5.9893 4.5610 2.2985
5.8734 4.7016 2.2985
5.7543 4.8394 2.2985
5.6320 4.9742 2.2985
5.5066 5.1060 2.2985
5.3783 5.2347 2.2985
5.2469 5.3603 2.2985
5.1128 5.4827 2.2985
4.9758 5.6019 2.2985
4.8361 5.7177 2.2985
4.6938 5.8301 2.2985
3.0510 3.9833 1.5416
4.4017 6.0445 2.2985
4.2520 6.1465 2.2985
4.1000 6.2448 2.2985
3.9459 6.3395 2.2985
3.7896 6.4305 2.2985
3.6312 6.5177 2.2985
3.4709 6.6012 2.2985
3.0393 6.1367 2.1113
2.8635 6.1523 2.0930
2.9792 6.8285 2.2985
2.8120 6.8965 2.2985
2.6539 6.9882 2.3077
2.5843 7.3358 2.4018
2.4052 7.3943 2.4018
2.2248 7.4485 2.4018
2.0432 7.4985 2.4018
1.8605 7.5442 2.4018
1.6768 7.5856 2.4018
1.4923 7.6227 2.4018
1.3069 7.6554 2.4018
1.1209 7.6837 2.4018
0.9343 7.7077 2.4018
0.7472 7.7273 2.4018
0.5597 7.7425 2.4018
0.3719 7.7533 2.4018
0.1839 7.7597 2.4018
-0.0042 7.7617 2.4018
-0.1923 7.7593 2.4018
-0.3802 7.7525 2.4018
-0.5680 7.7412 2.4018
-0.7555 7.7256 2.4018
-0.9425 7.7056 2.4018
-1.1291 7.6812 2.4018
-1.3150 7.6524 2.4018
-1.5002 7.6192 2.4018
-1.6846 7.5818 2.4018
-1.8682 7.5400 2.4018
-2.0507 7.4939 2.4018
-2.2321 7.4435 2.4018
-2.4123 7.3889 2.4018
-2.5913 7.3300 2.4018
-2.7688 7.2669 2.4018
-2.9449 7.1997 2.4018
-3.1193 7.1284 2.4018
-3.2921 7.0529 2.4018
-3.4631 6.9734 2.4018
-3.6323 6.8898 2.4018
-3.7995 6.8023 2.4018
-3.9647 6.7108 2.4018
-4.1277 6.6154 2.4018
-4.2885 6.5162 2.4018
-4.4470 6.4132 2.4018
-4.6031 6.3064 2.4018
-4.7566 6.1959 2.4018
-4.9076 6.0818 2.4018
-5.0560 5.9642 2.4018
-5.2016 5.8429 2.4018
-5.3443 5.7183 2.4018
-5.4047 5.5092 2.3670
-5.4133 5.2571 2.3131
-5.5078 5.0956 2.2987
-5.6328 4.9636 2.2987
-5.7547 4.8287 2.2987
-5.8735 4.6908 2.2987
-5.9890 4.5501 2.2987
-6.1012 4.4066 2.2987
-6.2101 4.2603 2.2987
-6.3155 4.1115 2.2987
-6.4174 3.9601 2.2987
-6.5157 3.8062 2.2987
-6.6105 3.6499 2.2987
-6.7015 3.4914 2.2987
-6.7888 3.3305 2.2987
-6.8723 3.1676 2.2987
-6.9520 3.0026 2.2987
-7.0277 2.8356 2.2987
-7.0995 2.6668 2.2987
-7.1673 2.4961 2.2987
-7.2310 2.3238 2.2987
-7.2907 2.1499 2.2987
-7.3462 1.9745 2.2987
-7.3975 1.7977 2.2987
-7.4446 1.6195 2.2987
-7.4875 1.4402 2.2987
-7.5261 1.2598 2.2987
-7.5603 1.0783 2.2987
-7.5902 0.8960 2.2987
-7.6158 0.7128 2.2987
-7.6369 0.5290 2.2987
-7.6536 0.3445 2.2987
-7.6659 0.1596 2.2987
-7.6737 -0.0257 2.2987
-7.6771 -0.2113 2.2987
-7.6759 -0.3971 2.2987
-7.6703 -0.5829 2.2987
-7.6602 -0.7686 2.2987
-7.6456 -0.9542 2.2987
-7.6264 -1.1395 2.2987
-6.5818 -1.1466 1.9900
-6.5027 -1.2954 1.9734
-6.5079 -1.4607 1.9835
-6.6334 -1.6581 2.0318
-7.4634 -2.0582 2.2987
-7.4174 -2.2396 2.2987
-7.3669 -2.4199 2.2987
-7.3120 -2.5991 2.2987
-7.2527 -2.7770 2.2987
-7.1891 -2.9535 2.2987
-7.1211 -3.1286 2.2987
-7.0488 -3.3020 2.2987
-6.9723 -3.4737 2.2987
-6.8915 -3.6437 2.2987
-6.8065 -3.8117 2.2987
-6.7174 -3.9777 2.2987
-6.6241 -4.1416 2.2987
-6.5268 -4.3032 2.2987
-6.4256 -4.4625 2.2987
-6.3203 -4.6194 2.2987
-6.2112 -4.7737 2.2987
-6.0982 -4.9254 2.2987
-5.7444 -4.8740 2.2987
-5.6286 -5.0142 2.2987
-5.5094 -5.1516 2.2987
