ply
format ascii 1.0
element vertex 2032
property float32 x
property float32 y
property float32 z
end_header
46.3832 22.9749 -0.7746
46.4122 24.4031 -0.7734
47.0625 26.2155 -0.7832
57.8346 34.0724 -0.9618
14.3788 8.9460 -0.2392
13.9473 9.1522 -0.2322
26.1901 18.1060 -0.4369
25.2822 18.3966 -0.4229
24.4058 18.6772 -0.4097
23.5584 18.9485 -0.3973
22.7376 19.2113 -0.3857
21.9413 19.4662 -0.3747
21.1674 19.7140 -0.3643
20.4143 19.9550 -0.3546
19.6802 20.1901 -0.3454
18.9637 20.4195 -0.3368
18.2631 20.6438 -0.3287
17.5773 20.8633 -0.3210
16.9050 21.0785 -0.3138
18.7632 24.5899 -0.3546
18.0140 24.8298 -0.3473
16.6011 24.0858 -0.3271
24.2925 37.1341 -0.4903
24.2942 39.1709 -0.5033
24.2960 41.3732 -0.5180
24.2980 43.7649 -0.5344
37.6186 71.7917 -0.8561
28.0154 56.7599 -0.6618
35.8490 77.2815 -0.8817
35.2276 81.0137 -0.9056
35.6890 87.8182 -0.9629
31.7830 83.9683 -0.9041
15.9075 45.3035 -0.4796
27.4548 84.6808 -0.8822
25.1359 84.4298 -0.8667
23.1616 85.2805 -0.8637
21.2984 86.6452 -0.8667
3.4124 71.4358 -0.6750
1.6840 71.4372 -0.6738
-0.0415 69.9666 -0.6596
-1.7325 69.9680 -0.6600
-3.4255 69.9694 -0.6612
-5.1227 69.9708 -0.6633
-6.8259 69.9722 -0.6661
-21.7808 88.1559 -0.8826
-22.7371 83.3268 -0.8448
-21.7933 72.8856 -0.7491
-18.9026 58.0681 -0.6057
-25.1870 71.4593 -0.7574
-26.5864 69.9885 -0.7546
-28.5405 69.9901 -0.7685
-30.5336 69.9917 -0.7836
-32.5693 69.9934 -0.7998
-14.4486 29.1859 -0.3408
-15.3361 29.1834 -0.3486
-16.2463 29.1807 -0.3570
-16.3585 27.7810 -0.3485
-17.1371 27.5580 -0.3548
-45.9466 70.0536 -0.9269
-8.9423 12.9410 -0.1762
-9.1290 12.5515 -0.1760
-8.6351 11.2887 -0.1632
-9.1541 11.3863 -0.1699
-9.5717 11.3336 -0.1748
-9.9485 11.2183 -0.1791
-10.2796 11.0423 -0.1826
-9.3712 9.5911 -0.1645
-9.4107 9.1770 -0.1635
-10.9820 10.2034 -0.1891
-11.2752 9.9794 -0.1926
-11.4527 9.6532 -0.1944
-11.5399 9.2592 -0.1947
-11.6151 8.8668 -0.1951
-11.6153 8.4307 -0.1944
-11.2931 7.7874 -0.1885
-15.4945 10.1411 -0.2582
-15.9048 9.8691 -0.2648
-13.3895 7.8667 -0.2229
-14.1356 7.8520 -0.2355
-23.6047 12.3755 -0.3937
-20.4297 10.0892 -0.3415
-24.5074 11.3750 -0.4108
-25.5655 11.1235 -0.4301
-25.8285 10.5032 -0.4363
-25.9823 9.8411 -0.4410
-25.4611 8.9465 -0.4344
-25.5000 8.2736 -0.4377
-25.5398 7.6096 -0.4412
-23.8067 6.4712 -0.4142
-40.2041 9.8917 -0.7047
-41.0325 9.0500 -0.7251
-41.5504 8.1167 -0.7405
-42.0133 7.1579 -0.7556
-46.0090 6.6991 -0.8354
-47.9849 5.8066 -0.8800
-48.0043 4.6351 -0.8896
-47.9583 3.4635 -0.8984
-10.1486 0.4868 -0.1923
-10.1212 0.2406 -0.1940
-22.3286 -0.0089 -0.4333
-22.5667 -0.5544 -0.4435
-22.5192 -1.0982 -0.4484
-22.4954 -1.6427 -0.4540
-22.4826 -2.1890 -0.4601
-22.4337 -2.7329 -0.4658
-22.3326 -3.2700 -0.4705
-17.3096 -2.9635 -0.3703
-16.5146 -3.2400 -0.3588
-15.6950 -3.4750 -0.3466
-14.9470 -3.6904 -0.3355
-21.3398 -5.8192 -0.4872
-21.1631 -6.3243 -0.4916
-20.9969 -6.8315 -0.4965
-19.7741 -6.9664 -0.4763
-20.7752 -7.8884 -0.5098
-20.7670 -8.4649 -0.5195
-20.7761 -9.0601 -0.5301
-20.8531 -9.7000 -0.5429
-7.6339 -3.7781 -0.2029
-21.0884 -11.0788 -0.5727
-21.4112 -11.9173 -0.5943
-12.8454 -7.5620 -0.3646
-12.6780 -7.8821 -0.3682
-16.9423 -11.1095 -0.5039
-16.4953 -11.3958 -0.5026
-12.9533 -9.4193 -0.4047
-15.4212 -11.7939 -0.4943
-14.5252 -11.6756 -0.4780
-13.4869 -11.3902 -0.2604
-13.2910 -11.7867 -0.2652
-13.0520 -12.1508 -0.2694
-12.8113 -12.5180 -0.2737
-11.1162 -11.3997 -0.2461
-11.4333 -12.3063 -0.2624
-10.9735 -12.3992 -0.2613
-10.5266 -12.4899 -0.2603
-10.0917 -12.5785 -0.2595
-9.0043 -11.7965 -0.2410
-8.9693 -12.3588 -0.2502
-8.8909 -12.8952 -0.2588
-11.2357 -17.1693 -0.3418
-14.0259 -22.6074 -0.4466
-13.3942 -22.8013 -0.4472
-5.7887 -10.4232 -0.2030
-11.9244 -22.7495 -0.4403
-23.5376 -47.6731 -0.9173
-30.6444 -66.0414 -1.2636
-21.3012 -48.9721 -0.9322
-10.4872 -25.7975 -0.4887
-13.0833 -34.5550 -0.6516
-13.5788 -38.6598 -0.7260
-7.9190 -24.4180 -0.4568
-8.4816 -28.4809 -0.5309
-8.4741 -31.1923 -0.5796
-14.2579 -57.9866 -1.0744
-10.5944 -48.0692 -0.8883
-14.0583 -72.0258 -1.3280
-9.8832 -58.0655 -1.0684
-10.3516 -71.1767 -1.3074
-8.7413 -72.3397 -1.3267
-7.9753 -82.7474 -1.5158
2.8011 -57.1978 -1.0461
4.1950 -57.2832 -1.0483
5.5274 -56.6456 -1.0376
5.5331 -45.3383 -0.8315
6.3898 -43.5730 -0.8003
7.2294 -42.1714 -0.7759
8.2175 -41.8372 -0.7713
9.2417 -41.6961 -0.7705
10.2646 -41.5333 -0.7695
7.3530 -26.9395 -0.5006
8.1003 -27.0828 -0.5048
7.9472 -24.4065 -0.4566
8.6257 -24.4652 -0.4594
21.9219 -57.6923 -1.0878
22.5117 -55.1890 -1.0453
21.6697 -49.6581 -0.9451
8.5910 -18.4571 -0.3531
9.0426 -18.2604 -0.3513
9.4954 -18.0634 -0.3496
15.1529 -27.2083 -0.5299
15.6982 -26.6512 -0.5226
9.9706 -16.0285 -0.3166
10.4454 -15.9207 -0.3169
17.5313 -25.3625 -0.5089
15.5287 -21.3435 -0.4320
20.1860 -26.3805 -0.5389
20.9958 -26.1065 -0.5385
20.8736 -24.7074 -0.5149
21.4177 -24.1429 -0.5087
21.9600 -23.5807 -0.5027
22.8589 -23.3865 -0.5047
23.4803 -22.8885 -0.5005
23.9996 -22.2895 -0.4942
24.3831 -21.5720 -0.4854
24.6133 -20.7372 -0.4740
24.7866 -19.8792 -0.4620
17.9381 -13.6876 -0.3238
18.1547 -13.1712 -0.3176
7.7797 -5.3621 -0.1319
7.3194 -4.7881 -0.1204
6.4709 -4.0132 -0.1032
6.5464 -3.8442 -0.1014
5.8098 -3.2254 -0.0873
5.9622 -3.1240 -0.0870
6.1188 -3.0199 -0.0868
5.5545 -2.5764 -0.0765
5.6538 -2.4582 -0.0757
5.6153 -2.2818 -0.0731
4.9536 -1.8748 -0.0627
5.1184 -1.7970 -0.0630
5.0676 -1.6427 -0.0606
5.2997 -1.5775 -0.0616
5.4040 -1.4674 -0.0611
5.3653 -1.3185 -0.0590
5.3276 -1.1735 -0.0570
5.2907 -1.0320 -0.0550
5.2546 -0.8938 -0.0532
5.5281 -0.8034 -0.0544
6.3869 -0.7711 -0.0611
6.6723 -0.6424 -0.0621
6.7972 -0.4890 -0.0615
6.9262 -0.3303 -0.0609
8.3507 -0.1962 -0.0713
8.2647 0.0056 -0.0686
15.8008 0.3926 -0.1273
15.8766 0.7787 -0.1242
16.2348 1.1900 -0.1233
16.7438 1.6349 -0.1234
17.2395 2.1050 -0.1232
17.1101 2.5101 -0.1186
18.6527 3.1986 -0.1253
43.0589 8.4596 -0.2801
44.8521 9.9431 -0.2824
43.4857 10.7488 -0.2649
43.2144 11.7967 -0.2544
42.4441 12.6960 -0.2414
43.9280 14.3050 -0.2411
42.6650 15.0433 -0.2258
41.9803 15.9524 -0.2140
41.9945 17.1302 -0.2059
42.4332 18.5172 -0.1999
45.5176 21.1868 -0.2058
43.6045 21.5931 -0.1889
44.1106 23.1874 -0.1828
45.1411 25.1395 -0.1786
46.0432 27.1198 -0.1735
14.3788 8.9441 -0.0515
13.9467 9.1500 -0.0473
26.1936 18.1048 -0.0840
25.2855 18.3956 -0.0764
24.4089 18.6762 -0.0691
23.5614 18.9475 -0.0623
22.7404 19.2104 -0.0558
21.9439 19.4654 -0.0496
21.1700 19.7131 -0.0438
20.4168 19.9543 -0.0383
19.6825 20.1893 -0.0330
18.9659 20.4188 -0.0280
18.2652 20.6431 -0.0232
17.5793 20.8627 -0.0187
16.9069 21.0779 -0.0144
18.7653 24.5893 -0.0119
18.0160 24.8292 -0.0074
16.6001 24.0812 -0.0030
24.2120 37.0062 0.0014
24.2555 39.1034 0.0074
24.2573 41.3020 0.0137
24.1652 43.5202 0.0202
37.3902 71.3470 0.0419
28.0189 56.7599 0.0396
35.7224 76.9991 0.0622
34.5280 79.3955 0.0720
33.5560 82.5598 0.0824
31.3100 82.7088 0.0895
15.9094 45.3035 0.0525
27.3483 84.3427 0.1039
24.9537 83.8081 0.1087
22.7332 83.6934 0.1135
20.9839 85.3558 0.1203
3.5749 74.8299 0.1232
-0.0415 69.9666 0.1158
-1.9625 79.2498 0.1309
-3.4259 69.9694 0.1151
-7.6599 78.5127 0.1268
-21.9400 88.7901 0.1246
-22.3836 74.8513 0.0965
-18.9115 58.0886 0.0710
-25.4597 72.2245 0.0832
-29.1445 71.4626 0.0705
-36.8782 84.5249 0.0757
-33.3996 71.7690 0.0571
-41.6141 84.0497 0.0578
-39.6636 75.4672 0.0432
-42.4577 76.2507 0.0342
-17.0257 28.9104 0.0091
-17.3769 27.9400 0.0049
-45.9527 70.0536 0.0015
-48.5624 70.2691 -0.0100
-8.7593 12.0416 -0.0038
-10.9523 14.3160 -0.0072
-8.7139 10.8371 -0.0076
-9.0949 10.7676 -0.0099
-9.4568 10.6623 -0.0123
-9.8272 10.5548 -0.0147
-10.2069 10.4448 -0.0174
-10.5749 10.3107 -0.0201
-10.8026 10.0352 -0.0226
-10.9034 9.6486 -0.0249
-10.9153 9.1987 -0.0270
-10.9272 8.7660 -0.0292
-10.9388 8.3490 -0.0312
-10.8127 7.8467 -0.0329
-13.9801 9.6384 -0.0452
-14.5998 9.5535 -0.0499
-15.2554 9.4642 -0.0550
-15.7379 9.2445 -0.0597
-26.7275 14.8434 -0.1064
-24.5701 12.8784 -0.1024
-20.4296 10.0867 -0.0890
-24.3618 11.3045 -0.1107
-25.0736 10.9064 -0.1188
-25.2730 10.2743 -0.1245
-25.1482 9.5222 -0.1288
-24.8684 8.7353 -0.1322
-27.5812 8.9456 -0.1521
-27.9676 8.3297 -0.1597
-23.8019 6.4672 -0.1407
-28.2963 6.9588 -0.1731
-40.7245 8.9774 -0.2574
-41.0766 8.0195 -0.2682
-41.1801 7.0114 -0.2776
-41.1318 5.9844 -0.2861
-59.2960 7.1687 -0.4254
-59.3172 5.7209 -0.4387
-59.3387 4.2788 -0.4523
-10.1466 0.4856 -0.0797
-10.1206 0.2394 -0.0818
-22.1099 -0.0113 -0.1840
-22.0734 -0.5448 -0.1891
-22.0356 -1.0771 -0.1943
-22.0306 -1.6112 -0.1998
-22.0341 -2.1478 -0.2056
-21.9842 -2.6806 -0.2110
-21.9469 -3.2160 -0.2166
-21.8159 -3.7373 -0.2214
-21.6410 -4.2480 -0.2258
-21.4240 -4.7458 -0.2298
-21.2208 -5.2418 -0.2341
-21.0284 -5.7367 -0.2385
-20.8748 -6.2405 -0.2434
-20.7179 -6.7431 -0.2485
-19.7694 -6.9671 -0.2438
-20.4605 -7.7713 -0.2595
-20.3902 -8.3138 -0.2660
-20.3885 -8.8936 -0.2737
-20.4197 -9.5009 -0.2820
-13.5162 -6.6907 -0.1921
-20.6197 -10.8352 -0.3018
-20.8574 -11.6117 -0.3143
-12.8400 -7.5605 -0.1993
-12.6765 -7.8828 -0.2027
-16.0385 -10.5190 -0.2644
-15.5869 -10.7704 -0.2649
-24.8870 -18.1006 -0.4364
-36.3901 -27.8359 -0.6585
-14.8504 -11.9391 -0.2775
-13.9828 -11.8111 -0.0671
-12.2030 -10.8236 -0.0628
-12.2280 -11.3855 -0.0673
-12.1196 -11.8440 -0.0712
-11.8535 -12.1576 -0.0742
-12.3329 -13.2766 -0.0822
-12.3376 -13.9427 -0.0875
-12.2629 -14.5521 -0.0924
-12.0085 -14.9699 -0.0961
-11.7302 -15.3696 -0.0997
-34.4680 -47.4994 -0.3111
-17.9040 -25.9710 -0.1716
-14.2431 -21.7681 -0.1450
-10.0611 -16.2188 -0.1088
-16.7057 -28.4424 -0.1922
-5.7878 -10.4229 -0.0709
-15.2029 -29.0082 -0.1985
-26.1987 -53.0691 -0.3651
-24.6051 -56.5748 -0.3931
-10.4850 -25.7953 -0.1800
-13.0806 -34.5517 -0.2421
-13.1881 -37.5520 -0.2641
-12.0383 -37.1240 -0.2620
-11.7893 -39.5923 -0.2802
-11.2547 -41.4322 -0.2941
-10.5779 -43.0251 -0.3061
-10.5916 -48.0620 -0.3427
-13.8578 -71.0064 -0.5073
-9.8802 -58.0541 -0.4155
-10.6308 -73.1045 -0.5240
-8.9344 -73.9460 -0.5307
-7.1048 -73.7234 -0.5296
2.8472 -58.1459 -0.4182
4.0667 -55.5378 -0.3992
5.4482 -55.8399 -0.4010
5.4652 -44.7868 -0.3213
6.2442 -42.5849 -0.3051
7.1958 -41.9800 -0.3003
8.2160 -41.8342 -0.2988
7.3693 -33.2525 -0.2370
6.7638 -27.3713 -0.1946
7.2683 -26.6322 -0.1889
7.9470 -26.5735 -0.1879
7.8585 -24.1367 -0.1702
8.4127 -23.8639 -0.1677
9.1154 -23.9920 -0.1679
24.0366 -58.9345 -0.4108
14.3065 -32.7886 -0.2276
8.3474 -17.9358 -0.1239
8.7859 -17.7442 -0.1219
9.2482 -17.5954 -0.1202
9.8510 -17.6906 -0.1201
9.4393 -16.0275 -0.1081
9.7767 -15.7188 -0.1053
10.2238 -15.5849 -0.1036
10.7350 -15.5325 -0.1024
15.2178 -20.9191 -0.1367
15.7036 -20.5254 -0.1328
34.3507 -42.7182 -0.2736
21.3918 -25.3244 -0.1604
21.5030 -24.2425 -0.1517
21.1726 -22.7387 -0.1404
21.7743 -22.2802 -0.1356
22.3794 -21.8188 -0.1307
33.9706 -31.5551 -0.1858
34.0804 -30.1562 -0.1742
34.2322 -28.8463 -0.1632
22.9355 -18.3979 -0.1017
34.6442 -26.4401 -0.1425
7.7851 -5.6491 -0.0296
7.7638 -5.3521 -0.0272
7.3536 -4.8115 -0.0236
6.4477 -3.9996 -0.0188
6.5230 -3.8312 -0.0172
5.7456 -3.1905 -0.0135
5.8955 -3.0898 -0.0123
6.0493 -2.9863 -0.0110
6.2075 -2.8800 -0.0097
6.3703 -2.7705 -0.0083
5.7310 -2.3295 -0.0060
4.9450 -1.8721 -0.0040
4.8610 -1.7072 -0.0027
5.0776 -1.6465 -0.0016
5.3106 -1.5814 -0.0004
5.5068 -1.4959 0.0009
5.4660 -1.3439 0.0022
5.4262 -1.1959 0.0035
5.3875 -1.0515 0.0048
5.3496 -0.9105 0.0060
5.5706 -0.8102 0.0076
6.2583 -0.7563 0.0100
6.8404 -0.6593 0.0125
6.9713 -0.5023 0.0144
7.4029 -0.3539 0.0171
8.3251 -0.1965 0.0212
8.2396 0.0047 0.0229
15.8279 0.3915 0.0479
15.8998 0.7781 0.0520
16.2422 1.1888 0.0571
16.6146 1.6205 0.0625
16.7926 2.0485 0.0674
16.4394 2.4099 0.0702
18.1144 3.1043 0.0820
18.9643 3.7237 0.0908
42.9943 9.5264 0.2173
42.9041 10.6002 0.2284
42.5953 11.6228 0.2385
42.2777 12.6414 0.2486
44.5662 14.5076 0.2748
42.6776 15.0428 0.2756
41.9648 15.9416 0.2836
41.7991 17.0455 0.2953
41.8782 18.2700 0.3090
44.9294 20.9075 0.3460
43.5660 21.5687 0.3500
43.7900 23.0134 0.3668
44.7530 24.9177 0.3906
45.5769 26.8393 0.4144
14.3787 8.9422 0.1361
13.9461 9.1477 0.1375
26.1971 18.1037 0.2688
25.2888 18.3945 0.2702
24.4120 18.6752 0.2715
23.5643 18.9466 0.2728
22.7432 19.2095 0.2741
21.9466 19.4645 0.2754
21.1725 19.7123 0.2768
20.4192 19.9535 0.2781
19.6849 20.1886 0.2795
18.9681 20.4181 0.2809
18.2673 20.6424 0.2822
17.5813 20.8620 0.2836
16.9088 21.0773 0.2851
18.7674 24.5886 0.3309
18.0180 24.8285 0.3326
16.5992 24.0767 0.3211
24.2152 37.0062 0.4915
24.2555 39.0984 0.5173
24.2573 41.2967 0.5445
24.2593 43.6841 0.5740
37.3185 71.2013 0.9326
28.0223 56.7599 0.7413
35.0747 75.5938 0.9845
33.3891 76.7673 0.9973
3.0903 7.6023 0.0985
15.4355 40.7698 0.5272
15.6065 44.4358 0.5735
27.2734 84.1019 1.0834
24.9523 83.7939 1.0775
22.6821 83.4959 1.0721
20.8829 84.9353 1.0890
3.2361 26.7826 0.3417
3.5753 74.8299 0.9534
-0.0415 69.9666 0.8912
-1.9627 79.2498 1.0095
-3.4263 69.9694 0.8914
-7.6608 78.5127 1.0010
-21.9425 88.7901 1.1381
-5.6313 20.6329 0.2649
-22.3862 74.8513 0.9623
-18.8987 58.0425 0.7475
-25.4597 72.2161 0.9317
-29.1480 71.4626 0.9258
-36.8782 84.5148 1.0975
-33.3996 71.7603 0.9342
-41.6193 84.0497 1.0972
-39.6685 75.4672 0.9881
-42.4631 76.2507 1.0014
-44.9119 76.2527 1.0048
-17.6235 28.3328 0.3747
-45.9588 70.0536 0.9300
-48.5624 70.2597 0.9365
-17.4818 24.0296 0.3213
-55.1671 72.1010 0.9697
-10.8427 12.8349 0.1744
-10.9624 12.3581 0.1689
-10.9387 11.7468 0.1615
-10.8083 11.0585 0.1530
-10.7185 10.4491 0.1455
-11.1031 10.3127 0.1447
-11.4511 10.1317 0.1433
-11.6972 9.8559 0.1405
-12.0781 9.6876 0.1394
-10.3371 7.8883 0.1146
-13.0717 9.4842 0.1392
-46.1393 30.1860 0.4533
-6.0115 3.7287 0.0567
-25.4494 14.9460 0.2305
-40.4866 22.4794 0.3520
-24.5699 12.8752 0.2050
-20.4295 10.0841 0.1635
-23.6146 10.9549 0.1811
-24.6360 10.7131 0.1810
-23.9926 9.7509 0.1688
-23.6092 8.9367 0.1588
-26.5699 9.3298 0.1708
-27.0899 8.7831 0.1662
-27.4172 8.1626 0.1604
-23.7971 6.4631 0.1326
-27.8139 6.8370 0.1473
-40.3840 8.8978 0.2030
-40.8187 7.9646 0.1943
-40.9103 6.9608 0.1840
-40.8321 5.9362 0.1732
-40.5242 4.8947 0.1616
-59.7192 5.7530 0.2231
-10.1446 0.4844 0.0329
-10.1199 0.2383 0.0303
-21.6444 -0.0134 0.0597
-21.6060 -0.5356 0.0544
-21.5642 -1.0564 0.0491
-21.5796 -1.5806 0.0440
-21.5978 -2.1077 0.0390
-21.5968 -2.6358 0.0339
-21.5785 -3.1644 0.0287
-21.4609 -3.6789 0.0235
-21.3120 -4.1859 0.0183
-21.0850 -4.6731 0.0131
-20.9136 -5.1682 0.0080
-20.7403 -5.6605 0.0030
-20.5942 -6.1590 -0.0020
-20.4463 -6.6571 -0.0069
-19.7648 -6.9677 -0.0115
-20.1522 -7.6566 -0.0167
-20.0592 -8.1812 -0.0217
-20.0547 -8.7504 -0.0267
-20.0040 -9.3099 -0.0318
-13.5138 -6.6912 -0.0250
-20.1497 -10.5907 -0.0426
-20.3490 -11.3313 -0.0485
-12.8345 -7.5589 -0.0342
-12.6750 -7.8835 -0.0373
-21.5467 -14.1346 -0.0696
-15.4518 -10.6791 -0.0545
-15.1483 -11.0195 -0.0580
-14.8461 -11.3582 -0.0615
-14.4753 -11.6396 -0.0647
-13.6432 -11.5262 0.1324
-23.8490 -21.1570 0.2306
-14.4221 -13.4305 0.1390
-24.8648 -24.3035 0.2392
-38.1782 -39.1642 0.3670
-25.0422 -26.9626 0.2408
-12.0009 -13.5641 0.1156
-11.8676 -14.0850 0.1147
-11.5999 -14.4625 0.1126
-11.3090 -14.8198 0.1104
-10.9781 -15.1307 0.1081
-10.6188 -15.4053 0.1056
-10.1683 -15.5424 0.1023
-47.7176 -76.9326 0.4869
-28.1102 -47.8649 0.2917
-5.7869 -10.4226 0.0612
-14.6644 -27.9841 0.1586
-25.7489 -52.1644 0.2857
-24.6000 -56.5698 0.2905
-10.4829 -25.7931 0.1285
-13.0778 -34.5485 0.1673
-13.4992 -38.4424 0.1812
-12.5865 -38.8191 0.1783
-11.8235 -39.7117 0.1781
-11.0214 -40.5782 0.1780
-17.4014 -70.7869 0.3041
-10.5889 -48.0549 0.2026
-13.6805 -70.1055 0.2906
-9.8772 -58.0429 0.2370
-10.5113 -72.2907 0.2914
-8.7479 -72.4099 0.2886
-6.9779 -72.4148 0.2860
1.4213 -57.3970 0.2233
2.7547 -56.2636 0.2196
4.1509 -56.6938 0.2224
4.9121 -50.3519 0.1990
5.3394 -43.7612 0.1746
5.9876 -40.8388 0.1648
6.8893 -40.1966 0.1644
7.8712 -40.0828 0.1664
7.3085 -32.9820 0.1393
6.7147 -27.1758 0.1170
7.2757 -26.6624 0.1172
7.5037 -25.0941 0.1128
7.8362 -24.0709 0.1108
8.4214 -23.8915 0.1129
6.0055 -15.8085 0.0767
6.4403 -15.7927 0.0789
6.9454 -15.9201 0.0820
7.4118 -15.9275 0.0847
8.2689 -16.7021 0.0918
9.0219 -17.1670 0.0976
8.9232 -16.0264 0.0944
9.2577 -15.7211 0.0961
9.5944 -15.4278 0.0980
10.0319 -15.2944 0.1010
10.4846 -15.1722 0.1043
11.1189 -15.2867 0.1096
15.4746 -20.2289 0.1513
16.2741 -20.2412 0.1582
21.3879 -25.3235 0.2069
33.3114 -37.5609 0.3214
33.2889 -35.7566 0.3206
33.3353 -34.1152 0.3210
33.4089 -32.5773 0.3220
33.5025 -31.1253 0.3235
33.6460 -29.7769 0.3259
33.8208 -28.5045 0.3289
27.1126 -21.7524 0.2649
34.2076 -26.1116 0.3362
7.7689 -5.6384 0.0768
7.2002 -4.9646 0.0717
7.3646 -4.8196 0.0739
7.3285 -4.5470 0.0742
6.4997 -3.8184 0.0664
6.5744 -3.6515 0.0678
5.8302 -3.0563 0.0608
5.9815 -2.9536 0.0630
6.1369 -2.8480 0.0654
6.2968 -2.7393 0.0679
6.0145 -2.4454 0.0656
4.9364 -1.8694 0.0545
4.8703 -1.7110 0.0545
5.0877 -1.6504 0.0577
5.3215 -1.5852 0.0612
5.5741 -1.5148 0.0650
5.5705 -1.3702 0.0659
5.5286 -1.2191 0.0663
5.4879 -1.0717 0.0668
5.4482 -0.9279 0.0674
5.6138 -0.8171 0.0705
6.6101 -0.7995 0.0843
7.0172 -0.6772 0.0910
7.5695 -0.5462 0.0997
7.6274 -0.3654 0.1022
8.2996 -0.1968 0.1131
8.2147 0.0037 0.1139
15.8355 0.3900 0.2234
15.9147 0.7770 0.2286
16.1940 1.1835 0.2369
16.3960 1.5973 0.2443
16.1481 1.9681 0.2451
17.4016 2.5490 0.2692
17.8803 3.0621 0.2820
18.5547 3.6412 0.2984
42.9441 9.5104 0.7045
42.8705 10.5870 0.7176
42.2960 11.5363 0.7227
42.3200 12.6492 0.7383
45.7394 14.8842 0.8151
42.8790 15.1087 0.7807
42.1330 16.0005 0.7842
41.7711 17.0291 0.7950
41.7094 18.1913 0.8120
44.3798 20.6464 0.8842
43.5817 21.5711 0.8890
43.8017 23.0141 0.9152
44.3596 24.6931 0.9498
45.0592 26.5286 0.9892
14.3787 8.9403 0.3238
13.9454 9.1455 0.3223
26.2006 18.1026 0.6218
25.2921 18.3935 0.6168
24.4152 18.6742 0.6122
23.5673 18.9456 0.6079
22.7460 19.2086 0.6041
21.9493 19.4636 0.6006
21.1751 19.7115 0.5974
20.4216 19.9527 0.5946
19.6872 20.1879 0.5920
18.9703 20.4174 0.5898
18.2694 20.6418 0.5878
17.5833 20.8614 0.5861
16.9107 21.0767 0.5846
18.7695 24.5879 0.6738
18.0200 24.8279 0.6726
16.5983 24.0721 0.6452
24.2184 37.0062 0.9817
24.2555 39.0933 1.0272
24.1632 41.1313 1.0711
24.1652 43.5092 1.1234
36.8159 70.2336 1.7990
28.0258 56.7599 1.4430
20.4665 44.1045 1.1134
19.9628 45.8923 1.1510
3.0751 7.5640 0.1885
2.9053 7.6729 0.1902
15.6083 44.4358 1.0956
24.8964 76.7633 1.8834
24.0600 80.7879 1.9733
22.7429 83.7100 2.0364
21.1488 86.0070 2.0845
20.0569 90.9981 2.1982
3.2365 26.7826 0.6407
6.3342 87.9241 2.0978
3.5757 74.8299 1.7838
-0.0415 69.9666 1.6668
-1.9630 79.2498 1.8882
-3.4266 69.9694 1.6680
-4.4970 46.0830 1.1008
-5.5075 45.1257 1.0796
-6.7262 45.8645 1.0993
-8.1139 47.3281 1.1370
-14.9766 76.2446 1.8364
-21.3024 96.1060 2.3216
-21.9450 88.7901 2.1520
-5.6320 20.6329 0.5019
-22.3888 74.8513 1.8284
-18.8801 57.9785 1.4226
-25.4597 72.2076 1.7803
-29.1514 71.4626 1.7814
-36.8782 84.5046 2.1194
-33.3996 71.7515 1.8114
-41.6244 84.0497 2.1369
-30.1066 57.2690 1.4670
-42.4685 76.2507 1.9689
-17.4156 29.5649 0.7701
-45.5821 73.2716 1.9255
-45.9649 70.0536 1.8587
-48.5625 70.2503 1.8830
-58.1569 79.9285 2.1657
-31.8980 41.6835 1.1424
-31.9111 39.6759 1.1006
-25.0178 29.6105 0.8320
-10.6418 11.9948 0.3416
-10.5321 11.3085 0.3267
-9.7420 9.9660 0.2923
-10.2463 9.9872 0.2977
-10.7425 9.9761 0.3025
-11.2052 9.9124 0.3060
-11.5496 9.7299 0.3061
-11.8505 9.5034 0.3051
-12.3279 9.4058 0.3085
-12.6709 9.1918 0.3084
-12.9331 8.9130 0.3063
-13.1968 8.6320 0.3044
-5.9878 3.7132 0.1346
-13.5179 7.9370 0.2962
-13.5662 7.5305 0.2899
-24.5697 12.8721 0.5124
-20.4295 10.0816 0.4159
-22.7500 10.5510 0.4524
-23.8363 10.3625 0.4632
-24.8942 10.1144 0.4729
-39.2045 14.8352 0.7283
-39.3353 13.8076 0.7149
-26.5793 8.6145 0.4727
-26.8589 7.9933 0.4677
-23.7923 6.4591 0.4057
-27.3476 6.7192 0.4569
-40.0821 8.8267 0.6563
-40.5555 7.9087 0.6510
-40.6422 6.9107 0.6397
-40.5368 5.8888 0.6259
-40.0216 4.8296 0.6063
-40.2535 3.8733 0.5985
-47.8092 3.4369 0.6979
-10.1426 0.4831 0.1454
-10.1193 0.2372 0.1425
-21.1648 -0.0155 0.2929
-21.1078 -0.5256 0.2871
-21.1110 -1.0365 0.2823
-21.1436 -1.5510 0.2781
-21.1859 -2.0698 0.2741
-21.2156 -2.5916 0.2701
-21.2131 -3.1132 0.2658
-21.0785 -3.6157 0.2601
-20.9673 -4.1205 0.2548
-20.7604 -4.6035 0.2485
-20.6151 -5.0968 0.2432
-20.4610 -5.5866 0.2380
-20.3224 -6.0801 0.2331
-20.1628 -6.5671 0.2282
-19.7601 -6.9684 0.2207
-19.8501 -7.5442 0.2188
-19.7494 -8.0572 0.2150
-19.7087 -8.6018 0.2120
-19.6048 -9.1265 0.2085
-13.5124 -6.6922 0.1421
-19.6325 -10.3213 0.2042
-19.7982 -11.0271 0.2039
-12.8291 -7.5574 0.1308
-12.6735 -7.8842 0.1281
-15.0384 -9.8670 0.1507
-14.8245 -10.2475 0.1474
-14.6091 -10.6292 0.1442
-14.3581 -10.9868 0.1408
-14.0676 -11.3137 0.1372
-22.2587 -18.8082 0.5391
-22.5292 -19.9894 0.5517
-14.4174 -13.4284 0.3574
-22.8530 -22.3406 0.5741
-22.6305 -23.2185 0.5769
-22.0821 -23.7791 0.5720
-17.8293 -20.1549 0.4700
-11.4506 -13.5921 0.3076
-11.1367 -13.8869 0.3054
-10.8209 -14.1821 0.3034
-10.5030 -14.4778 0.3016
-10.1827 -14.7745 0.3001
-9.8362 -15.0368 0.2981
-47.7164 -76.9406 1.4904
-45.5259 -77.5300 1.4689
-5.7861 -10.4223 0.1933
-40.4759 -77.2495 1.4044
-39.9884 -81.0222 1.4452
-35.7531 -77.0791 1.3502
-24.5949 -56.5649 0.9741
-10.4807 -25.7909 0.4370
-13.0750 -34.5452 0.5766
-14.1290 -40.2407 0.6623
-13.1113 -40.4425 0.6569
-24.8979 -83.6346 1.3422
-10.6256 -39.1254 0.6209
-9.6567 -39.2868 0.6171
-10.5861 -48.0477 0.7479
-16.7009 -85.5933 1.3213
-9.8742 -58.0317 0.8894
-3.0968 -64.8319 0.9723
5.6206 -76.7763 1.1544
4.9118 -50.3533 0.7597
5.2521 -43.0501 0.6524
5.8400 -39.8367 0.6069
6.5274 -38.0890 0.5840
7.3777 -37.5743 0.5804
6.2364 -28.1469 0.4384
6.6893 -27.0759 0.4256
7.2830 -26.6921 0.4239
7.3901 -24.7171 0.3970
7.8416 -24.0904 0.3917
8.4302 -23.9193 0.3941
5.7281 -15.0801 0.2520
6.1183 -15.0049 0.2545
6.5482 -15.0114 0.2588
6.9977 -15.0395 0.2638
7.4787 -15.1078 0.2698
8.2046 -15.6137 0.2843
8.3986 -15.0861 0.2802
8.8381 -15.0105 0.2848
9.2905 -14.9411 0.2899
9.7864 -14.9221 0.2963
10.2630 -14.8535 0.3022
10.8575 -14.9294 0.3116
12.1639 -15.9033 0.3408
16.0426 -19.9560 0.4397
16.8681 -19.9748 0.4530
32.6218 -36.7888 0.8597
32.6963 -35.1253 0.8468
32.8021 -33.5747 0.8361
30.3653 -29.6140 0.7627
33.0564 -30.7158 0.8193
33.2043 -29.3909 0.8131
33.3689 -28.1284 0.8082
27.1083 -21.7528 0.6501
33.7308 -25.7523 0.8018
7.7527 -5.6278 0.1829
7.2524 -5.0015 0.1699
7.3756 -4.8278 0.1718
7.6932 -4.7743 0.1783
6.4766 -3.8057 0.1494
6.5510 -3.6394 0.1507
5.7664 -3.0235 0.1323
5.9151 -2.9215 0.1354
6.0678 -2.8167 0.1388
6.2248 -2.7088 0.1423
5.9059 -2.4020 0.1351
5.7439 -2.1759 0.1315
5.0911 -1.7892 0.1168
5.0978 -1.6543 0.1172
5.3325 -1.5891 0.1230
5.5861 -1.5187 0.1293
5.6791 -1.3976 0.1320
5.6350 -1.2431 0.1316
5.5921 -1.0927 0.1312
5.5505 -0.9460 0.1310
5.5099 -0.8026 0.1309
7.5771 -0.9173 0.1813
6.6874 -0.6461 0.1612
7.3157 -0.5287 0.1777
7.6196 -0.3659 0.1867
8.2743 -0.1971 0.2045
8.1899 0.0028 0.2043
15.8355 0.3882 0.3990
15.9199 0.7755 0.4054
15.8247 1.1547 0.4073
15.7026 1.5280 0.4088
15.5510 1.8936 0.4097
17.3469 2.5391 0.4627
17.6832 3.0264 0.4777
18.2777 3.5847 0.5004
42.4624 9.3989 1.1787
42.8515 10.5775 1.2066
42.1715 11.4975 1.2051
42.0641 12.5679 1.2205
44.6964 14.5397 1.3175
43.2959 15.2506 1.2972
42.5171 16.1413 1.2955
41.8551 17.0583 1.2977
41.6760 18.1717 1.3154
44.1022 20.5119 1.4179
43.5290 21.5396 1.4264
43.7826 22.9986 1.4631
44.1346 24.5623 1.5050
44.6383 26.2751 1.5542
14.3786 8.9384 0.5115
13.9448 9.1432 0.5072
26.2040 18.1015 0.9750
25.2954 18.3924 0.9636
24.4183 18.6732 0.9531
23.5703 18.9447 0.9433
22.7489 19.2077 0.9343
21.9520 19.4628 0.9259
21.1777 19.7107 0.9183
20.4241 19.9519 0.9112
19.6895 20.1871 0.9048
18.9725 20.4167 0.8989
18.2715 20.6411 0.8935
17.5853 20.8608 0.8886
16.9127 21.0761 0.8843
18.7716 24.5873 1.0168
18.0220 24.8273 1.0129
16.5974 24.0676 0.9693
24.2216 37.0062 1.4722
24.2033 39.0040 1.5340
24.2051 41.1972 1.6027
24.1652 43.5037 1.6752
31.8374 60.7285 2.3160
28.0292 56.7599 2.1451
20.0082 43.1118 1.6155
3.3379 7.6726 0.2852
3.0754 7.5638 0.2791
2.9057 7.6729 0.2812
15.5769 44.3411 1.6145
20.7550 63.9866 2.3160
19.1625 64.3360 2.3160
17.5685 64.6571 2.3160
15.9727 64.9496 2.3160
14.3754 65.2138 2.3160
12.7770 65.4501 2.3160
11.1774 65.6583 2.3160
9.5768 65.8383 2.3160
7.9753 65.9904 2.3160
6.3732 66.1150 2.3160
3.2721 45.4143 1.5885
2.3107 48.3527 1.6896
1.1926 50.5709 1.7660
-0.0309 52.1367 1.8203
-1.3211 53.3317 1.8624
-2.6608 54.3254 1.8983
-4.8587 66.3346 2.3204
-4.4974 46.0814 1.6143
-5.5079 45.1241 1.5837
-6.7246 45.8484 1.6129
-8.1119 47.3111 1.6689
-9.2119 46.8917 1.6592
-14.4826 65.3311 2.3204
-10.7836 43.6257 1.5558
-11.9112 43.6317 1.5631
-13.0540 43.6378 1.5711
-14.2139 43.6440 1.5799
-15.3925 43.6503 1.5896
-16.5917 43.6567 1.6001
-17.8135 43.6632 1.6114
-19.0601 43.6699 1.6237
-28.5889 61.4093 2.3016
-21.6422 43.6953 1.6517
-22.9775 43.7025 1.6670
-24.3477 43.7098 1.6835
-17.4843 29.6777 1.1550
-36.3482 58.4208 2.2984
-28.6988 43.7330 1.7405
-30.2415 43.7413 1.7623
-40.9815 56.3157 2.2984
-31.8984 41.6782 1.7244
-12.6626 15.7414 0.6607
-25.3514 30.0010 1.2786
-31.9283 35.9827 1.5584
-31.9386 34.2881 1.5104
-15.8759 16.2386 0.7282
-9.6055 9.3611 0.4278
-10.1570 9.4308 0.4396
-10.7459 9.5045 0.4525
-11.2758 9.4976 0.4623
-11.6313 9.3259 0.4647
-12.0303 9.1771 0.4688
-12.2820 8.9080 0.4671
-12.4878 8.6045 0.4639
-5.7651 3.7702 0.2094
-5.9891 3.7132 0.2127
-6.3201 3.7100 0.2197
-13.1211 7.2818 0.4468
-24.5695 12.8689 0.8199
-20.4294 10.0790 0.6685
-41.0359 19.0265 1.3175
-40.9301 17.7887 1.2901
-39.7531 16.1466 1.2308
-38.8110 14.6817 1.1810
-39.0700 13.7099 1.1691
-39.5398 12.8104 1.1640
-39.5970 11.7795 1.1475
-23.7875 6.4551 0.6789
-39.5165 9.7045 1.1113
-39.7425 8.7475 1.1018
-40.2961 7.8535 1.1019
-40.3702 6.8599 1.0894
-39.9277 5.7958 1.0637
-39.7089 4.7874 1.0449
-39.7890 3.8242 1.0347
-40.2333 2.8878 1.0345
-10.1405 0.4819 0.2579
-10.1186 0.2360 0.2547
-20.5893 -0.0173 0.5132
-20.5945 -0.5151 0.5085
-20.6697 -1.0172 0.5058
-20.7083 -1.5214 0.5025
-20.7766 -2.0322 0.5002
-20.8037 -2.5436 0.4972
-20.8067 -3.0559 0.4939
-20.6952 -3.5523 0.4881
-20.6320 -4.0569 0.4838
-20.4610 -4.5394 0.4773
-20.3249 -5.0274 0.4719
-20.1719 -5.5100 0.4664
-20.0238 -5.9931 0.4614
-19.8643 -6.4722 0.4564
-19.7083 -6.9524 0.4517
-19.5684 -7.4394 0.4478
-19.4636 -7.9429 0.4449
-19.3695 -8.4561 0.4426
-19.2436 -8.9607 0.4399
-13.5109 -6.6932 0.3092
-19.1692 -10.0801 0.4395
-19.2907 -10.7469 0.4434
-12.8237 -7.5558 0.2958
-12.6720 -7.8850 0.2935
-14.3973 -9.4483 0.3352
-14.1913 -9.8117 0.3323
-13.9836 -10.1761 0.3297
-13.7740 -10.5418 0.3274
-13.5623 -10.9093 0.3252
-21.4002 -18.0860 0.8290
-21.5600 -19.1327 0.8476
-14.4128 -13.4262 0.5757
-21.6055 -21.1244 0.8778
-21.4676 -22.0288 0.8884
-21.0392 -22.6594 0.8879
-17.8262 -20.1544 0.7683
-12.1009 -14.3661 0.5334
-13.0244 -16.2432 0.5880
-13.0424 -17.0960 0.6041
-13.0607 -18.0059 0.6217
-18.0498 -26.1930 0.8847
-14.2344 -21.7634 0.7198
-21.3594 -34.4456 1.1166
-21.2913 -36.2634 1.1532
-5.7852 -10.4220 0.3255
-24.1655 -46.1263 1.4159
-23.5904 -47.8035 1.4436
-29.7860 -64.2227 1.9098
-24.5898 -56.5599 1.6577
-10.4786 -25.7887 0.7456
-13.0722 -34.5418 0.9860
-14.1186 -40.2157 1.1344
-13.1085 -40.4386 1.1282
-22.5040 -75.6020 2.0877
-21.3530 -78.6346 2.1512
-19.6564 -79.9783 2.1694
-10.5833 -48.0406 1.2931
-16.2419 -83.2503 2.2255
-9.8712 -58.0205 1.5417
-12.7683 -87.8327 2.3216
-10.6558 -88.2222 2.3216
-8.4451 -87.6608 2.2985
-6.3299 -87.9067 2.2985
-3.0964 -64.8317 1.6918
-2.1718 -92.1417 2.4016
0.0201 -33.9470 0.8845
0.8403 -33.9439 0.8848
4.3108 -88.0663 2.2984
5.6831 -77.6395 2.0304
4.9147 -50.3892 1.3215
5.2393 -42.9503 1.1306
5.7813 -39.4412 1.0429
6.4866 -37.8553 1.0062
6.5702 -33.4658 0.8950
6.1865 -27.9246 0.7520
6.6797 -27.0400 0.7339
7.2897 -26.7196 0.7314
7.3466 -24.5743 0.6790
7.8470 -24.1099 0.6731
5.4580 -15.4880 0.4372
5.6694 -14.9273 0.4264
6.0219 -14.7704 0.4274
6.3867 -14.6428 0.4296
6.7529 -14.5151 0.4321
7.1329 -14.4112 0.4356
7.5943 -14.4541 0.4442
8.0371 -14.4386 0.4514
8.4882 -14.4181 0.4591
8.9545 -14.4026 0.4674
9.4456 -14.4044 0.4770
9.9294 -14.3727 0.4861
10.4783 -14.4099 0.4983
11.3892 -14.8926 0.5270
15.7992 -19.6560 0.7127
16.6233 -19.6877 0.7321
31.9438 -36.0295 1.3757
32.0695 -34.4572 1.3525
10.5605 -10.8110 0.4368
30.3546 -29.6083 1.2327
32.5216 -30.2238 1.2984
32.7014 -28.9506 1.2851
32.8791 -27.7203 1.2732
27.1040 -21.7532 1.0354
33.2130 -25.3617 1.2529
9.7900 -7.1079 0.3651
7.7164 -5.3226 0.2847
7.3867 -4.8360 0.2699
7.1527 -4.4397 0.2591
6.4536 -3.7930 0.2319
6.5279 -3.6274 0.2329
5.9929 -3.1430 0.2125
5.8501 -2.8902 0.2063
6.0002 -2.7861 0.2106
6.3550 -2.7662 0.2222
5.9173 -2.4073 0.2062
5.7368 -2.1739 0.1994
5.0821 -1.7866 0.1763
5.1079 -1.6582 0.1770
5.3436 -1.5930 0.1851
5.5981 -1.5226 0.1939
5.7921 -1.4261 0.2007
5.7456 -1.2682 0.1994
5.7005 -1.1145 0.1982
5.6567 -0.9647 0.1972
5.6142 -0.8184 0.1963
6.1188 -0.7414 0.2147
6.0638 -0.5865 0.2137
6.7651 -0.4897 0.2396
7.6118 -0.3664 0.2710
7.6259 -0.1825 0.2731
8.1652 0.0019 0.2943
15.8356 0.3865 0.5747
15.9251 0.7740 0.5823
16.1691 1.1781 0.5960
16.4353 1.5975 0.6111
16.6016 2.0197 0.6229
17.2808 2.5275 0.6546
17.5982 3.0099 0.6735
18.0087 3.5300 0.6966
19.0158 4.2070 0.7439
42.5462 10.4972 1.6841
42.0895 11.4704 1.6867
42.2344 12.6138 1.7144
43.9775 14.3007 1.8093
43.8259 15.4321 1.8285
42.6393 16.1827 1.8051
42.1297 17.1652 1.8108
42.0117 18.3130 1.8344
44.0455 20.4801 1.9549
43.6268 21.5827 1.9695
43.8698 23.0389 2.0157
44.3859 24.6965 2.0770
44.2481 26.0398 2.1102
14.3786 8.9365 0.6993
13.9442 9.1410 0.6921
26.2075 18.1004 1.3285
25.2987 18.3914 1.3107
24.4214 18.6722 1.2942
23.5733 18.9437 1.2789
22.7517 19.2068 1.2647
21.9547 19.4619 1.2515
21.1802 19.7099 1.2394
20.4265 19.9512 1.2281
19.6918 20.1864 1.2177
18.9747 20.4160 1.2082
18.2736 20.6404 1.1994
17.5873 20.8601 1.1915
16.9146 21.0755 1.1842
18.7737 24.5866 1.3602
18.0240 24.8266 1.3534
16.5965 24.0630 1.2936
24.2248 37.0062 1.9632
24.2032 38.9990 2.0433
24.2051 41.1920 2.1328
23.9815 43.1675 2.2104
22.8725 43.6230 2.2104
21.3807 43.2913 2.1720
21.2986 45.8866 2.2810
3.3383 7.6726 0.3781
3.0757 7.5637 0.3697
2.9060 7.6729 0.3722
15.5854 44.3602 2.1370
14.9752 46.1625 2.2095
14.4998 48.6758 2.3160
13.2997 48.9412 2.3160
12.0968 49.1836 2.3160
10.8913 49.4026 2.3160
9.6835 49.5984 2.3160
8.4738 49.7710 2.3160
7.2622 49.9206 2.3160
6.0377 49.9527 2.3116
4.7984 49.7723 2.2985
3.2725 45.4144 2.0939
2.3436 49.0344 2.2583
1.1779 49.9427 2.2985
-0.0304 51.1775 2.3548
-1.2929 52.1842 2.4017
-2.5551 52.1616 2.4024
-3.8176 52.1152 2.4030
-4.4977 46.0799 2.1281
-5.5083 45.1225 2.0883
-6.7230 45.8323 2.1265
-8.1089 47.2882 2.2007
-9.2043 46.8478 2.1878
-11.3567 51.2240 2.4017
-9.8642 39.9019 1.8792
-13.8538 50.7422 2.4016
-13.0591 43.6495 2.0772
-14.2194 43.6557 2.0900
-15.3985 43.6620 2.1039
-16.5981 43.6684 2.1190
-17.8205 43.6750 2.1355
-19.0675 43.6816 2.1532
-13.8570 29.7614 1.4798
-21.6449 43.6954 2.1930
-22.9804 43.7025 2.2151
-24.3442 43.6981 2.2383
-25.7520 43.7056 2.2639
-10.6899 17.1791 0.9004
-11.2649 17.1639 0.9110
-11.7592 17.0062 0.9146
-12.3761 17.0046 0.9274
-13.0254 17.0165 0.9419
-13.6906 17.0170 0.9567
-14.3823 17.0176 0.9726
-15.1048 17.0203 0.9897
-15.8570 17.0209 1.0080
-15.8755 16.2357 0.9801
-17.4692 17.0222 1.0486
-9.4776 8.7985 0.5537
-10.0036 8.8465 0.5694
-10.5640 8.8965 0.5864
-21.2345 17.0228 1.1504
-22.3179 17.0218 1.1811
-23.4769 17.0243 1.2147
-11.9973 8.2649 0.6073
-5.7272 3.7447 0.2839
-5.9903 3.7132 0.2910
-6.3273 3.7135 0.3014
-12.7041 7.0488 0.5937
-24.5693 12.8658 1.1275
-20.4293 10.0765 0.9212
-37.1432 17.2171 1.6467
-36.6118 15.9075 1.5968
-37.1078 15.0678 1.5932
-37.1097 14.0338 1.5693
-30.4561 10.6836 1.2693
-39.3148 12.7329 1.6158
-39.3853 11.7120 1.5971
-23.7856 6.4518 0.9522
-39.0372 9.5824 1.5437
-39.1844 8.6202 1.5314
-39.4974 7.6934 1.5264
-39.4784 6.7039 1.5095
-39.4010 5.7149 1.4913
-39.3296 4.7373 1.4744
-39.1957 3.7628 1.4561
-21.7618 1.5596 0.8015
-10.1385 0.4807 0.3704
-10.1180 0.2349 0.3669
-20.0482 -0.0191 0.7220
-20.1397 -0.5060 0.7207
-20.2358 -0.9980 0.7199
-20.3148 -1.4947 0.7189
-20.3807 -1.9957 0.7178
-20.3981 -2.4963 0.7154
-20.4099 -2.9999 0.7132
-20.3484 -3.4951 0.7089
-20.2983 -3.9936 0.7054
-20.1351 -4.4694 0.6984
-20.0069 -4.9510 0.6931
-19.8663 -5.4288 0.6877
-19.7271 -5.9065 0.6829
-19.5752 -6.3803 0.6780
-19.4224 -6.8539 0.6736
-19.2960 -7.3381 0.6705
-19.1786 -7.8290 0.6681
-19.0599 -8.3232 0.6662
-18.9363 -8.8199 0.6645
-13.5095 -6.6941 0.4764
-18.8181 -9.8979 0.6672
-18.8974 -10.5301 0.6743
-12.8183 -7.5542 0.4606
-12.6705 -7.8857 0.4590
-19.4612 -12.7742 0.7112
-19.8544 -13.7299 0.7326
-20.2961 -14.7727 0.7570
-20.8839 -15.9863 0.7880
-21.1729 -17.0343 0.8090
-20.7207 -17.5147 1.1037
-20.8075 -18.4680 1.1267
-14.4081 -13.4241 0.7940
-20.7594 -20.3003 1.1656
-20.6347 -21.1774 1.1820
-20.3626 -21.9340 1.1914
-17.8231 -20.1539 1.0667
-19.9183 -23.6504 1.2210
-19.8885 -24.8073 1.2507
-20.1774 -26.4524 1.3038
-12.6157 -17.3948 0.8390
-12.6182 -18.3132 0.8652
-14.2315 -21.7618 1.0081
-20.7196 -33.4182 1.5194
-20.4081 -34.7636 1.5527
-5.7843 -10.4217 0.4577
-21.8428 -41.6980 1.8021
-21.5323 -43.6383 1.8576
-20.8026 -44.8586 1.8825
-20.3418 -46.7945 1.9375
-10.4764 -25.7865 1.0543
-13.0694 -34.5385 1.3956
-14.1148 -40.2095 1.6069
-13.1058 -40.4347 1.5995
-17.4074 -58.4867 2.2920
-16.1914 -59.6334 2.3169
-14.8005 -60.2274 2.3216
-10.5806 -48.0334 1.8385
-11.9075 -61.0403 2.3216
-9.8681 -58.0093 2.1941
-8.8759 -61.0640 2.2985
-7.4048 -61.3127 2.2985
-5.9257 -61.5162 2.2985
-4.6397 -64.4408 2.4016
-3.0831 -64.5587 2.4016
-1.5232 -64.6289 2.4016
0.0201 -33.9495 1.2611
0.8403 -33.9464 1.2615
3.0236 -61.7773 2.2984
4.5131 -61.6617 2.2984
4.9388 -50.6417 1.8926
5.2370 -42.9362 1.6100
5.7463 -39.2067 1.4762
6.4603 -37.7063 1.4266
6.5272 -33.2504 1.2651
6.1599 -27.8076 1.0648
6.6703 -27.0051 1.0415
6.9495 -25.4756 0.9903
6.4693 -21.6422 0.8486
7.0312 -21.6059 0.8552
5.2953 -15.0282 0.6010
5.6196 -14.7979 0.5983
5.9608 -14.6222 0.5983
6.3334 -14.5224 0.6018
6.7174 -14.4405 0.6065
7.0769 -14.2996 0.6093
7.4370 -14.1565 0.6124
7.7594 -13.9415 0.6129
8.0682 -13.7064 0.6128
8.3774 -13.4762 0.6134
8.7027 -13.2732 0.6156
9.0282 -13.0699 0.6182
7.7797 -10.7002 0.5167
8.2281 -10.7605 0.5311
12.6345 -15.7211 0.7937
16.0600 -19.0234 0.9836
17.2053 -19.4087 1.0288
31.3235 -33.6608 1.8313
10.3674 -10.6149 0.5934
10.7483 -10.4857 0.6031
31.9652 -29.7115 1.7605
32.1184 -28.4392 1.7382
32.2738 -27.2147 1.7183
27.0998 -21.7536 1.4209
32.5847 -24.8864 1.6842
9.7069 -7.0490 0.4951
7.7008 -5.3129 0.3880
7.3978 -4.8443 0.3685
7.0946 -4.4046 0.3497
7.3128 -4.2989 0.3569
6.5048 -3.6154 0.3147
6.5785 -3.4510 0.3157
5.6126 -2.7735 0.2674
5.5478 -2.5767 0.2626
6.0333 -2.6269 0.2840
5.9287 -2.4127 0.2776
5.7296 -2.1718 0.2672
5.0731 -1.7840 0.2357
5.1182 -1.6621 0.2371
5.3546 -1.5969 0.2475
5.6102 -1.5266 0.2588
5.8875 -1.4502 0.2714
5.8607 -1.2943 0.2700
5.8132 -1.1372 0.2679
5.7672 -0.9842 0.2660
5.7226 -0.8348 0.2643
5.8967 -0.7152 0.2729
5.7453 -0.5563 0.2665
5.6026 -0.4062 0.2607
6.8430 -0.3301 0.3197
7.6181 -0.1832 0.3574
8.1407 0.0010 0.3838
15.8256 0.3845 0.7501
15.9206 0.7720 0.7591
16.1567 1.1754 0.7754
16.3544 1.5878 0.7904
16.5127 2.0070 0.8042
17.1841 2.5114 0.8438
17.5569 3.0008 0.8696
17.9029 3.5072 0.8950
18.9866 4.1983 0.9586
42.2788 10.4265 2.1569
42.3506 11.5366 2.1844
42.5465 12.7021 2.2200
43.2991 14.0750 2.2869
43.1105 15.1751 2.3061
42.7232 16.2095 2.3160
42.1322 17.1612 2.3160
41.5238 18.0953 2.3160
40.8982 19.0117 2.3160
40.2562 19.9102 2.3160
39.5981 20.7906 2.3160
38.9244 21.6528 2.3160
38.2357 22.4966 2.3160
14.3786 8.9346 0.8873
13.9436 9.1387 0.8772
26.2110 18.0993 1.6823
25.3020 18.3903 1.6582
24.4246 18.6712 1.6358
23.5762 18.9428 1.6149
22.7545 19.2059 1.5955
21.9574 19.4611 1.5775
21.1828 19.7090 1.5608
20.4289 19.9504 1.5453
19.6941 20.1856 1.5310
18.9769 20.4153 1.5178
18.2757 20.6397 1.5057
17.5893 20.8595 1.4946
16.9165 21.0749 1.4844
18.7758 24.5859 1.7039
18.0260 24.8260 1.6942
16.5956 24.0585 1.6180
22.8591 34.9153 2.3160
21.9571 35.3751 2.3160
21.0482 35.8151 2.3160
20.1331 36.2357 2.3160
19.2118 36.6367 2.3160
18.2847 37.0180 2.3160
17.3523 37.3799 2.3160
3.3387 7.6726 0.4711
3.0760 7.5635 0.4604
2.9063 7.6729 0.4634
13.5741 38.6310 2.3160
12.6190 38.8948 2.3160
11.6603 39.1391 2.3160
10.6982 39.3636 2.3160
9.7331 39.5687 2.3160
8.7652 39.7542 2.3160
7.7948 39.9201 2.3160
6.8223 40.0665 2.3160
5.8037 39.8901 2.2985
4.8349 39.9965 2.2985
3.8648 40.0836 2.2985
2.9213 40.5364 2.3206
2.0078 42.0054 2.4018
0.9916 42.0392 2.4020
-0.0250 42.0491 2.4020
-1.0416 42.0383 2.4020
-2.0579 42.0070 2.4020
-3.0736 41.9547 2.4019
-4.0884 41.8819 2.4018
-5.1018 41.7882 2.4017
-5.8514 39.8859 2.2985
-6.8186 39.7595 2.2985
-7.7838 39.6135 2.2985
-8.7469 39.4481 2.2985
-9.3352 37.7577 2.2104
-9.3513 34.2470 2.0153
-9.5237 31.8290 1.8838
-10.1731 31.2294 1.8600
-13.5941 38.5415 2.3112
-14.4085 37.9034 2.2898
-15.3169 37.5349 2.2857
-16.1042 36.8887 2.2656
-17.0020 36.5115 2.2630
-17.9292 36.1900 2.2650
-18.4965 35.1709 2.2242
-9.4812 17.0165 1.0881
-10.0279 17.0168 1.1009
-10.5904 17.0170 1.1146
-11.1701 17.0172 1.1294
-11.7686 17.0174 1.1451
-12.3863 17.0163 1.1619
-13.0274 17.0168 1.1800
-13.6927 17.0173 1.1994
-14.3845 17.0178 1.2202
-15.1068 17.0202 1.2426
-15.8592 17.0207 1.2664
-15.8751 16.2327 1.2322
-17.4715 17.0218 1.3196
-18.3394 17.0229 1.3493
-9.3409 8.2591 0.6701
-20.2143 17.0206 1.4154
-21.2384 17.0229 1.4528
-22.3221 17.0220 1.4930
-23.4815 17.0245 1.5369
-24.7246 17.0295 1.5850
-5.7145 3.7356 0.3591
-5.9916 3.7132 0.3693
-6.3287 3.7135 0.3829
-30.7046 17.0326 1.8249
-24.5692 12.8626 1.4354
-20.4293 10.0739 1.1741
-34.8670 16.1578 1.9724
-34.9266 15.1711 1.9461
-34.9852 14.2017 1.9212
-35.0531 13.2519 1.8984
-30.4477 10.6771 1.6272
-35.1085 11.3665 1.8526
-35.1356 10.4443 1.8317
-23.7844 6.4488 1.2257
-35.1889 8.6338 1.7937
-35.2151 7.7430 1.7765
-35.2410 6.8604 1.7605
-35.2667 5.9848 1.7455
-35.2923 5.1151 1.7316
-35.3177 4.2502 1.7188
-35.3430 3.3891 1.7071
-20.6049 1.4744 0.9882
-10.1365 0.4795 0.4830
-10.1173 0.2338 0.4793
-19.5400 -0.0208 0.9206
-19.6426 -0.4956 0.9210
-19.7733 -0.9774 0.9232
-19.8549 -1.4631 0.9236
-19.9656 -1.9573 0.9259
-19.9915 -2.4488 0.9247
-20.0021 -2.9422 0.9234
-19.9540 -3.4296 0.9199
-19.9133 -3.9201 0.9173
-19.7766 -4.3921 0.9108
-19.6947 -4.8760 0.9075
-19.5713 -5.3504 0.9027
-19.4389 -5.8225 0.8981
-19.2947 -6.2911 0.8936
-19.1228 -6.7504 0.8883
-18.9991 -7.2275 0.8858
-18.8826 -7.7103 0.8842
-18.7645 -8.1965 0.8831
-18.6383 -8.6834 0.8823
-13.5081 -6.6951 0.6436
-18.4923 -9.7288 0.8876
-18.5088 -10.3159 0.8956
-12.8128 -7.5527 0.6255
-12.6690 -7.8864 0.6245
-18.9191 -12.4209 0.9425
-19.2181 -13.2924 0.9685
-19.6009 -14.2694 1.0001
-20.0714 -15.3672 1.0379
-20.4978 -16.4940 1.0752
-20.0992 -16.9922 1.3630
-20.1512 -17.8885 1.3905
-14.4035 -13.4219 1.0124
-20.1096 -19.6680 1.4416
-19.9783 -20.5068 1.4624
-19.7338 -21.2599 1.4768
-17.8200 -20.1534 1.3653
-19.3005 -22.9202 1.5160
-19.2474 -24.0111 1.5522
-19.3609 -25.3855 1.6056
-19.6119 -27.0452 1.6753
-18.0432 -26.1904 1.5905
-14.2286 -21.7602 1.2967
-20.1333 -32.4767 1.9008
-19.7443 -33.6372 1.9354
-5.7834 -10.4214 0.5900
-19.1991 -36.6558 2.0436
-19.5993 -39.7257 2.1829
-19.2687 -41.5562 2.2524
-18.5173 -42.6026 2.2797
-10.4743 -25.7843 1.3632
-13.0666 -34.5352 1.8053
-14.1220 -40.2347 2.0813
-13.1030 -40.4309 2.0712
-13.6082 -45.7270 2.3216
-12.5168 -46.1048 2.3216
-11.4138 -46.4513 2.3216
-10.3002 -46.7659 2.3216
-9.0857 -46.5807 2.2985
-7.9652 -46.8284 2.2985
-6.8372 -47.0433 2.2985
-5.7028 -47.2256 2.2985
-4.7677 -49.4997 2.4016
-3.5723 -49.6210 2.4016
-2.3736 -49.7076 2.4016
-1.1726 -49.7590 2.4016
0.0201 -33.9520 1.6381
0.8403 -33.9489 1.6386
2.4324 -49.7034 2.4016
3.4748 -47.4817 2.2984
4.6186 -47.3637 2.2984
5.2013 -42.6478 2.0762
5.6691 -38.6839 1.8906
5.8849 -34.3518 1.6866
6.4340 -32.7791 1.6180
6.1505 -27.7683 1.3790
6.6673 -26.9962 1.3498
6.9259 -25.3923 1.2792
6.3285 -21.1737 1.0756
6.8195 -20.9579 1.0742
5.2503 -14.9022 0.7713
5.5721 -14.6747 0.7676
5.9009 -14.4769 0.7659
6.2810 -14.4039 0.7713
6.6777 -14.3570 0.7788
7.0397 -14.2264 0.7824
7.3971 -14.0823 0.7858
7.7378 -13.9046 0.7879
8.0459 -13.6702 0.7873
8.3555 -13.4427 0.7876
8.6799 -13.2402 0.7898
9.0045 -13.0374 0.7926
7.7033 -10.5966 0.6572
7.9425 -10.3886 0.6579
8.3720 -10.4188 0.6744
15.4728 -18.3305 1.2140
16.4249 -18.5311 1.2572
10.2251 -10.9898 0.7645
10.1810 -10.4257 0.7446
10.4127 -10.1600 0.7459
11.3503 -10.5519 0.7973
31.2697 -27.6923 2.1563
31.4091 -26.4900 2.1286
27.0955 -21.7540 1.8066
31.7894 -24.2834 2.0875
9.6252 -6.9910 0.6231
7.6851 -5.3031 0.4909
7.0294 -4.6040 0.4435
7.1378 -4.4324 0.4451
7.3581 -4.3264 0.4540
6.4820 -3.6035 0.3960
5.6997 -2.9907 0.3450
5.5458 -2.7412 0.3330
5.5419 -2.5746 0.3302
6.0453 -2.6328 0.3578
5.9402 -2.4181 0.3494
5.7225 -2.1698 0.3348
5.4880 -1.9306 0.3196
5.1284 -1.6660 0.2975
5.3658 -1.6009 0.3102
5.6009 -1.5247 0.3229
5.9008 -1.4542 0.3395
5.9807 -1.3215 0.3436
5.9306 -1.1609 0.3404
5.8822 -1.0045 0.3376
5.8353 -0.8519 0.3350
5.8384 -0.7088 0.3355
5.9430 -0.5761 0.3421
5.7900 -0.4204 0.3340
6.0621 -0.2931 0.3506
8.1992 -0.1981 0.4758
8.1163 0.0001 0.4728
15.8007 0.3821 0.9245
15.9202 0.7702 0.9362
16.1570 1.1736 0.9554
16.3225 1.5829 0.9711
16.5045 2.0042 0.9886
17.1232 2.5006 1.0331
17.5938 3.0052 1.0698
17.9729 3.5189 1.1021
18.9429 4.1865 1.1720
37.0781 9.1397 2.3160
36.7049 9.9945 2.3160
36.3141 10.8373 2.3160
35.9059 11.6676 2.3160
35.4811 12.4854 2.3160
35.0398 13.2902 2.3160
34.5825 14.0819 2.3160
34.1096 14.8602 2.3160
33.6215 15.6250 2.3160
33.1184 16.3759 2.3160
32.6009 17.1128 2.3160
32.0695 17.8355 2.3160
31.5242 18.5437 2.3160
14.3785 8.9327 1.0754
13.9429 9.1365 1.0624
26.2145 18.0982 2.0366
25.3053 18.3892 2.0061
24.4277 18.6702 1.9777
23.5792 18.9418 1.9513
22.7574 19.2049 1.9267
21.9601 19.4602 1.9039
21.1853 19.7082 1.8826
20.4314 19.9496 1.8630
19.6964 20.1849 1.8447
18.9791 20.4145 1.8279
18.2778 20.6391 1.8124
17.5913 20.8588 1.7981
16.9184 21.0743 1.7850
18.7779 24.5852 2.0480
18.0280 24.8253 2.0355
16.5947 24.0539 1.9428
19.0443 29.0846 2.3160
18.2999 29.4791 2.3160
17.5490 29.8571 2.3160
16.7919 30.2184 2.3160
16.0290 30.5632 2.3160
15.2604 30.8913 2.3160
14.4866 31.2029 2.3160
3.3391 7.6726 0.5642
3.0763 7.5633 0.5513
2.9067 7.6729 0.5547
11.3444 32.2816 2.3160
10.5485 32.5093 2.3160
9.7491 32.7201 2.3160
8.9464 32.9142 2.3160
8.1408 33.0915 2.3160
7.3323 33.2518 2.3160
6.4723 33.1434 2.2985
5.6655 33.2691 2.2985
4.8567 33.3779 2.2985
4.0464 33.4700 2.2985
3.2347 33.5453 2.2985
2.5306 35.1109 2.4016
1.6806 35.1545 2.4016
0.8299 35.1804 2.4016
-0.0209 35.1889 2.4016
-0.8718 35.1798 2.4016
-1.7223 35.1531 2.4016
-2.5724 35.1089 2.4016
-3.4216 35.0471 2.4016
-4.2696 34.9677 2.4016
-5.1163 34.8709 2.4016
-5.7054 33.2645 2.2985
-6.5122 33.1383 2.2985
-7.3169 32.9952 2.2985
-8.1192 32.8354 2.2985
-8.9187 32.6588 2.2985
-9.3649 31.2945 2.2156
-9.3764 28.7804 2.0509
-9.3766 26.5809 1.9076
-10.3484 27.2196 1.9683
-12.9954 31.8421 2.3216
-13.7570 31.5082 2.3176
-14.4186 30.9601 2.2989
-14.9440 30.1607 2.2621
-15.3153 29.1182 2.2075
-9.4823 17.0164 1.3048
-10.0291 17.0166 1.3206
-10.5917 17.0168 1.3376
-11.1715 17.0171 1.3558
-11.7701 17.0173 1.3753
-12.3882 17.0165 1.3961
-13.0294 17.0170 1.4185
-13.6949 17.0175 1.4424
-14.3868 17.0181 1.4681
-15.1089 17.0200 1.4957
-15.8615 17.0206 1.5252
-15.8747 16.2298 1.4846
-17.4738 17.0213 1.5910
-18.3419 17.0225 1.6277
-12.5325 11.0792 1.0850
-20.2179 17.0208 1.7094
-21.2424 17.0231 1.7557
-22.3264 17.0221 1.8054
-23.4862 17.0247 1.8597
-24.7294 17.0295 1.9190
-5.7162 3.7360 0.4351
-5.9929 3.7132 0.4477
-6.3301 3.7135 0.4646
-27.7808 15.4072 2.0042
-24.5690 12.8594 1.7436
-20.4292 10.0713 1.4272
-27.8840 12.9184 1.9190
-28.1699 12.2328 1.9110
-6.8537 2.7813 0.4586
-6.8926 2.6049 0.4552
-28.8820 10.1247 1.8837
-29.1464 9.4328 1.8785
-29.3982 8.7353 1.8735
-23.7832 6.4457 1.4995
-29.9353 7.3413 1.8685
-30.1767 6.6317 1.8657
-30.3549 5.9057 1.8600
-30.5158 5.1751 1.8543
-30.6063 4.4325 1.8454
-29.8464 3.5884 1.7866
-22.8698 2.1904 1.3599
-19.4619 1.3904 1.1502
-10.1345 0.4783 0.5957
-10.1167 0.2326 0.5917
-19.0887 -0.0224 1.1115
-19.2092 -0.4868 1.1142
-19.3311 -0.9577 1.1176
-19.4440 -1.4350 1.1211
-19.5625 -1.9199 1.1256
-19.5949 -2.4024 1.1257
-19.6038 -2.8858 1.1252
-19.5689 -3.3656 1.1227
-19.5437 -3.8496 1.1216
-19.4560 -4.3231 1.1175
-19.3917 -4.8032 1.1155
-19.2869 -5.2749 1.1118
-19.1230 -5.7301 1.1053
-18.9844 -6.1921 1.1010
-18.8250 -6.6474 1.0962
-18.7109 -7.1200 1.0947
-18.5952 -7.5952 1.0939
-18.4778 -8.0735 1.0937
-13.9759 -6.5129 0.8329
-13.5067 -6.6960 0.8110
-18.1703 -9.5617 1.1002
-18.1374 -10.1112 1.1083
-12.8074 -7.5511 0.7904
-12.6675 -7.8871 0.7902
-18.4035 -12.0848 1.1614
-18.6751 -12.9194 1.1934
-18.9905 -13.8275 1.2299
-19.3629 -14.8274 1.2721
-19.8005 -15.9358 1.3210
-19.4050 -16.4081 1.5985
-19.5744 -17.3793 1.6418
-14.3988 -13.4198 1.2310
-19.5542 -19.1278 1.7060
-19.4095 -19.9261 1.7301
-19.1483 -20.6322 1.7461
-17.8170 -20.1529 1.6642
-18.7046 -22.2157 1.7921
-18.5397 -23.1315 1.8248
-18.5191 -24.2852 1.8754
-18.5986 -25.6513 1.9411
-18.0399 -26.1891 1.9438
-14.2257 -21.7587 1.5855
-19.0383 -30.7144 2.1993
-18.6231 -31.7311 2.2346
-5.7825 -10.4211 0.7224
-17.6272 -33.6588 2.2988
-17.0071 -34.4758 2.3216
-16.1529 -34.8406 2.3152
-15.3717 -35.3698 2.3212
-10.4721 -25.7821 1.6723
-13.0638 -34.5319 2.2155
-12.8293 -36.5561 2.3216
-11.9582 -36.9029 2.3216
-11.0768 -37.2254 2.3216
-10.1859 -37.5233 2.3216
-9.1938 -37.4208 2.2985
-8.2951 -37.6665 2.2985
-7.3892 -37.8869 2.2985
-6.4768 -38.0819 2.2985
-5.5587 -38.2513 2.2985
-4.8438 -40.1168 2.4016
-3.8753 -40.2397 2.4016
-2.9035 -40.3351 2.4016
-1.9291 -40.4032 2.4016
-0.9530 -40.4437 2.4016
0.0201 -33.9545 2.0156
0.8402 -33.9514 2.0162
1.9769 -40.4000 2.4016
2.8243 -38.5965 2.2984
3.7542 -38.5037 2.2984
4.6808 -38.3845 2.2984
5.6003 -38.2189 2.2971
5.8034 -33.8800 2.0455
6.3069 -32.1352 1.9502
6.1260 -27.6611 1.6886
6.6648 -26.9891 1.6584
6.0905 -22.3319 1.3823
6.2709 -20.9836 1.3093
6.7512 -20.7504 1.3061
5.2453 -14.8897 0.9461
5.5434 -14.6007 0.9373
5.8421 -14.3343 0.9304
6.2293 -14.2872 0.9383
6.6224 -14.2398 0.9470
7.0029 -14.1538 0.9539
7.3576 -14.0088 0.9575
7.7073 -13.8515 0.9610
8.0236 -13.6342 0.9610
8.3337 -13.4093 0.9611
8.6572 -13.2074 0.9634
8.9919 -13.0208 0.9675
7.6283 -10.4949 0.7951
7.8838 -10.3132 0.7974
8.1417 -10.1336 0.8004
8.5095 -10.0826 0.8144
10.1894 -11.4978 0.9508
9.9744 -10.7220 0.9086
10.0009 -10.2429 0.8906
10.2289 -9.9822 0.8917
10.6503 -9.9027 0.9098
29.3727 -26.0167 2.4618
29.8295 -25.1621 2.4556
27.0912 -21.7544 2.1928
30.4271 -23.2471 2.4239
9.5447 -6.9338 0.7491
7.6696 -5.2934 0.5935
7.0731 -4.6336 0.5403
7.1816 -4.4605 0.5419
5.8685 -3.4514 0.4378
5.7784 -3.2131 0.4265
5.6932 -2.9880 0.4162
5.6125 -2.7749 0.4066
5.5359 -2.5725 0.3978
6.0574 -2.6388 0.4320
5.9518 -2.4235 0.4216
5.7154 -2.1678 0.4024
5.4815 -1.9289 0.3839
5.1387 -1.6700 0.3582
5.3770 -1.6049 0.3733
5.5902 -1.5224 0.3867
5.9142 -1.4581 0.4080
6.0978 -1.3480 0.4198
6.2637 -1.2268 0.4306
6.4092 -1.0952 0.4402
5.9528 -0.8697 0.4087
5.9051 -0.7175 0.4055
5.7859 -0.5616 0.3977
5.9907 -0.4356 0.4124
8.0610 -0.3907 0.5560
8.1744 -0.1984 0.5653
7.7932 -0.0008 0.5407
15.8367 0.3812 1.1029
15.9592 0.7704 1.1163
16.1836 1.1737 1.1375
16.3500 1.5838 1.1556
16.5904 2.0128 1.1797
17.0840 2.4929 1.2228
17.6062 3.0053 1.2693
18.0539 3.5327 1.3117
18.8993 4.1747 1.3847
31.3297 7.7191 2.3160
31.0327 8.4465 2.3160
30.7202 9.1643 2.3160
30.3926 9.8725 2.3160
30.0500 10.5707 2.3160
29.6929 11.2587 2.3160
29.3216 11.9362 2.3160
28.9363 12.6029 2.3160
28.5374 13.2588 2.3160
28.1252 13.9034 2.3160
27.7000 14.5367 2.3160
27.2620 15.1584 2.3160
26.8118 15.7683 2.3160
14.3785 8.9309 1.2638
13.9423 9.1342 1.2479
25.3901 17.5256 2.3160
24.8935 18.0866 2.3160
24.3861 18.6350 2.3160
23.8683 19.1707 2.3160
23.3402 19.6934 2.3160
21.9628 19.4593 2.2307
21.1879 19.7074 2.2050
20.4338 19.9488 2.1811
19.6988 20.1841 2.1589
18.9813 20.4138 2.1384
18.2799 20.6384 2.1195
17.5933 20.8582 2.1021
16.9203 21.0737 2.0861
18.1787 23.7974 2.3160
17.5652 24.1847 2.3160
16.5938 24.0494 2.2680
16.3176 24.9172 2.3160
15.6841 25.2622 2.3160
15.0446 25.5929 2.3160
14.3992 25.9092 2.3160
13.7483 26.2113 2.3160
13.0921 26.4989 2.3160
