ply
format ascii 1.0
element vertex 2108
property float32 x
property float32 y
property float32 z
end_header
-13.0690 -14.7933 2.3216
-12.7252 -15.1249 2.3216
-12.3727 -15.4480 2.3216
-12.0115 -15.7623 2.3216
-11.6419 -16.0675 2.3216
-11.2641 -16.3634 2.3216
-10.8784 -16.6497 2.3216
-10.4850 -16.9264 2.3216
-10.0842 -17.1930 2.3216
-9.6762 -17.4493 2.3216
-9.1692 -17.5192 2.2985
-8.7519 -17.7521 2.2985
-8.3283 -17.9742 2.2985
-7.8987 -18.1855 2.2985
-7.4635 -18.3856 2.2985
-7.0229 -18.5744 2.2985
-6.5772 -18.7517 2.2985
-6.1267 -18.9175 2.2985
-5.6718 -19.0715 2.2985
-5.4145 -19.9570 2.3874
-4.9630 -20.2114 2.4016
-4.4758 -20.3347 2.4016
-3.9854 -20.4452 2.4016
-3.4921 -20.5429 2.4016
-2.9962 -20.6276 2.4016
-2.4981 -20.6993 2.4016
-1.9982 -20.7579 2.4016
-1.4969 -20.8034 2.4016
-0.9945 -20.8357 2.4016
-0.4914 -20.8548 2.4016
0.0121 -20.8606 2.4016
0.5155 -20.8533 2.4016
1.0186 -20.8326 2.4016
1.5208 -20.7989 2.4016
2.0220 -20.7519 2.4016
2.5216 -20.6918 2.4016
2.8895 -19.7322 2.2983
3.3637 -19.6497 2.2983
3.5441 -18.0697 2.1238
4.3043 -19.4477 2.2983
4.7700 -19.3284 2.2983
5.2322 -19.1970 2.2983
5.6906 -19.0536 2.2983
5.9305 -18.2393 2.2182
6.0474 -17.1776 2.1077
6.3851 -16.8286 2.0847
6.7781 -16.6418 2.0829
5.2890 -12.1384 1.5361
5.1936 -11.1750 1.4309
5.4178 -10.9572 1.4207
5.6341 -10.7345 1.4104
5.8508 -10.5220 1.4021
6.1384 -10.4378 1.4117
6.4295 -10.3526 1.4223
6.7245 -10.2661 1.4340
6.9939 -10.1348 1.4405
7.2569 -9.9911 1.4464
7.5369 -9.8667 1.4561
7.8199 -9.7404 1.4669
8.1060 -9.6119 1.4785
8.3962 -9.4818 1.4913
8.6797 -9.3376 1.5033
8.9670 -9.1914 1.5164
9.2575 -9.0417 1.5304
7.6164 -7.0878 1.2324
7.4925 -6.6422 1.1878
7.5941 -6.4117 1.1809
7.7953 -6.2655 1.1903
7.9815 -6.1039 1.1978
8.0814 -5.8766 1.1931
8.1791 -5.6508 1.1891
8.2680 -5.4221 1.1846
8.3003 -5.1610 1.1731
8.0456 -4.7371 1.1226
8.0762 -4.4961 1.1134
8.1060 -4.2596 1.1050
8.1964 -4.0576 1.1056
8.2996 -3.8620 1.1087
8.4028 -3.6658 1.1124
8.5061 -3.4689 1.1167
8.5868 -3.2622 1.1187
8.7199 -3.0738 1.1282
8.8992 -2.8974 1.1442
9.0827 -2.7163 1.1613
9.1233 -2.4900 1.1607
8.8972 -2.1988 1.1270
8.8091 -1.9525 1.1117
8.7453 -1.7179 1.1003
7.6062 -1.3041 0.9546
7.1852 -1.0539 0.9001
7.3947 -0.9028 0.9251
7.3868 -0.7212 0.9235
6.7116 -0.4919 0.8390
7.1804 -0.3521 0.8981
7.3824 -0.1833 0.9243
7.5964 -0.0051 0.9527
7.8235 0.1839 0.9834
7.5423 0.3598 0.9507
5.8153 0.4184 0.7355
5.7633 0.5550 0.7319
5.6065 0.6770 0.7152
5.6611 0.8228 0.7259
5.2619 0.8952 0.6786
5.0043 0.9763 0.6494
4.7685 1.0506 0.6231
5.0729 1.2469 0.6679
5.5028 1.4945 0.7304
5.3961 1.6066 0.7225
5.5201 1.7898 0.7461
5.4115 1.9004 0.7387
5.3053 2.0084 0.7320
6.1384 2.4951 0.8565
6.2027 2.6977 0.8758
5.8892 2.7325 0.8421
5.9548 2.9400 0.8629
5.7851 3.0323 0.8501
6.8539 3.8065 1.0221
15.2926 8.9837 2.3160
15.0467 9.3359 2.3160
14.7931 9.6816 2.3160
14.5321 10.0209 2.3160
14.2638 10.3536 2.3160
13.9883 10.6795 2.3160
13.7059 10.9986 2.3160
13.4166 11.3106 2.3160
13.1207 11.6154 2.3160
12.8184 11.9130 2.3160
12.5098 12.2032 2.3160
12.1951 12.4859 2.3160
11.8744 12.7609 2.3160
11.5481 13.0283 2.3160
11.2161 13.2878 2.3160
10.8787 13.5395 2.3160
10.5361 13.7831 2.3160
10.1886 14.0186 2.3160
9.8361 14.2460 2.3160
9.4790 14.4650 2.3160
9.1174 14.6757 2.3160
8.7515 14.8780 2.3160
8.3815 15.0718 2.3160
8.0076 15.2571 2.3160
7.6299 15.4337 2.3160
7.2486 15.6016 2.3160
6.8640 15.7608 2.3160
6.4269 15.7901 2.2983
6.0391 15.9305 2.2983
5.6484 16.0622 2.2983
5.2552 16.1849 2.2983
4.8595 16.2987 2.2983
4.4616 16.4036 2.2983
4.0616 16.4994 2.2983
2.9811 13.5103 1.8721
3.2563 16.6641 2.2983
2.8512 16.7328 2.2983
2.5547 17.5468 2.4016
2.1289 17.5995 2.4016
1.7022 17.6427 2.4016
1.2747 17.6763 2.4016
0.8465 17.7004 2.4016
0.4180 17.7149 2.4016
-0.0107 17.7197 2.4016
-0.4395 17.7150 2.4016
-0.8681 17.7007 2.4016
-1.2963 17.6768 2.4016
-1.7239 17.6433 2.4016
-2.1507 17.6003 2.4016
-2.5766 17.5477 2.4016
-3.0013 17.4855 2.4016
-3.4247 17.4138 2.4016
-3.8465 17.3327 2.4016
-4.2666 17.2420 2.4016
-4.6848 17.1420 2.4016
-5.1008 17.0325 2.4016
-5.4202 16.6245 2.3606
-5.6713 16.0649 2.2985
-6.0622 15.9333 2.2985
-6.4503 15.7929 2.2985
-6.8355 15.6436 2.2985
-7.2175 15.4856 2.2985
-7.5962 15.3189 2.2985
-7.9714 15.1436 2.2985
-8.3428 14.9597 2.2985
-8.7104 14.7673 2.2985
-9.0739 14.5664 2.2985
-9.4331 14.3571 2.2985
-9.8862 14.2816 2.3216
-10.2399 14.0535 2.3216
-10.5887 13.8172 2.3216
-6.0775 7.5452 1.2906
-11.2710 13.3203 2.3216
-11.6042 13.0599 2.3216
-11.9318 12.7916 2.3216
-6.7729 6.9177 1.2832
-6.9051 6.7196 1.2754
-7.1907 6.6666 1.2962
-13.1826 11.6419 2.3216
-13.4643 11.3231 2.3190
-13.7297 10.9905 2.3148
-13.9879 10.6526 2.3108
-14.2389 10.3094 2.3069
-14.4431 9.9340 2.2968
-14.6413 9.5572 2.2873
-14.8457 9.1865 2.2802
-15.0225 8.8008 2.2703
-8.4726 4.6922 1.2608
-8.7257 4.5603 1.2795
-15.4409 7.6004 2.2328
-15.5538 7.1942 2.2195
-15.6620 6.7895 2.2070
-10.0669 4.0779 1.4018
-10.3028 3.8862 1.4186
-15.9828 5.5913 2.1775
-16.1154 5.2040 2.1738
-16.2444 4.8153 2.1709
-16.3541 4.4207 2.1666
-16.4479 4.0221 2.1614
-16.5467 3.6248 2.1582
-16.6514 3.2281 2.1569
-16.7437 2.8280 2.1553
-16.8332 2.4263 2.1545
-16.9062 2.0210 2.1527
-16.9558 1.6124 2.1493
-17.0322 1.2052 2.1504
-17.0816 0.7945 2.1494
-17.0722 0.3810 2.1422
-17.0562 -0.0316 2.1355
-17.0239 -0.4430 2.1280
-16.9594 -0.8517 2.1177
-16.9433 -1.2619 2.1147
-16.8721 -1.6674 2.1060
-16.8277 -2.0746 2.1020
-16.7419 -2.4760 2.0940
-16.6604 -2.8768 2.0878
-13.6736 -2.7027 1.7178
-13.5229 -3.0141 1.7042
-16.4902 -4.0960 2.0859
-16.4375 -4.5071 2.0884
-12.7617 -3.8330 1.6295
-12.6641 -4.1397 1.6262
-16.3018 -5.7681 2.1066
-16.2231 -6.1851 2.1112
-16.1934 -6.6260 2.1235
-16.1631 -7.0740 2.1373
-16.1336 -7.5304 2.1529
-16.1147 -8.0011 2.1715
-16.0997 -8.4843 2.1925
-16.1372 -9.0086 2.2226
-16.1198 -9.5165 2.2473
-16.1391 -10.0612 2.2792
-16.0340 -10.5417 2.2957
-14.1529 -9.8024 2.0562
-15.7105 -11.4523 2.3181
-15.4782 -11.8657 2.3216
-15.2117 -12.2557 2.3216
-13.6404 -11.5458 2.3216
-13.3767 -11.8887 2.3216
-13.1041 -12.2252 2.3216
-12.8227 -12.5551 2.3216
-12.5326 -12.8781 2.3216
-12.2340 -13.1941 2.3216
-11.9270 -13.5027 2.3216
-11.6120 -13.8037 2.3216
-11.2890 -14.0970 2.3216
-10.9582 -14.3821 2.3216
-10.6199 -14.6590 2.3216
-10.2742 -14.9274 2.3216
-9.9214 -15.1871 2.3216
-9.5617 -15.4379 2.3216
-9.1039 -15.5236 2.2985
-8.7348 -15.7536 2.2985
-8.3595 -15.9742 2.2985
-7.9784 -16.1852 2.2985
-7.5917 -16.3864 2.2985
-7.1996 -16.5778 2.2985
-6.8024 -16.7590 2.2985
-6.4004 -16.9299 2.2985
-5.9938 -17.0905 2.2985
-5.5830 -17.2406 2.2985
-5.4000 -18.1595 2.4016
-4.9627 -18.2939 2.4016
-4.5219 -18.4170 2.4016
-4.0779 -18.5286 2.4016
-3.6309 -18.6286 2.4016
-3.1813 -18.7170 2.4016
-2.7295 -18.7937 2.4016
-2.2757 -18.8586 2.4016
-1.8203 -18.9116 2.4016
-1.3636 -18.9528 2.4016
-0.9059 -18.9820 2.4016
-0.4476 -18.9993 2.4016
0.0110 -19.0046 2.4016
0.4696 -18.9980 2.4016
0.9278 -18.9794 2.4016
1.3854 -18.9489 2.4016
1.8419 -18.9064 2.4016
2.2971 -18.8521 2.4016
2.6418 -18.0430 2.3066
3.0645 -17.9037 2.2983
3.4943 -17.8179 2.2983
3.9217 -17.7210 2.2983
4.3462 -17.6131 2.2983
4.7675 -17.4942 2.2983
5.1855 -17.3644 2.2983
5.5997 -17.2240 2.2983
6.0099 -17.0729 2.2983
6.3815 -16.8212 2.2861
6.7754 -16.6372 2.2843
5.2641 -12.0829 1.6772
5.1939 -11.1770 1.5697
5.4177 -10.9585 1.5583
5.6311 -10.7302 1.5461
5.8484 -10.5191 1.5370
6.1359 -10.4349 1.5474
6.4269 -10.3497 1.5589
6.7119 -10.2482 1.5692
6.9459 -10.0667 1.5684
7.2073 -9.9243 1.5746
7.4852 -9.8004 1.5850
7.7659 -9.6745 1.5964
8.0472 -9.5436 1.6084
8.3477 -9.4285 1.6245
8.6554 -9.3129 1.6423
8.6788 -8.8973 1.6076
7.6996 -7.5213 1.3941
7.5686 -7.0445 1.3411
7.4472 -6.6032 1.2928
7.5379 -6.3653 1.2833
7.7161 -6.2029 1.2896
7.8171 -5.9793 1.2839
7.9158 -5.7572 1.2789
8.0123 -5.5367 1.2745
8.1003 -5.3132 1.2697
7.9818 -4.9641 1.2340
8.0135 -4.7193 1.2229
8.0443 -4.4794 1.2127
8.0743 -4.2440 1.2034
8.1600 -4.0406 1.2033
8.2627 -3.8459 1.2064
8.3654 -3.6506 1.2102
8.4598 -3.4510 1.2136
8.5361 -3.2440 1.2150
8.6534 -3.0515 1.2230
8.8306 -2.8761 1.2400
9.0117 -2.6961 1.2582
9.1026 -2.4854 1.2644
8.8839 -2.1966 1.2285
8.7972 -1.9509 1.2118
8.7550 -1.7208 1.2020
7.3010 -1.2526 0.9998
7.1687 -1.0524 0.9797
7.3596 -0.8993 1.0043
7.3518 -0.7186 1.0024
6.6901 -0.4911 0.9119
7.2386 -0.3558 0.9870
7.2508 -0.1809 0.9896
7.3317 -0.0057 1.0022
7.8927 0.1846 1.0811
7.6030 0.3618 1.0442
5.8107 0.4175 0.8006
5.7588 0.5539 0.7965
5.5285 0.6669 0.7680
5.4959 0.7982 0.7673
5.2179 0.8871 0.7326
4.9643 0.9680 0.7013
4.7319 1.0420 0.6730
4.9737 1.2220 0.7126
5.4564 1.4813 0.7880
5.3512 1.5926 0.7795
5.5168 1.7881 0.8110
5.4084 1.8986 0.8029
5.8159 2.2010 0.8725
6.1163 2.4854 0.9279
6.3207 2.7483 0.9702
5.9966 2.7816 0.9320
5.6985 2.8127 0.8974
5.8822 3.0824 0.9393
6.7699 3.7590 1.0969
14.0767 8.2677 2.3160
13.8521 8.5928 2.3160
13.6204 8.9123 2.3160
13.3816 9.2258 2.3160
13.1361 9.5333 2.3160
12.8839 9.8346 2.3160
12.6252 10.1295 2.3160
12.3602 10.4181 2.3160
12.0889 10.7001 2.3160
11.8116 10.9755 2.3160
11.5284 11.2440 2.3160
11.2395 11.5057 2.3160
10.9451 11.7603 2.3160
10.6452 12.0079 2.3160
10.3402 12.2483 2.3160
10.0300 12.4814 2.3160
9.7150 12.7071 2.3160
9.3953 12.9254 2.3160
9.0710 13.1361 2.3160
8.7424 13.3391 2.3160
8.4095 13.5345 2.3160
8.0726 13.7221 2.3160
7.7318 13.9018 2.3160
7.3874 14.0736 2.3160
7.0394 14.2374 2.3160
6.6371 14.2837 2.2983
6.2853 14.4302 2.2983
5.9305 14.5687 2.2983
5.5729 14.6990 2.2983
5.2126 14.8212 2.2983
4.8499 14.9351 2.2983
4.4850 15.0407 2.2983
4.1179 15.1381 2.2983
3.7488 15.2271 2.2983
2.9799 13.5037 2.0275
3.0056 15.3799 2.2983
2.6374 15.4764 2.3032
2.3582 16.1953 2.4016
1.9652 16.2442 2.4016
1.5713 16.2843 2.4016
1.1766 16.3155 2.4016
0.7814 16.3378 2.4016
0.3858 16.3513 2.4016
-0.0099 16.3558 2.4016
-0.4057 16.3514 2.4016
-0.8013 16.3380 2.4016
-1.1966 16.3158 2.4016
-1.5913 16.2847 2.4016
-1.9853 16.2447 2.4016
-2.3784 16.1958 2.4016
-2.7704 16.1381 2.4016
-3.1611 16.0715 2.4016
-3.5503 15.9961 2.4016
-3.9380 15.9119 2.4016
-4.3237 15.8190 2.4016
-4.7075 15.7173 2.4016
-5.0891 15.6070 2.4016
-5.4200 15.3512 2.3804
-5.6112 14.7461 2.3056
-5.9519 14.5706 2.2985
-6.3069 14.4321 2.2985
-6.6590 14.2855 2.2985
-7.0080 14.1308 2.2985
-7.3536 13.9681 2.2985
-7.6957 13.7975 2.2985
-8.0342 13.6191 2.2985
-8.3689 13.4328 2.2985
-8.6995 13.2387 2.2985
-9.0260 13.0371 2.2985
-9.3481 12.8278 2.2985
-9.7628 12.7377 2.3216
-6.0784 7.5453 1.4001
-10.3900 12.2773 2.3216
-10.6962 12.0360 2.3216
-10.9970 11.7876 2.3216
-6.7731 6.9168 1.3925
-6.9057 6.7191 1.3842
-7.1924 6.6671 1.4071
-12.1448 10.7235 2.3216
-12.4170 10.4404 2.3216
-12.6829 10.1507 2.3216
-12.9425 9.8546 2.3216
-13.1956 9.5522 2.3216
-13.4245 9.2315 2.3186
-13.6347 8.8982 2.3137
-13.8519 8.5697 2.3112
-14.0753 8.2441 2.3111
-8.4247 4.6646 1.3623
-8.6232 4.5057 1.3742
-14.6506 7.2095 2.3027
-14.8118 6.8491 2.2977
-14.9866 6.4949 2.2960
-10.0663 4.0764 1.5242
-10.3028 3.8850 1.5428
-15.4080 5.3883 2.2832
-15.4877 4.9994 2.2726
-15.5896 4.6193 2.2667
-15.7337 4.2512 2.2681
-15.8381 3.8711 2.2651
-15.9857 3.5000 2.2695
-16.1547 3.1299 2.2781
-16.3086 2.7526 2.2857
-16.3545 2.3554 2.2794
-16.3930 1.9578 2.2735
-16.4421 1.5617 2.2703
-16.4593 1.1628 2.2641
-16.4724 0.7643 2.2586
-16.4678 0.3656 2.2521
-16.4628 -0.0324 2.2468
-16.4373 -0.4296 2.2400
-16.4343 -0.8272 2.2376
-16.4277 -1.2254 2.2360
-16.3920 -1.6218 2.2318
-16.3645 -2.0193 2.2299
-16.3220 -2.4157 2.2274
-16.2650 -2.8104 2.2242
-13.6707 -2.7037 1.8745
-13.5217 -3.0154 1.8601
-16.0054 -3.9774 2.2105
-15.9558 -4.3769 2.2136
-12.7595 -3.8338 1.7793
-12.6630 -4.1408 1.7762
-15.7474 -5.5739 2.2232
-15.6924 -5.9846 2.2313
-15.6512 -6.4060 2.2429
-15.6064 -6.8323 2.2556
-15.5478 -7.2589 2.2680
-15.5026 -7.6992 2.2840
-15.4278 -8.1322 2.2975
-15.3622 -8.5779 2.3141
-15.2245 -8.9900 2.3216
-15.0270 -9.3700 2.3216
-14.8198 -9.7454 2.3216
-14.1505 -9.8027 2.2497
-14.3763 -10.4818 2.3216
-14.1403 -10.8421 2.3216
-13.8950 -11.1968 2.3216
-12.5493 -10.6241 2.3216
-12.3053 -10.9383 2.3216
-12.0532 -11.2466 2.3216
-11.7931 -11.5488 2.3216
-11.5250 -11.8447 2.3216
-11.2493 -12.1340 2.3216
-10.9660 -12.4165 2.3216
-10.6753 -12.6921 2.3216
-10.3773 -12.9604 2.3216
-10.0723 -13.2213 2.3216
-9.7605 -13.4746 2.3216
-9.3481 -13.5836 2.2985
-9.0263 -13.8187 2.2985
-8.6983 -14.0457 2.2985
-8.3644 -14.2645 2.2985
-8.0247 -14.4747 2.2985
-7.6794 -14.6763 2.2985
-7.3288 -14.8691 2.2985
-6.9731 -15.0530 2.2985
-6.6125 -15.2278 2.2985
-6.2473 -15.3933 2.2985
-5.8778 -15.5495 2.2985
-5.5042 -15.6961 2.2985
-5.3566 -16.5433 2.4016
-4.9584 -16.6763 2.4016
-4.5567 -16.7991 2.4016
-4.1518 -16.9114 2.4016
-3.7439 -17.0133 2.4016
-3.3335 -17.1046 2.4016
-2.9207 -17.1853 2.4016
-2.5058 -17.2553 2.4016
-2.0892 -17.3145 2.4016
-1.6711 -17.3630 2.4016
-1.2518 -17.4006 2.4016
-0.8317 -17.4272 2.4016
-0.4109 -17.4430 2.4016
0.0101 -17.4479 2.4016
0.4311 -17.4419 2.4016
0.8517 -17.4250 2.4016
1.2718 -17.3971 2.4016
1.6909 -17.3584 2.4016
2.1088 -17.3089 2.4016
2.5252 -17.2485 2.4016
2.8134 -16.4389 2.2983
3.2081 -16.3607 2.2983
3.6006 -16.2723 2.2983
3.9905 -16.1737 2.2983
4.3776 -16.0652 2.2983
4.7615 -15.9468 2.2983
5.1421 -15.8186 2.2983
5.5191 -15.6806 2.2983
5.8922 -15.5331 2.2983
6.2611 -15.3760 2.2983
5.2394 -12.0277 1.8175
5.1942 -11.1791 1.7090
5.4148 -10.9539 1.6954
5.6281 -10.7258 1.6820
5.8460 -10.5162 1.6722
6.1333 -10.4320 1.6834
6.4242 -10.3468 1.6958
6.6660 -10.1795 1.6959
6.8985 -9.9994 1.6948
7.1583 -9.8582 1.7015
7.4340 -9.7347 1.7125
7.7122 -9.6091 1.7245
7.9890 -9.4760 1.7367
8.0962 -9.1457 1.7135
8.1183 -8.7364 1.6751
8.1599 -8.3668 1.6435
7.6495 -7.4736 1.5058
7.5213 -7.0016 1.4487
7.4024 -6.5646 1.3967
7.4567 -6.2978 1.3797
7.5589 -6.0777 1.3729
7.6588 -5.8593 1.3669
7.7563 -5.6423 1.3615
7.8637 -5.4351 1.3588
7.9169 -5.1940 1.3479
7.9497 -4.9451 1.3348
7.9816 -4.7016 1.3226
8.0126 -4.4628 1.3115
8.0428 -4.2285 1.3013
8.1238 -4.0238 1.3004
8.2260 -3.8298 1.3036
8.3282 -3.6354 1.3075
8.4100 -3.4317 1.3090
8.4859 -3.2259 1.3105
8.5878 -3.0293 1.3166
8.7628 -2.8551 1.3347
8.9389 -2.6754 1.3535
9.0819 -2.4809 1.3679
8.8706 -2.1943 1.3299
8.8071 -1.9541 1.3151
8.7647 -1.7237 1.3043
7.2839 -1.2505 1.0810
7.1523 -1.0508 1.0591
7.3248 -0.8959 1.0830
7.3171 -0.7160 1.0808
6.6688 -0.4903 0.9846
7.2980 -0.3595 1.0777
7.4020 -0.1855 1.0940
7.2778 -0.0065 1.0771
7.1572 0.1666 1.0613
7.0400 0.3342 1.0465
5.8061 0.4165 0.8658
5.7542 0.5528 0.8612
5.7030 0.6873 0.8572
5.4480 0.7906 0.8229
5.1745 0.8791 0.7858
4.9248 0.9597 0.7524
4.6959 1.0335 0.7222
4.8779 1.1979 0.7557
5.4107 1.4682 0.8448
5.3069 1.5788 0.8356
5.5136 1.7864 0.8761
5.4052 1.8969 0.8673
5.8093 2.1978 0.9418
6.0944 2.4757 0.9989
6.4437 2.8009 1.0686
6.1084 2.8327 1.0256
5.8006 2.8624 0.9867
5.9828 3.1344 1.0317
6.6877 3.7125 1.1701
13.0370 7.6553 2.3160
12.8304 7.9573 2.3160
12.6171 8.2541 2.3160
12.3972 8.5454 2.3160
12.1710 8.8311 2.3160
11.9385 9.1112 2.3160
11.7000 9.3855 2.3160
11.4554 9.6538 2.3160
11.2050 9.9161 2.3160
10.9490 10.1722 2.3160
10.6874 10.4221 2.3160
10.4205 10.6656 2.3160
10.1484 10.9026 2.3160
9.8711 11.1331 2.3160
9.5890 11.3569 2.3160
9.3021 11.5740 2.3160
9.0107 11.7842 2.3160
8.7147 11.9874 2.3160
8.4145 12.1837 2.3160
8.1102 12.3729 2.3160
7.8019 12.5550 2.3160
7.4898 12.7298 2.3160
7.1740 12.8973 2.3160
6.8548 13.0574 2.3160
6.4825 13.1096 2.2983
6.1593 13.2537 2.2983
5.8331 13.3904 2.2983
5.5040 13.5195 2.2983
5.1724 13.6411 2.2983
4.8382 13.7550 2.2983
4.5017 13.8612 2.2983
4.1631 13.9598 2.2983
3.8225 14.0505 2.2983
3.4800 14.1336 2.2983
2.9788 13.4971 2.1832
2.7903 14.2761 2.2983
2.5531 14.9797 2.4016
2.1893 15.0336 2.4016
1.8245 15.0792 2.4016
1.4588 15.1167 2.4016
1.0924 15.1458 2.4016
0.7255 15.1666 2.4016
0.3582 15.1791 2.4016
-0.0092 15.1832 2.4016
-0.3767 15.1791 2.4016
-0.7440 15.1667 2.4016
-1.1110 15.1459 2.4016
-1.4774 15.1168 2.4016
-1.8431 15.0795 2.4016
-2.2080 15.0339 2.4016
-2.5719 14.9800 2.4016
-2.9345 14.9178 2.4016
-3.2958 14.8474 2.4016
-3.6555 14.7689 2.4016
-4.0135 14.6821 2.4016
-4.3696 14.5873 2.4016
-4.7236 14.4843 2.4016
-5.0754 14.3733 2.4016
-5.4198 14.2414 2.3994
-5.5237 13.5207 2.2985
-5.8530 13.3916 2.2985
-6.1794 13.2548 2.2985
-6.5028 13.1106 2.2985
-6.8232 12.9589 2.2985
-7.1402 12.7999 2.2985
-7.4538 12.6335 2.2985
-7.7638 12.4599 2.2985
-8.0700 12.2791 2.2985
-8.3723 12.0912 2.2985
-8.6705 11.8962 2.2985
-8.9644 11.6942 2.2985
-6.0794 7.5454 1.5100
-9.6347 11.3830 2.3216
-9.9177 11.1584 2.3216
-10.1958 10.9271 2.3216
-6.7734 6.9160 1.5021
-6.9064 6.7187 1.4934
-7.1941 6.6675 1.5185
-11.2559 9.9370 2.3216
-11.5071 9.6737 2.3216
-11.7525 9.4043 2.3216
-11.9918 9.1290 2.3216
-12.2251 8.8479 2.3216
-12.4520 8.5610 2.3216
-12.6725 8.2686 2.3216
-12.8865 7.9707 2.3216
-8.3073 4.8646 1.4729
-8.4177 4.6596 1.4700
-8.6164 4.5010 1.4831
-13.6574 6.7190 2.3188
-13.8283 6.3926 2.3174
-13.9921 6.0621 2.3162
-10.0657 4.0749 1.6469
-10.3028 3.8837 1.6673
-14.4327 5.0455 2.3116
-14.5643 4.6996 2.3102
-14.7157 4.3586 2.3132
-14.8528 4.0114 2.3151
-14.9806 3.6598 2.3169
-15.1010 3.3046 2.3187
-15.2137 2.9459 2.3206
-15.3096 2.5822 2.3213
-15.3816 2.2135 2.3196
-15.4461 1.8430 2.3181
-15.4939 1.4699 2.3154
-15.5409 1.0962 2.3139
-15.5788 0.7211 2.3124
-15.5872 0.3443 2.3079
-15.6099 -0.0325 2.3068
-15.6197 -0.4100 2.3052
-15.6216 -0.7881 2.3037
-15.6235 -1.1672 2.3036
-15.5857 -1.5438 2.2990
-15.5747 -1.9237 2.2997
-15.5507 -2.3034 2.2998
-15.5003 -2.6800 2.2975
-13.6678 -2.7047 2.0315
-13.5205 -3.0167 2.0165
-15.3964 -3.8279 2.3056
-15.3612 -4.2156 2.3111
-12.7573 -3.8347 1.9296
-12.6620 -4.1420 1.9266
-15.1576 -5.3669 2.3216
-15.0477 -5.7406 2.3216
-14.9285 -6.1121 2.3216
-14.7999 -6.4810 2.3216
-14.6620 -6.8472 2.3216
-14.5149 -7.2104 2.3216
-14.3585 -7.5704 2.3216
-14.1930 -7.9269 2.3216
-14.0184 -8.2797 2.3216
-13.8349 -8.6284 2.3216
-13.6424 -8.9730 2.3216
-13.4410 -9.3131 2.3216
-13.2309 -9.6485 2.3216
-13.0122 -9.9790 2.3216
-12.7850 -10.3042 2.3216
-11.6170 -9.8365 2.3216
-11.3901 -10.1264 2.3216
-11.1557 -10.4108 2.3216
-10.9139 -10.6896 2.3216
-10.6649 -10.9624 2.3216
-10.4088 -11.2291 2.3216
-10.1458 -11.4896 2.3216
-9.8760 -11.7435 2.3216
-9.5995 -11.9908 2.3216
-9.2240 -12.1095 2.2985
-8.9378 -12.3405 2.2985
-8.6455 -12.5644 2.2985
-8.3473 -12.7809 2.2985
-8.0434 -12.9899 2.2985
-7.7341 -13.1913 2.2985
-7.4195 -13.3848 2.2985
-7.0998 -13.5704 2.2985
-6.7753 -13.7479 2.2985
-6.4461 -13.9171 2.2985
-6.1124 -14.0779 2.2985
-5.7746 -14.2302 2.2985
-5.4328 -14.3739 2.2985
-5.3154 -15.1595 2.4016
-4.9506 -15.2912 2.4016
-4.5824 -15.4135 2.4016
-4.2110 -15.5264 2.4016
-3.8367 -15.6298 2.4016
-3.4597 -15.7235 2.4016
-3.0803 -15.8075 2.4016
-2.6988 -15.8817 2.4016
-2.3154 -15.9460 2.4016
-1.9304 -16.0005 2.4016
-1.5441 -16.0450 2.4016
-1.1567 -16.0796 2.4016
-0.7684 -16.1041 2.4016
-0.3797 -16.1187 2.4016
0.0093 -16.1232 2.4016
0.3983 -16.1177 2.4016
0.7870 -16.1021 2.4016
1.1751 -16.0766 2.4016
1.5624 -16.0410 2.4016
1.9485 -15.9955 2.4016
2.3333 -15.9400 2.4016
2.6354 -15.4010 2.3299
2.9646 -15.1203 2.2983
3.3273 -15.0390 2.2983
3.6877 -14.9484 2.2983
4.0456 -14.8487 2.2983
4.4006 -14.7398 2.2983
4.7525 -14.6219 2.2983
5.1011 -14.4950 2.2983
5.4462 -14.3593 2.2983
5.7875 -14.2148 2.2983
5.2149 -11.9729 1.9569
5.1945 -11.1811 1.8487
5.4118 -10.9494 1.8328
5.6250 -10.7215 1.8183
5.8436 -10.5133 1.8078
6.1308 -10.4291 1.8198
6.3883 -10.2904 1.8235
6.6206 -10.1115 1.8212
6.8516 -9.9328 1.8200
7.1098 -9.7928 1.8270
7.3833 -9.6698 1.8386
7.6570 -9.5417 1.8508
7.9314 -9.4091 1.8636
7.7136 -8.7149 1.7644
7.7547 -8.3464 1.7291
7.6273 -7.8219 1.6600
7.5490 -7.3767 1.6056
7.4029 -6.8926 1.5405
7.3122 -6.4857 1.4904
7.3861 -6.2393 1.4762
7.4968 -6.0289 1.4707
7.6062 -5.8201 1.4660
7.7143 -5.6129 1.4622
7.8213 -5.4069 1.4593
7.8820 -5.1721 1.4488
7.9178 -4.9263 1.4351
7.9498 -4.6839 1.4219
7.9810 -4.4463 1.4099
8.0114 -4.2130 1.3989
8.0878 -4.0070 1.3969
8.1895 -3.8139 1.4002
8.2845 -3.6173 1.4031
8.3605 -3.4126 1.4037
8.4360 -3.2080 1.4051
8.5229 -3.0075 1.4091
8.6958 -2.8343 1.4282
8.8616 -2.6534 1.4466
9.0219 -2.4655 1.4649
8.8605 -2.1929 1.4319
8.8170 -1.9574 1.4190
7.4036 -1.4569 1.1873
7.2668 -1.2485 1.1620
7.1359 -1.0492 1.1385
7.0104 -0.8583 1.1166
7.2826 -0.7135 1.1587
6.6475 -0.4895 1.0571
7.3586 -0.3633 1.1702
7.3468 -0.1850 1.1692
7.2244 -0.0073 1.1511
7.1055 0.1646 1.1342
6.9900 0.3311 1.1185
6.3582 0.4553 1.0204
5.7497 0.5517 0.9261
5.6986 0.6862 0.9217
5.4007 0.7831 0.8776
5.1316 0.8712 0.8384
4.8859 0.9515 0.8030
4.6602 1.0251 0.7709
4.7855 1.1746 0.7973
5.3656 1.4554 0.9009
5.2632 1.5651 0.8911
5.5103 1.7847 0.9413
5.6203 1.9717 0.9694
5.8026 2.1946 1.0111
6.0725 2.4661 1.0697
6.5719 2.8559 1.1712
6.2248 2.8859 1.1230
5.9067 2.9140 1.0795
6.7504 3.5357 1.2506
7.2079 4.0003 1.3547
12.1376 7.1256 2.3160
11.9464 7.4075 2.3160
11.7488 7.6845 2.3160
11.5451 7.9565 2.3160
11.3354 8.2233 2.3160
11.1199 8.4849 2.3160
10.8986 8.7411 2.3160
10.6717 8.9918 2.3160
10.4393 9.2368 2.3160
10.2015 9.4762 2.3160
9.9586 9.7098 2.3160
9.7106 9.9374 2.3160
9.4577 10.1590 2.3160
9.2000 10.3745 2.3160
8.9376 10.5839 2.3160
8.6708 10.7869 2.3160
8.3997 10.9835 2.3160
8.1243 11.1737 2.3160
7.8449 11.3574 2.3160
7.5616 11.5344 2.3160
7.2746 11.7048 2.3160
6.9839 11.8685 2.3160
6.6389 11.9337 2.2983
6.3438 12.0825 2.2983
6.0456 12.2244 2.2983
5.7444 12.3594 2.2983
5.4404 12.4874 2.2983
5.1337 12.6083 2.2983
4.8245 12.7221 2.2983
4.5130 12.8288 2.2983
4.1993 12.9284 2.2983
3.8835 13.0207 2.2983
3.5658 13.1057 2.2983
3.2464 13.1835 2.2983
2.9255 13.2539 2.2983
2.6324 13.4669 2.3242
2.3818 13.9736 2.4016
2.0425 14.0241 2.4016
1.7022 14.0669 2.4016
1.3610 14.1019 2.4016
1.0192 14.1292 2.4016
0.6768 14.1487 2.4016
0.3342 14.1604 2.4016
-0.0086 14.1643 2.4016
-0.3515 14.1604 2.4016
-0.6941 14.1487 2.4016
-1.0365 14.1292 2.4016
-1.3784 14.1020 2.4016
-1.7196 14.0670 2.4016
-2.0600 14.0242 2.4016
-2.3994 13.9736 2.4016
-2.7377 13.9154 2.4016
-3.0746 13.8494 2.4016
-3.4101 13.7758 2.4016
-3.7440 13.6945 2.4016
-4.0760 13.6056 2.4016
-4.4061 13.5092 2.4016
-4.7341 13.4051 2.4016
-5.0597 13.2936 2.4016
-5.3830 13.1745 2.4016
-5.4588 12.4880 2.2985
-5.7629 12.3600 2.2985
-6.0643 12.2249 2.2985
-6.3628 12.0829 2.2985
-6.6581 11.9339 2.2985
-6.9501 11.7782 2.2985
-7.2388 11.6157 2.2985
-7.5238 11.4464 2.2985
-7.8051 11.2705 2.2985
-8.0826 11.0881 2.2985
-8.3561 10.8991 2.2985
-6.0804 7.5455 1.6203
-8.8904 10.5020 2.2985
-9.1509 10.2941 2.2985
-9.4068 10.0799 2.2985
-6.7736 6.9151 1.6120
-6.9070 6.7182 1.6029
-7.1958 6.6680 1.6302
-10.4860 9.2556 2.3216
-10.7191 9.0096 2.3216
-10.9467 8.7580 2.3216
-11.1687 8.5008 2.3216
-11.3849 8.2382 2.3216
-11.5953 7.9704 2.3216
-11.7995 7.6974 2.3216
-11.9976 7.4193 2.3216
-12.1895 7.1363 2.3216
-8.4180 4.6587 1.5793
-8.6181 4.5008 1.5938
-12.7260 6.2592 2.3216
-12.8914 5.9578 2.3216
-13.0499 5.6523 2.3216
-10.0652 4.0734 1.7701
-10.3028 3.8825 1.7923
-13.4762 4.7095 2.3204
-13.6127 4.3909 2.3216
-13.7351 4.0666 2.3216
-13.8499 3.7389 2.3216
-13.9571 3.4081 2.3216
-14.0566 3.0744 2.3216
-14.1482 2.7379 2.3216
-14.2319 2.3988 2.3216
-14.3077 2.0573 2.3216
-14.3754 1.7136 2.3216
-14.4349 1.3678 2.3216
-14.4862 1.0201 2.3216
-14.5292 0.6708 2.3216
-14.5639 0.3201 2.3216
-14.5901 -0.0320 2.3216
-14.6080 -0.3851 2.3216
-14.6172 -0.7391 2.3216
-14.6180 -1.0937 2.3216
-14.6101 -1.4489 2.3216
-14.5937 -1.8042 2.3216
-14.5685 -2.1596 2.3216
-14.5347 -2.5148 2.3216
-13.6649 -2.7057 2.1890
-13.5193 -3.0180 2.1734
-14.3811 -3.5771 2.3216
-14.3124 -3.9294 2.3216
-12.7551 -3.8355 2.0802
-12.6609 -4.1432 2.0774
-14.0541 -4.9779 2.3216
-13.9506 -5.3238 2.3216
-13.8385 -5.6675 2.3216
-13.7177 -6.0088 2.3216
-13.5884 -6.3475 2.3216
-13.4506 -6.6834 2.3216
-13.3042 -7.0162 2.3216
-13.1494 -7.3457 2.3216
-12.9863 -7.6717 2.3216
-12.8149 -7.9940 2.3216
-12.6352 -8.3123 2.3216
-12.4475 -8.6264 2.3216
-12.2516 -8.9361 2.3216
-12.0479 -9.2412 2.3216
-11.8363 -9.5414 2.3216
-10.8110 -9.1557 2.3216
-10.5989 -9.4247 2.3216
-10.3800 -9.6885 2.3216
-10.1542 -9.9471 2.3216
-9.9217 -10.2001 2.3216
-9.6828 -10.4475 2.3216
-9.3436 -10.5827 2.2985
-9.0944 -10.8157 2.2985
-8.8393 -11.0427 2.2985
-8.5782 -11.2632 2.2985
-8.3114 -11.4773 2.2985
-8.0391 -11.6847 2.2985
-7.7613 -11.8853 2.2985
-7.4784 -12.0790 2.2985
-7.1904 -12.2655 2.2985
-6.8975 -12.4447 2.2985
-6.6000 -12.6166 2.2985
-6.2979 -12.7809 2.2985
-5.9917 -12.9376 2.2985
-5.6813 -13.0865 2.2985
-5.4217 -13.3621 2.3219
-5.2756 -13.9597 2.4016
-4.9398 -14.0901 2.4016
-4.6007 -14.2120 2.4016
-4.2583 -14.3253 2.4016
-3.9131 -14.4297 2.4016
-3.5652 -14.5253 2.4016
-3.2148 -14.6120 2.4016
-2.8622 -14.6898 2.4016
-2.5077 -14.7584 2.4016
-2.1514 -14.8180 2.4016
-1.7937 -14.8684 2.4016
-1.4347 -14.9096 2.4016
-1.0747 -14.9416 2.4016
-0.7140 -14.9643 2.4016
-0.3528 -14.9778 2.4016
0.0086 -14.9820 2.4016
0.3700 -14.9769 2.4016
0.7312 -14.9625 2.4016
1.0918 -14.9389 2.4016
1.4516 -14.9060 2.4016
1.8105 -14.8639 2.4016
2.1680 -14.8126 2.4016
2.5241 -14.7522 2.4016
2.7547 -14.0514 2.2983
3.0918 -13.9762 2.2983
3.4268 -13.8925 2.2983
3.7595 -13.8002 2.2983
4.0895 -13.6994 2.2983
4.4167 -13.5903 2.2983
4.7409 -13.4729 2.2983
5.0618 -13.3473 2.2983
5.3792 -13.2137 2.2983
5.1841 -11.9036 2.0929
5.1911 -11.1753 1.9876
5.4089 -10.9449 1.9706
5.6220 -10.7171 1.9548
5.8412 -10.5103 1.9437
6.1126 -10.3995 1.9515
6.3448 -10.2218 1.9478
6.5756 -10.0442 1.9453
6.8051 -9.8668 1.9439
7.0617 -9.7280 1.9513
7.3327 -9.6049 1.9634
7.6024 -9.4750 1.9757
7.8745 -9.3430 1.9891
7.3552 -8.3113 1.8086
7.2935 -7.8513 1.7481
7.4130 -7.6034 1.7341
7.3424 -7.1760 1.6784
7.2413 -6.7433 1.6194
7.2921 -6.4690 1.5972
7.3589 -6.2175 1.5803
7.4560 -5.9972 1.5715
7.5649 -5.7897 1.5664
7.6727 -5.5837 1.5622
7.7792 -5.3789 1.5590
7.8418 -5.1468 1.5481
7.8836 -4.9062 1.5345
7.9182 -4.6663 1.5208
7.9496 -4.4298 1.5078
7.9801 -4.1976 1.4960
8.0520 -3.9902 1.4929
8.1532 -3.7980 1.4963
8.2359 -3.5971 1.4971
8.3116 -3.3936 1.4976
8.3866 -3.1902 1.4989
8.4612 -2.9868 1.5010
8.6296 -2.8137 1.5205
8.7854 -2.6316 1.5385
8.9435 -2.4452 1.5577
8.8793 -2.1986 1.5390
8.8271 -1.9606 1.5235
7.3858 -1.4543 1.2701
7.2498 -1.2464 1.2430
7.1195 -1.0476 1.2178
6.9946 -0.8571 1.1943
7.2484 -0.7110 1.2361
6.6263 -0.4887 1.1293
7.4166 -0.3671 1.2640
7.2922 -0.1844 1.2435
7.1716 -0.0080 1.2243
7.0545 0.1626 1.2064
7.1824 0.3393 1.2311
6.3156 0.4516 1.0857
5.7452 0.5506 0.9911
5.6451 0.6791 0.9778
5.3540 0.7758 0.9317
5.0893 0.8635 0.8902
4.8474 0.9435 0.8529
4.6250 1.0168 0.8190
5.4243 1.3308 0.9673
5.3211 1.4427 0.9562
5.2201 1.5517 0.9458
5.5070 1.7830 1.0067
5.3637 1.8810 0.9898
5.7960 2.1913 1.0805
6.0507 2.4565 1.1403
6.5780 2.8577 1.2539
6.3462 2.9414 1.2246
6.0172 2.9677 1.1761
7.5041 3.9295 1.4867
11.5237 6.3941 2.3160
11.3517 6.6627 2.3160
11.1737 6.9269 2.3160
10.9899 7.1866 2.3160
10.8002 7.4416 2.3160
10.6048 7.6918 2.3160
10.4039 7.9371 2.3160
10.1976 8.1774 2.3160
9.9860 8.4126 2.3160
9.7692 8.6425 2.3160
9.5474 8.8671 2.3160
9.3207 9.0863 2.3160
9.0892 9.3000 2.3160
8.8530 9.5080 2.3160
8.6123 9.7104 2.3160
8.3672 9.9069 2.3160
8.1179 10.0976 2.3160
7.8645 10.2823 2.3160
7.6071 10.4609 2.3160
7.3459 10.6335 2.3160
7.0810 10.7998 2.3160
6.8125 10.9599 2.3160
6.4908 11.0290 2.2983
6.2178 11.1753 2.2983
5.9417 11.3151 2.2983
5.6625 11.4485 2.2983
5.3806 11.5754 2.2983
5.0960 11.6957 2.2983
4.8090 11.8093 2.2983
4.5195 11.9164 2.2983
4.2278 12.0167 2.2983
3.9340 12.1103 2.2983
3.6383 12.1971 2.2983
3.3407 12.2770 2.2983
3.0416 12.3502 2.2983
2.7409 12.4164 2.2983
2.5485 13.0362 2.4016
2.2317 13.0910 2.4016
1.9137 13.1385 2.4016
1.5949 13.1788 2.4016
1.2752 13.2117 2.4016
0.9549 13.2373 2.4016
0.6342 13.2557 2.4016
0.3131 13.2666 2.4016
-0.0081 13.2703 2.4016
-0.3294 13.2666 2.4016
-0.6504 13.2556 2.4016
-0.9712 13.2373 2.4016
-1.2915 13.2117 2.4016
-1.6112 13.1787 2.4016
-1.9301 13.1384 2.4016
-2.2481 13.0909 2.4016
-2.5650 13.0361 2.4016
-2.8807 12.9741 2.4016
-3.1949 12.9048 2.4016
-3.5076 12.8283 2.4016
-3.8186 12.7447 2.4016
-4.1277 12.6540 2.4016
-4.4348 12.5561 2.4016
-4.7397 12.4512 2.4016
-5.0423 12.3393 2.4016
-5.3425 12.2205 2.4016
-5.4280 11.6402 2.3113
-5.6799 11.4485 2.2985
-5.9592 11.3150 2.2985
-6.2355 11.1750 2.2985
-6.5087 11.0287 2.2985
-6.7787 10.8759 2.2985
-7.0453 10.7169 2.2985
-7.3083 10.5516 2.2985
-7.5677 10.3802 2.2985
-7.8233 10.2028 2.2985
-6.0813 7.5456 1.7310
-8.3226 9.8298 2.2985
-8.5660 9.6345 2.2985
-8.8050 9.4335 2.2985
-6.7738 6.9142 1.7224
-6.9077 6.7177 1.7129
-7.1976 6.6685 1.7424
-9.8124 8.6596 2.3216
-10.0298 8.4287 2.3216
-10.2421 8.1927 2.3216
-10.4490 7.9515 2.3216
-10.6505 7.7052 2.3216
-10.8463 7.4541 2.3216
-11.0366 7.1981 2.3216
-11.2210 6.9375 2.3216
-11.3994 6.6722 2.3216
-8.4184 4.6578 1.6889
-8.6198 4.5005 1.7049
-11.8981 5.8505 2.3216
-12.0517 5.5683 2.3216
-12.1988 5.2822 2.3216
-10.0646 4.0720 1.8936
-10.3029 3.8812 1.9177
-12.6002 4.4018 2.3216
-12.7203 4.1015 2.3216
-12.8334 3.7981 2.3216
-12.9395 3.4916 2.3216
-13.0384 3.1822 2.3216
-13.1300 2.8702 2.3216
-13.2143 2.5556 2.3216
-13.2912 2.2387 2.3216
-13.3606 1.9196 2.3216
-13.4225 1.5984 2.3216
-13.4767 1.2754 2.3216
-13.5232 0.9508 2.3216
-13.5620 0.6246 2.3216
-13.5930 0.2972 2.3216
-13.6162 -0.0314 2.3216
-13.6314 -0.3609 2.3216
-13.6387 -0.6912 2.3216
-13.6380 -1.0220 2.3216
-13.6293 -1.3531 2.3216
-13.6125 -1.6844 2.3216
-13.5877 -2.0157 2.3216
-13.5547 -2.3468 2.3216
-13.5137 -2.6774 2.3216
-13.4646 -3.0074 2.3216
-13.4073 -3.3365 2.3216
-13.3420 -3.6646 2.3216
-12.7529 -3.8364 2.2314
-12.6599 -4.1444 2.2288
-13.0972 -4.6405 2.3216
-12.9995 -4.9624 2.3216
-12.8938 -5.2822 2.3216
-12.7800 -5.5997 2.3216
-12.6583 -5.9146 2.3216
-12.5286 -6.2269 2.3216
-12.3911 -6.5363 2.3216
-12.2458 -6.8426 2.3216
-12.0928 -7.1455 2.3216
-11.9320 -7.4449 2.3216
-11.7637 -7.7405 2.3216
-11.5878 -8.0323 2.3216
-11.4045 -8.3198 2.3216
-11.2139 -8.6031 2.3216
-11.0160 -8.8817 2.3216
-10.1071 -8.5611 2.3216
-9.9081 -8.8119 2.3216
-9.7027 -9.0580 2.3216
-9.3967 -9.2065 2.2985
-9.1809 -9.4400 2.2985
-8.9592 -9.6683 2.2985
-4.1779 -4.7326 1.0998
-4.0660 -4.8363 1.0997
-3.9514 -4.9371 1.0997
-3.8343 -5.0352 1.0996
-7.7652 -10.7245 2.2985
-7.5103 -10.9177 2.2985
-7.2505 -11.1045 2.2985
-6.9858 -11.2848 2.2985
-6.7164 -11.4585 2.2985
-6.4425 -11.6253 2.2985
-6.1643 -11.7853 2.2985
-5.8820 -11.9383 2.2985
-5.6075 -12.1096 2.3034
-5.4161 -12.4773 2.3464
-5.2368 -12.9079 2.4016
-4.9264 -13.0372 2.4016
-4.6127 -13.1586 2.4016
-4.2959 -13.2720 2.4016
-3.9761 -13.3774 2.4016
-3.6537 -13.4745 2.4016
-3.3287 -13.5635 2.4016
-3.0015 -13.6441 2.4016
-2.6723 -13.7164 2.4016
-2.3412 -13.7803 2.4016
-2.0086 -13.8357 2.4016
-1.6746 -13.8826 2.4016
-1.3394 -13.9209 2.4016
-1.0033 -13.9507 2.4016
-0.6666 -13.9718 2.4016
-0.3294 -13.9844 2.4016
0.0080 -13.9883 2.4016
0.3454 -13.9836 2.4016
0.6826 -13.9702 2.4016
1.0193 -13.9482 2.4016
1.3552 -13.9177 2.4016
1.6902 -13.8786 2.4016
2.0241 -13.8309 2.4016
2.3566 -13.7747 2.4016
2.6304 -13.4193 2.3507
2.8867 -13.0507 2.2983
3.1996 -12.9728 2.2983
3.5102 -12.8870 2.2983
3.8185 -12.7933 2.2983
4.1242 -12.6918 2.2983
4.4270 -12.5826 2.2983
4.7268 -12.4657 2.2983
5.0234 -12.3414 2.2983
5.1510 -11.8292 2.2267
5.1846 -11.1626 2.1255
5.4032 -10.9349 2.1077
5.6181 -10.7110 2.0914
5.8385 -10.5069 2.0799
6.0710 -10.3302 2.0749
6.3018 -10.1538 2.0710
6.5311 -9.9776 2.0682
6.7591 -9.8015 2.0666
7.0141 -9.6638 2.0744
7.2809 -9.5384 2.0864
7.5483 -9.4090 2.0992
7.8182 -9.2776 2.1134
6.9684 -7.8754 1.8335
7.1067 -7.6514 1.8225
7.2450 -7.4322 1.8132
7.1684 -7.0071 1.7530
7.2211 -6.7256 1.7275
7.2720 -6.4524 1.7037
7.3374 -6.2005 1.6853
7.4178 -5.9676 1.6721
7.5240 -5.7595 1.6661
7.6313 -5.5547 1.6615
7.7374 -5.3511 1.6580
7.8019 -5.1217 1.6468
7.8439 -4.8825 1.6322
7.8848 -4.6477 1.6189
7.9183 -4.4134 1.6054
7.9490 -4.1822 1.5927
8.0164 -3.9736 1.5885
8.1119 -3.7798 1.5909
8.1877 -3.5771 1.5904
8.2629 -3.3748 1.5908
8.3376 -3.1726 1.5920
8.4118 -2.9703 1.5941
8.5569 -2.7911 1.6105
8.7102 -2.6101 1.6292
8.8661 -2.4251 1.6492
8.9666 -2.2213 1.6596
8.9031 -1.9786 1.6408
7.3680 -1.4516 1.3529
7.2327 -1.2443 1.3239
7.1032 -1.0460 1.2970
6.9789 -0.8560 1.2719
7.2143 -0.7085 1.3131
6.6051 -0.4879 1.2014
7.3607 -0.3651 1.3387
7.2382 -0.1839 1.3170
7.1194 -0.0088 1.2968
7.0039 0.1606 1.2778
7.0210 0.3309 1.2838
6.2733 0.4478 1.1503
5.7406 0.5495 1.0562
5.5942 0.6723 1.0333
5.3080 0.7685 0.9849
5.0476 0.8558 0.9415
4.8093 0.9355 0.9022
4.5902 1.0086 0.8665
5.3789 1.3190 1.0225
5.2771 1.4301 1.0108
5.6144 1.6682 1.0842
5.5009 1.7803 1.0717
5.2918 1.8551 1.0407
5.7893 2.1881 1.1501
6.0290 2.4469 1.2106
6.4708 2.8103 1.3142
6.4729 2.9993 1.3306
6.1323 3.0237 1.2768
7.0227 3.6765 1.4820
10.8196 6.0020 2.3160
10.6589 6.2547 2.3160
10.4926 6.5032 2.3160
10.3206 6.7475 2.3160
10.1432 6.9875 2.3160
9.9604 7.2230 2.3160
9.7724 7.4539 2.3160
9.5792 7.6801 2.3160
9.3810 7.9015 2.3160
9.1780 8.1180 2.3160
8.9701 8.3296 2.3160
8.7576 8.5360 2.3160
8.5405 8.7373 2.3160
8.3191 8.9333 2.3160
8.0934 9.1239 2.3160
7.8635 9.3091 2.3160
7.6296 9.4888 2.3160
7.3918 9.6628 2.3160
7.1502 9.8312 2.3160
6.9050 9.9938 2.3160
6.6056 10.0734 2.2983
6.3554 10.2232 2.2983
6.1020 10.3670 2.2983
5.8456 10.5049 2.2983
5.5862 10.6368 2.2983
5.3240 10.7626 2.2983
5.0591 10.8822 2.2983
4.7917 10.9957 2.2983
4.5218 11.1029 2.2983
4.2498 11.2039 2.2983
3.9756 11.2985 2.2983
3.6994 11.3868 2.2983
3.4214 11.4687 2.2983
3.1417 11.5441 2.2983
2.8604 11.6131 2.2983
2.6278 11.9027 2.3430
2.3967 12.2587 2.4016
2.0988 12.3104 2.4016
1.7998 12.3552 2.4016
1.4999 12.3932 2.4016
1.1993 12.4242 2.4016
0.8981 12.4484 2.4016
0.5964 12.4657 2.4016
0.2945 12.4761 2.4016
-0.0076 12.4795 2.4016
-0.3098 12.4760 2.4016
-0.6117 12.4656 2.4016
-0.9134 12.4484 2.4016
-1.2147 12.4241 2.4016
-1.5153 12.3930 2.4016
-1.8153 12.3550 2.4016
-2.1143 12.3101 2.4016
-2.4123 12.2584 2.4016
-2.7091 12.1998 2.4016
-3.0046 12.1345 2.4016
-3.2985 12.0623 2.4016
-3.5909 11.9834 2.4016
-3.8815 11.8978 2.4016
-4.1702 11.8055 2.4016
-4.4568 11.7065 2.4016
-4.7412 11.6009 2.4016
-5.0232 11.4888 2.4016
-5.3028 11.3701 2.4016
-5.4227 10.9286 2.3340
-5.6114 10.6532 2.3021
-5.8621 10.5043 2.2985
-6.1186 10.3663 2.2985
-6.3722 10.2223 2.2985
-6.6225 10.0724 2.2985
-6.8694 9.9166 2.2985
-7.1129 9.7550 2.2985
-7.3528 9.5877 2.2985
-6.0823 7.5456 1.8422
-7.8212 9.2362 2.2985
-8.0495 9.0522 2.2985
-8.2736 8.8628 2.2985
-6.7740 6.9133 1.8332
-6.9084 6.7173 1.8233
-7.1994 6.6691 1.8551
-9.1264 8.0527 2.2985
-9.3280 7.8375 2.2985
-9.6204 7.6940 2.3216
-9.8141 7.4669 2.3216
-10.0027 7.2352 2.3216
-10.1860 6.9988 2.3216
-10.3639 6.7580 2.3216
-10.5363 6.5127 2.3216
-10.7031 6.2632 2.3216
-8.4187 4.6569 1.7990
-8.6216 4.5003 1.8164
-11.1688 5.4904 2.3216
-11.3121 5.2251 2.3216
-11.4493 4.9562 2.3216
-10.0640 4.0705 2.0176
-10.3029 3.8800 2.0435
-11.8231 4.1289 2.3216
-11.9349 3.8468 2.3216
-12.0400 3.5618 2.3216
-12.1385 3.2740 2.3216
-12.2303 2.9836 2.3216
-12.3152 2.6906 2.3216
-12.3932 2.3954 2.3216
-12.4642 2.0980 2.3216
-12.5282 1.7985 2.3216
-12.5851 1.4972 2.3216
-12.6349 1.1943 2.3216
-12.6774 0.8898 2.3216
-12.7126 0.5840 2.3216
-12.7405 0.2771 2.3216
-12.7610 -0.0309 2.3216
-12.7742 -0.3397 2.3216
-12.7799 -0.6491 2.3216
-12.7781 -0.9590 2.3216
-12.7688 -1.2692 2.3216
-12.7519 -1.5794 2.3216
-12.7275 -1.8896 2.3216
-12.6955 -2.1995 2.3216
-12.6560 -2.5089 2.3216
-12.6088 -2.8177 2.3216
-12.5541 -3.1257 2.3216
-12.4918 -3.4326 2.3216
-12.4219 -3.7382 2.3216
-12.3444 -4.0425 2.3216
-12.2594 -4.3452 2.3216
-12.1669 -4.6460 2.3216
-12.0668 -4.9449 2.3216
-11.9594 -5.2416 2.3216
-11.8444 -5.5359 2.3216
-11.7222 -5.8276 2.3216
-11.5925 -6.1165 2.3216
-11.4556 -6.4025 2.3216
-11.3115 -6.6854 2.3216
-11.1603 -6.9649 2.3216
-11.0020 -7.2408 2.3216
-10.8367 -7.5131 2.3216
-10.6644 -7.7814 2.3216
-10.4853 -8.0456 2.3216
-10.2995 -8.3056 2.3216
-9.3926 -7.9572 2.2985
-9.2071 -8.1898 2.2985
-9.0157 -8.4179 2.2985
-8.8184 -8.6414 2.2985
-4.1236 -4.2407 1.1001
-4.0236 -4.3427 1.1001
-3.9209 -4.4422 1.1000
-3.8157 -4.5393 1.1000
-3.7080 -4.6337 1.0999
-3.5980 -4.7255 1.0998
-3.4855 -4.8145 1.0998
-3.3708 -4.9008 1.0997
-3.2539 -4.9842 1.0997
-6.5524 -10.5862 2.2985
-6.2995 -10.7486 2.2985
-6.0423 -10.9046 2.2985
-5.7812 -11.0542 2.2985
-5.5162 -11.1972 2.2985
-5.4158 -11.6970 2.3722
-5.1985 -11.9772 2.4016
-4.9106 -12.1054 2.4016
-4.6194 -12.2262 2.4016
-4.3251 -12.3397 2.4016
-4.0279 -12.4457 2.4016
-3.7280 -12.5442 2.4016
-3.4256 -12.6350 2.4016
-3.1209 -12.7181 2.4016
-2.8141 -12.7935 2.4016
-2.5054 -12.8610 2.4016
-2.1949 -12.9207 2.4016
-1.8831 -12.9725 2.4016
-1.5699 -13.0163 2.4016
-1.2557 -13.0522 2.4016
-0.9406 -13.0800 2.4016
-0.6249 -13.0997 2.4016
-0.3088 -13.1115 2.4016
0.0075 -13.1151 2.4016
0.3238 -13.1107 2.4016
0.6399 -13.0983 2.4016
0.9555 -13.0778 2.4016
1.2705 -13.0492 2.4016
1.5846 -13.0127 2.4016
1.8976 -12.9681 2.4016
2.2093 -12.9156 2.4016
2.5195 -12.8553 2.4016
2.7064 -12.2373 2.2983
2.9998 -12.1645 2.2983
3.2912 -12.0843 2.2983
3.5803 -11.9967 2.2983
3.8670 -11.9019 2.2983
4.1511 -11.7998 2.2983
4.4324 -11.6906 2.2983
4.7107 -11.5744 2.2983
4.9858 -11.4512 2.2983
5.1780 -11.1499 2.2636
5.3964 -10.9226 2.2446
5.6111 -10.6991 2.2272
5.8201 -10.4753 2.2107
6.0394 -10.2777 2.2006
6.2591 -10.0865 2.1929
6.4870 -9.9116 2.1899
6.7135 -9.7368 2.1881
6.9664 -9.5994 2.1961
7.2295 -9.4725 2.2082
7.4948 -9.3437 2.2216
6.6757 -7.9231 1.9232
6.8158 -7.7041 1.9112
6.9549 -7.4892 1.9007
7.0915 -7.2760 1.8912
7.1480 -6.9884 1.8626
7.2009 -6.7079 1.8354
7.2520 -6.4357 1.8101
7.3160 -6.1834 1.7902
7.3963 -5.9514 1.7760
7.4834 -5.7294 1.7651
7.5902 -5.5259 1.7602
7.6959 -5.3234 1.7563
7.7622 -5.0967 1.7448
7.8044 -4.8590 1.7294
7.8455 -4.6256 1.7152
7.8854 -4.3961 1.7022
7.9180 -4.1670 1.6890
7.9809 -3.9571 1.6836
8.0644 -3.7587 1.6836
8.1399 -3.5573 1.6829
8.2147 -3.3561 1.6832
8.2890 -3.1551 1.6844
8.3693 -2.9564 1.6878
8.5166 -2.7790 1.7056
8.6879 -2.6045 1.7290
8.8637 -2.4255 1.7541
9.0444 -2.2416 1.7809
8.9869 -1.9983 1.7618
7.3503 -1.4490 1.4355
7.2005 -1.2396 1.4018
7.0868 -1.0444 1.3762
6.9632 -0.8549 1.3495
7.1803 -0.7060 1.3897
6.5840 -0.4871 1.2733
7.3055 -0.3632 1.4125
7.1848 -0.1834 1.3897
7.0677 -0.0095 1.3684
6.9539 0.1587 1.3485
6.2020 0.2916 1.2053
6.1439 0.4379 1.1972
5.9412 0.5680 1.1616
5.5439 0.6656 1.0881
5.2626 0.7613 1.0375
5.0064 0.8482 0.9920
4.7717 0.9276 0.9509
5.4366 1.1940 1.0902
5.3340 1.3074 1.0770
5.2337 1.4177 1.0647
5.3183 1.5796 1.0907
5.4256 1.7553 1.1224
5.2215 1.8299 1.0904
6.0318 2.2790 1.2723
6.3157 2.5625 1.3464
6.3666 2.7643 1.3727
6.4184 2.9733 1.4006
6.6277 3.2671 1.4648
7.0284 3.6786 1.5743
6.9734 3.8675 1.5842
10.0435 5.8922 2.3160
9.8874 6.1268 2.3160
9.7259 6.3574 2.3160
9.5593 6.5839 2.3160
9.3876 6.8063 2.3160
9.2110 7.0243 2.3160
9.0294 7.2380 2.3160
8.8431 7.4471 2.3160
8.6522 7.6516 2.3160
8.4567 7.8515 2.3160
8.2568 8.0465 2.3160
8.0525 8.2367 2.3160
7.8441 8.4219 2.3160
7.6317 8.6021 2.3160
7.4152 8.7771 2.3160
7.1950 8.9470 2.3160
6.9710 9.1115 2.3160
6.7435 9.2707 2.3160
6.4629 9.3528 2.2983
6.2304 9.4999 2.2983
5.9947 9.6416 2.2983
5.7559 9.7776 2.2983
5.5142 9.9080 2.2983
5.2696 10.0328 2.2983
5.0224 10.1518 2.2983
4.7727 10.2649 2.2983
4.5205 10.3723 2.2983
4.2661 10.4737 2.2983
4.0095 10.5693 2.2983
3.7509 10.6588 2.2983
3.4904 10.7423 2.2983
3.2282 10.8198 2.2983
2.9643 10.8912 2.2983
2.6990 10.9565 2.2983
2.5415 11.5105 2.4016
2.2615 11.5659 2.4016
1.9804 11.6148 2.4016
1.6983 11.6572 2.4016
1.4154 11.6932 2.4016
1.1317 11.7226 2.4016
0.8475 11.7454 2.4016
0.5628 11.7618 2.4016
0.2779 11.7716 2.4016
-0.0072 11.7748 2.4016
-0.2923 11.7715 2.4016
-0.5773 11.7617 2.4016
-0.8620 11.7453 2.4016
-1.1462 11.7224 2.4016
-1.4299 11.6929 2.4016
-1.7129 11.6569 2.4016
-1.9951 11.6145 2.4016
-2.2762 11.5655 2.4016
-2.5562 11.5101 2.4016
-2.8350 11.4482 2.4016
-3.1123 11.3799 2.4016
-3.3881 11.3052 2.4016
-3.6622 11.2242 2.4016
-3.9345 11.1368 2.4016
-4.2048 11.0431 2.4016
-4.4730 10.9432 2.4016
-4.7389 10.8371 2.4016
-5.0025 10.7249 2.4016
-5.2635 10.6065 2.4016
-5.4192 10.2870 2.3569
-5.5295 9.9072 2.2985
-5.7714 9.7766 2.2985
-6.0103 9.6404 2.2985
-6.2461 9.4986 2.2985
-6.4788 9.3513 2.2985
-6.7081 9.1985 2.2985
-6.9340 9.0403 2.2985
-6.0833 7.5457 1.9538
-7.3751 8.7081 2.2985
-7.5900 8.5341 2.2985
-7.8009 8.3551 2.2985
-6.7743 6.9124 1.9444
-6.9090 6.7168 1.9341
-7.2037 6.6719 1.9690
-8.6031 7.5897 2.2985
-8.7927 7.3864 2.2985
-8.9777 7.1786 2.2985
-9.1579 6.9663 2.2985
-9.3333 6.7496 2.2985
-9.5992 6.5943 2.3216
-9.7662 6.3669 2.3216
-9.9281 6.1354 2.3216
-10.0846 5.8999 2.3216
-8.4191 4.6560 1.9096
-8.6234 4.5001 1.9285
-10.5212 5.1707 2.3216
-10.6555 4.9205 2.3216
-10.7840 4.6668 2.3216
-10.0634 4.0690 2.1421
-10.3029 3.8787 2.1699
-11.1338 3.8868 2.3216
-11.2382 3.6209 2.3216
-11.3364 3.3523 2.3216
-11.4282 3.0811 2.3216
-11.5137 2.8074 2.3216
-11.5928 2.5314 2.3216
-11.6654 2.2533 2.3216
-11.7313 1.9732 2.3216
-11.7907 1.6913 2.3216
-11.8433 1.4076 2.3216
-11.8892 1.1224 2.3216
-11.9282 0.8359 2.3216
-11.9605 0.5481 2.3216
-11.9858 0.2593 2.3216
-12.0042 -0.0305 2.3216
-12.0155 -0.3209 2.3216
-12.0199 -0.6119 2.3216
-12.0173 -0.9033 2.3216
-12.0076 -1.1949 2.3216
-11.9908 -1.4866 2.3216
-11.9669 -1.7781 2.3216
-11.9359 -2.0693 2.3216
-11.8977 -2.3600 2.3216
-11.8525 -2.6501 2.3216
-11.8001 -2.9393 2.3216
-11.7406 -3.2276 2.3216
-11.6740 -3.5146 2.3216
-11.6003 -3.8002 2.3216
-11.5195 -4.0843 2.3216
-11.4317 -4.3667 2.3216
-11.3368 -4.6472 2.3216
-11.2350 -4.9255 2.3216
-11.1262 -5.2016 2.3216
-11.0105 -5.4752 2.3216
-10.8880 -5.7462 2.3216
-10.7586 -6.0144 2.3216
-10.6225 -6.2796 2.3216
-10.4797 -6.5416 2.3216
-10.3303 -6.8002 2.3216
-10.1744 -7.0553 2.3216
-10.0120 -7.3068 2.3216
-9.8433 -7.5543 2.3216
-9.6682 -7.7979 2.3216
-8.8474 -7.4966 2.2985
-4.1522 -3.6941 1.1005
-4.0655 -3.7965 1.1005
-3.9761 -3.8969 1.1004
-3.8841 -3.9950 1.1003
-3.7897 -4.0909 1.1003
-3.6928 -4.1845 1.1002
-3.5936 -4.2757 1.1002
-3.4920 -4.3644 1.1001
-3.3882 -4.4506 1.1001
-3.2822 -4.5343 1.1000
-3.1740 -4.6153 1.1000
-3.0638 -4.6936 1.0999
-2.9516 -4.7692 1.0999
-2.8374 -4.8420 1.0998
-2.7214 -4.9120 1.0998
-2.6036 -4.9790 1.0998
-2.4841 -5.0431 1.0997
-5.1604 -11.1468 2.4016
-4.8926 -11.2738 2.4016
-4.6215 -11.3941 2.4016
-4.3473 -11.5075 2.4016
-4.0703 -11.6140 2.4016
-3.7905 -11.7135 2.4016
-3.5082 -11.8059 2.4016
-3.2236 -11.8911 2.4016
-2.9368 -11.9691 2.4016
-2.6480 -12.0398 2.4016
-2.3575 -12.1032 2.4016
-2.0654 -12.1592 2.4016
-1.7718 -12.2078 2.4016
-1.4772 -12.2489 2.4016
-1.1815 -12.2825 2.4016
-0.8850 -12.3086 2.4016
-0.5880 -12.3272 2.4016
-0.2906 -12.3382 2.4016
0.0071 -12.3416 2.4016
0.3047 -12.3375 2.4016
0.6021 -12.3258 2.4016
0.8991 -12.3066 2.4016
1.1954 -12.2798 2.4016
1.4910 -12.2455 2.4016
1.7855 -12.2038 2.4016
2.0789 -12.1545 2.4016
2.3708 -12.0979 2.4016
2.6302 -11.8939 2.3737
2.8400 -11.5178 2.3123
3.0971 -11.3730 2.2983
3.3692 -11.2908 2.2983
3.6391 -11.2019 2.2983
3.9066 -11.1061 2.2983
4.1714 -11.0037 2.2983
4.4334 -10.8946 2.2983
4.6925 -10.7790 2.2983
4.9484 -10.6569 2.2983
5.2011 -10.5285 2.2983
5.4503 -10.3937 2.2983
5.6958 -10.2529 2.2983
5.9377 -10.1059 2.2983
6.1755 -9.9530 2.2983
6.4093 -9.7943 2.2983
6.6389 -9.6298 2.2983
6.9176 -9.5336 2.3163
7.1787 -9.4073 2.3288
7.4418 -9.2791 2.3427
6.6460 -7.8889 2.0333
6.7702 -7.6538 2.0159
6.9087 -7.4406 2.0049
7.0430 -7.2274 1.9944
7.1277 -6.9696 1.9720
7.1807 -6.6903 1.9432
7.2320 -6.4191 1.9164
7.2945 -6.1664 1.8948
7.3749 -5.9352 1.8798
7.4536 -5.7077 1.8661
7.5494 -5.4972 1.8582
7.6547 -5.2960 1.8540
7.7227 -5.0719 1.8423
7.7651 -4.8356 1.8260
7.8063 -4.6036 1.8109
7.8464 -4.3754 1.7972
7.8854 -4.1509 1.7846
7.9414 -3.9385 1.7773
8.0173 -3.7378 1.7755
8.1020 -3.5417 1.7769
8.1882 -3.3463 1.7796
8.2743 -3.1506 1.7834
8.3606 -2.9543 1.7882
8.5192 -2.7809 1.8094
8.6906 -2.6063 1.8340
8.8665 -2.4273 1.8605
9.0472 -2.2434 1.8888
9.0843 -2.0210 1.8881
7.3326 -1.4464 1.5181
7.1663 -1.2345 1.4789
7.0704 -1.0428 1.4553
6.9474 -0.8538 1.4271
7.1175 -0.7006 1.4599
6.5629 -0.4863 1.3450
7.2508 -0.3614 1.4856
7.1320 -0.1828 1.4617
7.0097 -0.0103 1.4380
6.9044 0.1567 1.4185
6.1610 0.2890 1.2684
6.1256 0.4359 1.2644
5.7995 0.5538 1.2010
5.4944 0.6590 1.1422
5.2178 0.7542 1.0895
4.9656 0.8407 1.0420
4.7345 0.9198 0.9991
5.3909 1.1833 1.1447
5.2898 1.2959 1.1309
5.1908 1.4055 1.1180
5.3164 1.5784 1.1542
5.1440 1.6636 1.1265
5.1527 1.8051 1.1390
5.3027 2.0029 1.1838
6.2169 2.5216 1.4027
6.2653 2.7195 1.4296
6.3144 2.9243 1.4581
7.0887 3.4935 1.6578
7.0342 3.6807 1.6672
6.9792 3.8697 1.6776
9.4931 5.5680 2.3160
9.3460 5.7901 2.3160
9.1939 6.0084 2.3160
9.0369 6.2229 2.3160
8.8751 6.4334 2.3160
8.7085 6.6399 2.3160
8.5373 6.8422 2.3160
8.3616 7.0403 2.3160
8.1814 7.2341 2.3160
7.9970 7.4234 2.3160
7.8083 7.6082 2.3160
7.6155 7.7884 2.3160
7.4188 7.9640 2.3160
7.2181 8.1347 2.3160
7.0137 8.3006 2.3160
6.8057 8.4616 2.3160
6.5439 8.5520 2.2983
6.3306 8.7018 2.2983
6.1139 8.8465 2.2983
5.8941 8.9860 2.2983
5.6713 9.1203 2.2983
5.4456 9.2493 2.2983
5.2171 9.3730 2.2983
4.9859 9.4913 2.2983
4.7521 9.6042 2.2983
4.5159 9.7115 2.2983
4.2775 9.8134 2.2983
4.0368 9.9096 2.2983
3.7941 10.0002 2.2983
3.5495 10.0852 2.2983
3.3031 10.1644 2.2983
3.0549 10.2379 2.2983
2.8053 10.3057 2.2983
2.6266 10.6617 2.3635
2.4052 10.8920 2.4016
2.1403 10.9446 2.4016
1.8743 10.9910 2.4016
1.6073 11.0312 2.4016
1.3395 11.0653 2.4016
1.0711 11.0932 2.4016
0.8021 11.1149 2.4016
0.5327 11.1304 2.4016
0.2630 11.1397 2.4016
-0.0069 11.1428 2.4016
-0.2767 11.1397 2.4016
-0.5464 11.1303 2.4016
-0.8158 11.1148 2.4016
-1.0848 11.0930 2.4016
-1.3533 11.0650 2.4016
-1.6211 11.0309 2.4016
-1.8881 10.9905 2.4016
-2.1542 10.9441 2.4016
-2.4191 10.8915 2.4016
-2.6829 10.8327 2.4016
-2.9453 10.7679 2.4016
-3.2063 10.6970 2.4016
-3.4656 10.6201 2.4016
-3.7231 10.5372 2.4016
-3.9788 10.4484 2.4016
-4.2325 10.3536 2.4016
-4.4841 10.2529 2.4016
-4.7333 10.1464 2.4016
-4.9802 10.0341 2.4016
-5.2245 9.9161 2.4016
-5.4191 9.7080 2.3809
-5.4601 9.2481 2.2985
-5.6860 9.1190 2.2985
-5.9089 8.9845 2.2985
-6.1287 8.8448 2.2985
-6.3455 8.6999 2.2985
-6.5589 8.5500 2.2985
-6.0842 7.5458 2.0660
-6.9755 8.2350 2.2985
-7.1784 8.0702 2.2985
-7.3776 7.9005 2.2985
-6.7942 6.9316 2.0622
-6.9237 6.7299 2.0497
-7.9516 7.3634 2.2985
-8.1347 7.1752 2.2985
-8.3136 6.9827 2.2985
-8.4880 6.7858 2.2985
-8.6580 6.5848 2.2985
-8.8233 6.3796 2.2985
-8.9839 6.1704 2.2985
-9.1398 5.9572 2.2985
-9.2907 5.7403 2.2985
-9.4366 5.5196 2.2985
-8.4194 4.6550 2.0206
-8.6259 4.5003 2.0412
-9.9424 4.8849 2.3216
-10.0686 4.6482 2.3216
-10.1894 4.4082 2.3216
-10.0628 4.0675 2.2671
-10.3030 3.8774 2.2968
-10.5179 3.6705 2.3216
-10.6158 3.4191 2.3216
-10.7078 3.1651 2.3216
-10.7939 2.9088 2.3216
-10.8740 2.6501 2.3216
-10.9479 2.3893 2.3216
-11.0157 2.1265 2.3216
-11.0772 1.8619 2.3216
-11.1325 1.5956 2.3216
-11.1814 1.3276 2.3216
-11.2239 1.0583 2.3216
-11.2600 0.7877 2.3216
-11.2896 0.5161 2.3216
-11.3127 0.2434 2.3216
-11.3293 -0.0301 2.3216
-11.3392 -0.3041 2.3216
-11.3426 -0.5787 2.3216
-11.3393 -0.8536 2.3216
-11.3293 -1.1287 2.3216
-11.3126 -1.4038 2.3216
-11.2893 -1.6787 2.3216
-11.2593 -1.9533 2.3216
-11.2225 -2.2274 2.3216
-11.1790 -2.5009 2.3216
-11.1288 -2.7734 2.3216
-11.0719 -3.0451 2.3216
-11.0084 -3.3155 2.3216
-10.9381 -3.5846 2.3216
-10.8612 -3.8523 2.3216
-10.7777 -4.1182 2.3216
-10.6875 -4.3823 2.3216
-10.5908 -4.6444 2.3216
-10.4875 -4.9043 2.3216
-10.3778 -5.1619 2.3216
-10.2616 -5.4170 2.3216
-10.1390 -5.6694 2.3216
-10.0101 -5.9189 2.3216
-9.8750 -6.1654 2.3216
-9.7336 -6.4087 2.3216
-9.5861 -6.6487 2.3216
-9.3387 -6.8167 2.2985
-9.1807 -7.0472 2.2985
-9.0169 -7.2739 2.2985
-4.0036 -3.3930 1.1008
-3.9239 -3.4915 1.1007
-3.8417 -3.5882 1.1006
-3.7570 -3.6828 1.1006
-3.6700 -3.7754 1.1005
-3.5806 -3.8658 1.1005
-3.4890 -3.9540 1.1004
-3.3950 -4.0400 1.1004
-3.2990 -4.1237 1.1003
-3.2007 -4.2050 1.1003
-3.1005 -4.2839 1.1002
-2.9982 -4.3603 1.1002
-2.8940 -4.4341 1.1001
-2.7879 -4.5053 1.1001
-2.6800 -4.5739 1.1000
-2.5703 -4.6399 1.1000
-2.4590 -4.7030 1.1000
-2.3460 -4.7634 1.0999
-2.3139 -4.9988 1.1405
-4.6195 -10.6459 2.4016
-4.3634 -10.7592 2.4016
-4.1045 -10.8660 2.4016
-3.8428 -10.9663 2.4016
-3.5786 -11.0600 2.4016
-3.3120 -11.1470 2.4016
-3.0432 -11.2272 2.4016
-2.7724 -11.3007 2.4016
-2.4998 -11.3673 2.4016
-2.2255 -11.4270 2.4016
-1.9497 -11.4797 2.4016
-1.6726 -11.5254 2.4016
-1.3944 -11.5641 2.4016
-1.1153 -11.5958 2.4016
-0.8355 -11.6204 2.4016
