ply
format ascii 1.0
element vertex 2087
property float32 x
property float32 y
property float32 z
end_header
-12.3596 14.6114 2.3218
-10.0090 11.2681 1.8263
-10.1948 10.9329 1.8091
-10.4695 10.6968 1.8091
-13.0603 12.7137 2.2001
-13.1719 12.2161 2.1656
-13.2718 11.7248 2.1319
-13.3870 11.2621 2.1030
-13.6854 10.9591 2.1046
-14.0015 10.6670 2.1098
-14.3262 10.3766 2.1171
-14.7363 10.1396 2.1375
-15.1663 9.9039 2.1612
-15.5127 9.6033 2.1734
-15.7659 9.2404 2.1734
-16.0110 8.8711 2.1734
-16.2479 8.4956 2.1734
-16.4764 8.1141 2.1734
-16.6965 7.7267 2.1734
-16.9078 7.3336 2.1734
-9.4909 3.8467 1.2055
-9.8034 3.7000 1.2313
-10.5518 3.6937 1.3113
-11.4081 3.6864 1.4037
-12.3955 3.6771 1.5110
-13.5579 3.6678 1.6384
-14.9441 3.6576 1.7913
-16.6183 3.6441 1.9771
-15.8486 3.0758 1.8726
-16.0814 2.7195 1.8881
-18.6167 2.6872 2.1734
-18.7125 2.2408 2.1734
-18.7747 1.7893 2.1707
-18.7671 1.3318 2.1612
-18.7241 0.8747 2.1489
-18.6613 0.4202 2.1357
-18.5485 -0.0306 2.1181
-18.4181 -0.4756 2.0997
-18.2700 -0.9139 2.0806
-18.1178 -1.3458 2.0623
-17.9618 -1.7715 2.0447
-17.8297 -2.1946 2.0311
-17.7198 -2.6171 2.0211
-12.4912 -2.1544 1.4274
-17.5844 -3.4723 2.0145
-17.4956 -3.8961 2.0105
-17.3988 -4.3182 2.0068
-17.2929 -4.7382 2.0033
-17.2253 -5.1701 2.0054
-17.1611 -5.6062 2.0092
-17.0859 -6.0421 2.0130
-16.9618 -6.4633 2.0123
-16.8523 -6.8922 2.0146
-16.6866 -7.2997 2.0115
-16.5592 -7.7257 2.0143
-16.3923 -8.1356 2.0135
-16.2558 -8.5632 2.0179
-16.2068 -9.0440 2.0346
-16.1679 -9.5415 2.0543
-16.1601 -10.0709 2.0799
-16.1318 -10.6025 2.1049
-16.0871 -11.1386 2.1299
-16.0512 -11.6972 2.1582
-16.0252 -12.2815 2.1903
-15.9940 -12.8823 2.2242
-14.7557 -12.4863 2.3070
-14.5246 -12.9053 2.3156
-14.2606 -13.3006 2.3207
-13.9613 -13.6665 2.3218
-13.6459 -14.0187 2.3218
-13.3212 -14.3633 2.3218
-12.9875 -14.6998 2.3218
-12.6449 -15.0282 2.3218
-10.2135 -12.7513 1.9290
-11.9338 -15.6592 2.3218
-11.5658 -15.9614 2.3218
-11.1897 -16.2543 2.3218
-10.8059 -16.5378 2.3218
-8.4498 -13.6401 1.8838
-10.0159 -17.0755 2.3218
-9.6101 -17.3293 2.3218
-9.1062 -17.3981 2.2987
-6.0873 -12.3468 1.6100
-5.8195 -12.5592 1.6175
-7.8436 -18.0579 2.2987
-7.4111 -18.2561 2.2987
-6.9734 -18.4432 2.2987
-6.5307 -18.6190 2.2987
-6.0833 -18.7833 2.2987
-5.6315 -18.9361 2.2987
-5.2775 -19.4524 2.3439
-4.9276 -20.0678 2.4018
-4.4439 -20.1903 2.4018
-3.9569 -20.3002 2.4018
-3.4671 -20.3975 2.4018
-2.9747 -20.4820 2.4018
-2.4802 -20.5536 2.4018
-1.9838 -20.6124 2.4018
-1.4860 -20.6582 2.4018
-0.9871 -20.6910 2.4018
-0.4874 -20.7108 2.4018
0.0126 -20.7175 2.4018
0.5127 -20.7112 2.4018
1.0124 -20.6919 2.4018
1.5114 -20.6595 2.4018
2.0093 -20.6141 2.4018
2.5058 -20.5557 2.4018
2.8715 -19.6039 2.2985
3.3429 -19.5234 2.2985
3.8120 -19.4306 2.2985
4.2783 -19.3257 2.2985
4.7415 -19.2088 2.2985
5.2014 -19.0799 2.2985
5.6575 -18.9391 2.2985
5.2728 -16.2134 1.9837
5.4281 -15.4155 1.9027
5.8460 -15.4048 1.9195
6.0937 -14.9587 1.8830
6.5342 -14.9936 1.9081
6.8117 -14.6538 1.8867
6.7869 -13.7238 1.7890
2.9160 -5.5548 0.7337
3.0726 -5.5249 0.7400
7.5296 -12.8012 1.7400
8.2797 -13.3294 1.8403
9.3964 -14.3426 2.0129
9.7955 -14.1922 2.0266
11.5514 -15.9009 2.3123
11.8409 -15.4983 2.2972
12.1506 -15.1321 2.2884
12.5577 -14.8880 2.2995
2.9505 -3.3314 0.5260
13.4639 -14.4819 2.3404
14.5661 -14.9280 2.4718
14.9024 -14.5525 2.4718
14.2698 -13.2770 2.3162
14.5659 -12.9106 2.3162
14.8523 -12.5373 2.3162
15.1287 -12.1573 2.3162
15.3950 -11.7711 2.3162
15.6512 -11.3788 2.3162
15.8971 -10.9807 2.3162
16.1325 -10.5772 2.3162
16.3574 -10.1685 2.3162
16.5717 -9.7549 2.3162
16.7752 -9.3367 2.3162
16.9679 -8.9142 2.3162
17.1498 -8.4878 2.3162
17.3207 -8.0576 2.3162
17.4806 -7.6240 2.3162
17.6295 -7.1873 2.3162
17.7672 -6.7478 2.3162
17.8939 -6.3057 2.3162
18.0094 -5.8614 2.3162
18.1138 -5.4151 2.3162
13.9184 -3.7971 1.7706
14.1593 -3.4976 1.7932
18.3600 -4.0675 2.3162
18.4198 -3.6163 2.3162
18.4684 -3.1646 2.3162
18.5060 -2.7125 2.3162
18.5325 -2.2606 2.3162
18.5480 -1.8089 2.3162
18.5526 -1.3578 2.3162
18.5463 -0.9075 2.3162
18.5291 -0.4583 2.3162
18.5011 -0.0105 2.3162
18.4625 0.4358 2.3162
18.4132 0.8802 2.3162
18.3535 1.3225 2.3162
18.2832 1.7624 2.3162
18.2026 2.1998 2.3162
18.1118 2.6343 2.3162
18.0109 3.0658 2.3162
17.8999 3.4940 2.3162
17.7790 3.9188 2.3162
17.6483 4.3397 2.3162
17.5080 4.7568 2.3162
17.3581 5.1697 2.3162
17.1987 5.5782 2.3162
17.0301 5.9822 2.3162
16.8524 6.3814 2.3162
16.6656 6.7758 2.3162
16.4700 7.1649 2.3162
16.2657 7.5487 2.3162
16.0528 7.9271 2.3162
15.8315 8.2998 2.3162
15.6019 8.6666 2.3162
15.3643 9.0275 2.3162
15.1187 9.3821 2.3162
14.8654 9.7305 2.3162
14.6044 10.0723 2.3162
14.3361 10.4076 2.3162
14.0604 10.7361 2.3162
13.7777 11.0576 2.3162
13.4880 11.3722 2.3162
13.1915 11.6795 2.3162
12.8885 11.9796 2.3162
12.5791 12.2722 2.3162
12.2635 12.5573 2.3162
11.9418 12.8347 2.3162
11.6143 13.1043 2.3162
11.2811 13.3661 2.3162
10.9424 13.6199 2.3162
10.5983 13.8657 2.3162
10.2492 14.1033 2.3162
9.8951 14.3326 2.3162
9.5363 14.5535 2.3162
9.1728 14.7661 2.3162
8.8051 14.9701 2.3162
8.4331 15.1655 2.3162
8.0571 15.3524 2.3162
7.6773 15.5304 2.3162
7.2938 15.6997 2.3162
6.9069 15.8602 2.3162
6.4672 15.8899 2.2985
6.0771 16.0314 2.2985
5.6840 16.1639 2.2985
5.2884 16.2875 2.2985
4.8902 16.4020 2.2985
4.4898 16.5075 2.2985
4.0874 16.6039 2.2985
3.6830 16.6911 2.2985
3.2769 16.7691 2.2985
2.8693 16.8380 2.2985
2.4844 17.0620 2.3209
2.1425 17.7094 2.4018
1.7131 17.7524 2.4018
1.2829 17.7857 2.4018
0.8521 17.8093 2.4018
0.4210 17.8233 2.4018
-0.0103 17.8275 2.4018
-0.4416 17.8220 2.4018
-0.8727 17.8068 2.4018
-1.3033 17.7819 2.4018
-1.7334 17.7473 2.4018
-2.1625 17.7031 2.4018
-2.5907 17.6491 2.4018
-3.0177 17.5856 2.4018
-3.4432 17.5124 2.4018
-3.8671 17.4296 2.4018
-4.2892 17.3373 2.4018
-4.7093 17.2354 2.4018
-5.1271 17.1240 2.4018
-5.5426 17.0032 2.4018
-5.6998 16.1488 2.2987
-6.0922 16.0152 2.2987
-6.4817 15.8727 2.2987
-6.8682 15.7213 2.2987
-7.2514 15.5611 2.2987
-7.6311 15.3922 2.2987
-8.0073 15.2145 2.2987
-8.3796 15.0282 2.2987
-8.7479 14.8334 2.2987
-9.1120 14.6301 2.2987
-9.4717 14.4184 2.2987
-9.5328 13.7734 2.2299
-9.5298 13.0813 2.1524
-9.5271 12.4341 2.0812
-9.5245 11.8269 2.0154
-9.5221 11.2554 1.9546
-9.5098 10.7047 1.8963
-9.7138 10.4157 1.8840
-9.9949 10.2104 1.8879
-10.0489 9.7808 1.8506
-12.6349 11.7163 2.2712
-12.7558 11.2671 2.2404
-12.7472 10.7221 2.1899
-12.8698 10.3042 2.1646
-12.9893 9.8941 2.1409
-13.0988 9.4859 2.1176
-13.2616 9.1233 2.1047
-13.4432 8.7770 2.0962
-13.6890 8.4727 2.0989
-13.9182 8.1558 2.1001
-14.1434 7.8347 2.1017
-14.3999 7.5277 2.1089
-14.6832 7.2293 2.1209
-14.9653 6.9238 2.1334
-15.2461 6.6111 2.1466
-9.4910 3.8457 1.3207
-9.8060 3.6999 1.3495
-10.5548 3.6936 1.4374
-11.4116 3.6863 1.5390
-12.4004 3.6772 1.6570
-13.5636 3.6679 1.7971
-14.9499 3.6575 1.9651
-16.3159 3.5760 2.1289
-15.8463 3.0737 2.0538
-16.0807 2.7177 2.0714
-16.6718 2.4047 2.1357
-16.7738 2.0069 2.1381
-16.8862 1.6075 2.1430
-16.9327 1.1999 2.1408
-16.9857 0.7917 2.1406
-17.0294 0.3817 2.1404
-17.0388 -0.0299 2.1372
-17.0511 -0.4421 2.1356
-16.8622 -0.8452 2.1100
-16.8673 -1.2547 2.1100
-16.8487 -1.6635 2.1083
-16.8114 -2.0710 2.1054
-16.8055 -2.4838 2.1078
-12.4899 -2.1555 1.5697
-16.7782 -3.3149 2.1143
-16.7413 -3.7299 2.1166
-16.6994 -4.1464 2.1195
-16.6525 -4.5645 2.1231
-16.6012 -4.9846 2.1275
-16.5503 -5.4085 2.1333
-16.4420 -5.8162 2.1331
-16.2867 -6.2079 2.1281
-16.1259 -6.5969 2.1235
-15.9643 -6.9855 2.1202
-15.8696 -7.4058 2.1271
-15.7517 -7.8195 2.1324
-15.6962 -8.2703 2.1477
-15.6480 -8.7340 2.1657
-15.5759 -9.1940 2.1823
-15.5327 -9.6818 2.2048
-15.4757 -10.1732 2.2273
-15.4146 -10.6750 2.2515
-15.3302 -11.1737 2.2743
-15.2279 -11.6724 2.2968
-14.9963 -12.0808 2.3017
-13.5543 -11.4715 2.3192
-13.3022 -11.8211 2.3211
-13.0338 -12.1582 2.3218
-12.7527 -12.4853 2.3218
-12.4632 -12.8056 2.3218
-12.1653 -13.1187 2.3218
-11.8592 -13.4246 2.3218
-11.5450 -13.7230 2.3218
-10.2107 -12.7494 2.1123
-10.8935 -14.2961 2.3218
-10.5565 -14.5705 2.3218
-10.2123 -14.8364 2.3218
-9.8611 -15.0937 2.3218
-8.4239 -13.6000 2.0581
-9.0476 -15.4267 2.2987
-8.6803 -15.6546 2.2987
-8.3071 -15.8732 2.2987
-6.1066 -12.3875 1.7706
-5.8191 -12.5599 1.7732
-7.1537 -16.4715 2.2987
-6.7588 -16.6512 2.2987
-6.3592 -16.8207 2.2987
-5.9551 -16.9800 2.2987
-5.5469 -17.1289 2.2987
-5.2897 -17.7888 2.3681
-4.9304 -18.1752 2.4018
-4.4924 -18.2975 2.4018
-4.0513 -18.4085 2.4018
-3.6072 -18.5080 2.4018
-3.1605 -18.5960 2.4018
-2.7116 -18.6725 2.4018
-2.2608 -18.7374 2.4018
-1.8083 -18.7906 2.4018
-1.3545 -18.8320 2.4018
-0.8997 -18.8617 2.4018
-0.4443 -18.8795 2.4018
0.0115 -18.8856 2.4018
0.4673 -18.8798 2.4018
0.9228 -18.8623 2.4018
1.3776 -18.8329 2.4018
1.8315 -18.7918 2.4018
2.2841 -18.7389 2.4018
2.7351 -18.6743 2.4018
3.0473 -17.7986 2.2985
3.4750 -17.7146 2.2985
3.9002 -17.6195 2.2985
4.3226 -17.5135 2.2985
4.7420 -17.3967 2.2985
4.8534 -16.2491 2.1628
5.3292 -16.3888 2.1990
5.4300 -15.4225 2.0874
5.8758 -15.4851 2.1157
6.1699 -15.1474 2.0906
6.5370 -15.0016 2.0931
6.7633 -14.5514 2.0539
6.7024 -13.5545 1.9369
7.0996 -13.5259 1.9583
7.5485 -13.5744 1.9928
7.8909 -13.4171 1.9988
8.2267 -13.2456 2.0040
9.6758 -14.7709 2.2716
10.2287 -14.8217 2.3190
11.2697 -15.5152 2.4718
11.6289 -15.2229 2.4718
11.9802 -14.9218 2.4718
12.3234 -14.6122 2.4718
2.9502 -3.3315 0.5761
12.1670 -13.0888 2.3162
12.4646 -12.7760 2.3162
12.7538 -12.4562 2.3162
13.0345 -12.1294 2.3162
13.3065 -11.7961 2.3162
13.5698 -11.4565 2.3162
13.8240 -11.1108 2.3162
14.0692 -10.7591 2.3162
14.3051 -10.4020 2.3162
14.5317 -10.0394 2.3162
14.7489 -9.6719 2.3162
14.9565 -9.2994 2.3162
15.1544 -8.9225 2.3162
15.3426 -8.5412 2.3162
15.5211 -8.1559 2.3162
15.6896 -7.7669 2.3162
15.8482 -7.3744 2.3162
15.9968 -6.9786 2.3162
16.1353 -6.5799 2.3162
16.2637 -6.1786 2.3162
16.3821 -5.7747 2.3162
16.4902 -5.3687 2.3162
16.5882 -4.9609 2.3162
13.9163 -3.7980 1.9329
14.1508 -3.4971 1.9563
16.8211 -3.7284 2.3162
16.8784 -3.3154 2.3162
16.9255 -2.9020 2.3162
16.9624 -2.4881 2.3162
16.9892 -2.0741 2.3162
17.0060 -1.6603 2.3162
17.0127 -1.2469 2.3162
17.0094 -0.8341 2.3162
16.9962 -0.4222 2.3162
16.9731 -0.0114 2.3162
16.9401 0.3981 2.3162
16.8974 0.8060 2.3162
16.8450 1.2120 2.3162
16.7830 1.6160 2.3162
16.7115 2.0178 2.3162
16.6305 2.4171 2.3162
16.5401 2.8137 2.3162
16.4405 3.2074 2.3162
16.3318 3.5980 2.3162
16.2140 3.9853 2.3162
16.0873 4.3691 2.3162
15.9517 4.7491 2.3162
15.8074 5.1252 2.3162
15.6546 5.4973 2.3162
15.4932 5.8650 2.3162
15.3235 6.2284 2.3162
15.1456 6.5870 2.3162
14.9597 6.9409 2.3162
14.7657 7.2898 2.3162
14.5640 7.6335 2.3162
14.3546 7.9720 2.3162
14.1376 8.3050 2.3162
13.9133 8.6324 2.3162
13.6818 8.9540 2.3162
13.4431 9.2697 2.3162
13.1976 9.5794 2.3162
12.9452 9.8828 2.3162
12.6863 10.1800 2.3162
12.4208 10.4707 2.3162
12.1491 10.7548 2.3162
11.8712 11.0323 2.3162
11.5874 11.3029 2.3162
11.2977 11.5667 2.3162
11.0024 11.8233 2.3162
10.7016 12.0729 2.3162
10.3955 12.3152 2.3162
10.0843 12.5501 2.3162
9.7680 12.7777 2.3162
9.4470 12.9977 2.3162
9.1213 13.2101 2.3162
8.7912 13.4147 2.3162
8.4568 13.6117 2.3162
8.1183 13.8007 2.3162
7.7758 13.9819 2.3162
7.4296 14.1550 2.3162
7.0798 14.3201 2.3162
6.7266 14.4770 2.3162
6.3217 14.5145 2.2985
5.9649 14.6540 2.2985
5.6053 14.7852 2.2985
5.2431 14.9081 2.2985
4.8783 15.0228 2.2985
4.5112 15.1290 2.2985
4.1420 15.2269 2.2985
3.7708 15.3163 2.2985
3.3979 15.3973 2.2985
3.0233 15.4697 2.2985
2.6474 15.5336 2.2985
2.3721 16.2893 2.4018
1.9768 16.3382 2.4018
1.5807 16.3781 2.4018
1.1838 16.4091 2.4018
0.7863 16.4310 2.4018
0.3885 16.4440 2.4018
-0.0095 16.4479 2.4018
-0.4075 16.4428 2.4018
-0.8052 16.4288 2.4018
-1.2026 16.4057 2.4018
-1.5993 16.3737 2.4018
-1.9953 16.3326 2.4018
-2.3904 16.2826 2.4018
-2.7842 16.2237 2.4018
-3.1768 16.1558 2.4018
-3.5678 16.0790 2.4018
-3.9571 15.9934 2.4018
-4.3446 15.8989 2.4018
-4.7299 15.7956 2.4018
-5.1129 15.6836 2.4018
-5.4936 15.5629 2.4018
-5.6195 14.7710 2.2987
-5.9785 14.6388 2.2987
-6.3347 14.4985 2.2987
-6.6878 14.3500 2.2987
-7.0376 14.1934 2.2987
-7.3841 14.0288 2.2987
-7.7270 13.8562 2.2987
-8.0661 13.6757 2.2987
-8.4013 13.4873 2.2987
-8.7323 13.2912 2.2987
-9.0591 13.0874 2.2987
-9.3815 12.8760 2.2987
-9.5271 12.4325 2.2579
-9.5245 11.8253 2.1867
-9.5221 11.2538 2.1209
-9.5198 10.7144 2.0600
-9.5176 10.2039 2.0034
-9.5155 9.7194 1.9508
-9.5036 9.2487 1.8998
-9.6548 8.9515 1.8840
-11.8920 10.5025 2.2677
-11.9848 10.0792 2.2356
-12.1182 9.7009 2.2133
-12.2723 9.3464 2.1968
-12.4323 9.0017 2.1830
-12.6046 8.6697 2.1730
-12.7795 8.3422 2.1649
-12.9561 8.0175 2.1584
-13.1458 7.7016 2.1554
-13.3703 7.4048 2.1592
-13.6495 7.1338 2.1727
-13.9293 6.8565 2.1871
-14.2088 6.5722 2.2022
-14.4692 6.2726 2.2151
-9.4911 3.8447 1.4362
-9.8086 3.6998 1.4681
-10.5578 3.6935 1.5640
-11.4151 3.6862 1.6747
-12.4052 3.6773 1.8036
-13.5694 3.6680 1.9563
-14.9557 3.6573 2.1394
-15.5662 3.4100 2.2108
-15.6135 3.0269 2.2029
-15.6543 2.6440 2.1955
-15.7121 2.2646 2.1917
-15.7670 1.8848 2.1888
-15.8167 1.5041 2.1864
-15.8611 1.1223 2.1845
-15.9176 0.7403 2.1856
-15.9577 0.3560 2.1856
-15.9845 -0.0297 2.1851
-16.0337 -0.4174 2.1889
-16.0820 -0.8078 2.1939
-16.1260 -1.2012 2.1995
-16.1350 -1.5947 2.2017
-16.1369 -1.9896 2.2042
-16.1241 -2.3848 2.2060
-12.4886 -2.1566 1.7124
-16.1263 -3.1878 2.2174
-16.0737 -3.5829 2.2177
-16.0148 -3.9782 2.2185
-15.9603 -4.3765 2.2213
-15.8915 -4.7733 2.2235
-15.8156 -5.1701 2.2261
-15.6888 -5.5515 2.2229
-15.5543 -5.9304 2.2199
-15.4662 -6.3288 2.2249
-15.3615 -6.7235 2.2291
-15.2873 -7.1358 2.2391
-15.2016 -7.5481 2.2491
-15.1161 -7.9664 2.2608
-14.9964 -8.3722 2.2690
-14.8483 -8.7664 2.2746
-14.7173 -9.1754 2.2844
-14.6041 -9.6021 2.2988
-14.4423 -10.0035 2.3073
-14.2535 -10.3908 2.3133
-14.0314 -10.7572 2.3155
-13.7974 -11.1168 2.3173
-12.4894 -10.5720 2.3218
-12.2456 -10.8838 2.3218
-11.9937 -11.1898 2.3218
-11.7339 -11.4896 2.3218
-11.4663 -11.7831 2.3218
-11.1912 -12.0701 2.3218
-10.9086 -12.3503 2.3218
-10.6186 -12.6236 2.3218
-10.2078 -12.7475 2.2962
-10.0176 -13.1484 2.3218
-9.7069 -13.3996 2.3218
-9.2963 -13.5073 2.2987
-8.9758 -13.7404 2.2987
-8.4177 -13.5916 2.2371
-8.3168 -14.1824 2.2987
-7.9787 -14.3909 2.2987
-7.6351 -14.5909 2.2987
-6.0870 -12.3491 1.9204
-5.8187 -12.5605 1.9294
-6.5737 -15.1379 2.2987
-6.2105 -15.3021 2.2987
-5.8430 -15.4571 2.2987
-5.4715 -15.6027 2.2987
-5.3011 -16.3718 2.3912
-4.9287 -16.5767 2.4018
-4.5294 -16.6987 2.4018
-4.1269 -16.8104 2.4018
-3.7215 -16.9117 2.4018
-3.3134 -17.0027 2.4018
-2.9031 -17.0831 2.4018
-2.4906 -17.1529 2.4018
-2.0765 -17.2121 2.4018
-1.6609 -17.2607 2.4018
-1.2440 -17.2985 2.4018
-0.8263 -17.3255 2.4018
-0.4080 -17.3418 2.4018
0.0106 -17.3474 2.4018
0.4292 -17.3421 2.4018
0.8476 -17.3260 2.4018
1.2653 -17.2991 2.4018
1.6822 -17.2615 2.4018
2.0980 -17.2132 2.4018
2.5122 -17.1542 2.4018
2.7990 -16.3501 2.2985
3.1919 -16.2733 2.2985
3.5826 -16.1864 2.2985
3.9708 -16.0896 2.2985
4.3562 -15.9828 2.2985
4.7386 -15.8662 2.2985
5.1177 -15.7399 2.2985
5.4319 -15.4294 2.2728
5.8651 -15.4584 2.2985
6.2328 -15.3035 2.2985
6.4336 -14.7660 2.2419
6.5886 -14.1771 2.1774
7.1208 -14.4023 2.2393
7.0940 -13.5167 2.1291
7.5891 -13.6490 2.1798
7.9705 -13.5540 2.1965
8.4763 -13.6492 2.2463
9.6573 -14.7445 2.4663
10.0237 -14.5265 2.4718
9.7095 -13.3688 2.3162
10.0198 -13.1181 2.3162
10.3233 -12.8597 2.3162
10.6200 -12.5940 2.3162
2.9499 -3.3316 0.6263
11.1917 -12.0413 2.3162
11.4665 -11.7547 2.3162
11.7337 -11.4615 2.3162
11.9931 -11.1621 2.3162
12.2447 -10.8565 2.3162
12.4882 -10.5450 2.3162
12.7235 -10.2279 2.3162
12.9505 -9.9053 2.3162
13.1691 -9.5776 2.3162
13.3791 -9.2449 2.3162
13.5806 -8.9074 2.3162
13.7733 -8.5654 2.3162
13.9572 -8.2193 2.3162
14.1321 -7.8690 2.3162
14.2982 -7.5150 2.3162
14.4551 -7.1575 2.3162
14.6030 -6.7966 2.3162
14.7416 -6.4328 2.3162
14.8711 -6.0661 2.3162
14.9913 -5.6968 2.3162
15.1022 -5.3252 2.3162
15.2038 -4.9516 2.3162
15.2961 -4.5761 2.3162
13.9141 -3.7989 2.0956
14.1424 -3.4965 2.1198
15.5166 -3.4409 2.3162
15.5714 -3.0604 2.3162
15.6168 -2.6792 2.3162
15.6529 -2.2976 2.3162
15.6796 -1.9159 2.3162
15.6970 -1.5341 2.3162
15.7052 -1.1527 2.3162
15.7042 -0.7717 2.3162
15.6939 -0.3914 2.3162
15.6745 -0.0121 2.3162
15.6461 0.3661 2.3162
15.6086 0.7429 2.3162
15.5621 1.1181 2.3162
15.5067 1.4915 2.3162
15.4425 1.8630 2.3162
15.3696 2.2322 2.3162
15.2879 2.5991 2.3162
15.1977 2.9633 2.3162
15.0990 3.3248 2.3162
14.9919 3.6833 2.3162
14.8765 4.0386 2.3162
14.7528 4.3906 2.3162
14.6211 4.7390 2.3162
14.4813 5.0837 2.3162
14.3337 5.4245 2.3162
14.1783 5.7613 2.3162
14.0153 6.0938 2.3162
13.8447 6.4220 2.3162
13.6667 6.7456 2.3162
13.4814 7.0645 2.3162
13.2889 7.3786 2.3162
13.0894 7.6876 2.3162
12.8830 7.9915 2.3162
12.6699 8.2902 2.3162
12.4501 8.5834 2.3162
12.2239 8.8710 2.3162
11.9913 9.1530 2.3162
11.7525 9.4291 2.3162
11.5076 9.6993 2.3162
11.2569 9.9634 2.3162
11.0003 10.2214 2.3162
10.7382 10.4730 2.3162
10.4707 10.7183 2.3162
10.1978 10.9571 2.3162
9.9198 11.1892 2.3162
9.6367 11.4147 2.3162
9.3489 11.6333 2.3162
9.0564 11.8452 2.3162
8.7593 12.0499 2.3162
8.4579 12.2477 2.3162
8.1523 12.4383 2.3162
7.8427 12.6217 2.3162
7.5292 12.7978 2.3162
7.2120 12.9665 2.3162
6.8913 13.1278 2.3162
6.5172 13.1805 2.2985
6.1923 13.3257 2.2985
5.8645 13.4633 2.2985
5.5338 13.5932 2.2985
5.2004 13.7156 2.2985
4.8645 13.8302 2.2985
4.5262 13.9370 2.2985
4.1858 14.0361 2.2985
3.8434 14.1274 2.2985
3.4991 14.2108 2.2985
3.1531 14.2863 2.2985
2.8056 14.3539 2.2985
2.4992 14.6623 2.3382
2.2013 15.1149 2.4018
1.8346 15.1605 2.4018
1.4669 15.1978 2.4018
1.0986 15.2267 2.4018
0.7297 15.2472 2.4018
0.3606 15.2593 2.4018
-0.0088 15.2630 2.4018
-0.3781 15.2583 2.4018
-0.7472 15.2452 2.4018
-1.1160 15.2237 2.4018
-1.4842 15.1938 2.4018
-1.8517 15.1556 2.4018
-2.2183 15.1090 2.4018
-2.5838 15.0540 2.4018
-2.9480 14.9908 2.4018
-3.3108 14.9192 2.4018
-3.6720 14.8394 2.4018
-4.0314 14.7513 2.4018
-4.3888 14.6551 2.4018
-4.7441 14.5507 2.4018
-5.0971 14.4381 2.4018
-5.4476 14.3175 2.4018
-5.5522 13.5933 2.3010
-5.8768 13.4491 2.2987
-6.2041 13.3107 2.2987
-6.5284 13.1648 2.2987
-6.8494 13.0115 2.2987
-7.1671 12.8507 2.2987
-7.4812 12.6826 2.2987
-7.7916 12.5072 2.2987
-8.0982 12.3246 2.2987
-8.4008 12.1348 2.2987
-8.6991 11.9380 2.2987
-8.9932 11.7342 2.2987
-9.2827 11.5235 2.2987
-9.5220 11.2523 2.2878
-9.5198 10.7129 2.2222
-9.5176 10.2024 2.1613
-9.5155 9.7180 2.1047
-9.5136 9.2570 2.0520
-9.5117 8.8175 2.0029
-9.5099 8.3974 1.9570
-9.4983 7.9867 1.9122
-9.5569 7.6492 1.8840
-9.7504 7.4245 1.8840
-11.9075 8.6201 2.2572
-9.9680 6.8550 1.8553
-9.9718 6.5081 1.8240
-10.0565 6.2219 1.8091
-10.2170 5.9845 1.8091
-10.3721 5.7432 1.8091
-13.1777 6.8857 2.2658
-13.4086 6.5987 2.2744
-13.6680 6.3205 2.2887
-13.9193 6.0326 2.3025
-9.4912 3.8436 1.5520
-9.8112 3.6997 1.5870
-10.5608 3.6934 1.6910
-11.4186 3.6860 1.8109
-12.4101 3.6774 1.9507
-13.5752 3.6682 2.1162
-14.7695 3.6101 2.2847
-14.8238 3.2458 2.2770
-14.8786 2.8828 2.2706
-14.9347 2.5208 2.2658
-14.9939 2.1595 2.2628
-15.0448 1.7969 2.2598
-15.1008 1.4344 2.2589
-15.1698 1.0718 2.2613
-15.2335 0.7069 2.2641
-15.2997 0.3397 2.2685
-15.3557 -0.0302 2.2728
-15.4041 -0.4026 2.2772
-15.4267 -0.7765 2.2791
-15.4367 -1.1515 2.2805
-15.4418 -1.5278 2.2825
-15.4188 -1.9027 2.2817
-15.3900 -2.2779 2.2814
-12.4874 -2.1578 1.8554
-15.2979 -3.0257 2.2797
-15.2238 -3.3951 2.2768
-15.1709 -3.7702 2.2783
-15.1102 -4.1451 2.2801
-15.0364 -4.5181 2.2813
-14.9446 -4.8870 2.2812
-14.8571 -5.2589 2.2831
-14.7498 -5.6254 2.2835
-14.6430 -5.9936 2.2853
-14.5474 -6.3689 2.2904
-14.4379 -6.7410 2.2948
-14.3317 -7.1179 2.3012
-14.2053 -7.4881 2.3060
-14.0389 -7.8393 2.3058
-13.8722 -8.1918 2.3071
-13.7259 -8.5590 2.3133
-13.5684 -8.9229 2.3192
-13.3754 -9.2662 2.3207
-13.1713 -9.6036 2.3218
-12.9524 -9.9317 2.3218
-12.7251 -10.2545 2.3218
-11.5656 -9.7917 2.3218
-11.3388 -10.0795 2.3218
-11.1046 -10.3619 2.3218
-10.8632 -10.6386 2.3218
-10.6146 -10.9094 2.3218
-10.3590 -11.1742 2.3218
-10.0966 -11.4326 2.3218
-9.8275 -11.6846 2.3218
-9.5518 -11.9300 2.3218
-9.1777 -12.0475 2.2987
-8.8924 -12.2768 2.2987
-8.6011 -12.4989 2.2987
-8.3040 -12.7137 2.2987
-8.0014 -12.9211 2.2987
-7.6934 -13.1209 2.2987
-7.3801 -13.3130 2.2987
-7.0619 -13.4971 2.2987
-6.0963 -12.3694 2.0795
-5.8387 -12.6052 2.0934
-6.0792 -14.0009 2.2987
-5.7431 -14.1521 2.2987
-5.4030 -14.2947 2.2987
-5.2861 -15.0758 2.4018
-4.9232 -15.2067 2.4018
-4.5570 -15.3283 2.4018
-4.1876 -15.4405 2.4018
-3.8154 -15.5433 2.4018
-3.4404 -15.6365 2.4018
-3.0631 -15.7202 2.4018
-2.6837 -15.7941 2.4018
-2.3024 -15.8584 2.4018
-1.9195 -15.9128 2.4018
-1.5353 -15.9575 2.4018
-1.1499 -15.9922 2.4018
-0.7638 -16.0171 2.4018
-0.3771 -16.0321 2.4018
0.0098 -16.0371 2.4018
0.3968 -16.0322 2.4018
0.7835 -16.0174 2.4018
1.1697 -15.9927 2.4018
1.5550 -15.9581 2.4018
1.9394 -15.9136 2.4018
2.3224 -15.8592 2.4018
2.7038 -15.7951 2.4018
2.9508 -15.0454 2.2985
3.3120 -14.9655 2.2985
3.6710 -14.8763 2.2985
4.0274 -14.7781 2.2985
4.3811 -14.6707 2.2985
4.7318 -14.5544 2.2985
5.0792 -14.4292 2.2985
5.4232 -14.2953 2.2985
5.7635 -14.1526 2.2985
6.0998 -14.0014 2.2985
6.4321 -13.8418 2.2985
7.0837 -14.3289 2.4087
7.0054 -13.3494 2.2733
7.4418 -13.3856 2.3110
7.7743 -13.2219 2.3162
8.0849 -13.0204 2.3162
8.3901 -12.8113 2.3162
8.6897 -12.5947 2.3162
8.9834 -12.3707 2.3162
9.2712 -12.1396 2.3162
9.5527 -11.9014 2.3162
9.8279 -11.6564 2.3162
2.9496 -3.3317 0.6766
10.3587 -11.1466 2.3162
10.6138 -10.8822 2.3162
10.8621 -10.6117 2.3162
11.1031 -10.3353 2.3162
11.3370 -10.0533 2.3162
11.5634 -9.7658 2.3162
11.7824 -9.4730 2.3162
11.9937 -9.1751 2.3162
12.1973 -8.8724 2.3162
12.3930 -8.5650 2.3162
12.5808 -8.2532 2.3162
12.7605 -7.9372 2.3162
12.9321 -7.6172 2.3162
13.0956 -7.2934 2.3162
13.2507 -6.9660 2.3162
13.3975 -6.6354 2.3162
13.5359 -6.3016 2.3162
13.6659 -5.9649 2.3162
13.7873 -5.6255 2.3162
13.9002 -5.2837 2.3162
14.0045 -4.9397 2.3162
14.1002 -4.5937 2.3162
14.1873 -4.2459 2.3162
13.9120 -3.7999 2.2587
14.1340 -3.4959 2.2836
14.3965 -3.1940 2.3162
14.4488 -2.8413 2.3162
14.4926 -2.4879 2.3162
14.5276 -2.1340 2.3162
14.5540 -1.7799 2.3162
14.5718 -1.4257 2.3162
14.5810 -1.0717 2.3162
14.5815 -0.7181 2.3162
14.5736 -0.3650 2.3162
14.5572 -0.0128 2.3162
14.5323 0.3385 2.3162
14.4990 0.6885 2.3162
14.4574 1.0372 2.3162
14.4075 1.3843 2.3162
14.3494 1.7296 2.3162
14.2831 2.0729 2.3162
14.2087 2.4141 2.3162
14.1263 2.7529 2.3162
14.0360 3.0892 2.3162
13.9379 3.4228 2.3162
13.8320 3.7535 2.3162
13.7184 4.0812 2.3162
13.5973 4.4056 2.3162
13.4686 4.7267 2.3162
13.3326 5.0441 2.3162
13.1894 5.3579 2.3162
13.0389 5.6678 2.3162
12.8814 5.9737 2.3162
12.7170 6.2754 2.3162
12.5457 6.5727 2.3162
12.3677 6.8656 2.3162
12.1831 7.1539 2.3162
11.9921 7.4374 2.3162
11.7947 7.7160 2.3162
11.5911 7.9897 2.3162
11.3814 8.2581 2.3162
11.1657 8.5213 2.3162
10.9443 8.7792 2.3162
10.7171 9.0315 2.3162
10.4844 9.2782 2.3162
10.2462 9.5191 2.3162
10.0028 9.7543 2.3162
9.7542 9.9834 2.3162
9.5007 10.2066 2.3162
9.2423 10.4236 2.3162
8.9792 10.6343 2.3162
8.7115 10.8388 2.3162
8.4395 11.0368 2.3162
8.1631 11.2283 2.3162
7.8827 11.4133 2.3162
7.5983 11.5915 2.3162
7.3101 11.7631 2.3162
7.0183 11.9279 2.3162
6.7229 12.0857 2.3162
6.3754 12.1435 2.2985
6.0758 12.2864 2.2985
5.7732 12.4222 2.2985
5.4678 12.5510 2.2985
5.1596 12.6727 2.2985
4.8490 12.7872 2.2985
4.5359 12.8946 2.2985
4.2207 12.9946 2.2985
3.9033 13.0874 2.2985
3.5841 13.1729 2.2985
3.2631 13.2510 2.2985
2.9405 13.3217 2.2985
2.6165 13.3850 2.2985
2.3941 14.0446 2.4018
2.0531 14.0952 2.4018
1.7110 14.1379 2.4018
1.3682 14.1728 2.4018
1.0246 14.1999 2.4018
0.6806 14.2191 2.4018
0.3363 14.2305 2.4018
-0.0082 14.2340 2.4018
-0.3526 14.2296 2.4018
-0.6969 14.2173 2.4018
-1.0409 14.1972 2.4018
-1.3843 14.1693 2.4018
-1.7270 14.1335 2.4018
-2.0688 14.0898 2.4018
-2.4097 14.0384 2.4018
-2.7493 13.9792 2.4018
-3.0876 13.9122 2.4018
-3.4244 13.8374 2.4018
-3.7595 13.7550 2.4018
-4.0927 13.6649 2.4018
-4.4239 13.5672 2.4018
-4.7529 13.4618 2.4018
-5.0796 13.3489 2.4018
-5.4037 13.2285 2.4018
-5.5395 12.6757 2.3239
-5.7844 12.4088 2.2987
-6.0865 12.2723 2.2987
-6.3855 12.1288 2.2987
-6.6814 11.9784 2.2987
-6.9739 11.8211 2.2987
-7.2629 11.6570 2.2987
-7.5483 11.4862 2.2987
-7.8299 11.3088 2.2987
-8.1075 11.1247 2.2987
-8.3811 10.9342 2.2987
-8.6503 10.7372 2.2987
-8.9153 10.5339 2.2987
-9.1757 10.3243 2.2987
-9.4314 10.1086 2.2987
-9.5155 9.7165 2.2591
-9.5136 9.2557 2.2027
-9.5117 8.8161 2.1501
-9.5099 8.3961 2.1010
-9.5082 7.9938 2.0552
-9.5066 7.6077 2.0123
-9.5050 7.2364 1.9722
-9.5035 6.8786 1.9347
-9.4921 6.5265 1.8975
-9.5895 6.2574 1.8840
-9.7494 6.0307 1.8840
-9.9598 5.8327 1.8946
-9.9572 5.5122 1.8660
-10.2770 5.3688 1.8987
-12.7355 6.2659 2.3213
-12.9022 5.9649 2.3218
-13.0593 5.6584 2.3218
-9.4913 3.8426 1.6683
-9.8138 3.6996 1.7065
-10.5639 3.6932 1.8185
-11.4221 3.6859 1.9477
-12.4150 3.6775 2.0984
-13.8499 3.7408 2.3218
-13.9553 3.4096 2.3218
-14.0530 3.0755 2.3218
-14.1429 2.7388 2.3218
-14.2248 2.3995 2.3218
-14.2987 2.0579 2.3218
-14.3503 1.7124 2.3195
-14.3939 1.3657 2.3172
-14.4286 1.0179 2.3149
-14.4573 0.6693 2.3129
-14.5076 0.3206 2.3157
-14.5275 -0.0301 2.3150
-14.5403 -0.3815 2.3145
-14.5522 -0.7340 2.3152
-14.5352 -1.0858 2.3126
-14.5106 -1.4372 2.3102
-14.4877 -1.7893 2.3095
-14.4640 -2.1423 2.3100
-12.4861 -2.1589 1.9989
-14.3711 -2.8439 2.3077
-14.3125 -3.1934 2.3067
-14.2508 -3.5431 2.3066
-14.1870 -3.8933 2.3076
-14.1153 -4.2428 2.3087
-14.0356 -4.5914 2.3099
-13.9481 -4.9387 2.3112
-13.8525 -5.2847 2.3126
-13.7491 -5.6293 2.3142
-13.6377 -5.9722 2.3159
-13.5183 -6.3132 2.3177
-13.3910 -6.6523 2.3197
-13.2558 -6.9892 2.3218
-13.1005 -7.3169 2.3218
-12.9368 -7.6410 2.3218
-12.7648 -7.9613 2.3218
-12.5847 -8.2776 2.3218
-12.3966 -8.5897 2.3218
-12.2005 -8.8974 2.3218
-11.9966 -9.2004 2.3218
-11.7849 -9.4985 2.3218
-10.7665 -9.1166 2.3218
-10.5545 -9.3838 2.3218
-10.3358 -9.6460 2.3218
-10.1103 -9.9028 2.3218
-9.8782 -10.1541 2.3218
-9.6396 -10.3997 2.3218
-9.3014 -10.5337 2.2987
-9.0528 -10.7651 2.2987
-8.7983 -10.9904 2.2987
-8.5381 -11.2094 2.2987
-8.2721 -11.4220 2.2987
-8.0007 -11.6279 2.2987
-7.7239 -11.8270 2.2987
-7.4420 -12.0193 2.2987
-7.1551 -12.2045 2.2987
-6.8634 -12.3824 2.2987
-6.5671 -12.5531 2.2987
-6.2664 -12.7163 2.2987
-5.9615 -12.8718 2.2987
-5.6525 -13.0197 2.2987
-5.3398 -13.1598 2.2987
-5.2486 -13.8880 2.4018
-4.9145 -14.0176 2.4018
-4.5770 -14.1388 2.4018
-4.2364 -14.2514 2.4018
-3.8929 -14.3553 2.4018
-3.5467 -14.4504 2.4018
-3.1981 -14.5367 2.4018
-2.8473 -14.6142 2.4018
-2.4946 -14.6826 2.4018
-2.1401 -14.7421 2.4018
-1.7842 -14.7925 2.4018
-1.4270 -14.8338 2.4018
-1.0688 -14.8659 2.4018
-0.7099 -14.8889 2.4018
-0.3505 -14.9028 2.4018
0.0091 -14.9074 2.4018
0.3688 -14.9029 2.4018
0.7282 -14.8891 2.4018
1.0872 -14.8662 2.4018
1.4454 -14.8342 2.4018
1.8026 -14.7929 2.4018
2.1587 -14.7426 2.4018
2.5132 -14.6833 2.4018
2.7428 -13.9866 2.2985
3.0787 -13.9126 2.2985
3.4124 -13.8300 2.2985
3.7438 -13.7390 2.2985
4.0727 -13.6396 2.2985
4.3988 -13.5319 2.2985
4.7220 -13.4160 2.2985
5.0420 -13.2919 2.2985
5.3585 -13.1597 2.2985
5.6715 -13.0197 2.2985
5.9806 -12.8718 2.2985
6.2857 -12.7161 2.2985
6.5866 -12.5529 2.2985
6.9359 -12.4771 2.3162
7.2300 -12.2977 2.3162
7.5193 -12.1110 2.3162
7.8035 -11.9171 2.3162
8.0826 -11.7163 2.3162
8.3563 -11.5087 2.3162
8.6245 -11.2943 2.3162
8.8870 -11.0734 2.3162
9.1436 -10.8462 2.3162
2.9493 -3.3319 0.7272
9.6387 -10.3733 2.3162
9.8768 -10.1280 2.3162
10.1085 -9.8770 2.3162
10.3336 -9.6205 2.3162
10.5520 -9.3587 2.3162
10.7636 -9.0917 2.3162
10.9682 -8.8198 2.3162
11.1658 -8.5432 2.3162
11.3562 -8.2620 2.3162
11.5394 -7.9765 2.3162
11.7152 -7.6869 2.3162
11.8836 -7.3932 2.3162
12.0444 -7.0958 2.3162
12.1977 -6.7948 2.3162
12.3433 -6.4904 2.3162
12.4811 -6.1830 2.3162
12.6112 -5.8725 2.3162
12.7334 -5.5593 2.3162
12.8477 -5.2436 2.3162
12.9541 -4.9255 2.3162
13.0524 -4.6054 2.3162
13.1428 -4.2833 2.3162
13.2252 -3.9594 2.3162
13.2995 -3.6341 2.3162
13.3658 -3.3075 2.3162
13.4240 -2.9797 2.3162
13.4741 -2.6510 2.3162
13.5161 -2.3217 2.3162
13.5501 -1.9919 2.3162
13.5760 -1.6617 2.3162
13.5938 -1.3315 2.3162
13.6037 -1.0013 2.3162
13.6055 -0.6714 2.3162
13.5994 -0.3421 2.3162
13.5853 -0.0134 2.3162
13.5634 0.3145 2.3162
13.5336 0.6413 2.3162
13.4960 0.9668 2.3162
13.4507 1.2909 2.3162
13.3976 1.6134 2.3162
13.3369 1.9342 2.3162
13.2687 2.2530 2.3162
13.1930 2.5696 2.3162
13.1098 2.8840 2.3162
13.0193 3.1958 2.3162
12.9215 3.5050 2.3162
12.8166 3.8115 2.3162
12.7045 4.1149 2.3162
12.5854 4.4153 2.3162
12.4594 4.7123 2.3162
12.3265 5.0060 2.3162
12.1870 5.2960 2.3162
12.0407 5.5824 2.3162
11.8880 5.8649 2.3162
11.7288 6.1433 2.3162
11.5633 6.4177 2.3162
11.3916 6.6877 2.3162
11.2139 6.9533 2.3162
11.0301 7.2144 2.3162
10.8405 7.4709 2.3162
10.6452 7.7225 2.3162
10.4442 7.9693 2.3162
10.2377 8.2110 2.3162
10.0259 8.4476 2.3162
9.8088 8.6790 2.3162
9.5867 8.9050 2.3162
9.3595 9.1256 2.3162
9.1275 9.3406 2.3162
8.8908 9.5500 2.3162
8.6495 9.7536 2.3162
8.4037 9.9514 2.3162
8.1537 10.1433 2.3162
7.8995 10.3292 2.3162
7.6412 10.5090 2.3162
7.3791 10.6827 2.3162
7.1132 10.8501 2.3162
6.8438 11.0112 2.3162
6.5208 11.0810 2.2985
6.2467 11.2282 2.2985
5.9694 11.3689 2.2985
5.6891 11.5031 2.2985
5.4060 11.6308 2.2985
5.1202 11.7518 2.2985
4.8318 11.8661 2.2985
4.5410 11.9738 2.2985
4.2480 12.0746 2.2985
3.9529 12.1687 2.2985
3.6557 12.2559 2.2985
3.3568 12.3362 2.2985
3.0563 12.4096 2.2985
2.7542 12.4761 2.2985
2.5111 12.8442 2.3551
2.2425 13.1536 2.4018
1.9231 13.2012 2.4018
1.6027 13.2414 2.4018
1.2816 13.2742 2.4018
0.9598 13.2997 2.4018
0.6376 13.3178 2.4018
0.3150 13.3285 2.4018
-0.0076 13.3318 2.4018
-0.3303 13.3277 2.4018
-0.6528 13.3162 2.4018
-0.9750 13.2973 2.4018
-1.2966 13.2710 2.4018
-1.6176 13.2374 2.4018
-1.9378 13.1964 2.4018
-2.2571 13.1480 2.4018
-2.5752 13.0924 2.4018
-2.8920 13.0294 2.4018
-3.2074 12.9592 2.4018
-3.5212 12.8817 2.4018
-3.8332 12.7970 2.4018
-4.1433 12.7052 2.4018
-4.4513 12.6062 2.4018
-4.7571 12.5001 2.4018
-5.0605 12.3869 2.4018
-5.3614 12.2668 2.4018
-5.5279 11.8572 2.3459
-5.7159 11.5238 2.3054
-5.9791 11.3556 2.2987
-6.2559 11.2143 2.2987
-6.5295 11.0666 2.2987
-6.7998 10.9125 2.2987
-7.0667 10.7521 2.2987
-7.3300 10.5854 2.2987
-7.5895 10.4126 2.2987
-7.8452 10.2337 2.2987
-8.0969 10.0488 2.2987
-8.3444 9.8580 2.2987
-8.5876 9.6613 2.2987
-8.8264 9.4588 2.2987
-9.0607 9.2507 2.2987
-9.2902 9.0370 2.2987
-9.5117 8.8148 2.2979
-9.5099 8.3948 2.2456
-9.5082 7.9925 2.1967
-9.5065 7.6064 2.1511
-9.5050 7.2351 2.1083
-9.5035 6.8774 2.0683
-9.5020 6.5321 2.0309
-9.5006 6.1982 1.9958
-9.4992 5.8748 1.9629
-9.4979 5.5610 1.9321
-9.4866 5.2506 1.9013
-9.5345 4.9798 1.8840
-9.6634 4.7533 1.8840
-12.0612 5.5747 2.3218
-12.2071 5.2877 2.3218
-9.4914 3.8416 1.7849
-9.8165 3.6995 1.8264
-10.5669 3.6931 1.9465
-11.4256 3.6858 2.0850
-12.4199 3.6776 2.2467
-12.9394 3.4935 2.3218
-13.0368 3.1838 2.3218
-13.1269 2.8714 2.3218
-13.2097 2.5567 2.3218
-13.2850 2.2396 2.3218
-13.3529 1.9204 2.3218
-13.4131 1.5992 2.3218
-13.4657 1.2762 2.3218
-13.5107 0.9517 2.3218
-13.5479 0.6258 2.3218
-13.5773 0.2986 2.3218
-13.5988 -0.0296 2.3218
-13.6125 -0.3586 2.3218
-13.6044 -0.6876 2.3194
-13.6022 -1.0175 2.3194
-13.5923 -1.3477 2.3195
-13.5748 -1.6780 2.3196
-13.5495 -2.0083 2.3198
-12.4848 -2.1600 2.1429
-13.4681 -2.6667 2.3190
-13.4217 -2.9961 2.3197
-13.3678 -3.3250 2.3205
-13.3065 -3.6532 2.3214
-13.2341 -3.9794 2.3218
-13.1514 -4.3036 2.3218
-13.0607 -4.6260 2.3218
-12.9619 -4.9464 2.3218
-12.8552 -5.2648 2.3218
-12.7405 -5.5808 2.3218
-12.6180 -5.8942 2.3218
-12.4875 -6.2050 2.3218
-12.3493 -6.5127 2.3218
-12.2034 -6.8173 2.3218
-12.0498 -7.1186 2.3218
-11.8886 -7.4163 2.3218
-11.7199 -7.7102 2.3218
-11.5437 -8.0002 2.3218
-11.3602 -8.2861 2.3218
-11.1694 -8.5675 2.3218
-10.9715 -8.8444 2.3218
-10.0682 -8.5267 2.3218
-9.8693 -8.7760 2.3218
-9.6641 -9.0205 2.3218
-9.3586 -9.1679 2.2987
-9.1432 -9.4000 2.2987
-8.9219 -9.6267 2.2987
-8.6947 -9.8481 2.2987
-8.4619 -10.0638 2.2987
-8.2236 -10.2738 2.2987
-7.9798 -10.4779 2.2987
-7.7308 -10.6760 2.2987
-7.4768 -10.8679 2.2987
-7.2178 -11.0534 2.2987
-6.9540 -11.2325 2.2987
-6.6856 -11.4050 2.2987
-6.4128 -11.5708 2.2987
-6.1357 -11.7297 2.2987
-5.8545 -11.8817 2.2987
-5.5693 -12.0265 2.2987
-5.3393 -12.2997 2.3243
-5.2118 -12.8460 2.4018
-4.9028 -12.9745 2.4018
-4.5906 -13.0952 2.4018
-4.2752 -13.2080 2.4018
-3.9569 -13.3127 2.4018
-3.6360 -13.4094 2.4018
-3.3125 -13.4980 2.4018
-2.9869 -13.5783 2.4018
-2.6592 -13.6504 2.4018
-2.3297 -13.7140 2.4018
-1.9986 -13.7694 2.4018
-1.6662 -13.8162 2.4018
-1.3326 -13.8547 2.4018
-0.9981 -13.8846 2.4018
-0.6630 -13.9060 2.4018
-0.3273 -13.9188 2.4018
0.0086 -13.9231 2.4018
0.3444 -13.9189 2.4018
0.6801 -13.9061 2.4018
1.0153 -13.8848 2.4018
1.3499 -13.8549 2.4018
1.6835 -13.8165 2.4018
2.0160 -13.7697 2.4018
2.3472 -13.7144 2.4018
2.6767 -13.6508 2.4018
2.8753 -12.9950 2.2985
3.1871 -12.9182 2.2985
3.4967 -12.8334 2.2985
3.8040 -12.7409 2.2985
4.1087 -12.6406 2.2985
4.4107 -12.5327 2.2985
4.7097 -12.4172 2.2985
5.0055 -12.2941 2.2985
5.2980 -12.1637 2.2985
5.5870 -12.0260 2.2985
5.8723 -11.8811 2.2985
6.1536 -11.7290 2.2985
6.4309 -11.5700 2.2985
6.7039 -11.4042 2.2985
7.0259 -11.3177 2.3162
7.2918 -11.1371 2.3162
7.5530 -10.9500 2.3162
7.8092 -10.7564 2.3162
8.0602 -10.5567 2.3162
8.3060 -10.3508 2.3162
8.5463 -10.1390 2.3162
2.9490 -3.3320 0.7779
9.0100 -9.6981 2.3162
9.2332 -9.4694 2.3162
9.4504 -9.2353 2.3162
9.6615 -8.9961 2.3162
9.8663 -8.7519 2.3162
10.0648 -8.5028 2.3162
10.2568 -8.2492 2.3162
10.4423 -7.9910 2.3162
10.6211 -7.7286 2.3162
10.7932 -7.4621 2.3162
10.9584 -7.1917 2.3162
11.1167 -6.9175 2.3162
11.2680 -6.6397 2.3162
11.4123 -6.3586 2.3162
11.5494 -6.0744 2.3162
11.6792 -5.7871 2.3162
11.8018 -5.4970 2.3162
11.9171 -5.2043 2.3162
12.0250 -4.9092 2.3162
12.1256 -4.6119 2.3162
12.2187 -4.3125 2.3162
12.3043 -4.0113 2.3162
12.3824 -3.7085 2.3162
12.4530 -3.4041 2.3162
12.5160 -3.0985 2.3162
12.5716 -2.7918 2.3162
12.6195 -2.4843 2.3162
12.6599 -2.1760 2.3162
12.6928 -1.8672 2.3162
12.7181 -1.5581 2.3162
12.7359 -1.2488 2.3162
12.7461 -0.9395 2.3162
12.7489 -0.6305 2.3162
12.7442 -0.3219 2.3162
12.7321 -0.0139 2.3162
12.7126 0.2934 2.3162
12.6857 0.5997 2.3162
12.6515 0.9050 2.3162
12.6100 1.2089 2.3162
12.5613 1.5114 2.3162
12.5055 1.8123 2.3162
12.4425 2.1113 2.3162
12.3724 2.4085 2.3162
12.2954 2.7035 2.3162
12.2115 2.9962 2.3162
12.1207 3.2865 2.3162
12.0232 3.5742 2.3162
11.9190 3.8592 2.3162
11.8081 4.1413 2.3162
11.6908 4.4203 2.3162
11.5670 4.6962 2.3162
11.4368 4.9687 2.3162
11.3004 5.2378 2.3162
11.1579 5.5033 2.3162
11.0092 5.7651 2.3162
10.8547 6.0230 2.3162
10.6942 6.2770 2.3162
10.5281 6.5268 2.3162
10.3562 6.7723 2.3162
10.1789 7.0136 2.3162
9.9961 7.2503 2.3162
9.8080 7.4825 2.3162
9.6147 7.7100 2.3162
9.4163 7.9327 2.3162
9.2130 8.1505 2.3162
9.0048 8.3632 2.3162
8.7920 8.5709 2.3162
8.5745 8.7734 2.3162
8.3526 8.9705 2.3162
8.1263 9.1623 2.3162
7.8958 9.3486 2.3162
7.6613 9.5294 2.3162
7.4227 9.7045 2.3162
7.1804 9.8740 2.3162
6.9344 10.0376 2.3162
6.6849 10.1954 2.3162
6.3829 10.2685 2.2985
6.1286 10.4132 2.2985
5.8712 10.5519 2.2985
5.6108 10.6846 2.2985
5.3475 10.8111 2.2985
5.0816 10.9314 2.2985
4.8131 11.0456 2.2985
4.5421 11.1534 2.2985
4.2689 11.2549 2.2985
3.9935 11.3500 2.2985
3.7162 11.4387 2.2985
3.4369 11.5210 2.2985
3.1560 11.5967 2.2985
2.8734 11.6660 2.2985
2.5895 11.7287 2.2985
2.4077 12.3142 2.4018
2.1085 12.3660 2.4018
1.8082 12.4109 2.4018
1.5070 12.4488 2.4018
1.2050 12.4798 2.4018
0.9025 12.5039 2.4018
0.5995 12.5209 2.4018
0.2962 12.5310 2.4018
-0.0072 12.5341 2.4018
-0.3106 12.5303 2.4018
-0.6138 12.5194 2.4018
-0.9167 12.5017 2.4018
-1.2192 12.4769 2.4018
-1.5210 12.4451 2.4018
-1.8220 12.4065 2.4018
-2.1222 12.3609 2.4018
-2.4212 12.3084 2.4018
-2.7191 12.2490 2.4018
-3.0156 12.1828 2.4018
-3.3105 12.1098 2.4018
-3.6038 12.0299 2.4018
-3.8952 11.9433 2.4018
-4.1847 11.8500 2.4018
-4.4721 11.7499 2.4018
-4.7572 11.6433 2.4018
-5.0399 11.5300 2.4018
-5.3201 11.4102 2.4018
-5.5214 11.1304 2.3691
-5.6201 10.6725 2.2987
-5.8801 10.5393 2.2987
-6.1370 10.4001 2.2987
-6.3908 10.2548 2.2987
-6.6414 10.1037 2.2987
-6.8885 9.9466 2.2987
-7.1321 9.7838 2.2987
-7.3721 9.6153 2.2987
-7.6082 9.4411 2.2987
-7.8404 9.2613 2.2987
-8.0686 9.0761 2.2987
-8.2925 8.8854 2.2987
-8.5122 8.6894 2.2987
-8.7274 8.4882 2.2987
-8.9380 8.2819 2.2987
-9.1440 8.0705 2.2987
-9.3451 7.8542 2.2987
-9.5065 7.6051 2.2903
-9.5050 7.2339 2.2449
-9.5035 6.8762 2.2025
-9.5020 6.5309 2.1627
-9.5006 6.1970 2.1255
-9.4992 5.8736 2.0906
-9.4979 5.5598 2.0580
-9.4966 5.2550 2.0274
-9.4953 4.9582 1.9988
-9.4941 4.6689 1.9720
-9.4929 4.3865 1.9470
-9.4917 4.1105 1.9236
-9.4915 3.8405 1.9020
-9.8192 3.6994 1.9469
-10.5700 3.6930 2.0750
-11.4292 3.6857 2.2229
-12.0413 3.5641 2.3218
-12.1384 3.2759 2.3218
-12.2289 2.9852 2.3218
-12.3124 2.6919 2.3218
-12.3891 2.3965 2.3218
-12.4588 2.0989 2.3218
-12.5214 1.7994 2.3218
-12.5769 1.4981 2.3218
-12.6252 1.1952 2.3218
-12.6663 0.8909 2.3218
-12.7002 0.5853 2.3218
-12.7267 0.2786 2.3218
-12.7458 -0.0291 2.3218
-12.7576 -0.3374 2.3218
-12.7619 -0.6464 2.3218
-12.7588 -0.9558 2.3218
-12.7481 -1.2654 2.3218
-12.7300 -1.5750 2.3218
-12.7043 -1.8844 2.3218
-12.4835 -2.1611 2.2874
-12.6303 -2.5021 2.3218
-12.5820 -2.8100 2.3218
-12.5261 -3.1170 2.3218
-12.4627 -3.4229 2.3218
-12.3917 -3.7275 2.3218
-12.3133 -4.0307 2.3218
-12.2273 -4.3322 2.3218
-12.1339 -4.6318 2.3218
-12.0330 -4.9294 2.3218
-11.9248 -5.2248 2.3218
-11.8091 -5.5178 2.3218
-11.6862 -5.8081 2.3218
-11.5559 -6.0957 2.3218
-11.4185 -6.3802 2.3218
-11.2739 -6.6616 2.3218
-11.1223 -6.9396 2.3218
-10.9636 -7.2141 2.3218
-10.7980 -7.4848 2.3218
-10.6256 -7.7517 2.3218
-10.4464 -8.0144 2.3218
-10.2606 -8.2728 2.3218
-9.3586 -7.9271 2.2987
-9.1732 -8.1583 2.2987
-8.9819 -8.3851 2.2987
-8.7849 -8.6072 2.2987
-8.5822 -8.8245 2.2987
-8.3740 -9.0369 2.2987
-8.1604 -9.2442 2.2987
-7.9414 -9.4462 2.2987
-7.7174 -9.6428 2.2987
-7.4883 -9.8338 2.2987
-7.2543 -10.0192 2.2987
-7.0155 -10.1988 2.2987
-6.7722 -10.3724 2.2987
-6.5244 -10.5400 2.2987
-6.2723 -10.7014 2.2987
-6.0161 -10.8565 2.2987
-5.7559 -11.0052 2.2987
-5.4919 -11.1473 2.2987
-5.3398 -11.5323 2.3495
-5.1753 -11.9233 2.4018
-4.8886 -12.0507 2.4018
-4.5986 -12.1709 2.4018
-4.3056 -12.2838 2.4018
-4.0097 -12.3892 2.4018
-3.7111 -12.4872 2.4018
-3.4100 -12.5776 2.4018
-3.1066 -12.6603 2.4018
-2.8012 -12.7354 2.4018
-2.4938 -12.8028 2.4018
-2.1848 -12.8623 2.4018
-1.8743 -12.9140 2.4018
-1.5625 -12.9578 2.4018
-1.2497 -12.9937 2.4018
-0.9360 -13.0217 2.4018
-0.6217 -13.0416 2.4018
-0.3069 -13.0536 2.4018
0.0080 -13.0577 2.4018
0.3230 -13.0537 2.4018
0.6378 -13.0417 2.4018
0.9521 -13.0218 2.4018
1.2658 -12.9938 2.4018
1.5787 -12.9580 2.4018
1.8905 -12.9142 2.4018
2.2011 -12.8625 2.4018
2.5102 -12.8029 2.4018
2.7201 -12.2947 2.3186
2.9889 -12.1163 2.2985
3.2794 -12.0370 2.2985
3.5676 -11.9505 2.2985
3.8535 -11.8567 2.2985
4.1368 -11.7558 2.2985
4.4174 -11.6477 2.2985
4.6950 -11.5327 2.2985
4.9695 -11.4107 2.2985
5.2407 -11.2819 2.2985
5.5085 -11.1463 2.2985
5.7726 -11.0041 2.2985
3.1042 -5.5856 1.1827
6.2892 -10.7001 2.2985
6.5414 -10.5386 2.2985
6.8414 -10.4504 2.3162
7.0867 -10.2753 2.3162
7.3274 -10.0942 2.3162
7.5633 -9.9072 2.3162
7.7943 -9.7145 2.3162
8.0202 -9.5162 2.3162
2.9487 -3.3321 0.8287
8.4563 -9.1034 2.3162
8.6662 -8.8892 2.3162
8.8705 -8.6699 2.3162
9.0692 -8.4459 2.3162
9.2620 -8.2171 2.3162
9.4489 -7.9838 2.3162
9.6297 -7.7461 2.3162
9.8045 -7.5042 2.3162
9.9730 -7.2583 2.3162
10.1352 -7.0085 2.3162
10.2910 -6.7549 2.3162
10.4403 -6.4979 2.3162
10.5831 -6.2374 2.3162
10.7193 -5.9738 2.3162
10.8487 -5.7072 2.3162
10.9715 -5.4377 2.3162
11.0874 -5.1655 2.3162
11.1965 -4.8909 2.3162
11.2987 -4.6140 2.3162
11.3939 -4.3349 2.3162
11.4822 -4.0539 2.3162
11.5635 -3.7711 2.3162
11.6377 -3.4867 2.3162
11.7049 -3.2009 2.3162
11.7650 -2.9139 2.3162
11.8181 -2.6258 2.3162
11.8640 -2.3368 2.3162
11.9029 -2.0471 2.3162
11.9346 -1.7569 2.3162
11.9593 -1.4664 2.3162
11.9769 -1.1756 2.3162
11.9875 -0.8849 2.3162
11.9909 -0.5943 2.3162
11.9874 -0.3041 2.3162
11.9769 -0.0143 2.3162
11.9594 0.2748 2.3162
11.9350 0.5630 2.3162
11.9036 0.8502 2.3162
11.8655 1.1363 2.3162
11.8205 1.4210 2.3162
11.7687 1.7042 2.3162
11.7103 1.9858 2.3162
11.6452 2.2656 2.3162
11.5736 2.5435 2.3162
11.4954 2.8192 2.3162
11.4107 3.0927 2.3162
11.3196 3.3638 2.3162
11.2223 3.6323 2.3162
11.1187 3.8982 2.3162
11.0089 4.1612 2.3162
10.8930 4.4213 2.3162
10.7712 4.6783 2.3162
10.6434 4.9320 2.3162
10.5098 5.1824 2.3162
10.3705 5.4293 2.3162
10.2255 5.6726 2.3162
10.0750 5.9122 2.3162
9.9190 6.1479 2.3162
9.7577 6.3797 2.3162
9.5911 6.6073 2.3162
9.4194 6.8308 2.3162
9.2427 7.0500 2.3162
9.0610 7.2647 2.3162
8.8746 7.4750 2.3162
8.6834 7.6807 2.3162
8.4876 7.8816 2.3162
8.2874 8.0778 2.3162
8.0828 8.2690 2.3162
7.8740 8.4553 2.3162
7.6610 8.6365 2.3162
7.4441 8.8125 2.3162
7.2232 8.9834 2.3162
6.9987 9.1489 2.3162
6.7705 9.3090 2.3162
6.4890 9.3916 2.2985
6.2557 9.5396 2.2985
6.0192 9.6821 2.2985
5.7796 9.8189 2.2985
5.5370 9.9501 2.2985
5.2916 10.0755 2.2985
5.0435 10.1952 2.2985
4.7928 10.3090 2.2985
4.5397 10.4169 2.2985
4.2842 10.5189 2.2985
4.0266 10.6149 2.2985
3.7670 10.7048 2.2985
3.5054 10.7887 2.2985
3.2421 10.8666 2.2985
2.9771 10.9382 2.2985
2.7107 11.0038 2.2985
2.5224 11.4238 2.3735
2.2714 11.6156 2.4018
1.9891 11.6646 2.4018
1.7058 11.7070 2.4018
1.4217 11.7430 2.4018
1.1368 11.7723 2.4018
0.8514 11.7950 2.4018
0.5656 11.8112 2.4018
0.2795 11.8208 2.4018
-0.0067 11.8237 2.4018
-0.2930 11.8201 2.4018
-0.5790 11.8098 2.4018
-0.8648 11.7930 2.4018
-1.1502 11.7696 2.4018
-1.4349 11.7396 2.4018
-1.7189 11.7030 2.4018
-2.0020 11.6599 2.4018
-2.2841 11.6103 2.4018
-2.5651 11.5541 2.4018
-2.8447 11.4915 2.4018
-3.1229 11.4224 2.4018
-3.3995 11.3468 2.4018
-3.6744 11.2649 2.4018
-3.9474 11.1766 2.4018
-4.2184 11.0821 2.4018
-4.4872 10.9812 2.4018
-4.7537 10.8741 2.4018
-5.0179 10.7608 2.4018
-5.2794 10.6413 2.4018
-5.5161 10.4738 2.3922
-5.5455 9.9385 2.2987
-5.7877 9.8069 2.2987
-6.0268 9.6696 2.2987
-6.2629 9.5267 2.2987
-6.4957 9.3783 2.2987
-6.7252 9.2244 2.2987
-6.9512 9.0651 2.2987
-7.1735 8.9005 2.2987
-7.3922 8.7306 2.2987
-7.6069 8.5556 2.2987
-7.8177 8.3755 2.2987
-8.0244 8.1903 2.2987
-8.2269 8.0003 2.2987
-8.4251 7.8054 2.2987
-8.6188 7.6057 2.2987
-8.8079 7.4014 2.2987
-8.9924 7.1926 2.2987
-9.1721 6.9793 2.2987
-9.3469 6.7617 2.2987
-9.5020 6.5297 2.2951
-9.5006 6.1958 2.2558
-9.4992 5.8724 2.2189
-9.4978 5.5587 2.1843
-9.4966 5.2538 2.1520
-9.4953 4.9571 2.1217
-9.4941 4.6678 2.0934
-9.4929 4.3854 2.0670
-9.4917 4.1094 2.0423
-9.4916 3.8395 2.0196
-9.8218 3.6993 2.0679
-10.5730 3.6929 2.2042
-11.2404 3.6236 2.3218
-11.3374 3.3546 2.3218
-11.4282 3.0830 2.3218
-11.5125 2.8090 2.3218
-11.5904 2.5328 2.3218
-11.6617 2.2545 2.3218
-11.7265 1.9743 2.3218
-11.7846 1.6923 2.3218
-11.8360 1.4086 2.3218
-11.8806 1.1235 2.3218
-11.9184 0.8370 2.3218
-11.9494 0.5494 2.3218
-11.9735 0.2608 2.3218
-11.9907 -0.0286 2.3218
-12.0008 -0.3187 2.3218
-12.0040 -0.6093 2.3218
-12.0002 -0.9002 2.3218
-11.9893 -1.1913 2.3218
-11.9714 -1.4824 2.3218
-11.9464 -1.7733 2.3218
-11.9142 -2.0638 2.3218
-11.8750 -2.3538 2.3218
-11.8287 -2.6431 2.3218
-11.7754 -2.9315 2.3218
-11.7149 -3.2188 2.3218
-11.6474 -3.5049 2.3218
-11.5728 -3.7896 2.3218
-11.4912 -4.0726 2.3218
-11.4026 -4.3539 2.3218
-11.3070 -4.6333 2.3218
-11.2045 -4.9105 2.3218
-11.0950 -5.1854 2.3218
-10.9788 -5.4579 2.3218
-10.8557 -5.7276 2.3218
-10.7258 -5.9945 2.3218
-10.5893 -6.2584 2.3218
-10.4462 -6.5191 2.3218
-10.2965 -6.7765 2.3218
-10.1404 -7.0303 2.3218
-9.9778 -7.2804 2.3218
-9.8089 -7.5266 2.3218
-9.6338 -7.7688 2.3218
-8.8172 -7.4697 2.2987
-8.6421 -7.6872 2.2987
-8.4614 -7.9004 2.2987
-8.2754 -8.1093 2.2987
-8.0841 -8.3136 2.2987
-7.8875 -8.5132 2.2987
-7.6860 -8.7080 2.2987
-7.4794 -8.8978 2.2987
-7.2680 -9.0826 2.2987
-7.0520 -9.2621 2.2987
-6.8313 -9.4363 2.2987
-6.6062 -9.6050 2.2987
-6.3768 -9.7682 2.2987
-6.1433 -9.9256 2.2987
-5.9057 -10.0772 2.2987
-5.6643 -10.2228 2.2987
-5.4191 -10.3624 2.2987
-5.3453 -10.8509 2.3765
-5.1388 -11.0996 2.4018
-4.8720 -11.2259 2.4018
-4.6020 -11.3455 2.4018
-4.3289 -11.4583 2.4018
-4.0529 -11.5643 2.4018
-3.7743 -11.6632 2.4018
-3.4932 -11.7552 2.4018
-3.2097 -11.8400 2.4018
-2.9241 -11.9178 2.4018
-2.6365 -11.9882 2.4018
-2.3472 -12.0514 2.4018
-2.0563 -12.1073 2.4018
-1.7640 -12.1558 2.4018
-1.4706 -12.1969 2.4018
-1.1761 -12.2306 2.4018
-0.8809 -12.2568 2.4018
-0.5851 -12.2755 2.4018
-0.2888 -12.2868 2.4018
0.0076 -12.2906 2.4018
0.3040 -12.2868 2.4018
0.6003 -12.2756 2.4018
0.8961 -12.2568 2.4018
1.1914 -12.2306 2.4018
1.4859 -12.1969 2.4018
1.7794 -12.1558 2.4018
2.0717 -12.1073 2.4018
2.3626 -12.0514 2.4018
2.6520 -11.9882 2.4018
2.8133 -11.4054 2.2985
3.0867 -11.3310 2.2985
3.3581 -11.2498 2.2985
3.6272 -11.1617 2.2985
3.8940 -11.0669 2.2985
4.1582 -10.9655 2.2985
4.4196 -10.8575 2.2985
4.6781 -10.7429 2.2985
4.9336 -10.6219 2.2985
5.1858 -10.4946 2.2985
5.4346 -10.3610 2.2985
3.1039 -5.5856 1.2561
5.9214 -10.0756 2.2985
6.1591 -9.9239 2.2985
6.3928 -9.7663 2.2985
6.6222 -9.6031 2.2985
6.8999 -9.5065 2.3162
7.1224 -9.3308 2.3162
7.3402 -9.1498 2.3162
7.5533 -8.9634 2.3162
2.9484 -3.3322 0.8799
7.9647 -8.5754 2.3162
8.1628 -8.3740 2.3162
8.3557 -8.1679 2.3162
8.5432 -7.9573 2.3162
8.7252 -7.7422 2.3162
8.9018 -7.5227 2.3162
9.0726 -7.2992 2.3162
9.2378 -7.0717 2.3162
9.3970 -6.8403 2.3162
9.5504 -6.6053 2.3162
9.6978 -6.3668 2.3162
9.8390 -6.1249 2.3162
9.9742 -5.8798 2.3162
10.1031 -5.6316 2.3162
10.2258 -5.3807 2.3162
10.3421 -5.1270 2.3162
10.4520 -4.8707 2.3162
10.5555 -4.6121 2.3162
10.6525 -4.3513 2.3162
10.7429 -4.0885 2.3162
10.8268 -3.8237 2.3162
10.9042 -3.5573 2.3162
10.9749 -3.2894 2.3162
11.0389 -3.0200 2.3162
11.0964 -2.7495 2.3162
11.1471 -2.4779 2.3162
11.1912 -2.2055 2.3162
11.2285 -1.9324 2.3162
11.2592 -1.6587 2.3162
11.2832 -1.3847 2.3162
11.3006 -1.1105 2.3162
11.3113 -0.8362 2.3162
11.3153 -0.5620 2.3162
11.3127 -0.2882 2.3162
11.3035 -0.0147 2.3162
11.2877 0.2581 2.3162
11.2654 0.5302 2.3162
11.2366 0.8014 2.3162
11.2012 1.0715 2.3162
11.1595 1.3403 2.3162
11.1114 1.6078 2.3162
11.0569 1.8738 2.3162
10.9961 2.1381 2.3162
10.9291 2.4007 2.3162
10.8560 2.6612 2.3162
10.7767 2.9197 2.3162
10.6913 3.1759 2.3162
10.6000 3.4297 2.3162
10.5028 3.6811 2.3162
10.3997 3.9298 2.3162
10.2909 4.1757 2.3162
10.1763 4.4187 2.3162
10.0562 4.6588 2.3162
9.9305 4.8956 2.3162
9.7994 5.1292 2.3162
9.6630 5.3594 2.3162
9.5212 5.5861 2.3162
9.3743 5.8092 2.3162
9.2224 6.0285 2.3162
9.0654 6.2440 2.3162
8.9036 6.4556 2.3162
8.7370 6.6631 2.3162
8.5657 6.8664 2.3162
8.3898 7.0655 2.3162
8.2094 7.2603 2.3162
8.0247 7.4506 2.3162
7.8358 7.6364 2.3162
7.6427 7.8175 2.3162
7.4455 7.9940 2.3162
7.2445 8.1657 2.3162
7.0396 8.3325 2.3162
6.8310 8.4944 2.3162
6.6189 8.6512 2.3162
6.3546 8.7360 2.2985
6.1373 8.8815 2.2985
5.9169 9.0218 2.2985
5.6934 9.1568 2.2985
5.4669 9.2865 2.2985
5.2376 9.4109 2.2985
5.0056 9.5298 2.2985
4.7711 9.6433 2.2985
4.5340 9.7512 2.2985
4.2947 9.8535 2.2985
4.0531 9.9502 2.2985
3.8095 10.0413 2.2985
3.5639 10.1266 2.2985
3.3165 10.2062 2.2985
3.0674 10.2800 2.2985
2.8168 10.3480 2.2985
2.5647 10.4102 2.2985
2.4152 10.9366 2.4018
2.1492 10.9893 2.4018
1.8821 11.0358 2.4018
1.6141 11.0761 2.4018
1.3452 11.1101 2.4018
1.0757 11.1380 2.4018
0.8057 11.1596 2.4018
0.5352 11.1749 2.4018
0.2645 11.1840 2.4018
-0.0064 11.1868 2.4018
-0.2772 11.1834 2.4018
-0.5479 11.1737 2.4018
-0.8183 11.1577 2.4018
-1.0883 11.1355 2.4018
-1.3577 11.1071 2.4018
-1.6264 11.0724 2.4018
-1.8943 11.0315 2.4018
-2.1612 10.9844 2.4018
-2.4270 10.9311 2.4018
-2.6916 10.8717 2.4018
-2.9548 10.8062 2.4018
-3.2164 10.7346 2.4018
-3.4764 10.6569 2.4018
-3.7347 10.5732 2.4018
-3.9910 10.4835 2.4018
-4.2452 10.3878 2.4018
-4.4973 10.2862 2.4018
-4.7470 10.1788 2.4018
-4.9943 10.0655 2.4018
-5.2390 9.9465 2.4018
-5.4810 9.8218 2.4018
-5.5147 9.3433 2.3155
-5.7008 9.1453 2.2987
-5.9239 9.0098 2.2987
-6.1439 8.8692 2.2987
-6.3607 8.7233 2.2987
-6.5742 8.5724 2.2987
-6.7842 8.4164 2.2987
-6.9907 8.2554 2.2987
-7.1936 8.0895 2.2987
-7.3926 7.9189 2.2987
-7.5878 7.7435 2.2987
-7.7789 7.5635 2.2987
-7.9659 7.3789 2.2987
-8.1487 7.1898 2.2987
