ply
format ascii 1.0
element vertex 2102
property float32 x
property float32 y
property float32 z
end_header
-14.7531 22.4740 2.3223
-15.3087 22.1348 2.3223
-15.8511 21.7744 2.3214
-16.3550 21.3616 2.3162
-10.4739 13.0158 1.4366
-10.7374 12.7019 1.4284
-17.4102 19.6135 2.2494
-17.4922 18.7715 2.1978
-17.6355 18.0310 2.1574
-17.7113 17.2537 2.1121
-17.7817 16.5036 2.0693
-17.9105 15.8346 2.0362
-18.0680 15.2118 2.0087
-18.2283 14.6087 1.9836
-18.3798 14.0141 1.9596
-18.5576 13.4529 1.9402
-18.1430 12.4947 1.8617
-18.9449 12.3828 1.9095
-19.1421 11.8613 1.8967
-19.3284 11.3396 1.8842
-19.1253 10.6076 1.8357
-19.6856 10.3042 1.8617
-19.8898 9.8061 1.8547
-20.1190 9.3216 1.8511
-20.3379 8.8324 1.8477
-20.5297 8.3319 1.8428
-20.6879 7.8193 1.8360
-20.6796 7.2500 1.8157
-12.9276 4.1842 1.1237
-17.2138 5.1154 1.4822
-20.3148 5.5063 1.7338
-20.2350 4.9630 1.7128
-20.1704 4.4333 1.6944
-20.1066 3.9124 1.6772
-20.1065 3.4103 1.6665
-20.1087 2.9127 1.6569
-10.2227 1.2293 0.8379
-10.3919 0.9956 0.8478
-10.5075 0.7509 0.8537
-10.6099 0.5009 0.8590
-10.7132 0.2466 0.8648
-10.8175 -0.0125 0.8712
-10.9230 -0.2766 0.8781
-11.0297 -0.5462 0.8857
-11.1264 -0.8209 0.8929
-11.1211 -1.0913 0.8924
-13.0510 -1.5999 1.0479
-22.1567 -3.2612 1.7810
-22.2449 -3.8255 1.7912
-22.1650 -4.3656 1.7890
-11.0643 -2.4583 0.8957
-11.0093 -2.7268 0.8944
-10.8827 -2.9762 0.8879
-10.7544 -3.2223 0.8817
-10.6266 -3.4659 0.8760
-10.4989 -3.7072 0.8708
-10.3714 -3.9465 0.8662
-10.2438 -4.1840 0.8620
-10.1007 -4.4132 0.8569
-9.9151 -4.6205 0.8487
-21.3912 -10.6047 1.8488
-21.4231 -11.2733 1.8709
-21.4508 -11.9582 1.8943
-21.5491 -12.7049 1.9259
-21.9148 -13.6444 1.9837
-22.2886 -14.6359 2.0451
-22.6643 -15.6790 2.1099
-22.6672 -16.5046 2.1428
-22.3894 -17.1449 2.1512
-22.0142 -17.7173 2.1519
-19.7110 -16.6660 2.2502
-10.3630 -9.2005 1.2063
-10.2510 -9.5536 1.2180
-18.6603 -18.2526 2.2657
-18.2729 -18.7585 2.2699
-17.9187 -19.3066 2.2801
-17.5493 -19.8492 2.2904
-17.1659 -20.3874 2.3010
-16.7535 -20.9021 2.3099
-15.3356 -20.1097 2.1781
-15.8130 -21.8087 2.3173
-15.3323 -22.2576 2.3223
-14.8066 -22.6464 2.3223
-14.2706 -23.0219 2.3223
-13.7245 -23.3839 2.3223
-13.1687 -23.7319 2.3223
-10.0265 -19.1448 1.8474
-9.5195 -19.2969 1.8377
-11.4471 -24.6899 2.3223
-10.8564 -24.9797 2.3223
-4.5244 -11.1387 1.0243
-4.2131 -11.1364 1.0137
-3.9076 -11.1342 1.0039
-3.6074 -11.1320 0.9949
-3.3119 -11.1299 0.9867
-3.0207 -11.1278 0.9792
-2.7335 -11.1257 0.9724
-2.5261 -11.4705 0.9965
-2.5158 -12.8990 1.1145
-2.5026 -14.7144 1.2653
-4.0766 -28.0518 2.4023
-3.3989 -28.1496 2.4023
-2.7187 -28.2299 2.4023
-2.0365 -28.2922 2.4023
-1.3529 -28.3368 2.4023
-0.6683 -28.3635 2.4023
0.0169 -28.3722 2.4023
0.7021 -28.3631 2.4023
1.3867 -28.3360 2.4023
2.0704 -28.2910 2.4023
2.6342 -27.0150 2.2990
3.2851 -26.9378 2.2990
3.9337 -26.8437 2.2990
4.5794 -26.7327 2.2990
5.2218 -26.6050 2.2990
5.4736 -24.7139 2.1473
5.9715 -24.1805 2.1138
5.4343 -19.9249 1.7536
5.7922 -19.3810 1.7185
5.3224 -16.3579 1.4623
4.7548 -13.4967 1.2172
4.6664 -12.2903 1.1190
4.7583 -11.6747 1.0738
4.9550 -11.3641 1.0568
5.1563 -11.0868 1.0431
5.3500 -10.8126 1.0301
4.7440 -9.0321 0.8719
4.7078 -8.4604 0.8282
4.5960 -7.8093 0.7759
4.4792 -7.2068 0.7273
4.4661 -6.8130 0.6990
4.5777 -6.6285 0.6919
4.6981 -6.4632 0.6871
4.8165 -6.3004 0.6828
4.9333 -6.1399 0.6789
5.0514 -5.9849 0.6759
5.0450 -5.6925 0.6573
5.0259 -5.4022 0.6385
5.0077 -5.1285 0.6211
4.9904 -4.8698 0.6050
5.0175 -4.6650 0.5953
5.0835 -4.5024 0.5909
5.1597 -4.3521 0.5882
5.2349 -4.2034 0.5859
5.3092 -4.0561 0.5840
5.3827 -3.9100 0.5824
5.4554 -3.7649 0.5811
5.5275 -3.6207 0.5803
5.5990 -3.4772 0.5797
5.7059 -3.3555 0.5832
5.8435 -3.2490 0.5900
5.9838 -3.1403 0.5974
6.0315 -2.9817 0.5958
5.5261 -2.5677 0.5405
5.2099 -2.2694 0.5049
5.2453 -2.1356 0.5041
5.2804 -2.0025 0.5036
5.3150 -1.8701 0.5033
5.3726 -1.7457 0.5055
5.4318 -1.6209 0.5082
5.4911 -1.4952 0.5111
5.5507 -1.3682 0.5144
5.6451 -1.2476 0.5211
5.7545 -1.1267 0.5295
5.8347 -0.9967 0.5355
5.9062 -0.8626 0.5410
5.9788 -0.7262 0.5469
6.0525 -0.5871 0.5532
6.1276 -0.4453 0.5600
6.2042 -0.3004 0.5672
6.2768 -0.1520 0.5744
6.3107 -0.0003 0.5784
6.3449 0.1531 0.5828
6.3794 0.3083 0.5875
6.4144 0.4656 0.5927
6.4497 0.6251 0.5983
6.4855 0.7872 0.6043
6.5299 0.9532 0.6115
6.5846 1.1243 0.6201
6.6406 1.2998 0.6293
6.6980 1.4800 0.6391
6.7569 1.6652 0.6495
6.8175 1.8560 0.6606
8.9185 2.6611 0.8717
8.3353 2.7081 0.8222
8.0502 2.8324 0.8020
7.7781 2.9498 0.7831
7.6138 3.0999 0.7752
7.4969 3.2657 0.7724
7.4334 3.4542 0.7755
7.3684 3.6431 0.7789
7.2810 3.8215 0.7805
7.1565 3.9798 0.7784
7.0320 4.1362 0.7767
6.9103 4.2927 0.7757
6.8876 4.5129 0.7864
6.7951 4.6909 0.7897
6.7017 4.8698 0.7934
6.6072 5.0496 0.7976
6.5422 5.2552 0.8060
6.5902 5.5612 0.8294
6.6532 5.8955 0.8561
6.7830 6.3097 0.8934
7.0212 6.8553 0.9475
7.0890 7.2644 0.9813
7.1379 7.6774 1.0147
7.2280 8.1613 1.0565
7.3826 8.7534 1.1110
7.1439 8.8983 1.1084
6.9370 9.0819 1.1112
6.7083 9.2371 1.1112
6.4746 9.3845 1.1109
6.2590 9.5583 1.1143
2.8765 4.6335 0.5324
5.9478 10.1189 1.1469
6.1817 11.1239 1.2446
6.9093 13.1737 1.4560
7.3725 14.9233 1.6305
7.0474 15.1788 1.6405
6.7306 15.4648 1.6545
6.4479 15.8522 1.6799
6.1567 16.2513 1.7070
5.9422 16.9083 1.7615
6.5792 20.2755 2.0963
6.1920 20.7809 2.1335
5.8231 21.4226 2.1854
5.4415 22.1183 2.2432
3.7161 16.8516 1.7001
4.4711 22.8945 2.2990
3.9150 22.9886 2.2990
3.3571 23.0702 2.2990
2.7976 23.1392 2.2990
2.3373 24.2374 2.4023
1.7503 24.2831 2.4023
1.1625 24.3156 2.4023
0.5742 24.3349 2.4023
-0.0144 24.3411 2.4023
-0.6030 24.3340 2.4023
-1.1912 24.3136 2.4023
-1.7790 24.2801 2.4023
-2.3659 24.2334 2.4023
-2.9516 24.1734 2.4023
-3.5361 24.1004 2.4023
-4.1189 24.0141 2.4023
-4.6998 23.9148 2.4023
-5.2784 23.8024 2.4023
-5.6034 22.6609 2.2992
-6.1523 22.5284 2.2992
-6.6984 22.3835 2.2992
-7.2413 22.2263 2.2992
-7.7809 22.0568 2.2992
-8.3168 21.8750 2.2992
-8.8488 21.6811 2.2992
-9.3766 21.4751 2.2992
-9.9995 21.4706 2.3223
-10.5235 21.2383 2.3223
-11.0426 20.9940 2.3223
-11.5564 20.7379 2.3223
-12.0647 20.4699 2.3223
-12.5673 20.1903 2.3223
-13.0639 19.8991 2.3223
-13.5544 19.5964 2.3223
-14.0382 19.2823 2.3223
-14.5153 18.9569 2.3223
-10.4727 13.0130 1.6230
-10.7370 12.7001 1.6141
-15.8461 17.8495 2.3139
-16.2676 17.4555 2.3104
-16.5388 16.9079 2.2874
-16.8082 16.3721 2.2665
-17.0644 15.8359 2.2459
-17.3234 15.3138 2.2277
-17.4842 14.7185 2.1990
-17.6527 14.1456 2.1736
-17.8463 13.6056 2.1533
-18.0511 13.0840 2.1362
-18.1417 12.4921 2.1075
-18.4755 12.0742 2.1087
-18.6655 11.5643 2.0947
-18.8605 11.0634 2.0828
-19.0845 10.5833 2.0755
-19.3210 10.1117 2.0707
-19.5111 9.6178 2.0623
-19.6501 9.1027 2.0498
-19.8359 8.6127 2.0435
-20.0222 8.1243 2.0385
-20.0533 7.5778 2.0191
-20.0716 7.0352 1.9998
-12.9258 4.1826 1.2752
-17.2086 5.1125 1.6822
-19.8294 5.3731 1.9218
-19.7584 4.8445 1.8997
-19.7011 4.3285 1.8802
-19.6533 3.8227 1.8630
-19.6597 3.3330 1.8521
-19.6762 2.8485 1.8433
-19.7491 2.3734 1.8408
-10.2087 0.9772 0.9474
-10.3088 0.7359 0.9530
-10.4076 0.4906 0.9590
-10.5072 0.2410 0.9655
-10.6076 -0.0131 0.9727
-10.7089 -0.2720 0.9805
-10.8113 -0.5362 0.9889
-10.9148 -0.8062 0.9981
-14.0976 -1.3844 1.2894
-13.0495 -1.6007 1.1945
-21.3660 -3.1465 1.9585
-21.2938 -3.6636 1.9558
-21.1785 -4.1729 1.9503
-21.0353 -4.6754 1.9434
-10.8060 -2.6773 1.0022
-10.6808 -2.9219 0.9950
-10.5560 -3.1637 0.9884
-10.4313 -3.4031 0.9824
-10.3067 -3.6402 0.9769
-10.1822 -3.8753 0.9720
-10.0575 -4.1087 0.9675
-9.9325 -4.3405 0.9636
-20.1710 -9.4015 1.9749
-20.1443 -9.9883 1.9920
-20.1519 -10.6061 2.0140
-20.1683 -11.2451 2.0388
-20.1938 -11.9077 2.0664
-20.1819 -12.5673 2.0922
-20.2088 -13.2720 2.1241
-20.2359 -14.0010 2.1584
-20.2659 -14.7581 2.1955
-18.5539 -14.2097 2.0435
-19.9821 -16.0838 2.2395
-17.9456 -15.1751 2.3115
-10.3612 -9.1999 1.3610
-10.2494 -9.5532 1.3745
-16.9184 -16.5506 2.3188
-16.5540 -16.9957 2.3216
-16.1627 -17.4164 2.3223
-15.7558 -17.8226 2.3223
-15.3383 -18.2187 2.3223
-14.9104 -18.6044 2.3223
-14.4723 -18.9796 2.3223
-14.0245 -19.3438 2.3223
-13.5670 -19.6968 2.3223
-13.1002 -20.0383 2.3223
-12.6243 -20.3680 2.3223
-12.1398 -20.6858 2.3223
-11.6470 -20.9913 2.3223
-10.0219 -19.1377 2.0881
-9.5175 -19.2945 2.0778
-10.1211 -21.8318 2.3223
-9.5025 -21.8663 2.2992
-4.5240 -11.1386 1.1586
-4.2128 -11.1364 1.1467
-3.9073 -11.1341 1.1357
-3.6070 -11.1320 1.1256
-3.3116 -11.1298 1.1164
-3.0205 -11.1277 1.1080
-2.7333 -11.1257 1.1004
-2.5261 -11.4712 1.1278
-2.5157 -12.8999 1.2614
-2.5025 -14.7153 1.4322
-3.6015 -24.7846 2.4023
-3.0027 -24.8703 2.4023
-2.4017 -24.9405 2.4023
-1.7991 -24.9951 2.4023
-1.1951 -25.0341 2.4023
-0.5903 -25.0574 2.4023
0.0149 -25.0650 2.4023
0.6202 -25.0570 2.4023
1.2250 -25.0333 2.4023
1.8289 -24.9939 2.4023
2.4157 -24.7762 2.3866
2.9022 -23.7994 2.2990
3.4752 -23.7170 2.2990
4.0458 -23.6197 2.2990
4.6135 -23.5078 2.2990
5.1780 -23.3813 2.2990
5.7388 -23.2402 2.2990
5.4331 -19.9222 1.9841
6.9116 -23.1283 2.3204
5.3035 -16.3013 1.6487
4.7094 -13.3689 1.3640
4.6560 -12.2640 1.2631
4.7593 -11.6780 1.2150
4.9556 -11.3665 1.1955
5.1548 -11.0847 1.1795
5.3486 -10.8106 1.1646
4.7493 -9.0431 0.9871
4.7057 -8.4573 0.9360
4.5927 -7.8044 0.8766
4.4961 -7.2347 0.8253
4.4859 -6.8439 0.7936
4.5710 -6.6194 0.7809
4.6912 -6.4544 0.7753
4.8096 -6.2919 0.7703
4.9262 -6.1317 0.7659
5.0413 -5.9735 0.7619
5.0302 -5.6764 0.7402
5.0030 -5.3782 0.7177
4.9783 -5.0989 0.6971
4.9619 -4.8424 0.6790
4.9759 -4.6268 0.6663
5.0516 -4.4747 0.6626
5.1275 -4.3255 0.6595
5.2024 -4.1778 0.6569
5.2764 -4.0316 0.6546
5.3496 -3.8865 0.6527
5.4220 -3.7424 0.6512
5.4937 -3.5991 0.6502
5.5649 -3.4566 0.6494
5.6730 -3.3366 0.6534
5.8095 -3.2306 0.6609
5.9486 -3.1223 0.6690
5.8663 -2.9005 0.6526
5.3264 -2.4753 0.5866
5.1684 -2.2517 0.5640
5.2037 -2.1191 0.5629
5.2386 -1.9871 0.5622
5.2731 -1.8558 0.5618
5.3205 -1.7292 0.5632
5.3789 -1.6056 0.5660
5.4374 -1.4810 0.5691
5.4962 -1.3552 0.5726
5.5950 -1.2370 0.5806
5.7027 -1.1171 0.5897
5.8034 -0.9918 0.5985
5.8742 -0.8584 0.6045
5.9461 -0.7227 0.6109
6.0192 -0.5844 0.6178
6.0935 -0.4433 0.6252
6.1693 -0.2991 0.6331
6.2416 -0.1516 0.6410
6.2935 -0.0008 0.6472
6.3275 0.1522 0.6520
6.3618 0.3069 0.6571
6.3965 0.4638 0.6628
6.4316 0.6229 0.6689
6.4671 0.7845 0.6755
6.5115 0.9500 0.6834
6.5658 1.1206 0.6928
6.6213 1.2955 0.7029
6.6783 1.4751 0.7137
6.7368 1.6597 0.7252
6.8060 1.8523 0.7384
6.8914 2.0557 0.7540
8.0218 2.6056 0.8857
7.7551 2.7279 0.8646
7.4999 2.8436 0.8449
7.3067 2.9743 0.8322
7.2464 3.1560 0.8350
7.1845 3.3379 0.8382
7.1210 3.5201 0.8417
7.0558 3.7028 0.8455
6.9483 3.8633 0.8447
6.8281 4.0156 0.8429
6.7189 4.1732 0.8427
6.6250 4.3403 0.8450
6.6895 4.6174 0.8684
6.6146 4.8058 0.8746
6.5210 4.9831 0.8790
6.5195 5.2363 0.8968
6.5666 5.5406 0.9226
6.6181 5.8637 0.9506
6.7456 6.2742 0.9915
6.9130 6.7489 1.0410
7.0336 7.2068 1.0863
7.0909 7.6260 1.1246
7.1818 8.1083 1.1710
7.3028 8.6579 1.2258
7.0674 8.8021 1.2228
6.8652 8.9870 1.2263
6.6530 9.1601 1.2288
6.4437 9.3388 1.2326
6.1838 9.4426 1.2273
2.8764 4.6329 0.5934
5.8699 9.9854 1.2615
6.1480 11.0623 1.3794
6.9372 13.2257 1.6290
7.3377 14.8515 1.8082
7.0207 15.1200 1.8209
6.7044 15.4032 1.8361
6.4409 15.8336 1.8695
6.1499 16.2320 1.8995
5.9460 16.9178 1.9634
6.4783 19.9628 2.2990
5.9909 20.1042 2.2990
5.5006 20.2344 2.2990
5.0078 20.3535 2.2990
3.7150 16.8450 1.8927
4.0151 20.5578 2.2990
3.5158 20.6431 2.2990
3.0149 20.7169 2.2990
2.6253 21.7126 2.4023
2.0991 21.7659 2.4023
1.5720 21.8073 2.4023
1.0441 21.8368 2.4023
0.5157 21.8543 2.4023
-0.0129 21.8599 2.4023
-0.5415 21.8535 2.4023
-1.0699 21.8351 2.4023
-1.5977 21.8047 2.4023
-2.1248 21.7625 2.4023
-2.6508 21.7082 2.4023
-3.1756 21.6421 2.4023
-3.6989 21.5641 2.4023
-4.2205 21.4742 2.4023
-4.7400 21.3726 2.4023
-5.2572 21.2591 2.4023
-5.5243 20.2269 2.2992
-6.0143 20.0959 2.2992
-6.5014 19.9537 2.2992
-6.9855 19.8004 2.2992
-7.4661 19.6361 2.2992
-7.9432 19.4608 2.2992
-8.4165 19.2745 2.2992
-8.8857 19.0775 2.2992
-9.3507 18.8697 2.2992
-9.9097 18.8385 2.3223
-10.3699 18.6071 2.3223
-10.8251 18.3651 2.3223
-11.2750 18.1125 2.3223
-11.7195 17.8495 2.3223
-12.1582 17.5762 2.3223
-12.5909 17.2927 2.3223
-13.0175 16.9990 2.3223
-10.4714 13.0102 1.8097
-10.7365 12.6983 1.8001
-14.2577 16.0587 2.3223
-14.6572 15.7258 2.3223
-15.0494 15.3835 2.3223
-15.4340 15.0319 2.3223
-15.8109 14.6711 2.3223
-16.1798 14.3012 2.3223
-16.4922 13.8818 2.3155
-16.8508 13.5013 2.3165
-17.2044 13.1145 2.3180
-17.4390 12.6387 2.3048
-17.5956 12.1145 2.2832
-17.8482 11.6626 2.2757
-18.1710 11.2563 2.2784
-18.4327 10.8108 2.2747
-18.5418 10.2807 2.2537
-18.6665 9.7676 2.2363
-18.8330 9.2819 2.2256
-18.9303 8.7677 2.2082
-19.0737 8.2802 2.1977
-19.2050 7.7911 2.1872
-19.3538 7.3118 2.1801
-19.4038 6.7995 2.1634
-12.9240 4.1809 1.4270
-17.2035 5.1096 1.8825
-19.3659 5.2460 2.1013
-19.2697 4.7231 2.0746
-19.1804 4.2126 2.0502
-19.1943 3.7319 2.0382
-19.2071 3.2547 2.0274
-19.2415 2.7841 2.0200
-19.3124 2.3194 2.0177
-10.0221 0.9586 1.0427
-10.1171 0.7215 1.0487
-10.2126 0.4806 1.0554
-10.3086 0.2357 1.0626
-19.8521 -0.0260 2.0425
-19.9957 -0.5095 2.0546
-20.1165 -0.9994 2.0654
-20.2579 -1.4978 2.0796
-14.1106 -1.3868 1.4492
-13.0480 -1.6015 1.3414
-20.5127 -3.0225 2.1122
-20.3979 -3.5111 2.1050
-20.2163 -3.9849 2.0922
-20.0748 -4.4635 2.0847
-19.9360 -4.9409 2.0787
-19.7911 -5.4157 2.0732
-15.9947 -4.7951 1.6844
-19.5256 -6.3716 2.0686
-19.4374 -6.8667 2.0729
-9.9994 -3.8066 1.0742
-9.8774 -4.0360 1.0695
-9.7551 -4.2638 1.0655
-19.0030 -8.8588 2.0951
-18.9398 -9.3927 2.1093
-18.9241 -9.9615 2.1304
-18.9178 -10.5495 2.1546
-18.8157 -11.0967 2.1696
-18.7789 -11.6954 2.1941
-18.7684 -12.3278 2.2238
-18.6841 -12.9290 2.2470
-18.5640 -13.5205 2.2680
-18.3937 -14.0888 2.2849
-18.1918 -14.6446 2.3000
-16.1855 -13.6885 2.3223
-10.3593 -9.1994 1.5160
-10.2478 -9.5528 1.5312
-15.2046 -14.8757 2.3223
-14.8573 -15.2554 2.3223
-14.5002 -15.6266 2.3223
-14.1335 -15.9891 2.3223
-13.7573 -16.3425 2.3223
-13.3720 -16.6866 2.3223
-12.9777 -17.0212 2.3223
-12.5747 -17.3459 2.3223
-12.1633 -17.6606 2.3223
-11.7436 -17.9649 2.3223
-11.3160 -18.2588 2.3223
-10.8807 -18.5419 2.3223
-10.4379 -18.8140 2.3223
-9.9881 -19.0749 2.3223
-9.4367 -19.1323 2.2992
-8.9781 -19.3679 2.2992
-8.5134 -19.5918 2.2992
-4.5236 -11.1386 1.2932
-4.2124 -11.1363 1.2800
-3.9069 -11.1341 1.2678
-3.6067 -11.1319 1.2566
-3.3113 -11.1298 1.2464
-3.0202 -11.1277 1.2371
-2.7330 -11.1256 1.2287
-2.5261 -11.4720 1.2594
-2.5157 -12.9007 1.4087
-2.5025 -14.7162 1.5994
-3.2248 -22.1941 2.4023
-2.6886 -22.2703 2.4023
-2.1504 -22.3327 2.4023
-1.6108 -22.3812 2.4023
-1.0700 -22.4159 2.4023
-0.5285 -22.4366 2.4023
0.0134 -22.4434 2.4023
0.5553 -22.4362 2.4023
1.0968 -22.4151 2.4023
1.6375 -22.3801 2.4023
2.1771 -22.3311 2.4023
2.5985 -21.3112 2.2990
3.1117 -21.2379 2.2990
3.6227 -21.1515 2.2990
4.1312 -21.0519 2.2990
4.6369 -20.9394 2.2990
5.1393 -20.8139 2.2990
5.4320 -19.9195 2.2150
5.2051 -17.4191 1.9512
5.2847 -16.2450 1.8343
4.7410 -13.4596 1.5330
4.6457 -12.2377 1.4070
4.7603 -11.6814 1.3566
4.9542 -11.3642 1.3341
5.1534 -11.0825 1.3161
5.3471 -10.8085 1.2994
4.7524 -9.0496 1.1022
4.7035 -8.4541 1.0440
4.5894 -7.7995 0.9773
4.5178 -7.2703 0.9252
4.5060 -6.8752 0.8892
4.5643 -6.6103 0.8697
4.6844 -6.4456 0.8635
4.8026 -6.2834 0.8578
4.9191 -6.1235 0.8528
5.0270 -5.9572 0.8471
5.0293 -5.6760 0.8250
5.0022 -5.3779 0.7999
4.9767 -5.0979 0.7767
4.9526 -4.8339 0.7553
4.9564 -4.6092 0.7395
5.0200 -4.4472 0.7336
5.0957 -4.2991 0.7301
5.1703 -4.1526 0.7271
5.2440 -4.0073 0.7245
5.3168 -3.8632 0.7224
5.3889 -3.7201 0.7207
5.4603 -3.5778 0.7194
5.5311 -3.4361 0.7185
5.6404 -3.3180 0.7230
5.7758 -3.2124 0.7312
5.9067 -3.1008 0.7390
5.6387 -2.7885 0.6978
5.1402 -2.3892 0.6297
5.1275 -2.2344 0.6222
5.1627 -2.1028 0.6210
5.1974 -1.9719 0.6201
5.2317 -1.8416 0.6196
5.2692 -1.7130 0.6199
5.3269 -1.5905 0.6228
5.3846 -1.4670 0.6262
5.4426 -1.3425 0.6299
5.5457 -1.2266 0.6391
5.6518 -1.1075 0.6490
5.7606 -0.9850 0.6596
5.8426 -0.8543 0.6674
5.9138 -0.7192 0.6744
5.9861 -0.5816 0.6818
6.0597 -0.4413 0.6898
6.1347 -0.2979 0.6984
6.2062 -0.1512 0.7070
6.2755 -0.0013 0.7157
6.3101 0.1513 0.7209
6.3442 0.3056 0.7265
6.3787 0.4620 0.7326
6.4135 0.6206 0.7392
6.4489 0.7817 0.7464
6.4931 0.9468 0.7550
6.5470 1.1169 0.7653
6.6021 1.2912 0.7763
6.6587 1.4702 0.7881
6.7167 1.6542 0.8006
6.7966 1.8492 0.8164
6.8816 2.0522 0.8335
6.9692 2.2631 0.8516
7.6187 2.6793 0.9400
7.4086 2.8084 0.9234
7.2385 2.9459 0.9121
7.1037 3.0932 0.9055
6.9710 3.2381 0.8995
6.8892 3.4049 0.9004
6.8254 3.5812 0.9043
6.7513 3.7532 0.9074
6.6376 3.9030 0.9057
6.5373 4.0598 0.9063
6.4360 4.2158 0.9072
6.4267 4.4354 0.9219
6.4835 4.7100 0.9472
6.4527 4.9302 0.9609
6.4968 5.2174 0.9871
6.5432 5.5201 1.0153
6.5921 5.8399 1.0456
6.7086 6.2391 1.0889
6.8447 6.6815 1.1381
6.9789 7.1500 1.1900
7.0538 7.5853 1.2349
7.1427 8.0634 1.2855
7.2336 8.5750 1.3400
6.9918 8.7071 1.3350
6.8218 8.9294 1.3446
6.6398 9.1411 1.3531
6.4310 9.3195 1.3572
6.1250 9.3520 1.3410
2.8763 4.6324 0.6546
5.9037 10.0420 1.3995
6.1294 11.0278 1.5168
6.9654 13.2783 1.8039
7.3129 14.8001 1.9873
7.0010 15.0762 2.0023
6.6844 15.3561 2.0186
6.4327 15.8120 2.0586
6.1430 16.2126 2.0919
5.9288 16.8674 2.1583
5.8764 18.1066 2.2990
5.4345 18.2357 2.2990
4.9900 18.3546 2.2990
4.5430 18.4633 2.2990
3.7138 16.8385 2.0856
3.6427 18.6498 2.2990
3.1899 18.7276 2.2990
2.7354 18.7950 2.2990
2.3820 19.6987 2.4023
1.9046 19.7474 2.4023
1.4263 19.7852 2.4023
0.9474 19.8122 2.4023
0.4679 19.8282 2.4023
-0.0117 19.8332 2.4023
-0.4914 19.8274 2.4023
-0.9707 19.8106 2.4023
-1.4497 19.7830 2.4023
-1.9279 19.7444 2.4023
-2.4052 19.6949 2.4023
-2.8813 19.6345 2.4023
-3.3560 19.5633 2.4023
-3.8291 19.4813 2.4023
-4.3003 19.3885 2.4023
-4.7694 19.2849 2.4023
-5.2362 19.1706 2.4023
-5.4558 18.2284 2.2992
-5.8975 18.0986 2.2992
-6.3363 17.9588 2.2992
-6.7719 17.8088 2.2992
-7.2043 17.6489 2.2992
-7.6331 17.4791 2.2992
-8.0582 17.2993 2.2992
-8.4793 17.1098 2.2992
-8.8963 16.9106 2.2992
-9.3088 16.7017 2.2992
-9.8144 16.6488 2.3223
-10.2215 16.4186 2.3223
-10.6236 16.1789 2.3223
-11.0204 15.9299 2.3223
-11.4117 15.6716 2.3223
-11.7973 15.4041 2.3223
-10.4702 13.0073 1.9968
-10.7361 12.6965 1.9866
-12.9177 14.5479 2.3223
-13.2783 14.2449 2.3223
-13.6322 13.9334 2.3223
-13.9792 13.6135 2.3223
-14.3191 13.2853 2.3223
-14.6516 12.9489 2.3223
-14.9766 12.6045 2.3223
-15.2938 12.2523 2.3223
-15.6032 11.8924 2.3223
-15.9044 11.5250 2.3223
-16.1974 11.1502 2.3223
-16.4819 10.7683 2.3223
-16.7577 10.3793 2.3223
-17.0248 9.9835 2.3223
-17.2828 9.5811 2.3223
-17.4735 9.1418 2.3146
-17.6337 8.6893 2.3043
-17.7846 8.2355 2.2943
-17.9265 7.7807 2.2847
-18.0467 7.3197 2.2737
-18.1696 6.8629 2.2646
-18.3069 6.4136 2.2586
-12.9222 4.1793 1.5791
-17.1982 5.1066 2.0831
-18.5818 5.0321 2.2321
-18.5929 4.5558 2.2164
-18.6616 4.0972 2.2090
-18.6994 3.6342 2.1993
-18.7328 3.1729 2.1903
-18.7824 2.7161 2.1846
-18.8304 2.2600 2.1800
-18.8642 1.8028 2.1751
-18.9616 1.3507 2.1787
-19.0019 0.8927 2.1769
-19.1817 0.4370 2.1924
-19.3610 -0.0268 2.2091
-19.4629 -0.4974 2.2181
-19.5509 -0.9728 2.2268
-19.6471 -1.4542 2.2378
-14.1198 -1.3888 1.6092
-13.0464 -1.6024 1.4886
-19.4999 -2.8748 2.2289
-19.3896 -3.3390 2.2216
-19.2895 -3.8038 2.2167
-19.1533 -4.2601 2.2089
-18.9992 -4.7103 2.2004
-18.8715 -5.1656 2.1962
-15.9921 -4.7956 1.8713
-18.5765 -6.0634 2.1871
-18.4804 -6.5301 2.1905
-18.3804 -6.9987 2.1949
-18.2425 -7.4556 2.1962
-18.0929 -7.9097 2.1975
-17.9738 -8.3805 2.2039
-17.8743 -8.8659 2.2142
-17.8156 -9.3796 2.2313
-17.7397 -9.8941 2.2480
-17.6304 -10.3993 2.2624
-17.5045 -10.9033 2.2763
-17.3536 -11.4002 2.2889
-17.1738 -11.8856 2.2994
-16.9659 -12.3582 2.3079
-16.7375 -12.8219 2.3155
-16.4893 -13.2758 2.3220
-14.6801 -12.4168 2.3223
-10.3575 -9.1988 1.6714
-10.2461 -9.5524 1.6884
-13.7861 -13.4894 2.3223
-13.4698 -13.8322 2.3223
-13.1447 -14.1674 2.3223
-12.8111 -14.4946 2.3223
-12.4689 -14.8135 2.3223
-12.1185 -15.1240 2.3223
-11.7602 -15.4258 2.3223
-11.3940 -15.7186 2.3223
-11.0202 -16.0024 2.3223
-10.6391 -16.2768 2.3223
-10.2509 -16.5418 2.3223
-9.8558 -16.7969 2.3223
-9.3601 -16.8727 2.2992
-8.9561 -17.1055 2.2992
-8.5460 -17.3281 2.2992
-8.1302 -17.5403 2.2992
-7.7089 -17.7420 2.2992
-4.5232 -11.1385 1.4281
-4.2120 -11.1363 1.4136
-3.9066 -11.1341 1.4002
-3.6064 -11.1319 1.3880
-3.3110 -11.1298 1.3767
-3.0200 -11.1277 1.3665
-2.7328 -11.1256 1.3572
-2.5260 -11.4728 1.3913
-2.5156 -12.9015 1.5563
-2.5024 -14.7171 1.7670
-2.9187 -20.0894 2.4023
-2.4334 -20.1580 2.4023
-1.9463 -20.2141 2.4023
-1.4578 -20.2577 2.4023
-0.9684 -20.2889 2.4023
-0.4783 -20.3076 2.4023
0.0121 -20.3136 2.4023
0.5026 -20.3072 2.4023
0.9926 -20.2882 2.4023
1.4821 -20.2566 2.4023
1.9704 -20.2126 2.4023
2.4403 -20.0146 2.3854
2.8164 -19.2238 2.2990
3.2790 -19.1460 2.2990
3.7393 -19.0564 2.2990
4.1971 -18.9551 2.2990
4.6521 -18.8421 2.2990
5.1038 -18.7177 2.2990
5.1003 -17.0697 2.1120
5.2618 -16.1759 2.0174
5.4750 -15.5449 1.9555
4.6677 -12.2967 1.5614
4.7697 -11.7056 1.5013
4.9567 -11.3707 1.4741
5.1520 -11.0804 1.4530
5.3456 -10.8065 1.4344
4.7500 -9.0460 1.2164
4.7013 -8.4509 1.1521
4.5861 -7.7946 1.0782
4.5398 -7.3063 1.0263
4.5263 -6.9068 0.9860
4.5576 -6.6012 0.9585
4.6776 -6.4369 0.9516
4.7957 -6.2750 0.9453
4.9121 -6.1153 0.9397
5.0121 -5.9401 0.9319
5.0284 -5.6756 0.9100
5.0013 -5.3775 0.8822
4.9758 -5.0975 0.8566
4.9518 -4.8337 0.8329
4.9602 -4.6133 0.8162
5.0222 -4.4497 0.8093
5.0831 -4.2890 0.8031
5.1430 -4.1311 0.7974
5.2119 -3.9833 0.7938
5.2844 -3.8401 0.7914
5.3562 -3.6980 0.7894
5.4272 -3.5566 0.7879
5.4977 -3.4159 0.7868
5.6081 -3.2995 0.7920
5.7400 -3.1930 0.8004
5.8507 -3.0719 0.8063
5.4275 -2.6845 0.7397
5.0516 -2.3485 0.6814
5.0871 -2.2172 0.6796
5.1222 -2.0867 0.6782
5.1567 -1.9569 0.6772
5.1908 -1.8277 0.6766
5.2245 -1.6989 0.6763
5.2757 -1.5756 0.6787
5.3327 -1.4533 0.6822
5.3952 -1.3312 0.6868
5.4971 -1.2163 0.6968
5.6016 -1.0981 0.7074
5.7087 -0.9766 0.7187
5.8111 -0.8501 0.7298
5.8817 -0.7158 0.7373
5.9533 -0.5789 0.7453
6.0262 -0.4393 0.7539
6.1004 -0.2968 0.7631
6.1710 -0.1509 0.7723
6.2396 -0.0017 0.7817
6.2928 0.1504 0.7897
6.3267 0.3043 0.7957
6.3609 0.4602 0.8023
6.3956 0.6184 0.8094
6.4306 0.7790 0.8171
6.4747 0.9436 0.8265
6.5282 1.1132 0.8376
6.5830 1.2870 0.8495
6.6391 1.4654 0.8622
6.7037 1.6505 0.8767
6.7871 1.8461 0.8943
6.8718 2.0487 0.9129
6.9590 2.2593 0.9327
7.0499 2.4787 0.9538
7.3875 2.7998 1.0096
7.2348 2.9438 0.9994
7.1000 3.0910 0.9921
6.9674 3.2359 0.9854
6.8368 3.3784 0.9793
6.7080 3.5190 0.9740
6.5808 3.6578 0.9692
6.4625 3.7994 0.9661
6.3649 3.9521 0.9666
6.2662 4.1040 0.9675
6.1831 4.2667 0.9714
6.2316 4.5264 0.9970
6.4130 4.8993 1.0458
6.4742 5.1987 1.0771
6.5199 5.4998 1.1076
6.5679 5.8178 1.1405
6.6719 6.2042 1.1854
6.8056 6.6426 1.2385
6.9362 7.1055 1.2944
7.0170 7.5449 1.3443
7.1040 8.0188 1.3990
7.1655 8.4934 1.4524
6.9176 8.6139 1.4451
6.7691 8.8595 1.4596
6.6267 9.1222 1.4772
6.3771 9.2405 1.4721
6.0672 9.2629 1.4529
2.8762 4.6318 0.7159
5.9476 10.1158 1.5419
6.1132 10.9977 1.6544
6.9297 13.2091 1.9624
6.9464 14.0572 2.0641
6.9813 15.0326 2.1831
6.6655 15.3114 2.2007
6.4055 15.7439 2.2411
6.1362 16.1933 2.2844
5.7771 16.4345 2.2990
5.3757 16.5625 2.2990
4.9717 16.6812 2.2990
4.5652 16.7905 2.2990
4.1564 16.8904 2.2990
3.7127 16.8319 2.2789
3.3329 17.0619 2.2990
2.9186 17.1335 2.2990
2.6152 17.9677 2.4023
2.1795 18.0226 2.4023
1.7427 18.0674 2.4023
1.3051 18.1022 2.4023
0.8669 18.1270 2.4023
0.4282 18.1417 2.4023
-0.0107 18.1464 2.4023
-0.4496 18.1410 2.4023
-0.8882 18.1256 2.4023
-1.3265 18.1002 2.4023
-1.7640 18.0647 2.4023
-2.2007 18.0192 2.4023
-2.6363 17.9637 2.4023
-3.0706 17.8982 2.4023
-3.5034 17.8228 2.4023
-3.9344 17.7374 2.4023
-4.3635 17.6422 2.4023
-4.7904 17.5371 2.4023
-5.2150 17.4223 2.4023
-5.4253 16.6482 2.3121
-5.7962 16.4268 2.2992
-6.1945 16.2890 2.2992
-6.5897 16.1420 2.2992
-6.9817 15.9859 2.2992
-7.3701 15.8207 2.2992
-7.7549 15.6466 2.2992
-8.1357 15.4635 2.2992
-8.5125 15.2717 2.2992
-8.8851 15.0710 2.2992
-9.2531 14.8617 2.2992
-9.7131 14.7909 2.3223
-10.0752 14.5622 2.3223
-10.4322 14.3251 2.3223
-10.7839 14.0795 2.3223
-10.4690 13.0045 2.1844
-10.7356 12.6947 2.1735
-11.8054 13.2938 2.3223
-12.1340 13.0159 2.3223
-12.4563 12.7301 2.3223
-12.7723 12.4367 2.3223
-13.0816 12.1358 2.3223
-13.3842 11.8274 2.3223
-13.6798 11.5117 2.3223
-13.9683 11.1890 2.3223
-14.2495 10.8592 2.3223
-14.5231 10.5226 2.3223
-14.7892 10.1794 2.3223
-15.0474 9.8297 2.3223
-15.2977 9.4736 2.3223
-15.5398 9.1113 2.3223
-15.7736 8.7430 2.3223
-15.9989 8.3689 2.3223
-16.2157 7.9891 2.3223
-16.4238 7.6039 2.3223
-16.6229 7.2134 2.3223
-16.8131 6.8179 2.3223
-16.9940 6.4175 2.3223
-17.1657 6.0124 2.3223
-12.9203 4.1776 1.7316
-17.1931 5.1037 2.2841
-17.5872 4.7613 2.3175
-17.7343 4.3440 2.3194
-17.8506 3.9177 2.3185
-17.9806 3.4930 2.3206
-18.0966 3.0637 2.3223
-18.1729 2.6266 2.3202
-18.2283 2.1863 2.3167
-18.2969 1.7472 2.3163
-18.3759 1.3075 2.3185
-18.4173 0.8638 2.3172
-18.4421 0.4187 2.3152
-18.4591 -0.0270 2.3136
-18.5081 -0.4745 2.3174
-18.5150 -0.9227 2.3172
-18.5080 -1.3713 2.3166
-14.1118 -1.3891 1.7676
-13.0449 -1.6032 1.6361
-18.4434 -2.7205 2.3177
-18.4030 -3.1706 2.3184
-18.1951 -3.5894 2.2993
-18.0636 -4.0192 2.2912
-17.9443 -4.4502 2.2860
-17.8608 -4.8904 2.2867
-15.9894 -4.7961 2.0586
-17.6675 -5.7682 2.2889
-17.5843 -6.2149 2.2939
-17.4685 -6.6529 2.2961
-17.3118 -7.0767 2.2943
-17.1156 -7.4840 2.2887
-16.9537 -7.9063 2.2890
-16.8346 -8.3516 2.2966
-16.7073 -8.7976 2.3047
-16.5830 -9.2505 2.3148
-16.4276 -9.6913 2.3223
-16.2082 -10.0974 2.3223
-15.9785 -10.4983 2.3223
-15.7387 -10.8939 2.3223
-15.4888 -11.2838 2.3223
-15.2290 -11.6678 2.3223
-14.9594 -12.0455 2.3223
-13.4278 -11.3589 2.3223
-10.3556 -9.1983 1.8271
-10.2445 -9.5520 1.8459
-12.6066 -12.3367 2.3223
-12.3164 -12.6492 2.3223
-12.0181 -12.9545 2.3223
-11.7121 -13.2526 2.3223
-11.3984 -13.5431 2.3223
-11.0773 -13.8259 2.3223
-10.7489 -14.1007 2.3223
-10.4134 -14.3673 2.3223
-10.0711 -14.6257 2.3223
-9.7222 -14.8754 2.3223
-9.2737 -14.9662 2.2992
-8.9157 -15.1961 2.2992
-8.5518 -15.4170 2.2992
-8.1822 -15.6288 2.2992
-7.8071 -15.8313 2.2992
-7.4268 -16.0243 2.2992
-7.0416 -16.2077 2.2992
-4.5228 -11.1385 1.5633
-4.2116 -11.1362 1.5475
-3.9062 -11.1340 1.5330
-3.6061 -11.1319 1.5196
-3.3107 -11.1297 1.5074
-3.0197 -11.1276 1.4962
-2.7326 -11.1255 1.4861
-2.5260 -11.4736 1.5236
-2.5156 -12.9024 1.7043
-2.4895 -14.6425 1.9252
-2.6651 -18.3451 2.4023
-2.2219 -18.4074 2.4023
-1.7771 -18.4584 2.4023
-1.3311 -18.4981 2.4023
-0.8842 -18.5264 2.4023
-0.4367 -18.5433 2.4023
0.0111 -18.5488 2.4023
0.4589 -18.5430 2.4023
0.9063 -18.5257 2.4023
1.3532 -18.4970 2.4023
1.7992 -18.4570 2.4023
2.2439 -18.4056 2.4023
2.5717 -17.5546 2.2990
2.9941 -17.4839 2.2990
3.4145 -17.4024 2.2990
3.8326 -17.3103 2.2990
4.2482 -17.2077 2.2990
4.6609 -17.0946 2.2990
4.9863 -16.6895 2.2609
5.2117 -16.0231 2.1879
5.4365 -15.4367 2.1260
4.6902 -12.3570 1.7177
4.7918 -11.7608 1.6512
4.9725 -11.4080 1.6189
5.1654 -11.1102 1.5947
5.3526 -10.8216 1.5723
4.7477 -9.0423 1.3308
4.6991 -8.4477 1.2604
4.5950 -7.8105 1.1823
4.5620 -7.3429 1.1287
4.5468 -6.9388 1.0839
4.5669 -6.6153 1.0510
4.6708 -6.4281 1.0397
4.7888 -6.2665 1.0328
4.9050 -6.1072 1.0265
4.9973 -5.9232 1.0164
5.0275 -5.6751 0.9953
5.0004 -5.3772 0.9648
4.9750 -5.0972 0.9367
4.9510 -4.8334 0.9107
4.9641 -4.6174 0.8932
5.0261 -4.4536 0.8856
5.0870 -4.2928 0.8786
5.1469 -4.1348 0.8724
5.2059 -3.9792 0.8667
5.2641 -3.8259 0.8616
5.3237 -3.6761 0.8575
5.3944 -3.5356 0.8558
5.4646 -3.3958 0.8546
5.5761 -3.2811 0.8603
5.6862 -3.1636 0.8662
5.7955 -3.0434 0.8724
5.3633 -2.6532 0.7984
5.0119 -2.3305 0.7383
5.0473 -2.2003 0.7363
5.0822 -2.0709 0.7348
5.1166 -1.9421 0.7336
5.1505 -1.8139 0.7329
5.1840 -1.6861 0.7325
5.2254 -1.5611 0.7337
5.2817 -1.4398 0.7374
5.3488 -1.3202 0.7430
5.4493 -1.2061 0.7536
5.5522 -1.0889 0.7649
5.6576 -0.9683 0.7770
5.7658 -0.8440 0.7898
5.8499 -0.7124 0.7997
5.9208 -0.5762 0.8083
5.9929 -0.4374 0.8175
6.0663 -0.2956 0.8273
6.1362 -0.1505 0.8372
6.2040 -0.0022 0.8472
6.2731 0.1494 0.8580
6.3092 0.3029 0.8647
6.3432 0.4584 0.8718
6.3776 0.6161 0.8794
6.4125 0.7763 0.8876
6.4564 0.9405 0.8977
6.5096 1.1095 0.9096
6.5639 1.2827 0.9224
6.6196 1.4605 0.9361
6.6946 1.6477 0.9532
6.7777 1.8430 0.9722
6.8620 2.0452 0.9923
6.9489 2.2554 1.0137
7.0394 2.4744 1.0365
7.1339 2.7031 1.0610
7.2310 2.9417 1.0869
7.0964 3.0888 1.0788
6.9639 3.2336 1.0714
6.8334 3.3761 1.0648
6.7046 3.5167 1.0588
6.5733 3.6531 1.0529
6.4297 3.7795 1.0453
6.2999 3.9112 1.0404
6.1713 4.0413 1.0361
6.0439 4.1700 1.0323
6.1276 4.4503 1.0658
6.3221 4.8292 1.1207
6.4372 5.1683 1.1640
6.4966 5.4795 1.1995
6.5438 5.7958 1.2349
6.6354 6.1696 1.2811
6.7669 6.6040 1.3381
6.8338 6.9998 1.3856
6.9805 7.5049 1.4529
7.0656 7.9746 1.5116
7.1245 8.4439 1.5687
6.8561 8.5364 1.5558
6.7220 8.7969 1.5744
6.5849 9.0637 1.5943
6.3189 9.1553 1.5842
6.0104 9.1752 1.5630
2.8762 4.6313 0.7774
5.9915 10.1894 1.6866
6.0712 10.9213 1.7840
6.8359 13.0292 2.1019
6.8268 13.8139 2.2024
6.9618 14.9891 2.3634
6.4143 14.7330 2.2990
6.0532 14.8768 2.2990
5.6892 15.0122 2.2990
5.3222 15.1391 2.2990
4.9526 15.2575 2.2990
4.5805 15.3673 2.2990
4.2061 15.4684 2.2990
3.8295 15.5609 2.2990
3.4511 15.6447 2.2990
3.0709 15.7196 2.2990
2.6892 15.7859 2.2990
2.4098 16.5548 2.4023
2.0083 16.6055 2.4023
1.6059 16.6470 2.4023
1.2026 16.6792 2.4023
0.7988 16.7021 2.4023
0.3945 16.7158 2.4023
-0.0099 16.7201 2.4023
-0.4143 16.7152 2.4023
-0.8185 16.7009 2.4023
-1.2223 16.6774 2.4023
-1.6255 16.6445 2.4023
-2.0278 16.6024 2.4023
-2.4292 16.5511 2.4023
-2.8293 16.4905 2.4023
-3.2280 16.4207 2.4023
-3.6251 16.3418 2.4023
-4.0204 16.2536 2.4023
-4.4136 16.1564 2.4023
-4.8046 16.0502 2.4023
-5.1933 15.9349 2.4023
-5.4262 15.3769 2.3364
-5.7066 15.0047 2.2992
-6.0704 14.8687 2.2992
-6.4312 14.7243 2.2992
-6.7888 14.5716 2.2992
-7.1429 14.4106 2.2992
-7.4934 14.2413 2.2992
-7.8400 14.0639 2.2992
-8.1827 13.8784 2.2992
-8.5212 13.6849 2.2992
-8.8554 13.4835 2.2992
-9.1850 13.2743 2.2992
-9.6054 13.1885 2.3223
-9.9287 12.9617 2.3223
-10.2468 12.7272 2.3223
-10.5596 12.4852 2.3223
-10.8670 12.2358 2.3223
-11.1687 11.9792 2.3223
-11.4646 11.7154 2.3223
-11.7546 11.4445 2.3223
-12.0384 11.1667 2.3223
-12.3159 10.8821 2.3223
-12.5869 10.5908 2.3223
-12.8513 10.2930 2.3223
-13.1090 9.9888 2.3223
-13.3596 9.6783 2.3223
-13.6032 9.3618 2.3223
-13.8395 9.0393 2.3223
-14.0685 8.7110 2.3223
-14.2898 8.3771 2.3223
-14.5035 8.0377 2.3223
-14.7094 7.6930 2.3223
-14.9073 7.3432 2.3223
-15.0971 6.9884 2.3223
-15.2787 6.6288 2.3223
-15.4520 6.2647 2.3223
-15.6167 5.8961 2.3223
-15.7729 5.5232 2.3223
-12.9185 4.1760 1.8844
-16.0522 4.7637 2.3213
-16.1605 4.3738 2.3183
-16.2599 3.9815 2.3153
-16.3659 3.5905 2.3145
-16.4738 3.1990 2.3153
-16.5718 2.8043 2.3161
-16.6477 2.4048 2.3151
-16.7050 2.0023 2.3128
-16.7703 1.6001 2.3129
-16.8461 1.1973 2.3158
-16.9120 0.7919 2.3187
-16.9494 0.3835 2.3190
-16.9764 -0.0262 2.3191
-16.9929 -0.4370 2.3193
-17.0063 -0.8489 2.3203
-17.0169 -1.2622 2.3223
-14.1073 -1.3898 1.9268
-13.0434 -1.6040 1.7841
-16.9443 -2.5007 2.3223
-16.9000 -2.9130 2.3223
-16.8456 -3.3246 2.3223
-16.7812 -3.7352 2.3223
-16.7067 -4.1446 2.3223
-16.6221 -4.5526 2.3223
-15.9868 -4.7966 2.2463
-16.4220 -5.3629 2.3222
-16.2584 -5.7477 2.3152
-16.1556 -6.1543 2.3183
-16.0048 -6.5438 2.3159
-15.8658 -6.9388 2.3167
-15.7129 -7.3290 2.3168
-15.5658 -7.7235 2.3193
-15.4125 -8.1171 2.3223
-15.2292 -8.4966 2.3223
-15.0363 -8.8719 2.3223
-14.8340 -9.2426 2.3223
-14.6223 -9.6086 2.3223
-14.4014 -9.9697 2.3223
-14.1714 -10.3254 2.3223
-13.9323 -10.6757 2.3223
-13.6844 -11.0203 2.3223
-12.3693 -10.4648 2.3223
-10.3538 -9.1977 1.9832
-10.2429 -9.5515 2.0038
-11.6103 -11.3630 2.3223
-11.3422 -11.6499 2.3223
-11.0668 -11.9303 2.3223
-10.7842 -12.2039 2.3223
-10.4947 -12.4706 2.3223
-10.1983 -12.7301 2.3223
-9.8954 -12.9823 2.3223
-9.4907 -13.0955 2.2992
-9.1781 -13.3301 2.2992
-8.8596 -13.5570 2.2992
-8.5353 -13.7759 2.2992
-8.2054 -13.9868 2.2992
-7.8701 -14.1893 2.2992
-7.5295 -14.3835 2.2992
-7.1841 -14.5692 2.2992
-6.8339 -14.7461 2.2992
-6.4791 -14.9143 2.2992
-4.5224 -11.1384 1.6990
-4.2113 -11.1362 1.6819
-3.9059 -11.1340 1.6661
-3.6058 -11.1318 1.6516
-3.3105 -11.1297 1.6384
-3.0194 -11.1276 1.6263
-2.7323 -11.1255 1.6154
-2.5259 -11.4743 1.6562
-2.5156 -12.9032 1.8527
-2.4838 -14.6100 2.0881
-2.4514 -16.8757 2.4023
-2.0437 -16.9328 2.4023
-1.6346 -16.9795 2.4023
-1.2243 -17.0158 2.4023
-0.8133 -17.0417 2.4023
-0.4017 -17.0572 2.4023
0.0102 -17.0622 2.4023
0.4221 -17.0568 2.4023
0.8336 -17.0410 2.4023
1.2447 -17.0148 2.4023
1.6549 -16.9781 2.4023
2.0640 -16.9310 2.4023
2.4570 -16.7731 2.3880
2.7541 -16.0836 2.2990
3.1409 -16.0090 2.2990
3.5256 -15.9246 2.2990
3.9079 -15.8306 2.2990
4.2876 -15.7269 2.2990
4.6645 -15.6137 2.2990
5.0382 -15.4910 2.2990
5.4086 -15.3589 2.2990
4.7090 -12.4076 1.8745
4.8142 -11.8167 1.8031
4.9885 -11.4457 1.7651
5.1817 -11.1463 1.7386
5.3768 -10.8714 1.7164
4.7454 -9.0387 1.4455
4.6969 -8.4445 1.3690
4.6188 -7.8517 1.2914
4.5846 -7.3798 1.2324
4.5676 -6.9712 1.1830
4.5871 -6.6452 1.1469
4.6639 -6.4193 1.1278
4.7818 -6.2580 1.1202
4.8979 -6.0990 1.1134
4.9825 -5.9063 1.1007
5.0191 -5.6662 1.0791
4.9996 -5.3768 1.0475
4.9741 -5.0969 1.0170
4.9502 -4.8332 0.9887
4.9679 -4.6215 0.9705
5.0299 -4.4576 0.9622
5.0908 -4.2966 0.9546
5.1508 -4.1384 0.9477
5.2098 -3.9827 0.9414
5.2680 -3.8292 0.9359
5.3255 -3.6778 0.9309
5.3823 -3.5281 0.9266
5.4385 -3.3801 0.9229
5.5261 -3.2522 0.9251
5.6332 -3.1346 0.9310
5.7412 -3.0154 0.9375
5.3791 -2.6615 0.8685
4.9953 -2.3232 0.7981
5.0102 -2.1845 0.7927
5.0427 -2.0552 0.7906
5.0769 -1.9275 0.7893
5.1107 -1.8003 0.7884
5.1440 -1.6735 0.7880
5.1769 -1.5470 0.7880
5.2315 -1.4266 0.7917
5.3031 -1.3093 0.7984
5.4021 -1.1961 0.8097
5.5034 -1.0798 0.8216
5.6072 -0.9601 0.8344
5.7137 -0.8368 0.8479
5.8183 -0.7090 0.8617
5.8886 -0.5735 0.8708
5.9600 -0.4354 0.8805
6.0326 -0.2944 0.8910
6.1017 -0.1501 0.9014
6.1687 -0.0027 0.9121
6.2370 0.1480 0.9236
6.2918 0.3016 0.9336
6.3256 0.4566 0.9410
6.3598 0.6139 0.9491
6.3943 0.7736 0.9579
6.4382 0.9373 0.9687
6.4910 1.1058 0.9815
6.5449 1.2785 0.9952
6.6055 1.4569 1.0106
6.6854 1.6449 1.0297
6.7682 1.8398 1.0502
6.8521 2.0417 1.0718
6.9388 2.2515 1.0947
7.0289 2.4701 1.1192
7.1230 2.6983 1.1455
7.2141 2.9342 1.1725
7.0927 3.0866 1.1657
6.9603 3.2313 1.1577
6.8299 3.3738 1.1504
6.7013 3.5143 1.1439
6.5528 3.6411 1.1344
6.4091 3.7668 1.1261
6.2798 3.8981 1.1207
6.1518 4.0279 1.1159
6.0276 4.1582 1.1124
6.0361 4.3832 1.1342
6.2229 4.7528 1.1917
6.3641 5.1090 1.2431
6.4618 5.4495 1.2887
6.5198 5.7739 1.3289
6.5993 6.1353 1.3761
6.7014 6.5394 1.4311
6.7478 6.9109 1.4774
6.9261 7.4455 1.5567
7.0274 7.9307 1.6233
7.1088 8.4244 1.6899
6.8548 8.5339 1.6793
6.7378 8.8168 1.7036
6.6006 9.0844 1.7251
6.2754 9.0914 1.6983
5.9753 9.1209 1.6773
2.8761 4.6307 0.8390
6.0216 10.2398 1.8295
6.0298 10.8456 1.9122
6.7327 12.8312 2.2341
6.6037 13.3612 2.2990
6.2755 13.5105 2.2990
5.9442 13.6520 2.2990
5.6098 13.7858 2.2990
5.2726 13.9117 2.2990
4.9326 14.0297 2.2990
4.5902 14.1398 2.2990
4.2454 14.2419 2.2990
3.8985 14.3360 2.2990
3.5495 14.4221 2.2990
3.1988 14.5000 2.2990
2.8465 14.5697 2.2990
2.6047 15.2884 2.4023
2.2337 15.3442 2.4023
1.8616 15.3915 2.4023
1.4886 15.4301 2.4023
1.1148 15.4600 2.4023
0.7405 15.4814 2.4023
0.3657 15.4941 2.4023
-0.0091 15.4981 2.4023
-0.3840 15.4935 2.4023
-0.7587 15.4803 2.4023
-1.1330 15.4584 2.4023
-1.5068 15.4278 2.4023
-1.8797 15.3886 2.4023
-2.2517 15.3409 2.4023
-2.6226 15.2845 2.4023
-2.9921 15.2196 2.4023
-3.3601 15.1462 2.4023
-3.7265 15.0642 2.4023
-4.0909 14.9738 2.4023
-4.4532 14.8749 2.4023
-4.8133 14.7677 2.4023
-5.1709 14.6521 2.4023
-5.4289 14.2735 2.3602
-5.6258 13.7784 2.2992
-5.9599 13.6441 2.2992
-6.2911 13.5021 2.2992
-6.6189 13.3524 2.2992
-6.9435 13.1951 2.2992
-7.2644 13.0301 2.2992
-7.5816 12.8577 2.2992
-7.8949 12.6779 2.2992
-8.2041 12.4907 2.2992
-8.5091 12.2963 2.2992
-8.8096 12.0947 2.2992
-9.1056 11.8860 2.2992
-9.3968 11.6704 2.2992
-9.7805 11.5628 2.3223
-10.0646 11.3312 2.3223
-10.3434 11.0928 2.3223
-10.6168 10.8478 2.3223
-10.8847 10.5963 2.3223
-11.1468 10.3384 2.3223
-11.4030 10.0742 2.3223
-11.6532 9.8039 2.3223
-11.8971 9.5275 2.3223
-12.1348 9.2453 2.3223
-12.3659 8.9573 2.3223
-12.5905 8.6637 2.3223
-12.8083 8.3646 2.3223
-13.0192 8.0601 2.3223
-13.2230 7.7505 2.3223
-13.4197 7.4359 2.3223
-13.6091 7.1164 2.3223
-13.7911 6.7922 2.3223
-13.9656 6.4634 2.3223
-14.1324 6.1303 2.3223
-14.2915 5.7929 2.3223
-14.4426 5.4516 2.3223
-14.5858 5.1064 2.3223
-12.9167 4.1743 2.0377
-14.8478 4.4051 2.3223
-14.9664 4.0494 2.3223
-15.0767 3.6905 2.3223
-15.1784 3.3288 2.3223
-15.2716 2.9643 2.3223
-15.3102 2.5895 2.3154
-15.3271 2.2128 2.3065
-15.3420 1.8377 2.2988
-15.3582 1.4641 2.2926
-15.3666 1.0910 2.2866
-15.3750 0.7187 2.2820
-15.3887 0.3470 2.2794
-15.3908 -0.0250 2.2765
-15.4026 -0.3973 2.2764
-15.4073 -0.7703 2.2765
-15.3988 -1.1434 2.2760
-14.1080 -1.3910 2.0872
-13.0419 -1.6049 1.9324
-15.3209 -2.2623 2.2749
-15.2770 -2.6345 2.2745
-15.2269 -3.0063 2.2746
-15.1460 -3.3725 2.2714
-15.0401 -3.7324 2.2658
-15.0043 -4.1107 2.2721
-14.9650 -4.4913 2.2793
-14.9379 -4.8795 2.2899
-14.9187 -5.2753 2.3033
-14.8784 -5.6690 2.3150
-14.7649 -6.0380 2.3168
-14.6537 -6.4100 2.3204
-14.5171 -6.7725 2.3215
-14.3695 -7.1312 2.3223
-14.2081 -7.4841 2.3223
-14.0379 -7.8333 2.3223
-13.8589 -8.1785 2.3223
-13.6713 -8.5195 2.3223
-13.4751 -8.8561 2.3223
-13.2704 -9.1880 2.3223
-13.0574 -9.5150 2.3223
-12.8362 -9.8370 2.3223
-12.6067 -10.1537 2.3223
-11.4628 -9.6991 2.3223
-10.3519 -9.1971 2.1398
-10.2412 -9.5511 2.1622
-10.7573 -10.5294 2.3223
-10.5083 -10.7946 2.3223
-10.2525 -11.0537 2.3223
-9.9901 -11.3065 2.3223
-9.7214 -11.5529 2.3223
-9.3524 -11.6754 2.2992
-9.0741 -11.9060 2.2992
-8.7899 -12.1297 2.2992
-8.5001 -12.3464 2.2992
-8.2047 -12.5559 2.2992
-7.9039 -12.7581 2.2992
-7.5981 -12.9527 2.2992
-7.2873 -13.1398 2.2992
-6.9717 -13.3190 2.2992
-6.6515 -13.4903 2.2992
-6.3270 -13.6537 2.2992
-5.9984 -13.8088 2.2992
-4.5220 -11.1384 1.8350
-4.2109 -11.1361 1.8166
-3.9056 -11.1339 1.7997
-3.6055 -11.1318 1.7841
-3.3102 -11.1296 1.7698
-3.0192 -11.1275 1.7568
-2.7321 -11.1255 1.7451
-2.5259 -11.4751 1.7894
-2.5155 -12.9041 2.0017
-2.6448 -15.5585 2.4023
-2.2689 -15.6206 2.4023
-1.8915 -15.6732 2.4023
-1.5128 -15.7163 2.4023
-1.1331 -15.7498 2.4023
-0.7527 -15.7737 2.4023
-0.3718 -15.7880 2.4023
0.0094 -15.7926 2.4023
0.3906 -15.7876 2.4023
0.7716 -15.7730 2.4023
1.1520 -15.7488 2.4023
1.5316 -15.7150 2.4023
1.9103 -15.6716 2.4023
2.2877 -15.6186 2.4023
2.5491 -14.8875 2.2990
2.9071 -14.8187 2.2990
3.2632 -14.7409 2.2990
3.6172 -14.6541 2.2990
3.9688 -14.5585 2.2990
4.3177 -14.4540 2.2990
4.6638 -14.3409 2.2990
5.0068 -14.2190 2.2990
4.7279 -12.4585 2.0330
4.8368 -11.8733 1.9568
5.0046 -11.4837 1.9128
5.2002 -11.1870 1.8846
5.4014 -10.9221 1.8623
4.7820 -9.1093 1.5733
4.6947 -8.4413 1.4778
4.6430 -7.8934 1.4019
4.6075 -7.4173 1.3375
4.5887 -7.0040 1.2833
4.6076 -6.6755 1.2439
4.6571 -6.4105 1.2159
4.7749 -6.2496 1.2077
4.8909 -6.0908 1.2003
4.9678 -5.8894 1.1848
5.0046 -5.6504 1.1615
4.9987 -5.3764 1.1306
4.9733 -5.0966 1.0975
4.9494 -4.8329 1.0670
4.9718 -4.6257 1.0483
5.0338 -4.4616 1.0392
5.0948 -4.3004 1.0309
5.1547 -4.1421 1.0233
5.2137 -3.9862 1.0165
5.2719 -3.8326 1.0104
5.3294 -3.6810 1.0050
5.3863 -3.5313 1.0003
5.4315 -3.3763 0.9942
5.5309 -3.2555 0.9986
5.6185 -3.1269 1.0015
5.7065 -2.9977 1.0049
5.3950 -2.6699 0.9394
4.9960 -2.3239 0.8607
5.0109 -2.1852 0.8548
5.0255 -2.0486 0.8495
5.0400 -1.9139 0.8447
5.0713 -1.7869 0.8433
5.1045 -1.6611 0.8428
5.1372 -1.5355 0.8427
5.1820 -1.4135 0.8451
5.2580 -1.2986 0.8530
5.3556 -1.1862 0.8649
5.4554 -1.0708 0.8775
5.5576 -0.9520 0.8909
5.6624 -0.8297 0.9052
5.7700 -0.7036 0.9204
5.8565 -0.5709 0.9328
5.9272 -0.4335 0.9431
5.9991 -0.2932 0.9542
6.0674 -0.1498 0.9652
6.1337 -0.0032 0.9765
6.2012 0.1467 0.9886
6.2699 0.3000 1.0015
6.3080 0.4549 1.0101
6.3419 0.6117 1.0188
6.3763 0.7709 1.0281
6.4200 0.9341 1.0396
6.4724 1.1021 1.0532
6.5260 1.2742 1.0677
6.5966 1.4544 1.0858
6.6763 1.6421 1.1063
6.7588 1.8367 1.1282
6.8423 2.0382 1.1512
6.9286 2.2477 1.1757
7.0184 2.4658 1.2020
7.1076 2.6919 1.2293
7.1903 2.9238 1.2567
7.0890 3.0844 1.2529
6.9567 3.2291 1.2441
6.8264 3.3715 1.2362
6.6947 3.5103 1.2286
6.5324 3.6292 1.2157
6.3885 3.7542 1.2065
6.2598 3.8851 1.2007
6.1323 4.0145 1.1956
6.0139 4.1482 1.1928
5.9918 4.3504 1.2100
6.1265 4.6786 1.2607
6.2924 5.0508 1.3207
6.3865 5.3853 1.3685
6.4868 5.7439 1.4205
6.5635 6.1013 1.4703
6.6203 6.4595 1.5188
6.6636 6.8240 1.5673
6.7394 7.2441 1.6270
6.9896 7.8872 1.7342
7.0914 8.4029 1.8106
6.8507 8.5279 1.8025
6.7466 8.8274 1.8320
6.5795 9.0545 1.8467
6.2396 9.0387 1.8133
5.9451 9.0739 1.7920
2.8760 4.6301 0.9009
5.9298 10.0827 1.9344
5.9887 10.7708 2.0391
6.0733 11.5736 2.1637
6.1510 12.4442 2.2990
5.8455 12.5836 2.2990
5.5370 12.7158 2.2990
5.2257 12.8408 2.2990
4.9117 12.9584 2.2990
4.5607 12.9707 2.2818
4.2508 13.0931 2.2853
3.9551 13.2671 2.2990
3.6320 13.3550 2.2990
3.3070 13.4354 2.2990
2.9803 13.5082 2.2990
2.6521 13.5734 2.2990
2.4268 14.2432 2.4023
2.0812 14.2953 2.4023
1.7345 14.3395 2.4023
1.3870 14.3755 2.4023
1.0387 14.4036 2.4023
0.6899 14.4235 2.4023
0.3408 14.4354 2.4023
-0.0085 14.4392 2.4023
-0.3578 14.4349 2.4023
-0.7069 14.4225 2.4023
-1.0557 14.4020 2.4023
-1.4039 14.3735 2.4023
-1.7514 14.3369 2.4023
-2.0980 14.2922 2.4023
-2.4435 14.2396 2.4023
-2.7878 14.1789 2.4023
-3.1306 14.1102 2.4023
-3.4718 14.0337 2.4023
-3.8112 13.9492 2.4023
-4.1487 13.8568 2.4023
-4.4841 13.7566 2.4023
-4.8171 13.6486 2.4023
-5.1477 13.5329 2.4023
-5.4339 13.3074 2.3840
-5.5518 12.7086 2.2992
-5.8600 12.5759 2.2992
-6.1652 12.4361 2.2992
-6.4673 12.2891 2.2992
-6.7660 12.1351 2.2992
-7.0612 11.9740 2.2992
-7.3527 11.8061 2.2992
-7.6403 11.6313 2.2992
-7.9240 11.4497 2.2992
-8.2036 11.2615 2.2992
-8.4788 11.0667 2.2992
-8.7496 10.8654 2.2992
-9.0158 10.6577 2.2992
-9.2772 10.4436 2.2992
-9.6295 10.3261 2.3223
-9.8835 10.0975 2.3223
-10.1323 9.8628 2.3223
-10.3758 9.6222 2.3223
-10.6137 9.3758 2.3223
-10.8459 9.1236 2.3223
-11.0723 8.8659 2.3223
-11.2928 8.6027 2.3223
-11.5072 8.3341 2.3223
-11.7154 8.0604 2.3223
-11.9173 7.7816 2.3223
-12.1128 7.4979 2.3223
-12.3016 7.2093 2.3223
-12.4838 6.9162 2.3223
-12.6591 6.6185 2.3223
-12.8275 6.3165 2.3223
-12.9889 6.0103 2.3223
-13.1431 5.7000 2.3223
-13.2901 5.3859 2.3223
-13.4297 5.0681 2.3223
-13.5618 4.7467 2.3223
-12.9149 4.1727 2.1914
-13.8034 4.0941 2.3223
-13.9126 3.7631 2.3223
-14.0140 3.4293 2.3223
-14.1075 3.0928 2.3223
-14.1930 2.7538 2.3223
-14.2704 2.4125 2.3223
-14.3398 2.0691 2.3223
-14.3896 1.7225 2.3205
-14.4200 1.3735 2.3169
-14.4432 1.0243 2.3135
-14.4484 0.6743 2.3085
-14.4269 0.3242 2.3007
-14.3979 -0.0245 2.2930
-14.3733 -0.3719 2.2874
-14.3472 -0.7184 2.2828
-14.3153 -1.0641 2.2787
-14.1087 -1.3922 2.2481
-13.0404 -1.6057 2.0812
-14.2317 -2.1026 2.2763
-14.2147 -2.4524 2.2799
-14.1919 -2.8031 2.2840
-14.1550 -3.1529 2.2872
-14.1313 -3.5080 2.2940
-14.0972 -3.8633 2.3005
-14.0433 -4.2158 2.3052
-14.0251 -4.5825 2.3173
-13.9548 -4.9356 2.3223
-13.8458 -5.2767 2.3223
-13.7284 -5.6154 2.3223
-13.6025 -5.9513 2.3223
-13.4683 -6.2844 2.3223
-13.3259 -6.6145 2.3223
-13.1752 -6.9412 2.3223
-13.0164 -7.2644 2.3223
-12.8495 -7.5840 2.3223
-12.6746 -7.8995 2.3223
-12.4918 -8.2110 2.3223
-12.3012 -8.5181 2.3223
-12.1029 -8.8207 2.3223
-11.8970 -9.1185 2.3223
-11.6836 -9.4113 2.3223
-10.6775 -9.0357 2.3223
-10.3500 -9.1966 2.2969
-10.2396 -9.5507 2.3211
-10.0187 -9.8075 2.3223
-9.7862 -10.0540 2.3223
-9.4526 -10.1924 2.2992
-9.2102 -10.4249 2.2992
-8.9620 -10.6516 2.2992
-8.7080 -10.8721 2.2992
-8.4485 -11.0863 2.2992
-8.1836 -11.2941 2.2992
-7.9133 -11.4953 2.2992
-7.6380 -11.6899 2.2992
-7.3577 -11.8776 2.2992
-7.0727 -12.0583 2.2992
-6.7832 -12.2319 2.2992
-6.4892 -12.3983 2.2992
-6.1910 -12.5574 2.2992
-5.8887 -12.7090 2.2992
-5.5827 -12.8530 2.2992
-4.5216 -11.1384 1.9716
-4.2105 -11.1361 1.9519
-3.9052 -11.1339 1.9337
-3.6052 -11.1317 1.9170
-3.3099 -11.1296 1.9017
-3.0189 -11.1275 1.8878
-2.7318 -11.1254 1.8752
-2.5259 -11.4759 1.9229
-2.8092 -14.4118 2.4023
-2.4610 -14.4782 2.4023
-2.1112 -14.5358 2.4023
-1.7600 -14.5846 2.4023
-1.4076 -14.6246 2.4023
-1.0543 -14.6557 2.4023
-0.7004 -14.6778 2.4023
-0.3459 -14.6911 2.4023
0.0088 -14.6954 2.4023
0.3635 -14.6908 2.4023
0.7179 -14.6772 2.4023
1.0719 -14.6547 2.4023
1.4251 -14.6233 2.4023
1.7775 -14.5831 2.4023
2.1287 -14.5340 2.4023
2.4691 -14.4215 2.3933
2.7051 -13.7900 2.2990
3.0365 -13.7178 2.2990
3.3659 -13.6373 2.2990
3.6931 -13.5485 2.2990
4.0179 -13.4516 2.2990
4.3401 -13.3466 2.2990
4.6594 -13.2335 2.2990
4.7470 -12.5099 2.1934
4.8598 -11.9306 2.1126
5.0209 -11.5221 2.0619
5.2245 -11.2403 2.0344
5.4264 -10.9735 2.0101
4.8209 -9.1842 1.7040
4.7205 -8.4885 1.5964
4.6674 -7.9358 1.5140
4.6306 -7.4553 1.4440
4.6100 -7.0372 1.3850
4.6283 -6.7062 1.3422
4.6503 -6.4018 1.3041
4.7679 -6.2411 1.2953
4.8838 -6.0826 1.2873
4.9531 -5.8726 1.2687
4.9901 -5.6346 1.2438
4.9978 -5.3761 1.2138
4.9725 -5.0963 1.1783
4.9486 -4.8327 1.1455
4.9757 -4.6298 1.1264
5.0377 -4.4656 1.1166
5.0987 -4.3043 1.1076
5.1586 -4.1458 1.0994
5.2177 -3.9897 1.0920
5.2759 -3.8360 1.0854
5.3334 -3.6843 1.0795
5.3855 -3.5312 1.0734
5.4192 -3.3691 1.0645
5.5440 -3.2638 1.0742
5.6325 -3.1352 1.0773
5.7208 -3.0057 1.0810
5.4111 -2.6783 1.0108
4.9967 -2.3247 0.9235
5.0115 -2.1860 0.9171
5.0262 -2.0493 0.9113
5.0406 -1.9146 0.9062
5.0549 -1.7815 0.9016
5.0690 -1.6500 0.8976
5.0979 -1.5242 0.8968
5.1334 -1.4007 0.8977
5.2136 -1.2881 0.9069
5.3098 -1.1765 0.9194
5.4081 -1.0619 0.9326
5.5087 -0.9441 0.9467
5.6118 -0.8227 0.9617
5.7177 -0.6976 0.9776
5.8248 -0.5682 0.9943
5.8947 -0.4316 1.0052
5.9659 -0.2921 1.0169
6.0334 -0.1494 1.0285
6.0989 -0.0036 1.0404
6.1656 0.1454 1.0532
6.2336 0.2978 1.0668
6.2904 0.4531 1.0791
6.3241 0.6095 1.0882
6.3582 0.7682 1.0981
6.4018 0.9310 1.1103
6.4539 1.0984 1.1247
6.5109 1.2708 1.1408
6.5877 1.4519 1.1612
6.6671 1.6393 1.1830
6.7493 1.8336 1.2063
6.8325 2.0348 1.2307
6.9185 2.2438 1.2568
7.0079 2.4616 1.2847
7.0851 2.6828 1.3116
7.1665 2.9135 1.3406
7.0853 3.0822 1.3402
6.9531 3.2268 1.3308
6.8229 3.3692 1.3223
6.6736 3.4986 1.3105
6.5121 3.6173 1.2967
6.3681 3.7416 1.2868
6.2398 3.8722 1.2805
6.1128 4.0012 1.2750
6.0002 4.1381 1.2731
5.9522 4.3211 1.2857
6.0414 4.6130 1.3298
6.2220 4.9936 1.3968
6.3126 5.3223 1.4467
6.4090 5.6744 1.5010
6.4873 6.0298 1.5542
6.5409 6.3813 1.6047
6.5812 6.7389 1.6552
6.6233 7.1186 1.7098
6.8791 7.7617 1.8250
7.0394 8.3405 1.9217
6.8465 8.5218 1.9260
6.7420 8.8205 1.9572
6.5426 9.0029 1.9632
6.2170 9.0050 1.9313
5.9088 9.0177 1.9039
2.8759 4.6296 0.9630
5.8878 10.0104 2.0530
5.9367 10.6763 2.1606
6.0377 11.5047 2.2990
5.7550 11.6421 2.2990
5.4694 11.7729 2.2990
5.1809 11.8969 2.2990
4.8897 12.0142 2.2990
4.5960 12.1246 2.2990
4.2999 12.2281 2.2990
4.0016 12.3246 2.2990
3.7012 12.4141 2.2990
3.3988 12.4967 2.2990
3.0948 12.5721 2.2990
2.7891 12.6404 2.2990
2.5934 13.2721 2.4023
2.2712 13.3285 2.4023
1.9477 13.3775 2.4023
1.6233 13.4189 2.4023
1.2981 13.4528 2.4023
0.9721 13.4791 2.4023
0.6457 13.4978 2.4023
0.3189 13.5090 2.4023
-0.0080 13.5125 2.4023
-0.3349 13.5085 2.4023
-0.6616 13.4969 2.4023
-0.9880 13.4777 2.4023
-1.3139 13.4509 2.4023
-1.6391 13.4165 2.4023
-1.9634 13.3746 2.4023
-2.2868 13.3252 2.4023
-2.6089 13.2683 2.4023
-2.9297 13.2038 2.4023
-3.2490 13.1320 2.4023
-3.5666 13.0527 2.4023
-3.8824 12.9660 2.4023
-4.1961 12.8720 2.4023
-4.5076 12.7707 2.4023
-4.8169 12.6621 2.4023
-5.1236 12.5463 2.4023
-5.4276 12.4234 2.4023
-5.4830 11.7658 2.2992
-5.7684 11.6347 2.2992
-6.0509 11.4968 2.2992
-6.3301 11.3523 2.2992
-6.6061 11.2013 2.2992
-6.8786 11.0438 2.2992
-7.1474 10.8799 2.2992
-7.4125 10.7097 2.2992
-7.6738 10.5332 2.2992
-7.9309 10.3506 2.2992
-8.1839 10.1619 2.2992
-8.4325 9.9671 2.2992
-8.6767 9.7665 2.2992
-8.9162 9.5602 2.2992
-9.1510 9.3481 2.2992
-9.3809 9.1304 2.2992
-9.7023 8.9966 2.3223
-9.9243 8.7657 2.3223
-10.1409 8.5295 2.3223
-10.3521 8.2881 2.3223
-10.5577 8.0416 2.3223
-10.7575 7.7901 2.3223
-10.9516 7.5338 2.3223
-11.1397 7.2728 2.3223
-11.3217 7.0072 2.3223
-11.4976 6.7371 2.3223
-11.6672 6.4627 2.3223
-11.8303 6.1841 2.3223
