ply
format ascii 1.0
element vertex 2108
property float32 x
property float32 y
property float32 z
end_header
5.9178 -40.3739 1.0872
5.6155 -32.7731 0.8873
1.4983 -7.6319 0.2079
1.6688 -7.5328 0.2067
1.8138 -7.3424 0.2030
1.1875 -4.3528 0.1214
1.2854 -4.2995 0.1210
1.3821 -4.2465 0.1208
1.4779 -4.1938 0.1206
1.5592 -4.1053 0.1195
1.6348 -4.0096 0.1182
1.7082 -3.9163 0.1171
1.7797 -3.8252 0.1160
4.7157 -9.5273 0.2934
6.6548 -12.6660 0.3965
5.7402 -10.3123 0.3284
3.5436 -6.0190 0.1952
3.4898 -5.6129 0.1855
3.4413 -5.2478 0.1770
2.0302 -2.9386 0.1012
2.2883 -3.1468 0.1108
2.4523 -3.2065 0.1155
2.6016 -3.2367 0.1194
2.7596 -3.2682 0.1237
2.9270 -3.3013 0.1282
3.1049 -3.3360 0.1332
3.2946 -3.3727 0.1385
3.4975 -3.4115 0.1444
3.7152 -3.4526 0.1507
3.9302 -3.4793 0.1569
4.1305 -3.4823 0.1625
4.2720 -3.4285 0.1657
4.3984 -3.3586 0.1685
4.5741 -3.3209 0.1731
4.6741 -3.2240 0.1750
4.7604 -3.1165 0.1765
4.8365 -3.0020 0.1777
4.9123 -2.8870 0.1790
4.9880 -2.7716 0.1804
3.4778 -1.8239 0.1250
3.5469 -1.7522 0.1267
3.5832 -1.6637 0.1274
5.2900 -2.3025 0.1872
5.3657 -2.1828 0.1892
5.4416 -2.0619 0.1913
5.5179 -1.9397 0.1936
5.5945 -1.8160 0.1960
5.6716 -1.6907 0.1985
5.7040 -1.5513 0.1996
5.7252 -1.4095 0.2004
5.8438 -1.2898 0.2047
5.9434 -1.1620 0.2086
6.0250 -1.0274 0.2119
6.0657 -0.8842 0.2139
5.9898 -0.7258 0.2119
5.9162 -0.5722 0.2101
5.8465 -0.4232 0.2086
5.7768 -0.2780 0.2071
5.7050 -0.1365 0.2057
5.6267 0.0014 0.2041
5.5504 0.1355 0.2027
5.4760 0.2662 0.2014
5.4034 0.3937 0.2003
5.3324 0.5183 0.1993
5.2628 0.6403 0.1984
5.1946 0.7598 0.1976
5.1344 0.8782 0.1973
5.0890 0.9976 0.1976
5.0455 1.1163 0.1980
5.0022 1.2342 0.1986
4.9590 1.3515 0.1993
4.9161 1.4683 0.2000
4.8732 1.5847 0.2009
4.8304 1.7009 0.2019
4.7875 1.8170 0.2030
4.7446 1.9332 0.2042
4.7503 2.0707 0.2076
4.7597 2.2132 0.2114
4.7692 2.3595 0.2153
4.7790 2.5098 0.2196
4.7890 2.6647 0.2240
4.7994 2.8245 0.2287
4.8068 2.9875 0.2335
4.9551 3.2483 0.2456
5.2666 3.6375 0.2665
5.6613 4.1157 0.2928
5.5450 4.2398 0.2932
5.3954 4.3360 0.2920
5.2970 4.4718 0.2937
5.1982 4.6082 0.2954
5.0989 4.7451 0.2974
4.9990 4.8828 0.2995
4.8983 5.0215 0.3018
4.7967 5.1613 0.3042
4.7429 5.3574 0.3100
4.7371 5.6189 0.3195
4.7310 5.8951 0.3297
4.7245 6.1876 0.3406
4.7181 6.4991 0.3524
4.6689 6.7696 0.3619
4.6172 7.0535 0.3721
4.5626 7.3521 0.3829
4.5050 7.6670 0.3945
5.0833 9.1505 0.4656
5.0347 9.6026 0.4834
5.8241 11.7930 0.5877
5.5563 11.9712 0.5909
5.2857 12.1488 0.5944
5.2128 12.8199 0.6220
6.8945 18.2048 0.8765
6.5547 18.6573 0.8919
6.4519 19.8897 0.9445
7.0187 23.5628 1.1121
6.5016 23.9262 1.1229
5.9976 24.3868 1.1387
6.6592 30.2077 1.4040
6.0424 30.9510 1.4326
6.1121 35.9020 1.6558
5.3806 36.9893 1.7005
5.9878 49.5443 2.2717
4.8405 50.2147 2.2973
3.6260 50.3269 2.2985
2.5161 52.6547 2.4017
1.2425 52.6973 2.4017
-0.0317 52.7157 2.4017
-1.3063 52.7095 2.4017
-2.5808 52.6789 2.4017
-3.8552 52.6242 2.4017
-5.1291 52.5450 2.4017
-6.1272 50.1902 2.2986
-7.3446 50.0675 2.2986
-8.5606 49.9212 2.2986
-9.8733 50.2516 2.3217
-11.0981 50.0566 2.3217
-12.3207 49.8377 2.3217
-13.5408 49.5951 2.3217
-13.8871 46.4167 2.1847
-2.6491 8.1332 0.3851
-2.8507 8.0832 0.3852
-3.0518 8.0292 0.3853
-3.2524 7.9711 0.3854
-3.4524 7.9091 0.3855
-3.6517 7.8431 0.3856
-3.8504 7.7730 0.3857
-4.0483 7.6987 0.3858
-4.2453 7.6205 0.3859
-4.4415 7.5381 0.3860
-19.2229 30.8924 1.6007
-10.3235 15.7297 0.8253
-10.6053 15.3376 0.8155
-10.8340 14.8859 0.8026
-11.0567 14.4448 0.7904
-9.3074 11.5691 0.6430
-9.6802 11.4541 0.6472
-10.0598 11.3358 0.6517
-11.3092 12.1395 0.7108
-11.2638 11.5195 0.6876
-10.8626 10.5849 0.6447
-14.0794 13.0711 0.8134
-21.2608 18.8021 1.1967
-21.2847 17.9255 1.1684
-21.3999 17.1558 1.1466
-21.6402 16.5054 1.1327
-21.9064 15.8860 1.1211
-22.2061 15.2983 1.1121
-22.5020 14.7131 1.1035
-22.8522 14.1657 1.0983
-14.7677 8.6674 0.6960
-23.6239 13.1081 1.0927
-24.1548 12.6492 1.0972
-10.2409 5.0513 0.4571
-10.3924 4.8174 0.4561
-37.8751 16.4570 1.6357
-37.8754 15.3801 1.6104
-37.8756 14.3240 1.5865
-24.2297 8.4999 1.0004
-24.4479 7.9184 0.9955
-37.8764 11.2640 1.5221
-37.8767 10.2747 1.5029
-37.8769 9.2982 1.4848
-37.8772 8.3333 1.4677
-37.8774 7.3785 1.4517
-42.2062 7.1679 1.6007
-49.4982 7.1804 1.8587
-30.2643 3.6460 1.1259
-62.9650 6.0459 2.3217
-14.3230 1.0267 0.5238
-63.9854 3.0350 2.3217
-63.7870 1.4821 2.2978
-18.2637 -0.0171 0.6535
-34.2055 -0.8587 1.2165
-57.0437 -2.8124 2.0175
-57.0864 -4.1993 2.0088
-21.2584 -2.0813 0.7447
-57.1721 -6.9956 1.9951
-55.8061 -8.2015 1.9409
-5.8955 -1.0125 0.2045
-21.0623 -4.1435 0.7290
-55.8030 -12.3855 1.9283
-54.0117 -13.3649 1.8646
-56.6719 -15.4854 1.9558
-56.6775 -16.9688 1.9566
-56.4641 -18.4026 1.9510
-57.0054 -20.1151 1.9729
-54.9643 -20.9014 1.9066
-53.1250 -21.6851 1.8483
-42.9808 -18.7682 1.5008
-9.6754 -4.5063 0.3393
-9.4854 -4.6999 0.3344
-45.8473 -24.1135 1.6259
-18.0930 -10.0815 0.6459
-21.3142 -12.5605 0.7667
-40.0238 -24.9081 1.4518
-36.8026 -24.1560 1.3473
-33.1493 -22.9228 1.2259
-32.1400 -23.3925 1.2018
-27.1235 -20.7619 1.0265
-31.1347 -25.0480 1.1938
-29.5678 -24.9917 1.5794
-18.4786 -16.4003 1.0037
-28.8067 -26.8383 1.5929
-28.4584 -27.8278 1.6039
-28.1119 -28.8500 1.6168
-27.3921 -29.5048 1.6097
-25.8032 -29.1762 1.5515
-24.5890 -29.1951 1.5149
-19.7099 -24.5835 1.2460
-20.6053 -27.0123 1.3389
-19.8035 -27.3045 1.3248
-10.2967 -14.9435 0.7104
-13.8039 -21.1070 0.9842
-22.0955 -35.6358 1.6313
-24.5716 -41.8540 1.8827
-23.8641 -42.9951 1.9021
-16.8564 -32.1775 1.4013
-22.4659 -45.5283 1.9535
-21.7576 -46.9158 1.9850
-21.1625 -48.6803 2.0327
-12.8619 -31.6563 1.3056
-20.4038 -53.9183 2.1983
-19.6486 -55.9711 2.2576
-18.5744 -57.3039 2.2885
-17.3722 -58.3652 2.3097
-14.7194 -54.2086 2.1272
-14.6514 -59.6169 2.3217
-13.2234 -60.0273 2.3217
-11.7824 -60.3949 2.3217
-10.3300 -60.7194 2.3217
-8.7792 -60.3932 2.2986
-5.7994 -48.0152 1.8204
-4.1959 -43.5528 1.6461
-3.1366 -43.5561 1.6423
-3.0477 -63.8028 2.4017
-1.5058 -63.8620 2.4017
0.0217 -37.3407 1.4040
0.9240 -37.3420 1.4048
2.8614 -58.4747 2.2026
4.4565 -60.8963 2.2985
5.6304 -57.7392 2.1853
6.1680 -50.5723 1.9207
5.8593 -39.9802 1.5248
1.2832 -7.4896 0.2871
1.4372 -7.3215 0.2822
1.5810 -7.1373 0.2769
1.7190 -6.9594 0.2719
1.8515 -6.7873 0.2673
1.2501 -4.1822 0.1662
1.3444 -4.1312 0.1657
1.4374 -4.0792 0.1653
1.5136 -3.9857 0.1633
1.5876 -3.8944 0.1615
1.6595 -3.8052 0.1598
6.5974 -14.1827 0.6036
6.9416 -14.0264 0.6056
6.5461 -12.4606 0.5462
3.3640 -6.0441 0.2692
3.3209 -5.6415 0.2556
3.2817 -5.2789 0.2434
3.2457 -4.9502 0.2326
3.1365 -4.5406 0.2176
2.0331 -2.7962 0.1368
2.2818 -2.9840 0.1492
2.4348 -3.0295 0.1549
2.5776 -3.0532 0.1598
2.7283 -3.0777 0.1652
2.8878 -3.1031 0.1709
3.0568 -3.1297 0.1771
3.2366 -3.1574 0.1838
3.4283 -3.1865 0.1910
3.6334 -3.2170 0.1989
3.8535 -3.2493 0.2075
4.0906 -3.2835 0.2169
5.2010 -3.9721 0.2718
5.2484 -3.8112 0.2706
4.4999 -3.1044 0.2292
4.5734 -2.9947 0.2302
4.6464 -2.8846 0.2314
4.7191 -2.7740 0.2327
4.7915 -2.6630 0.2341
4.8636 -2.5513 0.2357
3.4536 -1.7065 0.1661
5.0075 -2.3256 0.2393
5.0794 -2.2114 0.2412
5.1513 -2.0962 0.2434
5.2232 -1.9798 0.2456
5.2953 -1.8621 0.2481
5.3676 -1.7430 0.2507
5.4402 -1.6223 0.2534
5.5132 -1.5000 0.2563
5.5595 -1.3693 0.2581
5.5800 -1.2322 0.2589
5.8841 -1.1510 0.2730
6.0115 -1.0258 0.2791
6.0351 -0.8804 0.2805
5.9601 -0.7228 0.2775
5.8872 -0.5700 0.2748
5.8174 -0.4217 0.2723
5.7482 -0.2773 0.2700
5.6729 -0.1363 0.2675
5.5954 0.0008 0.2651
5.5200 0.1342 0.2628
5.4464 0.2642 0.2608
5.3745 0.3910 0.2590
5.3042 0.5150 0.2574
5.2353 0.6364 0.2559
5.1677 0.7553 0.2546
5.1133 0.8740 0.2541
5.0697 0.9932 0.2542
5.0263 1.1115 0.2544
4.9833 1.2290 0.2548
4.9404 1.3459 0.2554
4.8976 1.4622 0.2560
4.8549 1.5782 0.2568
4.8122 1.6940 0.2578
4.7696 1.8097 0.2588
4.7268 1.9254 0.2601
4.7295 2.0611 0.2640
4.7386 2.2028 0.2684
4.7478 2.3483 0.2732
4.7572 2.4978 0.2782
4.7669 2.6518 0.2835
4.7768 2.8106 0.2892
4.7869 2.9746 0.2951
4.9226 3.2264 0.3094
5.2293 3.6111 0.3352
5.5770 4.0537 0.3650
5.5276 4.2258 0.3696
5.3871 4.3286 0.3683
5.2917 4.4667 0.3703
5.1928 4.6027 0.3722
5.0935 4.7394 0.3743
4.9936 4.8769 0.3767
4.8930 5.0153 0.3793
4.7915 5.1549 0.3820
4.7396 5.3529 0.3892
4.7309 5.6107 0.4006
4.7217 5.8827 0.4128
4.7120 6.1705 0.4259
4.6790 6.4444 0.4379
4.6287 6.7105 0.4493
4.5764 6.9904 0.4616
4.5213 7.2846 0.4747
4.4631 7.5946 0.4887
5.0495 9.0885 0.5779
5.0000 9.5353 0.5996
5.5369 11.2101 0.6975
5.5111 11.8725 0.7315
5.2425 12.0482 0.7355
4.9715 12.2252 0.7398
6.8077 17.9739 1.0789
6.4382 18.3238 1.0917
6.0630 18.6889 1.1057
6.9313 23.2673 1.3678
6.4758 23.8290 1.3927
5.9054 24.0092 1.3958
6.6221 30.0365 1.7378
6.0293 30.8809 1.7790
6.0533 35.5539 2.0404
5.3499 36.7753 2.1036
4.8702 40.2938 2.2985
3.8934 40.3861 2.2985
2.9152 40.4588 2.2985
2.0229 42.3315 2.4017
0.9989 42.3663 2.4017
-0.0256 42.3804 2.4017
-1.0504 42.3739 2.4017
-2.0750 42.3468 2.4017
-3.0992 42.2991 2.4017
-4.1228 42.2307 2.4017
-5.1453 42.1418 2.4017
-5.9019 40.2280 2.2986
-6.8778 40.1033 2.2986
-7.8519 39.9588 2.2986
-8.8239 39.7946 2.2986
-9.8919 40.0084 2.3217
-10.8685 39.8027 2.3217
-11.8421 39.5767 2.3217
-2.5329 7.7754 0.4590
-2.5292 7.1706 0.4262
-2.5260 6.6449 0.3978
-2.6073 6.3892 0.3856
-2.7662 6.3364 0.3856
-2.9245 6.2804 0.3857
-3.0820 6.2210 0.3858
-3.2386 6.1582 0.3859
-3.3943 6.0921 0.3860
-3.5491 6.0226 0.3861
-3.7028 5.9498 0.3862
-3.8554 5.8737 0.3863
-4.0070 5.7942 0.3863
-4.1573 5.7113 0.3864
-4.3063 5.6252 0.3865
-4.4541 5.5356 0.3866
-4.6004 5.4427 0.3867
-17.2983 19.4895 1.4100
-11.0993 11.9124 0.8784
-10.6667 10.9072 0.8205
-13.0691 12.7330 0.9783
-14.0886 13.0776 1.0274
-20.6405 18.2506 1.4677
-20.6782 17.4118 1.4352
-20.8522 16.7138 1.4140
-21.0755 16.0718 1.3975
-21.3461 15.4768 1.3852
-21.5908 14.8716 1.3723
-21.8578 14.2891 1.3619
-22.1950 13.7555 1.3566
-15.9654 9.3684 0.9580
-22.9304 12.7205 1.3518
-23.3105 12.2042 1.3510
-10.2398 5.0495 0.5838
-10.3922 4.8160 0.5833
-25.0289 10.8723 1.3839
-26.6398 10.8145 1.4519
-37.8756 14.3197 2.0360
-24.2249 8.4955 1.2852
-24.4471 7.9154 1.2808
-25.9090 7.7021 1.3412
-25.2727 6.8529 1.2935
-24.9723 6.1276 1.2644
-24.9201 5.4799 1.2489
-25.1269 4.8920 1.2472
-42.2332 7.1679 2.0773
-47.6068 6.9009 2.3217
-30.2596 3.6422 1.4640
-48.3442 4.6368 2.3217
-21.5689 1.5438 1.0288
-48.4801 2.2944 2.2978
-48.7589 1.1278 2.2978
-18.2627 -0.0190 0.8562
-34.2024 -0.8622 1.5962
-49.9506 -2.4680 2.3217
-50.1243 -3.6924 2.3217
-50.2698 -4.9269 2.3217
-50.3864 -6.1707 2.3217
-50.4735 -7.4231 2.3217
-5.8955 -1.0131 0.2709
-21.0607 -4.1455 0.9671
-50.0368 -11.1111 2.2979
-50.5199 -12.5064 2.3217
-50.4537 -13.7918 2.3217
-50.3551 -15.0814 2.3217
-50.2240 -16.3744 2.3217
-50.0602 -17.6699 2.3217
-49.8629 -18.9670 2.3217
-49.6322 -20.2650 2.3217
-42.9748 -18.7705 2.0211
-9.6725 -4.5060 0.4577
-9.4842 -4.7004 0.4518
-45.8373 -24.1137 2.2003
-18.0904 -10.0822 0.8757
-21.3098 -12.5605 1.0410
-32.6813 -20.3426 1.6126
-31.6423 -20.7730 1.5784
-30.9173 -21.3833 1.5605
-30.4194 -22.1441 1.5550
-27.1173 -20.7608 1.4053
-29.7982 -23.9767 1.5670
-24.4020 -20.6287 1.6584
-18.4717 -16.3966 1.2777
-27.1025 -25.2543 1.9102
-26.7043 -26.1165 1.9199
-26.0550 -26.7429 1.9132
-25.2502 -27.2016 1.8961
-24.2731 -27.4498 1.8665
-23.3015 -27.6702 1.8373
-19.7050 -24.5807 1.5957
-20.6016 -27.0110 1.7159
-16.1463 -22.2649 1.3856
-10.2949 -14.9426 0.9118
-13.8010 -21.1052 1.2641
-19.5314 -31.5042 1.8537
-19.0976 -32.5337 1.8822
-18.7506 -33.7862 1.9237
-16.8520 -32.1727 1.8043
-19.8715 -40.2752 2.2267
-19.1940 -41.3925 2.2579
-18.3928 -42.3137 2.2791
-12.8593 -31.6534 1.6848
-16.6417 -43.9815 2.3153
-15.6414 -44.5607 2.3217
-14.5808 -44.9879 2.3217
-13.5074 -45.3851 2.3217
-12.4218 -45.7516 2.3217
-11.3253 -46.0873 2.3217
-10.2186 -46.3916 2.3217
-9.0123 -46.2000 2.2986
-5.7549 -33.8302 1.6745
-6.7800 -46.6443 2.2986
-5.6544 -46.8180 2.2986
-4.1954 -43.5507 2.1318
-3.1362 -43.5540 2.1270
-2.3528 -49.2583 2.4017
-1.1625 -49.3032 2.4017
0.0216 -37.3430 1.8187
0.9235 -37.3301 1.8190
2.4087 -49.2316 2.4017
2.9301 -40.0436 1.9572
4.5733 -46.9053 2.2985
5.7013 -46.7517 2.2985
5.9135 -40.3547 1.9919
5.4083 -31.5716 1.5657
4.9409 -25.1733 1.2552
5.2679 -23.7844 1.1932
3.5378 -14.3250 0.7236
5.7522 -21.0897 1.0734
6.1907 -20.7131 1.0630
1.3087 -4.0219 0.2083
1.3959 -3.9620 0.2072
1.4705 -3.8727 0.2047
3.8632 -9.4777 0.5066
4.0244 -9.2289 0.4993
4.1800 -8.9869 0.4925
3.0969 -6.2584 0.3477
3.1531 -6.0026 0.3384
3.1544 -5.6681 0.3245
3.1244 -5.3083 0.3089
3.0967 -4.9820 0.2949
3.0415 -4.6394 0.2796
3.5352 -5.1183 0.3143
3.6231 -4.9838 0.3122
2.0349 -2.6615 0.1702
2.2748 -2.8309 0.1851
2.4180 -2.8645 0.1916
2.5548 -2.8823 0.1974
2.6988 -2.9005 0.2037
2.8508 -2.9192 0.2105
3.0117 -2.9384 0.2178
3.1823 -2.9583 0.2256
3.3637 -2.9788 0.2341
3.5573 -3.0001 0.2433
4.7766 -3.8348 0.3213
5.0336 -3.8450 0.3334
5.2867 -3.8397 0.3452
5.4400 -3.7537 0.3504
5.7608 -3.7730 0.3665
6.0170 -3.7362 0.3783
6.3277 -3.7205 0.3936
6.4239 -3.5711 0.3955
6.5565 -3.4401 0.4000
6.6904 -3.3068 0.4047
5.9613 -2.7693 0.3579
5.9908 -2.6090 0.3571
5.9207 -2.4100 0.3507
5.8681 -2.2249 0.3457
5.0898 -1.7904 0.2984
5.1582 -1.6755 0.3011
5.2268 -1.5593 0.3041
5.2955 -1.4414 0.3072
5.3645 -1.3218 0.3105
5.4231 -1.1981 0.3134
5.8258 -1.1402 0.3363
5.9816 -1.0213 0.3451
6.0047 -0.8766 0.3465
5.9305 -0.7199 0.3425
5.8585 -0.5679 0.3388
5.7887 -0.4202 0.3354
5.7198 -0.2765 0.3323
5.6411 -0.1362 0.3287
5.5645 0.0002 0.3254
5.4899 0.1328 0.3224
5.4171 0.2622 0.3197
5.3459 0.3884 0.3172
5.2762 0.5118 0.3149
5.2080 0.6325 0.3129
5.1410 0.7509 0.3110
5.0938 0.8702 0.3105
5.0504 0.9889 0.3104
5.0074 1.1068 0.3105
4.9645 1.2238 0.3107
4.9218 1.3403 0.3111
4.8792 1.4562 0.3117
4.8367 1.5718 0.3124
4.7942 1.6871 0.3133
4.7517 1.8024 0.3144
4.7093 1.9178 0.3156
4.7109 2.0525 0.3200
4.7208 2.1940 0.3253
4.7310 2.3394 0.3309
4.7415 2.4890 0.3368
4.7523 2.6431 0.3431
4.7634 2.8022 0.3498
4.7749 2.9666 0.3569
4.9060 3.2149 0.3735
5.2009 3.5909 0.4037
5.4971 3.9949 0.4353
5.5123 4.2134 0.4457
5.3810 4.3230 0.4446
5.2925 4.4666 0.4473
5.1936 4.6027 0.4494
5.0943 4.7394 0.4517
4.9944 4.8769 0.4544
4.8937 5.0154 0.4572
4.7923 5.1550 0.4603
4.7429 5.3560 0.4690
4.7343 5.6140 0.4825
4.7253 5.8863 0.4970
4.7157 6.1744 0.5126
4.6775 6.4416 0.5263
4.6246 6.7037 0.5395
4.5691 6.9784 0.5536
4.5108 7.2669 0.5686
4.4494 7.5706 0.5848
5.0160 9.0273 0.6889
4.9704 9.4779 0.7150
4.9403 10.0012 0.7464
5.5050 11.8580 0.8760
5.2393 12.0396 0.8810
4.9712 12.2229 0.8865
6.8042 17.9626 1.2919
6.4194 18.2684 1.3038
6.0434 18.6264 1.3199
6.8815 23.0978 1.6260
6.4621 23.7763 1.6637
5.8579 23.8139 1.6572
6.6013 29.9393 2.0732
6.0218 30.8396 2.1261
5.6989 33.4690 2.2985
4.8858 33.5820 2.2985
4.0709 33.6781 2.2985
3.2546 33.7571 2.2985
2.5126 34.8693 2.3698
1.6911 35.3854 2.4017
0.8350 35.4147 2.4017
-0.0215 35.4261 2.4017
-0.8782 35.4198 2.4017
-1.7347 35.3957 2.4017
-2.5907 35.3538 2.4017
-3.4461 35.2941 2.4017
-4.3004 35.2166 2.4017
-5.1533 35.1212 2.4017
-5.7470 33.5054 2.2986
-6.5600 33.3801 2.2986
-7.3709 33.2378 2.2986
-8.1795 33.0784 2.2986
-8.9853 32.9021 2.2986
-9.8866 33.0375 2.3217
-2.5328 7.7743 0.5499
-2.5292 7.1696 0.5107
-2.5259 6.6440 0.4768
-2.5231 6.1823 0.4474
-2.5206 5.7731 0.4214
-2.5184 5.4076 0.3985
-2.5688 5.1845 0.3859
-2.6984 5.1303 0.3860
-2.8270 5.0733 0.3860
-2.9547 5.0134 0.3861
-3.0814 4.9508 0.3862
-3.2071 4.8853 0.3863
-3.3316 4.8170 0.3863
-3.4550 4.7459 0.3864
-3.5772 4.6720 0.3865
-3.6981 4.5954 0.3866
-3.8176 4.5159 0.3866
-3.9358 4.4337 0.3867
-4.0525 4.3488 0.3868
-4.1678 4.2611 0.3869
-4.2814 4.1707 0.3869
-4.3935 4.0776 0.3870
-4.5038 3.9817 0.3871
-20.1434 16.9586 1.6908
-20.3120 16.2781 1.6667
-20.5389 15.6599 1.6490
-20.7716 15.0575 1.6331
-21.0244 14.4787 1.6201
-21.3006 13.9221 1.6100
-21.6061 13.3878 1.6031
-15.9644 9.3658 1.1637
-22.2618 12.3469 1.5953
-22.5932 11.8259 1.5928
-10.2387 5.0478 0.7106
-10.3920 4.8147 0.7106
-23.4820 10.1976 1.5829
-23.4410 9.5133 1.5587
-23.5260 8.8918 1.5442
-23.6056 8.2756 1.5303
-23.5296 7.6156 1.5076
-23.5408 6.9955 1.4916
-23.6371 6.4067 1.4819
-23.5979 5.7878 1.4648
-23.6129 5.1899 1.4521
-23.6786 4.6075 1.4434
-23.9364 4.0600 1.4471
-24.2991 3.5197 1.4579
-25.0631 3.0140 1.4931
-39.2263 3.7581 2.3217
-21.5668 1.5414 1.2689
-39.6724 1.8733 2.3217
-39.4538 0.9084 2.2978
-18.2618 -0.0209 1.0591
-34.1994 -0.8658 1.9762
-39.8897 -1.9751 2.2978
-39.9901 -2.9501 2.2978
-40.0676 -3.9312 2.2978
-40.1216 -4.9178 2.2978
-40.1520 -5.9094 2.2978
-5.8954 -1.0137 0.3373
-21.0590 -4.1474 1.2055
-40.0981 -8.9085 2.2978
-40.0308 -9.9141 2.2978
-39.9385 -10.9218 2.2978
-40.2344 -12.0547 2.3217
-31.8889 -10.4002 1.8468
-31.4408 -11.1013 1.8286
-31.1487 -11.8520 1.8206
-30.8418 -12.5963 1.8128
-30.1335 -13.1651 1.7825
-9.6696 -4.5058 0.5760
-9.4829 -4.7009 0.5693
-28.6023 -15.0502 1.7320
-18.0878 -10.0829 1.1056
-21.3054 -12.5605 1.3156
-27.7627 -17.2844 1.7332
-27.5685 -18.1020 1.7416
-27.3019 -18.8862 1.7468
-27.0520 -19.6962 1.7546
-26.6310 -20.3919 1.7526
-26.3334 -21.1923 1.7602
-24.3036 -20.5488 2.0057
-18.4647 -16.3930 1.5518
-23.5890 -21.9838 2.0211
-23.2666 -22.7578 2.0347
-22.9996 -23.6103 2.0554
-22.8948 -24.6675 2.0935
-22.4650 -25.4086 2.1046
-21.8789 -25.9843 2.1029
-19.7001 -24.5778 1.9455
-20.5213 -26.9091 2.0856
-16.1260 -22.2397 1.6893
-10.2930 -14.9418 1.1134
-13.7982 -21.1035 1.5442
-18.0843 -29.1735 2.0980
-17.5419 -29.8870 2.1143
-17.0265 -30.6831 2.1370
-16.5426 -31.5856 2.1677
-16.0186 -32.4697 2.1976
-15.3575 -33.1225 2.2126
-14.7139 -33.8539 2.2337
-12.8568 -31.6505 2.0644
-13.5978 -35.9407 2.3191
-12.7560 -36.3443 2.3217
-11.8880 -36.6833 2.3217
-11.0102 -36.9984 2.3217
-10.1232 -37.2892 2.3217
-9.1360 -37.1817 2.2986
-8.2418 -37.4206 2.2986
-7.3408 -37.6346 2.2986
-6.0492 -35.5633 2.1613
-5.5598 -38.2530 2.3147
-4.8106 -39.8347 2.4017
-3.8484 -39.9521 2.4017
-2.8831 -40.0425 2.4017
-1.9156 -40.1058 2.4017
-0.9465 -40.1420 2.4017
0.0232 -40.1510 2.4017
0.9199 -37.1937 2.2258
1.9610 -40.0876 2.4017
2.8017 -38.2950 2.2985
3.7241 -38.2000 2.2985
4.6431 -38.0793 2.2985
1.0047 -6.8568 0.4155
1.1820 -6.9009 0.4200
4.9092 -25.0148 1.5306
5.3098 -23.9765 1.4758
3.5369 -14.3233 0.8875
5.7800 -21.1941 1.3228
6.2242 -20.8278 1.3105
1.2748 -3.9181 0.2487
1.3567 -3.8513 0.2468
3.5670 -9.3952 0.6082
2.6042 -6.3897 0.4182
2.6768 -6.1393 0.4066
2.7444 -5.9010 0.3957
2.8073 -5.6738 0.3856
2.8659 -5.4567 0.3761
2.9207 -5.2489 0.3672
2.9496 -5.0120 0.3562
2.9313 -4.7165 0.3409
3.3798 -5.1560 0.3792
3.4686 -5.0227 0.3763
3.5555 -4.8915 0.3736
3.6406 -4.7624 0.3712
2.0358 -2.5337 0.2018
2.2672 -2.6862 0.2187
2.4018 -2.7101 0.2259
2.5328 -2.7226 0.2326
2.6706 -2.7351 0.2397
2.8157 -2.7477 0.2473
2.9689 -2.7604 0.2556
3.1311 -2.7732 0.2644
3.3031 -2.7861 0.2739
4.6186 -3.7086 0.3766
4.8616 -3.7143 0.3901
5.1207 -3.7198 0.4048
5.3717 -3.7073 0.4186
5.6042 -3.6711 0.4310
5.8489 -3.6326 0.4443
6.1030 -3.5891 0.4583
6.2090 -3.4524 0.4613
6.4018 -3.3598 0.4710
5.8757 -2.9049 0.4284
5.8985 -2.7408 0.4264
5.9190 -2.5784 0.4247
5.8599 -2.3859 0.4175
5.8049 -2.2016 0.4110
5.6598 -1.9916 0.3986
5.5240 -1.7950 0.3871
5.5318 -1.6509 0.3860
5.5522 -1.5119 0.3861
5.5723 -1.3737 0.3864
5.6332 -1.2452 0.3897
5.7687 -1.1297 0.3984
5.9216 -1.0117 0.4085
5.9746 -0.8728 0.4120
5.9013 -0.7170 0.4070
5.8300 -0.5657 0.4023
5.7607 -0.4188 0.3981
5.6874 -0.2755 0.3937
5.6096 -0.1360 0.3893
5.5339 -0.0004 0.3852
5.4609 0.1316 0.3815
5.3914 0.2604 0.3782
5.3234 0.3862 0.3752
5.2569 0.5093 0.3725
5.1918 0.6300 0.3701
5.1235 0.7478 0.3676
5.0782 0.8670 0.3669
5.0353 0.9854 0.3666
4.9925 1.1030 0.3664
4.9501 1.2197 0.3665
4.9077 1.3359 0.3668
4.8655 1.4516 0.3673
4.8234 1.5669 0.3680
4.7813 1.6821 0.3689
4.7392 1.7971 0.3699
4.7014 1.9140 0.3716
4.7114 2.0521 0.3773
4.7213 2.1937 0.3833
4.7315 2.3391 0.3897
4.7420 2.4887 0.3965
4.7528 2.6428 0.4037
4.7639 2.8019 0.4113
4.7755 2.9663 0.4195
4.9124 3.2185 0.4394
5.2083 3.5953 0.4747
5.4932 3.9914 0.5105
5.5047 4.2068 0.5222
5.3749 4.3174 0.5208
5.2919 4.4654 0.5243
5.1945 4.6027 0.5267
5.0951 4.7394 0.5293
4.9952 4.8770 0.5321
4.8945 5.0155 0.5353
4.7930 5.1551 0.5388
4.7463 5.3590 0.5490
4.7378 5.6174 0.5646
4.7288 5.8900 0.5815
4.7158 6.1739 0.5991
4.6760 6.4387 0.6147
4.6231 6.7007 0.6299
4.5676 6.9752 0.6462
4.5093 7.2635 0.6636
4.4567 7.5821 0.6837
5.0137 9.0220 0.8035
4.9695 9.4750 0.8340
4.9769 10.0742 0.8770
5.5073 11.8618 1.0220
5.2416 12.0435 1.0276
4.9733 12.2269 1.0338
6.7963 17.9400 1.5040
6.4006 18.2132 1.5150
6.0273 18.5750 1.5338
6.8661 23.0438 1.8901
6.4250 23.6372 1.9269
5.8179 23.6490 1.9171
6.2839 28.4972 2.2985
5.5901 28.6257 2.2985
4.8940 28.7394 2.2985
4.1960 28.8383 2.2985
3.4964 28.9222 2.2985
2.7953 28.9913 2.2985
2.1871 30.3501 2.4017
1.4525 30.3910 2.4017
0.7171 30.4164 2.4017
-0.0186 30.4260 2.4017
-0.7544 30.4200 2.4017
-1.4900 30.3984 2.4017
-2.2252 30.3612 2.4017
-2.9597 30.3082 2.4017
-3.6931 30.2397 2.4017
-4.4253 30.1556 2.4017
-5.1559 30.0558 2.4017
-5.6322 28.6553 2.2986
-6.3277 28.5300 2.2986
-7.0209 28.3897 2.2986
-7.7116 28.2346 2.2986
-8.3994 28.0646 2.2986
-2.5328 7.7733 0.6409
-2.5291 7.1687 0.5953
-2.5259 6.6431 0.5560
-2.5231 6.1814 0.5217
-2.5206 5.7723 0.4916
-2.5184 5.4069 0.4649
-2.5164 5.0780 0.4411
-2.5145 4.7802 0.4198
-2.5129 4.5090 0.4006
-2.5304 4.2929 0.3861
-2.6381 4.2380 0.3862
-2.7449 4.1807 0.3863
-2.8506 4.1209 0.3863
-2.9552 4.0587 0.3864
-3.0586 3.9942 0.3865
-3.1727 3.9420 0.3880
-3.3321 3.9410 0.3949
-3.4981 3.9400 0.4023
-3.6712 3.9390 0.4103
-3.8522 3.9379 0.4189
-4.0419 3.9367 0.4281
-4.2411 3.9355 0.4380
-4.4508 3.9342 0.4486
-19.6133 16.5095 1.9317
-19.8129 15.8754 1.9083
-20.0189 15.2606 1.8874
-20.2832 14.7007 1.8735
-20.5391 14.1418 1.8602
-20.7854 13.5827 1.8474
-21.0868 13.0633 1.8407
-15.9633 9.3631 1.3696
-21.7022 12.0339 1.8314
-21.9371 11.4799 1.8221
-10.2377 5.0460 0.8376
-10.3919 4.8134 0.8380
-22.1673 9.6241 1.7632
-22.2146 9.0130 1.7439
-22.2616 8.4114 1.7260
-22.1350 7.7576 1.6960
-22.2150 7.1877 1.6832
-22.3107 6.6275 1.6726
-22.3774 6.0628 1.6609
-22.4265 5.4980 1.6490
-22.4827 4.9390 1.6387
-22.5449 4.3844 1.6298
-22.7357 3.8539 1.6311
-22.9369 3.3199 1.6340
-23.2769 2.7967 1.6475
-23.7236 2.2703 1.6693
-21.5648 1.5390 1.5094
-33.1370 1.5612 2.3083
-33.4683 0.7670 2.3217
-18.2609 -0.0228 1.2622
-33.6907 -0.8565 2.3217
-33.7733 -1.6758 2.3217
-33.8363 -2.4997 2.3217
-33.8798 -3.3277 2.3217
-33.9032 -4.1592 2.3217
-33.9067 -4.9939 2.3217
-5.8953 -1.0144 0.4039
-21.0574 -4.1493 1.4442
-32.0522 -7.1244 2.2020
-30.6363 -7.5908 2.1097
-29.7029 -8.1259 2.0515
-29.0411 -8.7042 2.0130
-28.5981 -9.3301 1.9908
-15.4814 -5.4680 1.0830
-28.1043 -10.6967 1.9771
-27.8881 -11.3931 1.9743
-27.6048 -12.0635 1.9680
-9.6667 -4.5055 0.6945
-9.4816 -4.7013 0.6870
-26.8086 -14.1095 1.9604
-18.0852 -10.0836 1.3357
-21.3011 -12.5605 1.5903
-26.0468 -16.2193 1.9674
-25.8335 -16.9659 1.9757
-25.6160 -17.7233 1.9854
-25.4395 -18.5255 2.0000
-25.0425 -19.1788 1.9989
-24.7607 -19.9300 2.0086
-22.5100 -19.0354 2.1860
-18.4576 -16.3893 1.8262
-21.6532 -20.1828 2.1850
-21.2128 -20.7520 2.1856
-20.7987 -21.3540 2.1907
-20.4387 -22.0243 2.2035
-20.0990 -22.7357 2.2209
-19.7706 -23.4836 2.2422
-19.3888 -24.1926 2.2601
-18.8948 -24.7794 2.2673
-16.0592 -22.1503 1.9870
-10.2912 -14.9410 1.3153
-13.7954 -21.1017 1.8246
-16.6406 -26.8477 2.2823
-16.0445 -27.3389 2.2868
-15.4053 -27.7647 2.2871
-14.7895 -28.2416 2.2930
-14.1482 -28.6818 2.2971
-13.5681 -29.2664 2.3140
-12.9164 -29.7214 2.3217
-12.2093 -30.0600 2.3217
-11.4926 -30.3796 2.3217
-10.7668 -30.6798 2.3217
-10.0324 -30.9605 2.3217
-9.1977 -30.9108 2.2986
-8.4555 -31.1491 2.2986
-7.7065 -31.3672 2.2986
-6.9514 -31.5648 2.2986
-6.1908 -31.7419 2.2986
-5.5505 -32.6346 2.3517
-4.8642 -33.4702 2.4017
-4.0560 -33.5896 2.4017
-3.2446 -33.6869 2.4017
-2.4307 -33.7618 2.4017
-1.6150 -33.8145 2.4017
-0.7980 -33.8447 2.4017
0.0194 -33.8527 2.4017
0.8367 -33.8382 2.4017
1.6532 -33.8013 2.4017
2.4682 -33.7421 2.4017
3.1400 -32.2135 2.2985
0.7690 -6.3073 0.4514
0.9295 -6.3445 0.4558
1.0927 -6.3804 0.4604
1.2588 -6.4149 0.4653
1.4278 -6.4480 0.4704
1.5999 -6.4798 0.4758
1.7752 -6.5100 0.4814
1.9539 -6.5388 0.4874
2.1000 -6.4552 0.4853
2.1921 -6.2233 0.4722
2.2771 -5.9985 0.4597
2.3556 -5.7805 0.4478
2.4279 -5.5692 0.4364
2.4944 -5.3642 0.4256
2.5555 -5.1654 0.4152
2.6114 -4.9726 0.4053
2.6625 -4.7855 0.3958
2.7091 -4.6040 0.3867
3.2268 -5.1926 0.4433
3.3166 -5.0603 0.4395
3.4044 -4.9304 0.4360
3.4903 -4.8025 0.4329
3.5656 -4.6648 0.4290
3.6304 -4.5191 0.4244
3.6933 -4.3766 0.4201
2.2587 -2.5490 0.2504
2.3859 -2.5650 0.2581
2.5116 -2.5726 0.2655
2.6435 -2.5800 0.2734
2.7821 -2.5871 0.2818
2.9282 -2.5940 0.2908
3.9950 -3.3703 0.3895
4.4183 -3.5484 0.4234
4.7008 -3.5920 0.4431
4.9457 -3.5933 0.4590
5.2068 -3.5942 0.4763
5.4557 -3.5746 0.4923
5.6898 -3.5345 0.5069
6.0160 -3.5387 0.5295
6.1533 -3.4222 0.5356
6.3473 -3.3319 0.5468
5.8523 -2.8940 0.4994
5.8732 -2.7298 0.4968
5.8796 -2.5619 0.4933
5.8185 -2.3698 0.4846
5.7533 -2.1827 0.4759
5.6130 -1.9757 0.4616
5.4815 -1.7818 0.4483
5.4867 -1.6381 0.4467
5.5008 -1.4985 0.4460
5.5209 -1.3616 0.4461
5.5683 -1.2314 0.4487
5.7125 -1.1193 0.4594
5.8627 -1.0023 0.4707
5.9575 -0.8710 0.4779
5.8898 -0.7162 0.4723
5.8240 -0.5658 0.4671
5.7601 -0.4194 0.4624
5.6741 -0.2755 0.4561
5.5992 -0.1364 0.4510
5.5262 -0.0010 0.4463
5.4552 0.1309 0.4419
5.3858 0.2595 0.4379
5.3180 0.3852 0.4343
5.2516 0.5083 0.4310
5.1865 0.6288 0.4279
5.1104 0.7453 0.4242
5.0648 0.8641 0.4232
5.0220 0.9823 0.4226
4.9794 1.0995 0.4223
4.9371 1.2160 0.4222
4.8949 1.3319 0.4224
4.8528 1.4473 0.4228
4.8108 1.5623 0.4234
4.7689 1.6772 0.4242
4.7269 1.7919 0.4253
4.6956 1.9111 0.4276
4.7115 2.0517 0.4346
4.7218 2.1934 0.4413
4.7320 2.3388 0.4485
4.7425 2.4884 0.4562
4.7533 2.6425 0.4643
4.7644 2.8016 0.4730
4.7760 2.9661 0.4822
4.9189 3.2222 0.5055
5.2157 3.5997 0.5460
5.4893 3.9879 0.5858
5.4981 4.2011 0.5987
5.3688 4.3117 0.5970
5.2858 4.4596 0.6008
5.1953 4.6027 0.6042
5.0959 4.7395 0.6070
4.9960 4.8770 0.6101
4.8953 5.0156 0.6135
4.7938 5.1552 0.6173
4.7497 5.3621 0.6293
4.7412 5.6207 0.6471
4.7324 5.8936 0.6662
4.7145 6.1714 0.6856
4.6746 6.4358 0.7032
4.6216 6.6977 0.7205
4.5661 6.9721 0.7389
4.5077 7.2602 0.7587
4.4754 7.6130 0.7851
5.0128 9.0193 0.9184
4.9685 9.4722 0.9532
5.0142 10.1485 1.0098
5.5097 11.8656 1.1683
5.2438 12.0474 1.1746
4.9755 12.2310 1.1815
6.7767 17.8862 1.7130
6.3820 18.1583 1.7252
6.0120 18.5259 1.7471
5.9084 19.8276 1.8572
6.4064 23.5665 2.1937
5.8030 23.5864 2.1831
5.5045 24.9603 2.2985
4.8970 25.0745 2.2985
4.2875 25.1755 2.2985
2.7821 19.1190 1.7394
3.0633 25.3379 2.2985
2.5104 26.0339 2.3559
1.9163 26.5902 2.4017
1.2726 26.6263 2.4017
0.6283 26.6486 2.4017
-0.0163 26.6570 2.4017
-0.6611 26.6513 2.4017
-1.3056 26.6318 2.4017
-1.9497 26.5984 2.4017
-2.5931 26.5510 2.4017
-3.2355 26.4897 2.4017
-3.8767 26.4144 2.4017
-4.5165 26.3253 2.4017
-5.1546 26.2222 2.4017
-5.5469 25.0067 2.3006
-6.1487 24.8597 2.2986
-6.7528 24.7214 2.2986
-7.3544 24.5699 2.2986
-2.5327 7.7722 0.7320
-2.5291 7.1677 0.6800
-2.5259 6.6422 0.6352
-2.5231 6.1806 0.5961
-2.5206 5.7715 0.5618
-2.5183 5.4061 0.5314
-2.5163 5.0773 0.5043
-2.5145 4.7796 0.4800
-2.5129 4.5084 0.4582
-2.5113 4.2600 0.4384
-2.5100 4.0316 0.4204
-2.5909 3.9456 0.4172
-2.7291 3.9447 0.4234
-2.8719 3.9439 0.4299
-3.0198 3.9430 0.4369
-3.1732 3.9420 0.4445
-3.3326 3.9411 0.4525
-3.4986 3.9400 0.4612
-3.6718 3.9390 0.4704
-3.8528 3.9379 0.4804
-4.0425 3.9367 0.4911
-4.2418 3.9355 0.5026
-4.4516 3.9342 0.5150
-19.0456 16.0290 2.1533
-19.2411 15.4145 2.1281
-19.5264 14.8826 2.1147
-19.7742 14.3292 2.0987
-20.0142 13.7777 2.0836
-20.2345 13.2200 2.0679
-20.4955 12.6944 2.0578
-15.9622 9.3605 1.5757
-20.9450 11.6114 2.0344
-21.0299 11.0026 2.0113
-10.2366 5.0443 0.9647
-10.3917 4.8121 0.9657
-20.8862 9.0655 1.9151
-20.8187 8.4442 1.8848
-20.9239 7.9035 1.8716
-21.0202 7.3645 1.8588
-21.1109 6.8281 1.8468
-21.2002 6.2952 1.8358
-21.2990 5.7683 1.8268
-21.3919 5.2420 1.8184
-21.4719 4.7146 1.8100
-21.5737 4.1932 1.8045
-21.7076 3.6772 1.8027
-21.8683 3.1629 1.8041
-22.0427 2.6461 1.8076
-22.2835 2.1301 1.8174
-21.5627 1.5365 1.7501
-23.1232 1.0870 1.8687
-23.8425 0.5439 1.9197
-18.2599 -0.0248 1.4656
-27.7325 -0.7079 2.2202
-28.2465 -1.4046 2.2569
-28.7614 -2.1279 2.2948
-29.0894 -2.8603 2.3191
-29.1269 -3.5764 2.3216
-29.1172 -4.2916 2.3217
-5.8952 -1.0150 0.4705
-21.0557 -4.1513 1.6832
-26.6010 -5.9156 2.1311
-26.0412 -6.4550 2.0922
-25.6366 -7.0163 2.0668
-25.3995 -7.6155 2.0560
-25.1485 -8.2075 2.0454
-15.4761 -5.4678 1.2655
-24.8441 -9.4587 2.0439
-24.7813 -10.1267 2.0526
-24.8082 -10.8442 2.0702
-9.6638 -4.5053 0.8131
-9.4803 -4.7018 0.8048
-24.9730 -13.1464 2.1405
-18.0826 -10.0843 1.5662
-21.2967 -12.5605 1.8654
-24.5427 -15.2857 2.1758
-24.2806 -15.9491 2.1805
-23.9442 -16.5696 2.1801
-23.6495 -17.2250 2.1852
-23.2871 -17.8375 2.1855
-22.8972 -18.4331 2.1848
-20.3369 -17.2005 2.2721
-18.4506 -16.3856 2.1008
-19.6293 -18.2991 2.2801
-19.2566 -18.8411 2.2846
-18.8886 -19.3957 2.2916
-18.5144 -19.9536 2.2997
-18.1064 -20.4845 2.3057
-17.7085 -21.0370 2.3150
-17.2740 -21.5567 2.3217
-16.5102 -21.6550 2.2849
-15.9502 -22.0028 2.2767
-10.2893 -14.9402 1.5174
-13.7926 -21.0999 2.1054
-14.6611 -23.6567 2.3212
-14.1079 -24.0419 2.3217
-13.5411 -24.4077 2.3217
-12.9641 -24.7587 2.3217
-12.3773 -25.0946 2.3217
-11.7813 -25.4151 2.3217
-11.1763 -25.7200 2.3217
-10.5628 -26.0088 2.3217
-9.9412 -26.2814 2.3217
-9.2194 -26.2734 2.2986
-8.5895 -26.5104 2.2986
-7.9530 -26.7305 2.2986
-7.3104 -26.9336 2.2986
-6.6623 -27.1195 2.2986
-6.0090 -27.2880 2.2986
-5.5494 -28.4563 2.3838
-4.8993 -28.8086 2.4017
-4.2039 -28.9292 2.4017
-3.5053 -29.0310 2.4017
-2.8040 -29.1140 2.4017
-2.1006 -29.1780 2.4017
-1.3956 -29.2231 2.4017
-0.6897 -29.2492 2.4017
0.0167 -29.2562 2.4017
0.7230 -29.2441 2.4017
1.4286 -29.2131 2.4017
2.1330 -29.1630 2.4017
2.7137 -27.8432 2.2985
0.7158 -5.8719 0.4862
0.8647 -5.9027 0.4906
1.0159 -5.9322 0.4951
1.1694 -5.9602 0.5000
1.3149 -5.9386 0.5010
1.4232 -5.7646 0.4894
1.5251 -5.5933 0.4783
1.6208 -5.4249 0.4675
1.7108 -5.2595 0.4570
1.7951 -5.0970 0.4470
1.8742 -4.9375 0.4373
3.3364 -8.1883 0.7329
3.4332 -7.8760 0.7130
3.5236 -7.5785 0.6944
3.5518 -7.1803 0.6664
6.4026 -12.1937 1.1473
5.6331 -10.1263 0.9666
5.6661 -9.6305 0.9334
3.1669 -5.0968 0.5020
3.2557 -4.9680 0.4977
3.3425 -4.8413 0.4937
3.4243 -4.7122 0.4897
3.4907 -4.5675 0.4841
3.5551 -4.4260 0.4789
3.6177 -4.2875 0.4741
3.6784 -4.1518 0.4696
2.2493 -2.4185 0.2801
2.3702 -2.4282 0.2884
2.4908 -2.4314 0.2964
2.6172 -2.4341 0.3050
3.7310 -3.3057 0.4262
3.7339 -3.1506 0.4186
3.9428 -3.1671 0.4342
4.3449 -3.3207 0.4706
4.7819 -3.4749 0.5098
5.0285 -3.4718 0.5281
5.2917 -3.4678 0.5481
5.5388 -3.4414 0.5662
5.7744 -3.3973 0.5830
6.1052 -3.3961 0.6094
6.2936 -3.3045 0.6215
5.8290 -2.8832 0.5700
5.8480 -2.7188 0.5666
5.8406 -2.5456 0.5611
5.7812 -2.3552 0.5511
5.7191 -2.1704 0.5414
5.5941 -1.9697 0.5262
5.4693 -1.7785 0.5115
5.4752 -1.6352 0.5095
5.4809 -1.4937 0.5078
5.4866 -1.3538 0.5064
5.5250 -1.2225 0.5084
5.6697 -1.1115 0.5204
5.8207 -0.9957 0.5333
5.9748 -0.8741 0.5467
5.9067 -0.7189 0.5401
5.8405 -0.5680 0.5340
5.7692 -0.4206 0.5277
5.6679 -0.2758 0.5190
5.5931 -0.1368 0.5130
5.5204 -0.0016 0.5074
5.4494 0.1301 0.5023
5.3802 0.2587 0.4976
5.3125 0.3843 0.4933
5.2463 0.5072 0.4894
5.1797 0.6274 0.4856
5.0973 0.7428 0.4806
5.0514 0.8613 0.4793
5.0087 0.9791 0.4785
4.9663 1.0961 0.4780
4.9241 1.2123 0.4778
4.8821 1.3279 0.4778
4.8402 1.4430 0.4781
4.7983 1.5577 0.4786
4.7564 1.6723 0.4794
4.7176 1.7879 0.4808
4.6898 1.9082 0.4836
4.7048 2.0482 0.4912
4.7222 2.1931 0.4995
4.7325 2.3385 0.5075
4.7430 2.4881 0.5161
4.7538 2.6423 0.5251
4.7650 2.8013 0.5348
4.7765 2.9658 0.5451
4.9254 3.2258 0.5719
5.2231 3.6042 0.6177
5.4854 3.9843 0.6611
5.4915 4.1953 0.6752
5.3627 4.3061 0.6732
5.2798 4.4538 0.6773
5.1961 4.6027 0.6818
5.0967 4.7395 0.6848
4.9968 4.8771 0.6882
4.8961 5.0156 0.6919
4.7946 5.1553 0.6961
4.7531 5.3652 0.7098
4.7447 5.6241 0.7297
4.7359 5.8973 0.7512
4.7132 6.1688 0.7721
4.6731 6.4330 0.7918
4.6201 6.6947 0.8111
4.5645 6.9689 0.8318
4.5078 7.2594 0.8542
4.4957 7.6466 0.8877
5.0119 9.0167 1.0335
4.9676 9.4693 1.0725
5.0520 10.2240 1.1449
5.5116 11.8683 1.3149
5.2461 12.0513 1.3220
4.9777 12.2350 1.3296
6.7551 17.8275 1.9206
6.3601 18.0941 1.9336
6.0070 18.5085 1.9631
5.6297 18.8904 1.9898
5.6659 20.8406 2.1814
5.4342 22.0848 2.2985
4.8962 22.1995 2.2985
4.3560 22.3023 2.2985
3.8140 22.3931 2.2985
2.7810 19.1098 1.9546
2.7252 22.5390 2.2985
2.2767 23.6090 2.4017
1.7048 23.6540 2.4017
1.1321 23.6864 2.4017
0.5589 23.7062 2.4017
-0.0146 23.7136 2.4017
-0.5882 23.7083 2.4017
-1.1616 23.6905 2.4017
-1.7346 23.6602 2.4017
-2.3069 23.6173 2.4017
-2.8783 23.5619 2.4017
-3.4486 23.4939 2.4017
-4.0175 23.4134 2.4017
-4.5847 23.3204 2.4017
-5.1501 23.2149 2.4017
-5.5410 22.4000 2.3292
-6.0050 21.9808 2.2986
-6.5393 21.8442 2.2986
-2.5327 7.7711 0.8233
-2.5290 7.1667 0.7649
-2.5258 6.6412 0.7146
-2.5230 6.1798 0.6707
-2.5205 5.7707 0.6321
-2.5183 5.4054 0.5980
-2.5163 5.0766 0.5676
-2.5145 4.7789 0.5403
-2.5128 4.5077 0.5158
-2.5113 4.2594 0.4936
-2.5099 4.0310 0.4734
-2.5912 3.9456 0.4700
-2.7294 3.9448 0.4770
-2.8723 3.9439 0.4845
-3.0202 3.9430 0.4925
-3.1736 3.9420 0.5010
-3.3331 3.9411 0.5102
-3.4991 3.9401 0.5201
-3.6723 3.9390 0.5307
-3.8534 3.9379 0.5420
-4.0432 3.9367 0.5542
-4.2425 3.9355 0.5673
-4.4523 3.9342 0.5814
-18.1872 15.3039 2.3217
-18.5068 14.8237 2.3117
-18.7484 14.2871 2.2937
-19.0865 13.8283 2.2890
-19.4013 13.3533 2.2828
-19.5390 12.7631 2.2574
-19.6877 12.1916 2.2353
-15.9612 9.3579 1.7823
-19.7445 10.9435 2.1699
-19.7973 10.3553 2.1429
-10.2355 5.0425 1.0920
-10.3915 4.8108 1.0935
-19.7359 8.5639 2.0498
-19.7975 8.0278 2.0309
-19.8639 7.5009 2.0139
-19.9532 6.9884 2.0005
-19.9782 6.4595 1.9822
-20.0688 5.9570 1.9716
-20.1788 5.4627 1.9642
-20.3142 4.9757 1.9603
-20.4429 4.4864 1.9570
-20.5803 3.9979 1.9555
-20.7187 3.5075 1.9552
-20.8532 3.0138 1.9556
-20.9939 2.5179 1.9576
-21.1693 2.0214 1.9640
-21.3528 1.5193 1.9720
-21.6247 1.0142 1.9893
-21.9349 0.4980 2.0110
-18.2590 -0.0267 1.6694
-22.6402 -0.5803 2.0654
-23.0203 -1.1471 2.0966
-23.3319 -1.7286 2.1228
-23.4192 -2.3052 2.1297
-23.4168 -2.8777 2.1298
-23.3200 -3.4396 2.1225
-5.8951 -1.0156 0.5373
-21.0541 -4.1532 1.9226
-23.1305 -5.1463 2.1176
-23.0723 -5.7216 2.1189
-23.0105 -6.3001 2.1213
-22.9715 -6.8901 2.1271
-22.8954 -7.4746 2.1309
-15.4708 -5.4677 1.4482
-22.7322 -8.6572 2.1416
-22.7015 -9.2794 2.1540
-22.6683 -9.9114 2.1677
-9.6608 -4.5051 0.9318
-9.4790 -4.7023 0.9227
-22.6703 -11.9369 2.2290
-18.0800 -10.0850 1.7969
-21.2923 -12.5605 2.1409
-22.2711 -13.8737 2.2672
-21.9796 -14.4404 2.2673
-21.6510 -14.9854 2.2651
-21.3045 -15.5198 2.2626
-20.9945 -16.0841 2.2654
-20.6720 -16.6444 2.2686
-18.3177 -15.4952 2.3147
-17.9900 -15.9790 2.3173
-17.6498 -16.4563 2.3199
-17.2899 -16.9193 2.3217
-16.9045 -17.3608 2.3217
-16.5071 -17.7928 2.3217
-16.0982 -18.2150 2.3217
-15.6778 -18.6271 2.3217
-15.2463 -19.0287 2.3217
-14.8039 -19.4195 2.3217
-14.3509 -19.7991 2.3217
-10.2875 -14.9394 1.7199
-13.4142 -20.5236 2.3217
-12.9311 -20.8678 2.3217
-12.4386 -21.1997 2.3217
-11.9370 -21.5189 2.3217
-11.4267 -21.8251 2.3217
-10.9080 -22.1180 2.3217
-10.3813 -22.3975 2.3217
-9.8469 -22.6633 2.3217
-9.2127 -22.6870 2.2986
-8.6696 -22.9222 2.2986
-8.1201 -23.1430 2.2986
-7.5646 -23.3494 2.2986
-7.0034 -23.5411 2.2986
-6.4370 -23.7180 2.2986
-5.8658 -23.8799 2.2986
-5.5275 -25.1041 2.4017
-4.9220 -25.2414 2.4017
-4.3129 -25.3627 2.4017
-3.7005 -25.4677 2.4017
-3.0855 -25.5564 2.4017
-2.4681 -25.6287 2.4017
-1.8489 -25.6846 2.4017
-1.2285 -25.7239 2.4017
-0.6071 -25.7468 2.4017
0.0146 -25.7530 2.4017
0.6363 -25.7428 2.4017
1.2574 -25.7160 2.4017
1.8774 -25.6726 2.4017
0.5326 -5.4647 0.5124
0.6626 -5.4362 0.5113
0.7778 -5.3100 0.5012
4.1514 -24.2461 2.2985
4.7331 -24.1264 2.2985
5.3112 -23.9916 2.2985
3.5343 -14.3181 1.3804
2.5527 -9.3635 0.9090
2.6883 -8.9987 0.8803
2.8145 -8.6536 0.8536
2.9322 -8.3265 0.8288
3.0421 -8.0156 0.8056
3.1450 -7.7196 0.7840
3.2415 -7.4371 0.7639
3.3151 -7.1310 0.7412
6.7197 -13.5863 1.4303
5.6017 -10.6696 1.1384
5.6327 -10.1267 1.0961
5.6765 -9.6494 1.0603
3.1090 -5.0044 0.5587
3.1968 -4.8788 0.5539
3.2826 -4.7552 0.5495
3.3528 -4.6144 0.5432
3.4188 -4.4740 0.5370
3.4828 -4.3365 0.5313
3.5444 -4.2013 0.5259
3.5563 -4.0146 0.5140
3.5670 -3.8359 0.5028
2.2388 -2.2939 0.3082
2.3546 -2.2988 0.3170
3.5921 -3.3414 0.4734
3.5984 -3.1887 0.4648
3.6038 -3.0413 0.4567
3.6083 -2.8989 0.4491
3.8912 -2.9744 0.4762
4.2732 -3.1059 0.5146
4.7176 -3.2577 0.5596
5.1102 -3.3495 0.5976
5.3754 -3.3405 0.6202
5.5423 -3.2614 0.6315
6.0521 -3.3674 0.6815
6.2422 -3.2783 0.6953
5.8059 -2.8724 0.6401
5.8231 -2.7079 0.6360
5.8021 -2.5295 0.6282
5.7443 -2.3409 0.6170
5.6819 -2.1569 0.6058
5.5753 -1.9637 0.5905
5.4577 -1.7753 0.5746
5.4636 -1.6324 0.5722
5.4695 -1.4912 0.5702
5.4752 -1.3516 0.5685
5.5253 -1.2231 0.5717
5.6845 -1.1150 0.5866
5.8362 -0.9990 0.6009
5.9923 -0.8773 0.6160
5.9237 -0.7216 0.6084
5.8571 -0.5702 0.6013
5.7638 -0.4209 0.5918
5.6617 -0.2761 0.5818
5.5871 -0.1373 0.5749
5.5145 -0.0022 0.5686
5.4437 0.1294 0.5627
5.3746 0.2578 0.5573
5.3071 0.3833 0.5523
5.2409 0.5061 0.5478
5.1662 0.6252 0.5426
5.0843 0.7404 0.5369
5.0380 0.8585 0.5352
4.9955 0.9760 0.5342
4.9533 1.0927 0.5335
4.9112 1.2086 0.5331
4.8694 1.3239 0.5330
4.8275 1.4387 0.5332
4.7858 1.5531 0.5337
4.7441 1.6674 0.5345
4.7118 1.7851 0.5366
4.6841 1.9053 0.5396
4.6980 2.0447 0.5479
4.7227 2.1928 0.5579
4.7329 2.3382 0.5667
4.7435 2.4878 0.5761
4.7543 2.6420 0.5861
4.7655 2.8011 0.5967
4.7770 2.9656 0.6081
4.9319 3.2295 0.6387
5.2306 3.6087 0.6897
5.4816 3.9808 0.7365
5.4849 4.1895 0.7516
5.3566 4.3005 0.7493
5.2738 4.4480 0.7537
5.1902 4.5967 0.7587
5.0975 4.7395 0.7628
4.9976 4.8771 0.7664
4.8969 5.0157 0.7705
4.7953 5.1554 0.7750
4.7565 5.3683 0.7906
4.7482 5.6275 0.8127
4.7362 5.8969 0.8359
4.7119 6.1663 0.8588
4.6716 6.4301 0.8806
4.6186 6.6917 0.9019
4.5630 6.9657 0.9247
4.5263 7.2883 0.9537
4.5248 7.6952 0.9934
5.0031 8.9998 1.1470
4.9667 9.4665 1.1919
5.0906 10.3008 1.2823
5.5038 11.8502 1.4594
5.2484 12.0553 1.4698
4.9798 12.2390 1.4782
6.7307 17.7610 2.1263
6.3453 18.0500 2.1433
6.0019 18.4910 2.1792
5.6174 18.8472 2.2057
5.3741 19.7651 2.2985
4.8921 19.8800 2.2985
4.4080 19.9841 2.2985
3.9219 20.0775 2.2985
3.4340 20.1600 2.2985
2.7799 19.1007 2.1700
2.5090 20.7496 2.3502
2.0500 21.2562 2.4017
1.5350 21.2969 2.4017
1.0194 21.3263 2.4017
0.5032 21.3442 2.4017
-0.0132 21.3508 2.4017
-0.5297 21.3459 2.4017
-1.0460 21.3296 2.4017
-1.5619 21.3018 2.4017
-2.0772 21.2627 2.4017
-2.5916 21.2121 2.4017
-3.1049 21.1501 2.4017
-3.6170 21.0768 2.4017
-4.1275 20.9921 2.4017
-4.6362 20.8960 2.4017
-5.1430 20.7887 2.4017
-5.5370 20.2656 2.3547
-5.8857 19.6586 2.2986
-2.5327 7.7700 0.9148
-2.5290 7.1657 0.8500
-2.5258 6.6403 0.7941
-2.5230 6.1789 0.7454
-2.5205 5.7700 0.7026
-2.5183 5.4046 0.6647
-2.5163 5.0759 0.6310
-2.5145 4.7782 0.6008
-2.5128 4.5071 0.5736
-2.5113 4.2589 0.5490
-2.5099 4.0304 0.5266
-2.5916 3.9456 0.5229
-2.7298 3.9448 0.5308
-2.8727 3.9439 0.5392
-3.0206 3.9430 0.5481
-3.1741 3.9420 0.5578
-3.3336 3.9411 0.5681
-3.4996 3.9401 0.5792
-3.6729 3.9390 0.5910
-3.8540 3.9379 0.6038
-4.0438 3.9367 0.6174
-4.2432 3.9355 0.6322
-4.4531 3.9342 0.6480
-16.2596 13.6796 2.3135
-16.6728 13.3523 2.3217
-17.0200 12.9676 2.3217
-17.3590 12.5744 2.3217
-17.6895 12.1728 2.3217
-18.0113 11.7629 2.3217
-18.2950 11.3269 2.3180
-15.9601 9.3553 1.9892
-18.4616 10.2301 2.2651
-18.5404 9.6956 2.2410
-10.2344 5.0407 1.2196
-10.3913 4.8095 1.2216
-18.6843 8.1054 2.1685
-18.7639 7.6065 2.1514
-18.8053 7.0990 2.1314
-18.8334 6.5940 2.1115
-18.9190 6.1149 2.0995
-19.0256 5.6452 2.0912
-19.1359 5.1782 2.0845
-19.2658 4.7168 2.0811
-19.4022 4.2559 2.0796
-19.5534 3.7963 2.0808
-19.7037 3.3335 2.0830
-19.8563 2.8676 2.0866
-19.9882 2.3951 2.0891
-20.1330 1.9203 2.0940
-20.2812 1.4409 2.1005
-20.4460 0.9568 2.1098
-20.6304 0.4662 2.1223
-18.2581 -0.0287 1.8735
-21.0419 -0.5416 2.1550
-21.1870 -1.0581 2.1669
-21.3122 -1.5813 2.1780
-21.3167 -2.1006 2.1781
-21.3093 -2.6210 2.1782
-21.2675 -3.1392 2.1761
-5.8950 -1.0162 0.6042
-21.0524 -4.1552 2.1624
-21.0965 -4.6961 2.1730
-21.0379 -5.2194 2.1745
-20.9938 -5.7502 2.1788
-20.9178 -6.2764 2.1812
-20.8439 -6.8072 2.1852
-15.4655 -5.4675 1.6311
-20.6573 -7.8693 2.1933
-20.5650 -8.4084 2.1997
-20.4799 -8.9569 2.2084
-9.6579 -4.5048 1.0506
-9.4777 -4.7027 1.0409
-20.2643 -10.6724 2.2485
-18.0773 -10.0857 2.0281
-20.0277 -11.8170 2.2737
-19.8985 -12.3981 2.2878
-19.7077 -12.9502 2.2966
-19.4914 -13.4932 2.3042
-19.2250 -14.0074 2.3076
-18.9591 -14.5273 2.3128
-18.6531 -15.0214 2.3148
-16.4613 -13.9271 2.3217
-16.1460 -14.3434 2.3217
-15.8197 -14.7522 2.3217
-15.4826 -15.1530 2.3217
-15.1348 -15.5456 2.3217
-14.7766 -15.9297 2.3217
-14.4081 -16.3050 2.3217
-14.0296 -16.6712 2.3217
-13.6413 -17.0279 2.3217
-13.2435 -17.3749 2.3217
-12.8364 -17.7119 2.3217
-10.2856 -14.9385 1.9227
-11.9952 -18.3548 2.3217
-11.5617 -18.6601 2.3217
-11.1199 -18.9544 2.3217
-10.6702 -19.2374 2.3217
-10.2128 -19.5088 2.3217
-9.7482 -19.7685 2.3217
-9.1842 -19.8170 2.2986
-8.7105 -20.0500 2.2986
-8.2306 -20.2708 2.2986
-7.7448 -20.4790 2.2986
-7.2533 -20.6746 2.2986
-6.7565 -20.8574 2.2986
-6.2548 -21.0271 2.2986
-5.7486 -21.1836 2.2986
-5.4731 -22.2834 2.4017
-4.9359 -22.4191 2.4017
-4.3950 -22.5407 2.4017
-3.8509 -22.6480 2.4017
-3.3041 -22.7410 2.4017
-2.7548 -22.8195 2.4017
-2.2036 -22.8836 2.4017
-1.6508 -22.9331 2.4017
-1.0968 -22.9681 2.4017
-0.5421 -22.9884 2.4017
0.0130 -22.9941 2.4017
0.5680 -22.9851 2.4017
1.1225 -22.9616 2.4017
1.6761 -22.9234 2.4017
2.2284 -22.8707 2.4017
2.6596 -21.8231 2.2985
3.1844 -21.7449 2.2985
3.7069 -21.6529 2.2985
4.2266 -21.5473 2.2985
4.7431 -21.4281 2.2985
3.5335 -14.3164 1.5452
5.7650 -21.1494 2.2985
5.6121 -18.7884 2.0574
5.6640 -17.4175 1.9230
5.8711 -16.6745 1.8575
6.1335 -16.1632 1.8180
6.2098 -15.2443 1.7325
6.3715 -14.6206 1.6801
6.5738 -14.1423 1.6445
6.6213 -13.3891 1.5766
5.5728 -10.6160 1.2669
5.6203 -10.1058 1.2232
5.6812 -9.6587 1.1867
3.0531 -4.9151 0.6135
3.1399 -4.7926 0.6082
3.2164 -4.6600 0.6018
3.2841 -4.5205 0.5947
3.3496 -4.3841 0.5880
3.3894 -4.2209 0.5777
3.4057 -4.0375 0.5645
3.4204 -3.8618 0.5521
3.4338 -3.6932 0.5405
3.4458 -3.5311 0.5297
3.4565 -3.3751 0.5194
3.4661 -3.2247 0.5099
3.4746 -3.0795 0.5008
3.4821 -2.9392 0.4924
3.4858 -2.8009 0.4840
3.4157 -2.6114 0.4662
3.2953 -2.3955 0.4425
3.1856 -2.2002 0.4212
3.0851 -2.0225 0.4021
2.9925 -1.8600 0.3848
2.9067 -1.7108 0.3690
5.7018 -3.1732 0.7152
6.0296 -3.1673 0.7479
5.7829 -2.8617 0.7099
5.7983 -2.6970 0.7049
5.7640 -2.5136 0.6945
5.7078 -2.3267 0.6821
5.6451 -2.1436 0.6696
5.5566 -1.9578 0.6546
5.4461 -1.7722 0.6376
5.4522 -1.6296 0.6348
5.4580 -1.4887 0.6324
5.4623 -1.3490 0.6302
5.5201 -1.2226 0.6346
5.6994 -1.1186 0.6532
5.8519 -1.0023 0.6691
6.0099 -0.8806 0.6859
5.9409 -0.7243 0.6772
5.8739 -0.5725 0.6692
5.7584 -0.4211 0.6560
5.6555 -0.2764 0.6447
5.5811 -0.1377 0.6369
5.5086 -0.0028 0.6297
5.4380 0.1287 0.6231
5.3690 0.2570 0.6170
5.3016 0.3824 0.6114
5.2356 0.5050 0.6062
5.1529 0.6231 0.5994
5.0713 0.7380 0.5930
5.0247 0.8557 0.5909
4.9824 0.9729 0.5897
4.9403 1.0893 0.5888
4.8984 1.2049 0.5883
4.8566 1.3199 0.5880
4.8150 1.4344 0.5881
4.7733 1.5485 0.5886
4.7336 1.6631 0.5895
4.7060 1.7824 0.5924
4.6783 1.9024 0.5956
4.6912 2.0412 0.6045
4.7185 2.1903 0.6157
4.7334 2.3379 0.6260
4.7440 2.4875 0.6362
4.7548 2.6417 0.6471
4.7660 2.8008 0.6588
4.7776 2.9653 0.6712
4.9385 3.2331 0.7058
5.2352 3.6112 0.7616
5.4777 3.9773 0.8119
5.4783 4.1837 0.8280
5.3505 4.2949 0.8254
5.2678 4.4421 0.8302
5.1842 4.5907 0.8355
5.0983 4.7396 0.8411
4.9984 4.8772 0.8449
4.8976 5.0158 0.8493
4.7961 5.1555 0.8542
4.7599 5.3714 0.8717
4.7517 5.6308 0.8960
4.7349 5.8945 0.9205
4.7106 6.1638 0.9456
4.6701 6.4273 0.9695
4.6171 6.6887 0.9928
4.5615 6.9625 1.0178
4.5449 7.3175 1.0544
4.5544 7.7445 1.1007
4.9744 8.9471 1.2553
4.9658 9.4636 1.3117
5.1298 10.3789 1.4221
5.4960 11.8321 1.6037
5.2507 12.0592 1.6180
4.9820 12.2430 1.6272
5.3889 14.2189 1.8731
6.1849 17.5919 2.2985
5.7544 17.7264 2.2985
5.3211 17.8512 2.2985
4.8854 17.9662 2.2985
4.4475 18.0713 2.2985
4.0075 18.1667 2.2985
3.5656 18.2521 2.2985
3.1222 18.3277 2.2985
2.6772 18.3933 2.2985
2.3312 19.2777 2.4017
1.8639 19.3255 2.4017
1.3957 19.3627 2.4017
0.9269 19.3895 2.4017
0.4575 19.4059 2.4017
-0.0121 19.4118 2.4017
-0.4817 19.4072 2.4017
-0.9511 19.3921 2.4017
-1.4202 19.3666 2.4017
-1.8887 19.3306 2.4017
-2.3563 19.2841 2.4017
-2.8230 19.2272 2.4017
-3.2884 19.1599 2.4017
-3.7524 19.0822 2.4017
-4.2147 18.9940 2.4017
-4.6752 18.8956 2.4017
-5.1336 18.7868 2.4017
-5.5375 18.4932 2.3793
-2.5326 7.7690 1.0065
-2.5289 7.1647 0.9353
-2.5257 6.6394 0.8738
-2.5229 6.1781 0.8203
-2.5205 5.7692 0.7732
-2.5182 5.4039 0.7316
-2.5162 5.0752 0.6946
-2.5144 4.7776 0.6614
-2.5128 4.5065 0.6315
-2.5113 4.2583 0.6044
-2.5099 4.0298 0.5799
-2.5919 3.9456 0.5760
-2.7302 3.9448 0.5847
-2.8731 3.9439 0.5940
-3.0211 3.9430 0.6040
-3.1746 3.9421 0.6146
-3.3341 3.9411 0.6261
-3.5002 3.9401 0.6384
-3.6734 3.9390 0.6515
-3.8546 3.9379 0.6657
-4.0445 3.9368 0.6809
-4.2439 3.9355 0.6972
-4.4538 3.9343 0.7148
-14.4570 12.1610 2.2689
-14.7858 11.8391 2.2714
-15.1085 11.5092 2.2740
-15.3845 11.1420 2.2707
-15.8222 10.8857 2.2921
-16.2660 10.6210 2.3146
-16.5963 10.2730 2.3217
-15.9590 9.3526 2.1965
-17.1322 9.4913 2.3217
-17.3681 9.0804 2.3192
-10.2333 5.0390 1.3474
-10.3911 4.8082 1.3500
-17.6882 7.6712 2.2692
-17.7504 7.1935 2.2500
-17.7964 6.7161 2.2304
-17.8585 6.2507 2.2144
-17.9571 5.8020 2.2044
-18.0585 5.3562 2.1961
-18.2203 4.9284 2.1964
-18.3774 4.4972 2.1973
-18.4838 4.0524 2.1933
-18.5725 3.6038 2.1885
-18.6825 3.1587 2.1875
-18.8193 2.7158 2.1908
-18.9616 2.2701 2.1959
-19.1214 1.8217 2.2042
-19.2488 1.3654 2.2099
-19.3682 0.9042 2.2160
-19.4768 0.4381 2.2220
-18.2571 -0.0306 2.0781
-19.7032 -0.5093 2.2388
-19.7807 -0.9899 2.2451
-19.7888 -1.4704 2.2448
-19.7882 -1.9521 2.2448
-19.7789 -2.4349 2.2452
-19.7274 -2.9140 2.2421
-5.8950 -1.0168 0.6712
-19.5239 -3.8556 2.2284
-19.4267 -4.3265 2.2241
-19.3462 -4.8018 2.2230
-19.2842 -5.2841 2.2255
-19.2114 -5.7665 2.2280
-19.1529 -6.2571 2.2337
-15.4602 -5.4674 1.8143
-18.9725 -7.2297 2.2420
-18.8588 -7.7130 2.2455
-18.7497 -8.2024 2.2511
-9.6550 -4.5046 1.1697
-9.4764 -4.7032 1.1593
-18.4646 -9.7268 2.2827
-18.0747 -10.0864 2.2598
-18.1424 -10.7068 2.2957
-17.9624 -11.1941 2.3023
-17.7705 -11.6795 2.3091
-17.5430 -12.1466 2.3129
-17.2893 -12.5993 2.3150
-17.0494 -13.0662 2.3205
-16.7654 -13.5035 2.3217
-14.9064 -12.6136 2.3217
-14.6187 -12.9887 2.3217
-14.3212 -13.3568 2.3217
-14.0140 -13.7177 2.3217
-13.6972 -14.0711 2.3217
-13.3712 -14.4167 2.3217
-13.0361 -14.7544 2.3217
-12.6920 -15.0837 2.3217
-12.3392 -15.4044 2.3217
-11.9778 -15.7164 2.3217
-10.6660 -14.7190 2.1333
-10.2838 -14.9377 2.1260
-10.8450 -16.5969 2.3217
-10.4520 -16.8712 2.3217
-10.0516 -17.1354 2.3217
-9.5482 -17.2165 2.2986
-9.1381 -17.4578 2.2986
-8.7215 -17.6885 2.2986
-8.2988 -17.9085 2.2986
-7.8702 -18.1176 2.2986
-7.4360 -18.3156 2.2986
-6.9965 -18.5024 2.2986
-6.5521 -18.6778 2.2986
-6.1029 -18.8417 2.2986
-5.6495 -18.9940 2.2986
-5.4248 -19.9925 2.4017
-4.9429 -20.1268 2.4017
-4.4575 -20.2485 2.4017
-3.9689 -20.3575 2.4017
-3.4775 -20.4537 2.4017
-2.9836 -20.5371 2.4017
-2.4876 -20.6075 2.4017
-1.9898 -20.6650 2.4017
-1.4906 -20.7095 2.4017
-0.9904 -20.7409 2.4017
-0.4895 -20.7592 2.4017
0.0117 -20.7644 2.4017
0.5128 -20.7565 2.4017
1.0135 -20.7354 2.4017
1.5134 -20.7014 2.4017
2.0122 -20.6542 2.4017
2.4985 -20.5043 2.3912
2.8757 -19.6388 2.2985
3.3476 -19.5565 2.2985
3.8171 -19.4620 2.2985
4.2838 -19.3553 2.2985
3.5326 -14.3146 1.7104
5.2073 -19.1057 2.2985
5.4925 -18.3903 2.2290
5.6377 -17.3387 2.1188
5.8454 -16.6033 2.0470
6.1127 -16.1102 2.0053
6.2220 -15.2759 1.9211
6.3471 -14.5663 1.8521
6.5491 -14.0910 1.8128
6.5537 -13.2541 1.7266
5.5442 -10.5628 1.3943
5.6079 -10.0849 1.3501
5.6859 -9.6680 1.3136
2.9991 -4.8287 0.6665
3.0814 -4.7040 0.6601
3.1508 -4.5655 0.6519
3.2155 -4.4268 0.6437
3.2379 -4.2385 0.6283
3.2584 -4.0583 0.6138
3.2771 -3.8856 0.6003
3.2942 -3.7198 0.5876
3.3098 -3.5604 0.5756
3.3240 -3.4068 0.5644
3.3368 -3.2587 0.5538
