ply
format ascii 1.0
element vertex 2093
property float32 x
property float32 y
property float32 z
end_header
6.3897 -6.2311 0.1777
6.5637 -6.0985 0.1795
6.7506 -5.9748 0.1818
6.9634 -5.8693 0.1848
7.1987 -5.7760 0.1885
7.4780 -5.7087 0.1934
8.0153 -5.8178 0.2050
8.4732 -5.8429 0.2145
8.9518 -5.8589 0.2244
8.3886 -5.2052 0.2085
8.4264 -4.9508 0.2079
8.2379 -4.5760 0.2018
8.3893 -4.3982 0.2043
8.5684 -4.2314 0.2076
8.7301 -4.0520 0.2106
8.8618 -3.8556 0.2129
8.9910 -3.6561 0.2154
9.1432 -3.4630 0.2185
9.4454 -3.3188 0.2254
9.7868 -3.1752 0.2333
10.8237 -3.2248 0.2579
18.3001 -4.9741 0.4362
18.2700 -4.4948 0.4359
18.0708 -3.9854 0.4319
16.0125 -3.1278 0.3835
16.2588 -2.7698 0.3905
32.6366 -4.7516 0.7864
11.1918 -1.3542 0.2707
10.1477 -0.9797 0.2466
9.7874 -0.7067 0.2390
7.9969 -0.3835 0.1964
7.7689 -0.1845 0.1920
2.8808 0.0012 0.0717
2.9271 0.0720 0.0733
7.0265 0.3428 0.1774
6.9757 0.5095 0.1776
6.9255 0.6744 0.1779
6.8757 0.8378 0.1782
6.9493 1.0177 0.1819
7.2704 1.2449 0.1923
7.5982 1.4908 0.2032
7.6694 1.6982 0.2075
7.7357 1.9101 0.2118
7.7970 2.1264 0.2162
7.8598 2.3490 0.2208
7.6523 2.4899 0.2179
7.4465 2.6236 0.2151
7.4042 2.8116 0.2171
7.4286 3.0282 0.2211
7.4536 3.2506 0.2255
7.5845 3.5282 0.2332
7.7454 3.8334 0.2423
7.8920 4.1463 0.2513
8.2002 4.5645 0.2660
15.7572 9.2766 0.5211
7.7025 4.7890 0.2598
7.3011 4.7878 0.2514
7.1732 4.9559 0.2523
7.0493 5.1263 0.2534
6.9253 5.2967 0.2547
6.7683 5.4408 0.2549
6.6237 5.5933 0.2556
6.4794 5.7454 0.2565
6.3352 5.8971 0.2575
6.3346 6.1890 0.2646
6.4843 6.6490 0.2786
7.6087 8.1888 0.3366
7.4215 8.3849 0.3385
7.2330 8.5812 0.3406
7.2555 9.0426 0.3531
23.5808 30.8898 1.1878
24.7042 34.0364 1.2898
10.9201 15.8368 0.5919
10.0771 15.3976 0.5680
9.4163 15.1762 0.5530
8.8646 15.0892 0.5434
8.4364 15.1894 0.5410
8.0069 15.2744 0.5384
7.7145 15.6237 0.5454
7.4430 16.0391 0.5548
7.1340 16.4001 0.5624
6.7771 16.6698 0.5671
6.4141 16.9392 0.5720
6.0928 17.3453 0.5817
5.7589 17.7560 0.5917
3.6231 12.1651 0.4030
7.9740 29.3495 0.9672
7.2267 29.3886 0.9638
6.5808 29.8565 0.9749
6.0537 31.0127 1.0087
5.3100 31.1948 1.0112
10.4253 71.6777 2.3166
8.6833 71.8542 2.3166
6.8874 71.4547 2.2992
3.1709 44.0133 1.4140
3.4235 71.6411 2.2992
1.7664 74.8998 2.4023
-0.0443 74.9122 2.4023
-1.8549 74.8907 2.4023
-3.6648 74.8351 2.4023
-2.5237 34.4605 1.1075
-3.3576 34.4070 1.1076
-4.1910 34.3393 1.1078
-9.1611 62.4668 2.0204
-6.9502 40.5403 1.3153
-10.0722 51.2761 1.6694
-11.3671 51.2819 1.6763
-12.6761 51.2873 1.6840
-12.3779 45.3461 1.4964
-10.2831 34.3787 1.1407
-16.7080 51.3078 1.7126
-18.0931 51.3143 1.7240
-19.5011 51.3174 1.7362
-20.9377 51.3264 1.7497
-22.4020 51.3322 1.7642
-9.8621 21.1863 0.7345
-10.3455 20.8898 0.7310
-10.8265 20.5940 0.7278
-11.3057 20.2987 0.7249
-11.7741 19.9875 0.7218
-19.4778 31.3093 1.1441
-19.3437 29.4805 1.0908
-12.7421 18.4323 0.6911
-12.8521 17.6631 0.6715
-12.9349 16.9027 0.6522
-13.0132 16.1793 0.6340
-18.8154 22.2689 0.8871
-19.1154 21.5455 0.8732
-19.4300 20.8620 0.8610
-19.7538 20.2076 0.8501
-20.0771 19.5690 0.8401
-20.4106 18.9540 0.8311
-20.7540 18.3592 0.8233
-5.6695 4.7761 0.2193
-6.0202 4.8277 0.2273
-6.4009 4.8836 0.2360
-6.8158 4.9442 0.2457
-7.2705 5.0104 0.2564
-7.7714 5.0831 0.2683
-8.3268 5.1634 0.2817
-22.1412 12.9996 0.7345
-22.2203 12.3339 0.7232
-22.0321 11.5420 0.7040
-21.4840 10.6013 0.6745
-21.3866 9.9179 0.6601
-18.1470 7.8885 0.5509
-21.4447 8.7121 0.6408
-21.4967 8.1338 0.6326
-21.6145 7.5865 0.6268
-19.0024 6.1581 0.5434
-12.0367 3.5817 0.3395
-12.2886 3.3357 0.3422
-12.5475 3.0824 0.3450
-12.8138 2.8214 0.3482
-13.0882 2.5518 0.3516
-13.3714 2.2732 0.3554
-23.4294 3.4027 0.6163
-23.5145 2.8367 0.6125
-23.5511 2.2653 0.6078
-13.3646 0.9602 0.3419
-23.3384 1.1108 0.5922
-17.2308 0.4032 0.4339
-23.1952 -0.0179 0.5799
-12.9855 -0.3239 0.3225
-13.0355 -0.6406 0.3218
-24.5465 -1.8017 0.6026
-25.4125 -2.4839 0.6208
-38.2324 -4.6720 0.9299
-37.8443 -5.5557 0.9169
-37.8489 -6.4942 0.9140
-37.8535 -7.4408 0.9116
-12.6477 -2.8051 0.3039
-12.5043 -3.0921 0.3000
-11.0543 -3.0187 0.2650
-12.2150 -3.6551 0.2928
-12.0071 -3.9114 0.2879
-11.7451 -4.1425 0.2819
-11.8484 -4.5037 0.2848
-11.9551 -4.8780 0.2881
-11.8297 -5.1637 0.2859
-11.6697 -5.4332 0.2831
-11.4650 -5.6789 0.2794
-11.2624 -5.9216 0.2759
-10.9216 -6.0837 0.2692
-10.5810 -6.2336 0.2626
-11.3651 -7.0709 0.2842
-11.7076 -7.6824 0.2953
-8.9590 -6.1936 0.2281
-11.5889 -8.4327 0.2981
-11.4533 -8.7650 0.2980
-11.7815 -9.4761 0.3103
-10.8567 -9.1741 0.4474
-10.6186 -9.4219 0.4450
-10.3807 -9.6690 0.4429
-44.1462 -43.1580 1.9196
-18.4123 -18.8915 0.8170
-21.2365 -22.8694 0.9628
-37.2584 -42.1198 1.7283
-27.3148 -32.4248 1.2982
-31.9932 -39.8960 1.5602
-10.4860 -13.7438 0.5256
-10.2486 -14.1278 0.5288
-27.4099 -39.7720 1.4586
-29.3377 -44.8509 1.6132
-15.3428 -24.7405 0.8735
-27.9541 -47.6074 1.6515
-26.6318 -47.9734 1.6367
-25.0834 -47.8743 1.6077
-23.6631 -47.9468 1.5862
-20.0139 -43.1492 1.4074
-20.1645 -46.3773 1.4928
-9.6347 -23.7100 0.7537
-23.6269 -62.4264 1.9614
-14.0397 -39.9880 1.2428
-16.7040 -51.5265 1.5853
-5.9869 -20.1114 0.6130
-20.1114 -74.0569 2.2382
-4.2801 -17.4139 0.5222
-3.8357 -17.4101 0.5184
-3.3962 -17.4064 0.5151
-2.9609 -17.4027 0.5121
-2.5295 -17.3990 0.5096
-2.4880 -20.5977 0.6008
-6.0094 -62.3749 1.8134
-5.2295 -72.6213 2.1058
-3.4689 -72.6292 2.1022
-1.9584 -83.0917 2.4023
0.0216 -36.3036 1.0492
0.8990 -36.3079 1.0496
3.8892 -79.4427 2.2990
5.4633 -74.6277 2.1635
2.7860 -28.5611 0.8301
2.9265 -23.9878 0.6994
5.8892 -40.1726 1.1760
3.5539 -20.7383 0.6100
4.2759 -21.7772 0.6440
4.9432 -22.3102 0.6639
5.5581 -22.4974 0.6742
4.6848 -17.1701 0.5185
4.8207 -16.1237 0.4910
5.1231 -15.7393 0.4838
4.7187 -13.3888 0.4157
4.6033 -12.1191 0.3804
4.6356 -11.3688 0.3610
4.8464 -11.1103 0.3572
5.0520 -10.8580 0.3537
5.1680 -10.4402 0.3449
5.1111 -9.7269 0.3262
5.2122 -9.3628 0.3190
5.3288 -9.0506 0.3135
5.4464 -8.7592 0.3088
5.5759 -8.5023 0.3053
5.7018 -8.2524 0.3022
5.8516 -8.0463 0.3007
6.0442 -7.9025 0.3017
5.4337 -6.7594 0.2639
5.5360 -6.5558 0.2620
5.6535 -6.3758 0.2612
5.8157 -6.2480 0.2626
5.9782 -6.1192 0.2642
6.1437 -5.9919 0.2661
6.3147 -5.8678 0.2683
6.4869 -5.7421 0.2708
6.6703 -5.6229 0.2738
6.8646 -5.5086 0.2774
7.0619 -5.3917 0.2812
7.3466 -5.3331 0.2886
7.8563 -5.4182 0.3047
7.5301 -4.9291 0.2886
7.6728 -4.7618 0.2909
7.8161 -4.5929 0.2934
7.9600 -4.4223 0.2960
8.1090 -4.2520 0.2990
8.2963 -4.0978 0.3036
8.4687 -3.9313 0.3078
8.6256 -3.7536 0.3116
8.7845 -3.5729 0.3156
8.9455 -3.3889 0.3199
9.2532 -3.2520 0.3296
9.5822 -3.1097 0.3402
10.3971 -3.0985 0.3681
11.4288 -3.1074 0.4038
17.8329 -4.3888 0.6292
32.0423 -7.0693 1.1297
19.8659 -3.8821 0.7003
32.1001 -5.4711 1.1321
11.3053 -1.6468 0.3991
10.1166 -1.2249 0.3578
9.7512 -0.9422 0.3456
9.2770 -0.6706 0.3297
7.8667 -0.3778 0.2805
7.6460 -0.1822 0.2738
2.8807 0.0010 0.1036
2.9261 0.0717 0.1058
7.0027 0.3411 0.2546
6.9522 0.5073 0.2543
6.9022 0.6716 0.2542
6.8527 0.8344 0.2542
6.8342 1.0003 0.2555
7.1441 1.2227 0.2694
7.3888 1.4491 0.2811
7.4551 1.6502 0.2864
7.5229 1.8569 0.2919
7.5829 2.0674 0.2974
7.6211 2.2770 0.3023
7.4186 2.4133 0.2978
7.3499 2.5889 0.2987
7.3732 2.7992 0.3036
7.3971 3.0148 0.3088
7.4216 3.2360 0.3143
7.5276 3.5011 0.3236
7.6854 3.8030 0.3356
7.8202 4.1079 0.3470
7.9603 4.4302 0.3593
8.5913 5.0571 0.3947
7.6153 4.7340 0.3563
7.2636 4.7625 0.3464
7.1384 4.9312 0.3473
7.0151 5.1008 0.3484
6.8917 5.2703 0.3497
6.6963 5.3822 0.3475
6.5497 5.5302 0.3479
6.4071 5.6806 0.3486
6.2646 5.8307 0.3495
6.2782 6.1332 0.3596
6.4235 6.5859 0.3780
7.5237 8.0965 0.4555
7.3384 8.2902 0.4576
7.1523 8.4846 0.4599
7.1711 8.9365 0.4761
18.6045 24.3688 1.2772
10.7923 14.8677 0.7673
10.2759 14.9010 0.7578
9.7939 14.9634 0.7504
9.2534 14.9122 0.7381
8.7945 14.9685 0.7317
8.3362 15.0076 0.7251
7.9781 15.2182 0.7271
7.6694 15.5310 0.7344
7.3953 15.9348 0.7461
7.0993 16.3187 0.7571
6.7481 16.5970 0.7635
6.3899 16.8738 0.7701
6.0527 17.2297 0.7805
5.7179 17.6282 0.7931
3.6230 12.1639 0.5438
5.1662 19.0132 0.8452
7.2100 29.3182 1.2965
6.5811 29.8553 1.3141
6.0410 30.9451 1.3564
5.2895 31.0716 1.3569
7.7405 53.2141 2.3166
6.3993 52.9497 2.2990
5.1152 53.0639 2.2990
3.1654 43.9319 1.9002
2.6574 55.6044 2.4023
1.3124 55.6424 2.4023
-0.0329 55.6532 2.4023
-1.3781 55.6369 2.4023
-2.7227 55.5934 2.4023
-2.4153 32.9783 1.4268
-3.2173 32.9675 1.4289
-4.0226 32.9566 1.4316
-7.7413 52.7814 2.2992
-6.9507 40.5400 1.7717
-10.0729 51.2758 2.2493
-8.2941 37.4157 1.6483
-12.6772 51.2878 2.2703
-12.3774 45.3407 2.0177
-10.2827 34.3747 1.5387
-15.7651 48.4085 2.1808
-16.4969 46.7833 2.1222
-17.0243 44.7962 2.0474
-17.6553 43.2765 1.9940
-18.2422 41.7971 1.9426
-18.8192 40.4248 1.8963
-12.9460 26.1383 1.2383
-17.8947 34.0359 1.6295
-18.2929 32.8408 1.5900
-18.6042 31.5792 1.5471
-18.6902 30.0406 1.4904
-18.3634 27.9839 1.4069
-14.1707 20.4970 1.0450
-17.8241 24.4939 1.2674
-12.5661 16.4191 0.8629
-18.1646 22.5817 1.2065
-18.4520 21.8366 1.1871
-18.7601 21.1427 1.1705
-19.0704 20.4736 1.1555
-19.3874 19.8306 1.1420
-19.7123 19.2113 1.1302
-20.0468 18.6141 1.1198
-20.3398 17.9906 1.1081
-5.3806 4.5322 0.2862
-5.7899 4.6424 0.3009
-6.1457 4.6883 0.3124
-6.5322 4.7378 0.3250
-6.9539 4.7916 0.3389
-21.1278 13.8172 1.0096
-21.1696 13.1252 0.9925
-21.1624 12.4230 0.9742
-20.8243 11.5571 0.9420
-20.7107 10.8479 0.9212
-20.6694 10.1975 0.9046
-20.6895 9.5929 0.8915
-18.1457 7.8864 0.7704
-20.8784 8.4803 0.8739
-21.0099 7.9478 0.8675
-21.1178 7.4104 0.8607
-19.0012 6.1561 0.7649
-21.4067 6.3682 0.8516
-21.6214 5.8672 0.8505
-21.8462 5.3650 0.8503
-22.1264 4.8700 0.8526
-22.4337 4.3721 0.8562
-22.6366 3.8464 0.8563
-22.8184 3.3122 0.8560
-22.8512 2.7549 0.8505
-22.8558 2.1966 0.8445
-13.3675 0.9594 0.4906
-22.6500 1.0763 0.8262
-17.2293 0.4018 0.6250
-22.2056 -0.0189 0.8015
-12.9792 -0.3248 0.4664
-13.0344 -0.6416 0.4665
-22.3820 -1.6446 0.7984
-22.9030 -2.2404 0.8147
-23.3700 -2.8577 0.8295
-23.6377 -3.4720 0.8377
-23.9090 -4.1043 0.8464
-15.7818 -3.1035 0.5585
-15.5424 -3.4484 0.5501
-15.1114 -3.7380 0.5353
-10.7579 -2.9387 0.3816
-11.0299 -3.3014 0.3920
-11.3197 -3.6884 0.4034
-11.5052 -4.0588 0.4114
-11.6027 -4.4113 0.4166
-11.7027 -4.7760 0.4222
-11.6137 -5.0704 0.4212
-11.4292 -5.3222 0.4171
-11.1708 -5.5341 0.4105
-10.8282 -5.6943 0.4009
-10.4972 -5.8482 0.3920
-10.1152 -5.9601 0.3812
-9.5934 -5.9695 0.3652
-11.2356 -7.3738 0.4324
-11.5218 -7.9664 0.4487
-11.3892 -8.2885 0.4492
-11.2537 -8.6133 0.4500
-11.0813 -8.9140 0.4496
-10.6808 -9.0266 0.5954
-10.4468 -9.2706 0.5928
-10.2128 -9.5138 0.5906
-31.1349 -30.4414 1.8371
-18.4084 -18.8896 1.1096
-21.2309 -22.8658 1.3089
-28.8434 -32.6104 1.8211
-27.3007 -32.4115 1.7678
-27.4744 -34.2646 1.8273
-10.4842 -13.7428 0.7173
-10.2465 -14.1263 0.7224
-26.1288 -37.9168 1.9014
-25.5376 -39.0451 1.9220
-15.3399 -24.7382 1.1964
-24.2310 -41.2705 1.9627
-23.9837 -43.2071 2.0223
-18.6151 -35.5323 1.6382
-22.4413 -45.4751 2.0670
-20.0093 -43.1432 1.9349
-20.1600 -46.3710 2.0535
-9.6329 -23.7076 1.0375
-18.2976 -48.3498 2.0927
-14.0371 -39.9840 1.7128
-16.6216 -51.2768 2.1757
-5.9859 -20.1098 0.8458
-14.8312 -54.6179 2.2786
-4.2797 -17.4138 0.7212
-3.8354 -17.4100 0.7162
-3.3959 -17.4063 0.7118
-2.9607 -17.4026 0.7080
-2.5292 -17.3990 0.7046
-2.4880 -20.5992 0.8311
-5.7541 -59.7298 2.4023
-4.3113 -59.8754 2.4023
-2.8645 -59.9800 2.4023
-1.4150 -60.0433 2.4023
0.0216 -36.3060 1.4520
0.8991 -36.3103 1.4527
2.8102 -57.4073 2.2990
4.1953 -57.3101 2.2990
3.2811 -33.6390 1.3527
5.2883 -43.3506 1.7486
5.9196 -40.3837 1.6350
5.9545 -34.7492 1.4132
5.6501 -28.7783 1.1765
4.6166 -20.8379 0.8569
5.6853 -23.0144 0.9527
4.6724 -17.1259 0.7141
4.8233 -16.1336 0.6782
5.1258 -15.7488 0.6678
4.7263 -13.4114 0.5742
4.4790 -11.7928 0.5101
4.6076 -11.3012 0.4942
4.8176 -11.0451 0.4888
5.0223 -10.7951 0.4838
5.1146 -10.3332 0.4693
5.0613 -9.6329 0.4438
5.1561 -9.2628 0.4332
5.2746 -8.9594 0.4257
5.4068 -8.6963 0.4202
5.5359 -8.4421 0.4152
5.6615 -8.1947 0.4106
5.8197 -8.0033 0.4089
6.0113 -7.8603 0.4099
5.3790 -6.6920 0.3565
5.4755 -6.4849 0.3534
5.5755 -6.2886 0.3508
5.6735 -6.0958 0.3486
5.7754 -5.9122 0.3469
5.9199 -5.7742 0.3481
6.0837 -5.6537 0.3507
6.2484 -5.5316 0.3534
6.4142 -5.4077 0.3564
6.5943 -5.2924 0.3603
6.7813 -5.1781 0.3647
6.9675 -5.0586 0.3692
7.1266 -4.9157 0.3725
7.2869 -4.7706 0.3760
7.4242 -4.6082 0.3784
7.5619 -4.4442 0.3812
7.7000 -4.2786 0.3841
7.8530 -4.1185 0.3880
8.0317 -3.9678 0.3934
8.2136 -3.8137 0.3990
8.3727 -3.6443 0.4038
8.5249 -3.4680 0.4084
8.6805 -3.2892 0.4134
9.0685 -3.1879 0.4297
9.3859 -3.0467 0.4427
9.8937 -2.9493 0.4649
10.9569 -2.9800 0.5132
31.3339 -7.7140 1.4637
31.3625 -6.9219 1.4622
19.8641 -3.8833 0.9249
31.4690 -5.3661 1.4642
10.0844 -1.4698 0.4691
9.7212 -1.1778 0.4525
9.0646 -0.8766 0.4224
7.9670 -0.5765 0.3718
7.7407 -0.3724 0.3621
7.5270 -0.1800 0.3531
2.8807 0.0007 0.1356
2.9250 0.0715 0.1382
6.9790 0.3394 0.3313
6.9288 0.5050 0.3306
6.8791 0.6688 0.3301
6.8299 0.8311 0.3297
6.7809 0.9920 0.3296
7.0220 1.2012 0.3439
7.1905 1.4097 0.3549
7.2523 1.6047 0.3610
7.3153 1.8051 0.3675
7.3796 2.0114 0.3744
7.3908 2.2076 0.3788
7.2972 2.3731 0.3781
7.3196 2.5777 0.3837
7.3425 2.7869 0.3896
7.3659 3.0014 0.3958
7.3899 3.2216 0.4025
7.4715 3.4744 0.4127
7.6263 3.7731 0.4275
7.7496 4.0701 0.4411
7.8557 4.3713 0.4544
8.0471 4.7360 0.4734
7.5299 4.6802 0.4508
7.2308 4.7403 0.4409
7.1039 4.9067 0.4415
6.9812 5.0754 0.4426
6.8395 5.2297 0.4427
6.6394 5.3358 0.4391
6.4773 5.4684 0.4381
6.3364 5.6173 0.4388
6.2361 5.8035 0.4425
6.2292 6.0846 0.4534
6.3640 6.5242 0.4757
7.4590 8.0260 0.5732
7.2572 8.1976 0.5741
7.1018 8.4238 0.5790
7.0904 8.8350 0.5965
8.4079 11.0118 0.7311
8.1739 11.2594 0.7356
7.6384 11.0754 0.7127
7.1406 10.9086 0.6919
6.9538 11.2052 0.7011
6.7625 11.5088 0.7109
6.5662 11.8200 0.7212
7.9597 15.1816 0.9158
7.6476 15.4854 0.9241
7.3482 15.8318 0.9352
7.0648 16.2380 0.9501
6.7151 16.5145 0.9577
6.3605 16.7946 0.9659
6.0260 17.1522 0.9789
5.7065 17.5914 0.9969
3.6230 12.1627 0.6847
5.1699 19.0252 1.0647
7.1808 29.1970 1.6251
6.5934 29.9085 1.6566
5.8971 30.2057 1.6658
5.2399 30.7777 1.6909
6.1075 41.9842 2.2990
5.0886 42.1007 2.2990
4.0679 42.1955 2.2990
3.0458 42.2690 2.2990
2.1136 44.2215 2.4023
1.0439 44.2534 2.4023
-0.0261 44.2628 2.4023
-1.0961 44.2496 2.4023
-2.1655 44.2140 2.4023
-2.4156 32.9796 1.7942
-3.2177 32.9687 1.7969
-4.0230 32.9578 1.8005
-6.1554 41.9658 2.2992
-6.9869 40.7479 2.2400
-8.1848 41.6615 2.2992
-8.2963 37.4225 2.0744
-10.3047 41.6863 2.3223
-11.3181 41.4571 2.3223
-10.2824 34.3707 1.9370
-13.3178 40.8902 2.3198
-14.2147 40.3080 2.3032
-14.9711 39.3902 2.2684
-15.4830 37.9486 2.2038
-15.9689 36.5852 2.1438
-16.4173 35.2622 2.0862
-12.9455 26.1351 1.5621
-17.2977 32.8975 1.9879
-17.6396 31.6650 1.9357
-17.8461 30.2897 1.8745
-17.6888 28.4284 1.7823
-17.3646 26.4594 1.6818
-14.1696 20.4935 1.3216
-17.3669 23.8633 1.5626
-17.5461 22.9238 1.5255
-17.7799 22.1012 1.4959
-18.1051 21.4238 1.4762
-18.4240 20.7618 1.4578
-18.7349 20.1113 1.4403
-19.0469 19.4802 1.4245
-19.3476 18.8537 1.4092
-19.6577 18.2507 1.3959
-19.9185 17.6159 1.3804
-14.3228 12.0629 0.9697
-5.5763 4.4706 0.3692
-5.9100 4.5079 0.3829
-6.2711 4.5478 0.3980
-20.4719 14.1042 1.2738
-20.4506 13.3724 1.2485
-20.3368 12.6070 1.2191
-20.1800 11.8444 1.1888
-20.1046 11.1559 1.1647
-20.0725 10.5119 1.1443
-20.1084 9.9189 1.1290
-20.1462 9.3392 1.1146
-18.1444 7.8842 0.9900
-20.4685 8.3121 1.1020
-20.5918 7.7879 1.0946
-20.7211 7.2694 1.0883
-18.9999 6.1541 0.9865
-21.0047 6.2468 1.0789
-21.1992 5.7509 1.0778
-21.4054 5.2550 1.0778
-21.6684 4.7675 1.0812
-21.9261 4.2715 1.0848
-22.0985 3.7532 1.0848
-22.2726 3.2312 1.0853
-22.2876 2.6852 1.0787
-22.2698 2.1385 1.0712
-13.3705 0.9585 0.6395
-21.9305 1.0403 1.0437
-17.2277 0.4004 0.8162
-21.6620 -0.0201 1.0223
-12.9728 -0.3257 0.6102
-13.0333 -0.6426 0.6113
-21.6889 -1.5954 1.0151
-21.8425 -2.1384 1.0206
-21.9978 -2.6917 1.0268
-22.1767 -3.2592 1.0347
-22.3756 -3.8429 1.0441
-22.7067 -4.4671 1.0604
-23.0081 -5.1067 1.0759
-23.3395 -5.7753 1.0936
-24.0958 -6.5842 1.1320
-10.7326 -3.2133 0.5058
-11.0045 -3.5866 0.5207
-11.2069 -3.9545 0.5327
-11.3509 -4.3165 0.5423
-11.4606 -4.6782 0.5508
-11.3937 -4.9753 0.5512
-11.0604 -5.1514 0.5390
-10.6548 -5.2794 0.5235
-10.2676 -5.4004 0.5089
-9.8971 -5.5148 0.4953
-9.4674 -5.5793 0.4788
-11.4538 -7.1282 0.5857
-11.4456 -7.5127 0.5924
-11.3275 -7.8332 0.5940
-11.1961 -8.1491 0.5953
-11.0336 -8.4460 0.5954
-10.8638 -8.7402 0.5955
-10.4854 -8.8625 0.7370
-10.2803 -9.1240 0.7361
-10.0502 -9.3634 0.7338
-27.7518 -27.1368 2.0687
-18.4044 -18.8876 1.4023
-21.2253 -22.8623 1.6551
-25.3059 -28.6139 2.0221
-25.0274 -29.7157 2.0522
-24.9327 -31.0979 2.1010
-10.4823 -13.7418 0.9092
-10.2443 -14.1247 0.9160
-23.9393 -34.7429 2.2108
-23.2422 -35.5391 2.2209
-15.3371 -24.7360 1.5195
-21.7170 -36.9921 2.2356
-20.9527 -37.7503 2.2464
-18.6108 -35.5272 2.0834
-19.3827 -39.2808 2.2719
-18.6407 -40.1957 2.2947
-17.8338 -41.0240 2.3135
-9.6311 -23.7052 1.3216
-15.9157 -42.0594 2.3198
-14.0345 -39.9801 2.1832
-13.9124 -42.9224 2.3223
-5.9849 -20.1082 1.0787
-11.8465 -43.6303 2.3223
-4.2794 -17.4138 0.9203
-3.8350 -17.4100 0.9142
-3.3956 -17.4063 0.9088
-2.9604 -17.4026 0.9040
-2.5290 -17.3989 0.8999
-2.4879 -20.6006 1.0616
-4.5042 -46.7596 2.4023
-3.3745 -46.8695 2.4023
-2.2419 -46.9483 2.4023
-1.1074 -46.9958 2.4023
0.0217 -36.3084 1.8553
0.8968 -36.2219 1.8515
2.2982 -46.9512 2.4023
3.2836 -44.8592 2.2990
3.2803 -33.6334 1.7277
5.3300 -43.6959 2.2513
5.5182 -37.6481 1.9468
5.9901 -34.9597 1.8157
5.6622 -28.8421 1.5055
5.4394 -24.5536 1.2890
5.6067 -22.6979 1.1992
4.6600 -17.0819 0.9089
4.8258 -16.1435 0.8657
5.1285 -15.7583 0.8523
4.7339 -13.4341 0.7333
4.4727 -11.7772 0.6493
4.5883 -11.2546 0.6272
4.7890 -10.9807 0.6190
4.9929 -10.7329 0.6124
5.0623 -10.2283 0.5913
5.0123 -9.5406 0.5592
5.1031 -9.1684 0.5453
5.2350 -8.8929 0.5371
5.3677 -8.6342 0.5301
5.4965 -8.3827 0.5236
5.6216 -8.1379 0.5175
5.7882 -7.9607 0.5160
5.2556 -6.8728 0.4545
5.3252 -6.6258 0.4474
5.4164 -6.4154 0.4428
5.5158 -6.2219 0.4395
5.6133 -6.0318 0.4364
5.7339 -5.8704 0.4356
5.8449 -5.7018 0.4344
5.9441 -5.5246 0.4328
6.0420 -5.3495 0.4314
6.1854 -5.2154 0.4335
6.3452 -5.0931 0.4371
6.5219 -4.9807 0.4419
6.6794 -4.8501 0.4457
6.8304 -4.7120 0.4492
6.9823 -4.5718 0.4530
7.1351 -4.4294 0.4570
7.2889 -4.2845 0.4613
7.4440 -4.1370 0.4660
7.6125 -3.9930 0.4716
7.7833 -3.8458 0.4776
7.9568 -3.6951 0.4840
8.1334 -3.5408 0.4908
8.2800 -3.3691 0.4960
8.4401 -3.1988 0.5023
8.6989 -3.0587 0.5146
9.1972 -2.9862 0.5412
9.5195 -2.8386 0.5577
10.5220 -2.8626 0.6140
11.5457 -2.8433 0.6715
30.6483 -6.7667 1.7777
19.8622 -3.8845 1.1497
30.7861 -5.2521 1.7794
9.6898 -1.4131 0.5596
8.8593 -1.0740 0.5115
8.6469 -0.8369 0.4994
7.8374 -0.5678 0.4531
7.6184 -0.3671 0.4411
7.4114 -0.1778 0.4300
2.8806 0.0005 0.1676
2.9240 0.0712 0.1707
6.9554 0.3377 0.4075
6.9055 0.5028 0.4064
6.8561 0.6660 0.4055
6.8071 0.8278 0.4049
6.7585 0.9881 0.4044
6.9039 1.1804 0.4159
7.0024 1.3722 0.4249
7.0600 1.5615 0.4318
7.1186 1.7560 0.4391
7.1783 1.9559 0.4468
7.2459 2.1637 0.4554
7.2676 2.3629 0.4615
7.2896 2.5665 0.4680
7.3121 2.7747 0.4749
7.3350 2.9882 0.4822
7.3584 3.2072 0.4900
7.4162 3.4480 0.5005
7.5680 3.7436 0.5180
7.6802 4.0330 0.5336
7.7835 4.3304 0.5492
7.8953 4.6459 0.5662
7.3906 4.5929 0.5391
7.1982 4.7183 0.5345
7.0697 4.8824 0.5348
6.9476 5.0503 0.5359
6.7813 5.1845 0.5338
6.5835 5.2902 0.5293
6.4064 5.4079 0.5265
6.2671 5.5552 0.5271
6.2094 5.7780 0.5349
6.1946 6.0501 0.5472
6.3056 6.4636 0.5717
7.3992 7.9608 0.6894
7.1776 8.1068 0.6881
7.0688 8.3838 0.6982
7.0426 8.7745 0.7176
7.2814 9.5354 0.7665
7.8486 10.8102 0.8548
7.3635 10.6756 0.8312
7.1115 10.8631 0.8334
6.9196 11.1491 0.8435
6.7288 11.4505 0.8550
6.5268 11.7478 0.8663
6.3711 12.1505 0.8855
6.2483 12.6509 0.9118
7.3237 15.7778 1.1254
7.0249 16.1449 1.1405
6.6824 16.4326 1.1502
6.3393 16.7374 1.1617
6.0088 17.1019 1.1776
5.7000 17.5699 1.2011
3.6229 12.1615 0.8258
5.1736 19.0372 1.2848
7.1768 29.1782 1.9582
6.5872 29.8780 1.9952
5.8957 30.1958 2.0074
5.2431 30.7939 2.0392
5.0679 34.8350 2.2990
4.2227 34.9342 2.2990
3.3760 35.0152 2.2990
2.6414 36.6532 2.4023
1.7542 36.6997 2.4023
0.8664 36.7270 2.4023
-0.0216 36.7352 2.4023
-0.9097 36.7242 2.4023
-1.7973 36.6941 2.4023
-2.4159 32.9808 2.1621
-3.2181 32.9700 2.1654
-4.0235 32.9591 2.1698
-5.3035 36.1548 2.3872
-5.9506 34.7015 2.2992
-6.7908 34.5632 2.2992
-7.6283 34.4067 2.2992
-8.4627 34.2322 2.2992
-9.2937 34.0394 2.2992
-10.2227 34.1685 2.3223
-11.0542 33.9374 2.3223
-11.8812 33.6882 2.3223
-12.7034 33.4210 2.3223
-13.5205 33.1356 2.3223
-14.3320 32.8323 2.3223
-15.1377 32.5112 2.3223
-12.9450 26.1318 1.8863
-16.3225 31.0400 2.2657
-16.5436 29.6950 2.1933
-16.6852 28.3168 2.1179
-16.5942 26.6668 2.0211
-16.6234 25.3275 1.9468
-14.1685 20.4899 1.5984
-16.8677 23.1751 1.8363
-17.1026 22.3421 1.7997
-17.3808 21.6030 1.7706
-17.7063 20.9498 1.7486
-18.0591 20.3485 1.7313
-18.3979 19.7474 1.7144
-18.6947 19.1179 1.6954
-18.9875 18.5007 1.6776
-19.2512 17.8712 1.6590
-19.5049 17.2480 1.6412
-14.3222 12.0608 1.1778
-10.4801 8.4010 0.8431
-5.6914 4.3406 0.4483
-19.8585 14.3996 1.5330
-19.8413 13.6678 1.5024
-19.7084 12.8852 1.4649
-19.5430 12.1131 1.4271
-19.5586 11.4779 1.4042
-19.5752 10.8603 1.3828
-19.6316 10.2792 1.3655
-19.6860 9.7089 1.3492
-19.7876 9.1712 1.3372
-18.1431 7.8821 1.2097
-20.0780 8.1518 1.3218
-20.2090 7.6414 1.3144
-20.3415 7.1346 1.3079
-18.9987 6.1521 1.2084
-20.6331 6.1346 1.2990
-20.8197 5.6463 1.2982
-21.0085 5.1558 1.2982
-21.2156 4.6661 1.3000
-21.4281 4.1727 1.3028
-21.6626 3.6775 1.3075
-21.8498 3.1681 1.3101
-21.8561 2.6315 1.3025
-21.8112 2.0927 1.2927
-13.3734 0.9577 0.7887
-21.3540 1.0113 1.2538
-17.2262 0.3990 1.0076
-21.1670 -0.0213 1.2342
-12.9665 -0.3265 0.7540
-13.0322 -0.6436 0.7563
-21.1286 -1.5558 1.2243
-21.1890 -2.0761 1.2267
-21.2856 -2.6062 1.2319
-21.4735 -3.1575 1.2431
-21.7064 -3.7297 1.2576
-21.9021 -4.3105 1.2708
-22.1169 -4.9107 1.2860
-22.4401 -5.5546 1.3083
-22.8563 -6.2474 1.3370
-23.2659 -6.9677 1.3664
-10.7061 -3.4902 0.6317
-10.9234 -3.8554 0.6479
-11.0577 -4.2059 0.6598
-11.1970 -4.5715 0.6725
-11.3183 -4.9434 0.6848
-10.4099 -4.8494 0.6349
-10.0432 -4.9773 0.6180
-9.6917 -5.0984 0.6021
-9.3452 -5.2081 0.5865
-15.9983 -9.4296 1.0153
-11.2662 -7.0125 0.7236
-11.2678 -7.3970 0.7330
-11.1395 -7.7042 0.7346
-10.9874 -7.9982 0.7351
-10.8218 -8.2849 0.7353
-10.6545 -8.5729 0.7360
-10.2862 -8.6952 0.8728
-10.1174 -8.9805 0.8749
-9.8924 -9.2175 0.8727
-23.4895 -22.9716 2.1164
-18.4005 -18.8857 1.6953
-21.2197 -22.8588 2.0015
-22.1992 -25.1038 2.1466
-21.7561 -25.8342 2.1596
-21.3362 -26.6148 2.1773
-10.4805 -13.7408 1.1012
-10.2422 -14.1232 1.1099
-20.0404 -29.0872 2.2436
-19.5825 -29.9460 2.2692
-15.3342 -24.7337 1.8429
-18.4550 -31.4386 2.3052
-17.7882 -32.0517 2.3148
-17.0863 -32.6198 2.3223
-16.3140 -33.0648 2.3223
-15.5294 -33.4897 2.3223
-14.7329 -33.8940 2.3223
-9.6293 -23.7029 1.6059
-13.1067 -34.6393 2.3223
-12.2781 -34.9796 2.3223
-11.4401 -35.2980 2.3223
-5.9839 -20.1066 1.3118
-9.6411 -35.5109 2.2992
-4.2790 -17.4137 1.1196
-3.8347 -17.4099 1.1124
-3.3953 -17.4062 1.1059
-2.9602 -17.4025 1.1003
-2.5288 -17.3988 1.0953
-2.4879 -20.6021 1.2923
-3.6995 -38.4096 2.4023
-2.7715 -38.4976 2.4023
-1.8412 -38.5608 2.4023
-0.9095 -38.5988 2.4023
0.0231 -38.6117 2.4023
0.8958 -36.1818 2.2518
1.8875 -38.5623 2.4023
2.6968 -36.8452 2.2990
3.2795 -33.6278 2.1031
4.4708 -36.6542 2.2990
5.3529 -36.5230 2.2990
6.0348 -35.2234 2.2266
5.6804 -28.9369 1.8383
5.4383 -24.5505 1.5683
5.4392 -22.0215 1.4156
4.6476 -17.0381 1.1029
4.8284 -16.1534 1.0537
5.1276 -15.7568 1.0364
4.7404 -13.4536 0.8929
4.4901 -11.8242 0.7925
4.5808 -11.2373 0.7611
4.7809 -10.9628 0.7509
4.9753 -10.6959 0.7415
5.0174 -10.1387 0.7119
4.9643 -9.4500 0.6725
5.0603 -9.0923 0.6564
5.1968 -8.8288 0.6472
5.3291 -8.5729 0.6385
5.4575 -8.3240 0.6306
5.5823 -8.0817 0.6232
5.7570 -7.9185 0.6221
5.2026 -6.8042 0.5451
5.2725 -6.5609 0.5366
5.3584 -6.3474 0.5305
5.4574 -6.1566 0.5263
5.5543 -5.9691 0.5225
5.6892 -5.8253 0.5228
5.8138 -5.6721 0.5225
5.9127 -5.4961 0.5203
6.0102 -5.3220 0.5184
6.1067 -5.1497 0.5169
6.2021 -4.9788 0.5157
6.2863 -4.8014 0.5140
6.3337 -4.5997 0.5097
6.3801 -4.4020 0.5058
6.4256 -4.2079 0.5023
6.4702 -4.0172 0.4991
6.5140 -3.8296 0.4963
6.5653 -3.6492 0.4945
6.8962 -3.6179 0.5139
7.3057 -3.6104 0.5390
7.7153 -3.5836 0.5640
7.8839 -3.4329 0.5714
8.0485 -3.2756 0.5788
8.2124 -3.1132 0.5864
8.4593 -2.9751 0.6002
8.7835 -2.8527 0.6196
9.3267 -2.7818 0.6546
10.0288 -2.7292 0.7008
11.0681 -2.7266 0.7705
29.7755 -6.5765 2.0663
19.8603 -3.8858 1.3747
9.4462 -1.6123 0.6526
8.6602 -1.2636 0.5975
8.4584 -1.0261 0.5832
8.2656 -0.8006 0.5698
7.7118 -0.5593 0.5319
7.4998 -0.3620 0.5178
7.2992 -0.1757 0.5048
2.8805 0.0003 0.1996
2.9230 0.0709 0.2031
6.9320 0.3360 0.4834
6.8824 0.5005 0.4818
6.8333 0.6633 0.4805
6.7845 0.8245 0.4796
6.7361 0.9843 0.4788
6.7705 1.1571 0.4843
6.8236 1.3366 0.4915
6.9081 1.5274 0.5013
7.0054 1.7275 0.5124
7.1065 1.9357 0.5243
7.2088 2.1520 0.5368
7.2364 2.3522 0.5442
7.2598 2.5554 0.5517
7.2818 2.7627 0.5596
7.3042 2.9750 0.5679
7.3272 3.1929 0.5768
7.3616 3.4220 0.5872
7.5105 3.7145 0.6073
7.6120 3.9965 0.6245
7.7125 4.2902 0.6424
7.7744 4.5741 0.6580
7.2961 4.5336 0.6279
7.1659 4.6964 0.6275
7.0360 4.8584 0.6275
6.9142 5.0254 0.6285
6.7239 5.1399 0.6235
6.5284 5.2452 0.6181
6.3370 5.3486 0.6131
6.2320 5.5234 0.6168
6.1830 5.7527 0.6266
6.1604 6.0160 0.6400
6.2482 6.4040 0.6661
7.3403 7.8965 0.8039
7.1046 8.0234 0.8004
7.0361 8.3441 0.8164
6.9953 8.7148 0.8372
7.1781 9.3992 0.8872
7.5875 10.4495 0.9701
7.3369 10.6361 0.9720
7.0858 10.8229 0.9744
6.8857 11.0934 0.9847
6.6955 11.3927 0.9978
6.4853 11.6721 1.0094
6.3044 12.0223 1.0274
6.1805 12.5123 1.0573
7.3027 15.7312 1.3153
6.9873 16.0571 1.3293
6.6632 16.3838 1.3438
6.3210 16.6876 1.3570
5.9820 17.0242 1.3733
5.6935 17.5484 1.4051
3.6229 12.1603 0.9670
5.1773 19.0492 1.5054
7.4424 30.2555 2.3776
6.4836 29.4056 2.2990
5.7681 29.5396 2.2990
5.0501 29.6577 2.2990
4.3300 29.7599 2.2990
3.6080 29.8463 2.2990
2.8847 29.9169 2.2990
2.2571 31.3176 2.4023
1.4991 31.3581 2.4023
0.7404 31.3820 2.4023
-0.0185 31.3893 2.4023
-0.7774 31.3798 2.4023
-1.5359 31.3538 2.4023
-2.2937 31.3112 2.4023
-3.0506 31.2519 2.4023
-3.8061 31.1761 2.4023
-4.5599 31.0836 2.4023
-5.3119 30.9747 2.4023
-5.8014 29.5253 2.2992
-6.5164 29.3894 2.2992
-5.8446 23.6399 1.8590
-7.9377 29.0705 2.2992
-8.6434 28.8876 2.2992
-9.3454 28.6890 2.2992
-10.1442 28.7609 2.3223
-10.8448 28.5289 2.3223
-11.5407 28.2814 2.3223
-12.2317 28.0184 2.3223
-12.9173 27.7400 2.3223
-12.9445 26.1286 2.2108
-14.2714 27.1371 2.3223
-14.9392 26.8128 2.3223
-15.3933 26.1219 2.2914
-15.6562 25.1570 2.2367
-15.8704 24.1780 2.1805
-14.1674 20.4864 1.8755
-16.3609 22.4766 2.0906
-16.6225 21.7129 2.0536
-16.9153 21.0223 2.0235
-17.2573 20.4165 2.0019
-17.6235 19.8556 1.9851
-17.9851 19.3023 1.9696
-18.3409 18.7540 1.9553
-18.6168 18.1375 1.9342
-18.8499 17.4967 1.9107
-19.0228 16.8197 1.8832
-14.3215 12.0588 1.3861
-10.4790 8.3990 0.9925
-10.6340 8.1091 0.9865
-19.2241 13.9377 1.7483
-19.1128 13.1642 1.7055
-19.0033 12.4224 1.6652
-19.0282 11.7923 1.6387
-19.0506 11.1781 1.6136
-19.1229 10.6077 1.5943
-19.2153 10.0595 1.5779
-19.3245 9.5289 1.5642
-19.4410 9.0089 1.5522
-18.1418 7.8800 1.4298
-19.7070 7.9994 1.5340
-19.8398 7.5001 1.5264
-19.9752 7.0044 1.5199
-18.9974 6.1502 1.4305
-20.2649 6.0235 1.5111
-20.4452 5.5430 1.5106
-20.6342 5.0623 1.5115
-20.8360 4.5810 1.5142
-21.0498 4.0974 1.5184
-21.2833 3.6114 1.5249
-21.4368 3.1065 1.5263
-21.4176 2.5769 1.5164
-21.2958 2.0416 1.5002
-13.3763 0.9568 0.9381
-20.9071 0.9885 1.4605
-17.2247 0.3976 1.1992
-20.7535 -0.0226 1.4410
-12.9601 -0.3274 0.8979
-13.0311 -0.6445 0.9014
-20.6575 -1.5228 1.4274
-20.7056 -2.0304 1.4302
-20.7763 -2.5455 1.4353
-20.9237 -3.0784 1.4465
-21.0883 -3.6252 1.4599
-21.2280 -4.1796 1.4724
-21.3751 -4.7477 1.4864
-21.6597 -5.3632 1.5110
-21.9541 -6.0026 1.5374
-22.2659 -6.6700 1.5662
-10.4231 -3.3988 0.7369
-10.6535 -3.7611 0.7576
-10.7788 -4.1008 0.7714
-10.9085 -4.4547 0.7863
-11.0429 -4.8240 0.8022
-11.1756 -5.2071 0.8188
-11.2268 -5.5648 0.8302
-9.1764 -4.8281 0.6854
-22.2592 -12.4072 1.6806
-15.9958 -9.4295 1.2217
-11.0811 -6.8983 0.8569
-11.0844 -7.2777 0.8685
-10.9422 -7.5688 0.8696
-10.7807 -7.8488 0.8696
-10.6177 -8.1297 0.8702
-10.4529 -8.4117 0.8713
-10.0942 -8.5339 1.0038
-9.9277 -8.8131 1.0064
-9.7393 -9.0759 1.0075
-20.7818 -20.3259 2.1962
-18.3965 -18.8837 1.9886
-20.1652 -21.7252 2.2323
-19.7186 -22.3009 2.2383
-19.2442 -22.8539 2.2431
-18.7879 -23.4385 2.2519
-10.4787 -13.7397 1.2935
-10.2401 -14.1217 1.3040
-17.4239 -25.2921 2.2928
-16.9148 -25.8690 2.3043
-15.3314 -24.7315 2.1666
-15.7833 -26.8899 2.3188
-15.1696 -27.3360 2.3223
-14.5214 -27.7256 2.3223
-13.8624 -28.0985 2.3223
-13.1933 -28.4544 2.3223
-12.5145 -28.7929 2.3223
-9.6275 -23.7005 1.8905
-11.1296 -29.4166 2.3223
-10.4245 -29.7013 2.3223
-9.6151 -29.6695 2.2992
-5.9829 -20.1050 1.5452
-8.1825 -30.1408 2.2992
-4.2786 -17.4136 1.3193
-3.8343 -17.4099 1.3108
-3.3950 -17.4061 1.3033
-2.9599 -17.4024 1.2968
-2.5286 -17.3988 1.2911
-2.4879 -20.6036 1.5235
-3.1381 -32.5830 2.4023
-2.3508 -32.6564 2.4023
-1.5617 -32.7091 2.4023
-0.7713 -32.7407 2.4023
0.0196 -32.7514 2.4023
0.8106 -32.7411 2.4023
1.6009 -32.7099 2.4023
2.3901 -32.6578 2.4023
3.0410 -31.1842 2.2990
3.7923 -31.0944 2.2990
4.5409 -30.9846 2.2990
5.2860 -30.8553 2.2990
5.7034 -29.0565 2.1755
5.4371 -24.5473 1.8480
5.3609 -21.7063 1.6443
4.6354 -16.9944 1.2962
4.8310 -16.1634 1.2421
5.1260 -15.7533 1.2206
4.7368 -13.4445 1.0510
4.5241 -11.9147 0.9404
4.5733 -11.2200 0.8948
4.7732 -10.9462 0.8827
4.9674 -10.6799 0.8715
5.0160 -10.1366 0.8376
4.9509 -9.4252 0.7893
5.0326 -9.0433 0.7681
5.1591 -8.7655 0.7558
5.2910 -8.5124 0.7456
5.4190 -8.2661 0.7362
5.5435 -8.0262 0.7275
5.0778 -6.9850 0.6449
5.1507 -6.7369 0.6342
5.2208 -6.4971 0.6242
5.3015 -6.2807 0.6164
5.4000 -6.0925 0.6115
5.5090 -5.9210 0.6084
5.6452 -5.7809 0.6087
5.7811 -5.6408 0.6095
5.8815 -5.4678 0.6070
5.9788 -5.2948 0.6047
6.0749 -5.1235 0.6027
6.1699 -4.9536 0.6011
6.2608 -4.7826 0.5996
6.3154 -4.5870 0.5951
6.3618 -4.3900 0.5904
6.4073 -4.1966 0.5862
6.4520 -4.0065 0.5823
6.4958 -3.8195 0.5789
6.5484 -3.6404 0.5767
6.6063 -3.4664 0.5754
6.6638 -3.2938 0.5744
6.7208 -3.1223 0.5738
6.9644 -3.0331 0.5894
7.6911 -3.1308 0.6456
7.9963 -3.0320 0.6663
8.2322 -2.8959 0.6813
8.4770 -2.7538 0.6973
9.0100 -2.6881 0.7372
9.5327 -2.5950 0.7762
10.0991 -2.4887 0.8189
11.6580 -2.5758 0.9420
9.3430 -1.8288 0.7528
8.3224 -1.4211 0.6690
8.2073 -1.1982 0.6587
8.0917 -0.9823 0.6487
7.8071 -0.7568 0.6256
7.5899 -0.5510 0.6082
7.3847 -0.3570 0.5922
7.1766 -0.1733 0.5763
2.8805 0.0001 0.2317
2.9220 0.0707 0.2356
6.9087 0.3343 0.5588
6.8594 0.4983 0.5568
6.8105 0.6605 0.5552
6.7621 0.8212 0.5539
6.6940 0.9776 0.5512
6.6866 1.1422 0.5539
6.7676 1.3251 0.5643
6.8599 1.5162 0.5761
6.9555 1.7146 0.5886
7.0548 1.9211 0.6020
7.1581 2.1363 0.6163
7.1983 2.3392 0.6257
7.2257 2.5428 0.6345
7.2517 2.7506 0.6437
7.2737 2.9620 0.6531
7.2961 3.1788 0.6631
7.3190 3.4015 0.6737
7.4516 3.6847 0.6952
7.5449 3.9606 0.7140
7.6427 4.2506 0.7341
7.6832 4.5197 0.7496
7.2634 4.5125 0.7204
7.1338 4.6747 0.7198
7.0046 4.8360 0.7195
6.8648 4.9888 0.7186
6.6675 5.0961 0.7118
6.4741 5.2010 0.7055
6.2830 5.3023 0.6995
6.2059 5.4996 0.7067
6.1567 5.7276 0.7177
6.1265 5.9822 0.7319
6.1917 6.3454 0.7589
7.2684 7.8184 0.9151
7.0622 7.9747 0.9144
7.0036 8.3047 0.9338
6.9487 8.6558 0.9553
7.1231 9.3262 1.0113
7.5602 10.4109 1.1101
7.3105 10.5968 1.1120
7.0603 10.7828 1.1146
6.8521 11.0382 1.1248
6.6624 11.3353 1.1395
6.4442 11.5972 1.1510
6.2391 11.8966 1.1665
6.1095 12.3675 1.1989
5.9539 12.8244 1.2300
6.9328 15.9304 1.5126
6.6303 16.3016 1.5334
6.3028 16.6381 1.5514
5.9555 16.9471 1.5674
5.6767 17.4951 1.6060
3.6228 12.1591 1.1085
5.1810 19.0613 1.7268
6.2791 25.5243 2.2990
5.6575 25.6566 2.2990
5.0334 25.7751 2.2990
4.4071 25.8795 2.2990
3.7789 25.9700 2.2990
3.1490 26.0465 2.2990
2.6308 27.2815 2.4023
1.9700 27.3321 2.4023
1.3084 27.3680 2.4023
0.6463 27.3892 2.4023
-0.0161 27.3957 2.4023
-0.6785 27.3874 2.4023
-1.3405 27.3645 2.4023
-2.0020 27.3269 2.4023
-2.6625 27.2745 2.4023
-3.3218 27.2076 2.4023
-3.9797 27.1260 2.4023
-4.6357 27.0297 2.4023
-5.2897 26.9188 2.4023
-5.6863 25.6437 2.2992
-5.8422 23.6284 2.1296
-6.9256 25.3620 2.2992
-7.5408 25.2005 2.2992
-8.1525 25.0251 2.2992
-8.7607 24.8361 2.2992
-9.3648 24.6334 2.2992
-10.0648 24.6624 2.3223
-10.6662 24.4303 2.3223
-11.2627 24.1847 2.3223
-11.8542 23.9256 2.3223
-12.4402 23.6530 2.3223
-13.0206 23.3672 2.3223
-13.5950 23.0681 2.3223
-14.1632 22.7559 2.3223
-14.7248 22.4307 2.3223
-14.1663 20.4828 2.1530
-15.5819 21.4043 2.2862
-15.9800 20.8714 2.2672
-16.3548 20.3236 2.2473
-16.7403 19.8027 2.2310
-17.0853 19.2472 2.2114
-17.4406 18.7158 2.1952
-17.7714 18.1697 2.1779
-18.1233 17.6547 2.1650
-18.3661 17.0456 2.1410
-18.4813 16.3390 2.1046
-14.3209 12.0568 1.5947
-10.4779 8.3971 1.1421
-10.6336 8.1077 1.1355
-18.5500 13.4472 1.9424
-18.5147 12.7504 1.9027
-18.5195 12.1044 1.8694
-18.5210 11.4762 1.8379
-18.5750 10.8973 1.8134
-18.6642 10.3516 1.7939
-18.7760 9.8279 1.7781
-18.8776 9.3068 1.7626
-19.0366 8.8199 1.7538
-18.1405 7.8779 1.6501
-19.3534 7.8543 1.7393
-19.4860 7.3648 1.7314
-19.6163 6.8769 1.7243
-18.9961 6.1482 1.6530
-19.8983 5.9129 1.7151
-20.0750 5.4410 1.7151
-20.2694 4.9711 1.7174
-20.4693 4.4987 1.7211
-20.6820 4.0241 1.7267
-20.8700 3.5395 1.7312
-20.9479 3.0340 1.7274
-20.9239 2.5159 1.7163
-20.7647 1.9890 1.6952
-13.3797 0.9560 1.0878
-20.4884 0.9671 1.6598
-17.2231 0.3962 1.3911
-20.3405 -0.0237 1.6389
-12.9538 -0.3283 1.0418
-13.0300 -0.6455 1.0467
-20.2014 -1.4908 1.6216
-20.2285 -1.9852 1.6237
-20.2915 -2.4877 1.6296
-20.3814 -3.0002 1.6386
-20.5107 -3.5275 1.6518
-20.6477 -4.0670 1.6667
-20.8156 -4.6252 1.6851
-21.0210 -5.2068 1.7078
-21.2234 -5.8045 1.7314
-21.5338 -6.4525 1.7652
-21.8187 -7.1167 1.7983
-10.3938 -3.6703 0.8619
-10.5133 -4.0007 0.8777
-10.6341 -4.3435 0.8945
-10.7590 -4.7010 0.9124
-10.8884 -5.0742 0.9316
-11.0228 -5.4647 0.9522
-21.1179 -11.1130 1.8432
-21.0375 -11.7282 1.8567
-15.9933 -9.4295 1.4284
-20.8432 -12.9776 1.8853
-20.7323 -13.6143 1.9008
-10.7403 -7.4303 0.9990
-10.5814 -7.7048 0.9994
-10.4208 -7.9800 1.0003
-10.2585 -8.2563 1.0018
-18.9760 -16.0450 2.1643
-18.9136 -16.7923 2.1995
-18.8364 -17.5554 2.2359
-18.6648 -18.2575 2.2639
-18.3926 -18.8818 2.2823
-18.1335 -19.5385 2.3048
-17.7759 -20.1060 2.3172
-17.3455 -20.6012 2.3223
-16.8485 -21.0212 2.3200
-10.4768 -13.7387 1.4861
-10.2380 -14.1201 1.4983
-15.3531 -22.2884 2.3223
-14.8273 -22.6786 2.3223
-14.2910 -23.0555 2.3223
-13.7447 -23.4188 2.3223
-13.1886 -23.7682 2.3223
-12.6231 -24.1034 2.3223
-12.0486 -24.4241 2.3223
-11.4655 -24.7301 2.3223
-10.8742 -25.0211 2.3223
-9.6257 -23.6981 2.1755
-9.5724 -25.3029 2.2992
-8.9649 -25.5450 2.2992
-8.3511 -25.7714 2.2992
-5.9619 -20.0359 1.7730
-7.1055 -26.1760 2.2992
-4.2782 -17.4136 1.5192
-3.8340 -17.4098 1.5096
-3.3947 -17.4061 1.5011
-2.9596 -17.4024 1.4936
-2.5283 -17.3987 1.4871
-2.4878 -20.6050 1.7550
-2.7239 -28.2853 2.4023
-2.0405 -28.3483 2.4023
-1.3555 -28.3933 2.4023
-0.6695 -28.4204 2.4023
0.0170 -28.4295 2.4023
0.7036 -28.4206 2.4023
1.3896 -28.3938 2.4023
2.0746 -28.3489 2.4023
2.6461 -27.1366 2.3046
3.2919 -26.9933 2.2990
3.9418 -26.8990 2.2990
4.5889 -26.7879 2.2990
5.2326 -26.6599 2.2990
5.4360 -24.5441 2.1281
5.3523 -21.6734 1.8907
4.6393 -17.0103 1.4940
4.8320 -16.1680 1.4306
5.1245 -15.7499 1.4050
4.7332 -13.4355 1.2092
4.5587 -12.0067 1.0909
4.5667 -11.2045 1.0285
4.7655 -10.9296 1.0143
4.9596 -10.6640 1.0013
5.0145 -10.1345 0.9635
4.9495 -9.4235 0.9078
5.0372 -9.0525 0.8844
5.1507 -8.7520 0.8678
5.2598 -8.4630 0.8524
5.3810 -8.2089 0.8406
5.5077 -7.9751 0.8309
5.0266 -6.9152 0.7338
5.0996 -6.6708 0.7216
5.1699 -6.4345 0.7102
5.2458 -6.2153 0.7007
5.3438 -6.0297 0.6950
5.4666 -5.8761 0.6932
5.6018 -5.7371 0.6935
5.7366 -5.5980 0.6943
5.8507 -5.4397 0.6929
5.9476 -5.2678 0.6902
6.0433 -5.0975 0.6878
6.1380 -4.9287 0.6859
6.2275 -4.7578 0.6839
6.2971 -4.5743 0.6803
6.3436 -4.3780 0.6748
6.3891 -4.1853 0.6697
6.4338 -3.9958 0.6652
6.4777 -3.8094 0.6611
6.5314 -3.6316 0.6586
6.5893 -3.4581 0.6570
6.6467 -3.2859 0.6557
6.7036 -3.1149 0.6549
6.7601 -2.9447 0.6544
6.8163 -2.7753 0.6543
7.0279 -2.6654 0.6695
8.0166 -2.8208 0.7583
8.2504 -2.6809 0.7755
8.4932 -2.5346 0.7938
9.2415 -2.5165 0.8594
9.6662 -2.3829 0.8950
9.5285 -2.1061 0.8789
7.9658 -1.5598 0.7324
7.8632 -1.3434 0.7212
7.7620 -1.1338 0.7105
7.6929 -0.9345 0.7032
7.6181 -0.7391 0.6959
7.4717 -0.5431 0.6824
7.2728 -0.3522 0.6645
7.0539 -0.1709 0.6452
2.8804 -0.0002 0.2639
2.9209 0.0704 0.2682
6.8855 0.3326 0.6339
6.8171 0.4947 0.6297
6.7450 0.6536 0.6255
6.6737 0.8099 0.6217
6.6390 0.9691 0.6216
6.6669 1.1383 0.6278
6.7234 1.3159 0.6371
6.8122 1.5051 0.6499
6.9062 1.7019 0.6639
7.0038 1.9066 0.6787
7.1053 2.1200 0.6945
7.1605 2.3263 0.7065
7.1874 2.5287 0.7162
7.2147 2.7360 0.7266
7.2426 2.9487 0.7376
7.2653 3.1647 0.7488
7.2877 3.3863 0.7606
7.3879 3.6526 0.7813
7.4788 3.9252 0.8020
7.5783 4.2141 0.8247
7.4818 4.4005 0.8269
7.2309 4.4916 0.8122
7.1019 4.6531 0.8114
6.9734 4.8138 0.8110
6.8017 4.9422 0.8059
6.6029 5.0461 0.7977
6.4082 5.1473 0.7901
6.2341 5.2604 0.7852
6.1757 5.4722 0.7954
6.1306 5.7026 0.8082
6.0929 5.9487 0.8230
6.1547 6.3068 0.8528
6.6113 7.1108 0.9408
7.0202 7.9264 1.0272
6.9413 8.2299 1.0457
6.9025 8.5974 1.0721
7.0915 9.2839 1.1373
7.5330 10.3725 1.2493
7.2842 10.5577 1.2513
7.0349 10.7430 1.2540
6.8188 10.9835 1.2637
6.6224 11.2663 1.2786
6.4037 11.5230 1.2910
6.1807 11.7841 1.3042
6.0400 12.2258 1.3376
5.8845 12.6738 1.3717
6.8791 15.8055 1.6934
6.5638 16.1367 1.7126
6.2847 16.5888 1.7451
5.9378 16.8954 1.7628
5.6509 17.4142 1.8032
3.6228 12.1579 1.2502
5.1744 19.0355 1.9449
5.5681 22.6319 2.2990
5.0171 22.7505 2.2990
4.4639 22.8565 2.2990
3.9086 22.9502 2.2990
3.3515 23.0312 2.2990
2.7930 23.0998 2.2990
2.3334 24.1958 2.4023
1.7474 24.2411 2.4023
1.1606 24.2733 2.4023
0.5733 24.2923 2.4023
-0.0143 24.2982 2.4023
-0.6018 24.2909 2.4023
-1.1890 24.2704 2.4023
-1.7757 24.2368 2.4023
-2.3616 24.1900 2.4023
-2.9463 24.1301 2.4023
-3.5297 24.0570 2.4023
-4.1114 23.9708 2.4023
-4.6913 23.8716 2.4023
-5.2689 23.7594 2.4023
-5.5933 22.6199 2.2992
-6.1412 22.4876 2.2992
-6.6863 22.3431 2.2992
-7.2283 22.1862 2.2992
-7.7669 22.0170 2.2992
-8.3019 21.8357 2.2992
-8.8330 21.6423 2.2992
-9.3600 21.4368 2.2992
-9.9818 21.4324 2.3223
-10.5050 21.2007 2.3223
-11.0233 20.9571 2.3223
-11.5363 20.7016 2.3223
-12.0439 20.4343 2.3223
-12.5458 20.1554 2.3223
-13.0417 19.8649 2.3223
-13.5315 19.5630 2.3223
-14.0147 19.2497 2.3223
-14.4913 18.9252 2.3223
-14.9608 18.5895 2.3223
-15.4232 18.2429 2.3223
-15.8781 17.8853 2.3223
-16.3120 17.5029 2.3204
-16.6600 17.0315 2.3078
-17.0178 16.5760 2.2983
-17.3215 16.0743 2.2831
-17.4949 15.4651 2.2531
-14.3202 12.0548 1.8037
-10.4768 8.3952 1.2919
-10.6331 8.1062 1.2848
-17.7753 12.8838 2.1065
-17.8482 12.2897 2.0762
-17.8662 11.6758 2.0418
-17.9754 11.1365 2.0199
-18.0945 10.6138 2.0007
-18.2136 10.1000 1.9832
-18.3377 9.5968 1.9677
-18.4603 9.0995 1.9535
-18.6022 8.6170 1.9427
-18.1392 7.8757 1.8708
-18.9222 7.6776 1.9286
-19.0771 7.2086 1.9228
-19.2292 6.7396 1.9178
-18.9949 6.1462 1.8758
-19.5377 5.8041 1.9116
-19.7055 5.3393 1.9114
-19.9023 4.8795 1.9151
-20.0698 4.4092 1.9169
-20.2361 3.9357 1.9197
-20.4126 3.4603 1.9244
-20.4593 2.9615 1.9179
-20.4322 2.4551 1.9057
-20.3028 1.9432 1.8852
-13.3938 0.9559 1.2388
-20.0553 0.9450 1.8489
-17.2216 0.3948 1.5833
-19.8917 -0.0248 1.8249
-12.9474 -0.3291 1.1859
-13.0290 -0.6465 1.1922
-19.7607 -1.4598 1.8075
-19.7809 -1.9429 1.8096
-19.8323 -2.4330 1.8157
-19.9026 -2.9313 1.8247
-20.0024 -3.4417 1.8374
-20.1155 -3.9638 1.8526
-20.2808 -4.5080 1.8737
-20.4327 -5.0627 1.8949
-20.5808 -5.6305 1.9172
-20.8246 -6.2417 1.9497
-20.9932 -6.8492 1.9767
-10.1238 -3.5758 0.9594
-10.2601 -3.9052 0.9791
-10.3727 -4.2377 0.9975
-10.4888 -4.5838 1.0172
-13.1963 -6.1509 1.2915
-13.1925 -6.5416 1.3039
-20.0513 -10.5535 2.0029
-19.9192 -11.1065 2.0125
-15.9907 -9.4295 1.6353
-19.6257 -12.2214 2.0332
-19.3916 -12.7357 2.0368
-19.3054 -13.3576 2.0577
-19.2051 -13.9860 2.0790
-19.1371 -14.6568 2.1060
-19.1015 -15.3755 2.1389
-17.5907 -14.8755 2.2639
-17.3932 -15.4443 2.2828
-17.1408 -15.9769 2.2966
-16.8622 -16.4961 2.3090
-16.5552 -16.9975 2.3196
-16.1787 -17.4342 2.3223
-15.7720 -17.8414 2.3223
-15.3546 -18.2385 2.3223
-14.9267 -18.6254 2.3223
-10.4750 -13.7377 1.6789
-10.2358 -14.1186 1.6929
-13.5832 -19.7209 2.3223
-13.1163 -20.0635 2.3223
-12.6403 -20.3943 2.3223
-12.1556 -20.7132 2.3223
-11.6624 -21.0197 2.3223
-11.1611 -21.3137 2.3223
-10.6520 -21.5950 2.3223
-10.1354 -21.8632 2.3223
-9.5162 -21.8983 2.2992
-8.9910 -22.1375 2.2992
-8.4595 -22.3633 2.2992
-7.9221 -22.5754 2.2992
-7.3790 -22.7737 2.2992
-5.9584 -20.0261 2.0056
-6.2776 -23.1280 2.2992
-4.2779 -17.4135 1.7195
-3.8337 -17.4097 1.7088
-3.3944 -17.4060 1.6992
-2.9594 -17.4023 1.6908
-2.5281 -17.3986 1.6835
-2.4878 -20.6065 1.9870
-2.4058 -24.9838 2.4023
-1.8021 -25.0388 2.4023
-1.1971 -25.0782 2.4023
-0.5912 -25.1019 2.4023
0.0151 -25.1098 2.4023
0.6214 -25.1019 2.4023
1.2273 -25.0784 2.4023
1.8323 -25.0391 2.4023
2.4360 -24.9841 2.4023
2.9075 -23.8427 2.2990
3.4816 -23.7602 2.2990
4.0532 -23.6629 2.2990
4.6220 -23.5508 2.2990
5.1875 -23.4240 2.2990
5.1993 -21.0554 2.0791
4.6640 -17.1022 1.7001
4.8486 -16.2249 1.6248
5.1352 -15.7841 1.5935
4.7297 -13.4265 1.3674
4.5939 -12.1004 1.2440
4.5946 -11.2740 1.1709
4.7579 -10.9130 1.1458
4.9518 -10.6480 1.1310
5.0130 -10.1324 1.0896
4.9481 -9.4217 1.0266
5.0419 -9.0617 1.0012
5.1554 -8.7607 0.9822
5.2645 -8.4713 0.9647
5.3698 -8.1925 0.9483
5.4788 -7.9340 0.9344
5.0034 -6.8840 0.8255
5.0495 -6.6059 0.8074
5.1200 -6.3730 0.7947
5.1911 -6.1511 0.7833
5.2900 -5.9697 0.7772
5.4248 -5.8317 0.7770
5.5590 -5.6938 0.7772
5.6928 -5.5559 0.7779
5.8201 -5.4119 0.7782
5.9166 -5.2410 0.7749
6.0120 -5.0717 0.7722
6.1064 -4.9039 0.7699
6.1945 -4.7332 0.7674
6.2789 -4.5617 0.7651
6.3254 -4.3661 0.7588
6.3710 -4.1740 0.7530
6.4157 -3.9852 0.7478
6.4596 -3.7993 0.7431
6.5146 -3.6228 0.7403
6.5724 -3.4498 0.7383
6.6297 -3.2781 0.7367
6.6865 -3.1075 0.7356
6.7429 -2.9378 0.7350
6.8060 -2.7717 0.7355
6.8758 -2.6083 0.7372
7.2890 -2.5654 0.7759
8.0062 -2.6022 0.8467
8.2669 -2.4678 0.8691
8.7011 -2.3700 0.9100
8.3817 -2.0669 0.8726
7.7145 -1.7058 0.7999
7.5415 -1.4774 0.7794
7.4812 -1.2787 0.7710
7.4521 -1.0891 0.7664
7.4219 -0.9022 0.7621
7.3340 -0.7121 0.7523
7.2279 -0.5259 0.7412
7.1238 -0.3456 0.7307
7.0114 -0.1704 0.7197
2.8803 -0.0004 0.2961
2.9199 0.0702 0.3007
6.7943 0.3277 0.7016
6.7233 0.4873 0.6965
6.6530 0.6442 0.6918
6.5953 0.7999 0.6887
6.6227 0.9662 0.6950
6.6505 1.1350 0.7017
6.7026 1.3113 0.7115
6.7651 1.4941 0.7230
6.8575 1.6893 0.7382
6.9534 1.8923 0.7544
7.0531 2.1038 0.7718
7.1231 2.3135 0.7866
7.1493 2.5147 0.7972
7.1761 2.7207 0.8085
7.2033 2.9320 0.8206
7.2310 3.1491 0.8335
7.2565 3.3712 0.8468
7.3252 3.6209 0.8661
7.4310 3.8994 0.8908
7.5657 4.2064 0.9202
7.3274 4.3090 0.9049
7.1986 4.4709 0.9034
7.0598 4.6249 0.9010
6.9075 4.7677 0.8972
6.7288 4.8886 0.8903
6.5329 4.9920 0.8813
6.3410 5.0928 0.8728
6.1977 5.2291 0.8714
6.1194 5.4216 0.8796
6.1046 5.6778 0.8981
6.0596 5.9155 0.9133
6.1283 6.2790 0.9473
6.3225 6.7994 1.0036
6.9786 7.8786 1.1389
6.8685 8.1427 1.1540
6.8681 8.5536 1.1895
7.0720 9.2574 1.2645
7.5022 10.3290 1.3871
7.2581 10.5187 1.3899
7.0096 10.7034 1.3927
6.7857 10.9291 1.4016
6.5813 11.1952 1.4160
6.3635 11.4497 1.4295
6.1416 11.7085 1.4439
5.9790 12.1012 1.4752
5.8459 12.5895 1.5181
6.8260 15.6822 1.8718
6.4985 15.9748 1.8886
6.2230 16.4245 1.9246
5.9206 16.8449 1.9576
5.6253 17.3339 1.9991
3.6227 12.1567 1.3922
5.1488 18.9395 2.1550
5.0006 20.3238 2.2990
4.5060 20.4311 2.2990
4.0093 20.5272 2.2990
3.5107 20.6119 2.2990
3.0104 20.6854 2.2990
2.6214 21.6793 2.4023
2.0960 21.7323 2.4023
1.5697 21.7734 2.4023
1.0426 21.8026 2.4023
0.5150 21.8199 2.4023
-0.0128 21.8252 2.4023
-0.5406 21.8186 2.4023
-1.0681 21.8001 2.4023
-1.5951 21.7697 2.4023
-2.1213 21.7273 2.4023
-2.6465 21.6731 2.4023
-3.1705 21.6070 2.4023
-3.6929 21.5291 2.4023
-4.2136 21.4393 2.4023
-4.7323 21.3378 2.4023
-5.2487 21.2245 2.4023
-5.5153 20.1940 2.2992
-6.0045 20.0632 2.2992
-6.4909 19.9213 2.2992
-6.9742 19.7683 2.2992
-7.4541 19.6043 2.2992
-7.9305 19.4294 2.2992
-8.4031 19.2436 2.2992
-8.8716 19.0469 2.2992
-9.3359 18.8396 2.2992
-9.8940 18.8086 2.3223
-10.3537 18.5777 2.3223
-10.8082 18.3362 2.3223
-11.2576 18.0842 2.3223
-11.7015 17.8219 2.3223
-12.1397 17.5492 2.3223
-12.5720 17.2663 2.3223
-12.9980 16.9734 2.3223
-13.4177 16.6705 2.3223
-13.8309 16.3577 2.3223
-14.2371 16.0352 2.3223
-14.6363 15.7031 2.3223
-15.0282 15.3616 2.3223
-15.4006 14.9990 2.3204
-15.7410 14.6059 2.3151
-16.0728 14.2063 2.3100
-14.3196 12.0528 2.0131
-10.4758 8.3933 1.4420
-10.6326 8.1048 1.4343
-16.9498 12.2838 2.2429
-17.1522 11.8088 2.2283
-17.3277 11.3222 2.2119
-17.4446 10.8060 2.1898
-17.5572 10.2970 2.1691
-17.6888 9.8074 2.1524
-17.8126 9.3204 2.1363
-17.9771 8.8597 2.1266
-18.1385 8.4006 2.1180
-18.1379 7.8736 2.0919
-18.4721 7.4934 2.1058
-18.6237 7.0357 2.0998
-18.7800 6.5806 2.0957
-18.9511 6.1304 2.0943
-19.1523 5.6880 2.0974
-19.3463 5.2403 2.1009
-19.4535 4.7678 2.0960
-19.5579 4.2952 2.0921
-19.7182 3.8334 2.0953
-19.7742 3.3505 2.0886
-19.7522 2.8576 2.0749
-19.8023 2.3778 2.0701
-19.6745 1.8815 2.0480
-13.4183 0.9566 1.3916
-19.6173 0.9228 2.0282
-17.2200 0.3934 1.7758
-19.4615 -0.0258 2.0031
-12.9452 -0.3301 1.3306
-13.0279 -0.6475 1.3380
-19.3336 -1.4298 1.9852
-19.3434 -1.9015 1.9870
-19.3880 -2.3801 1.9935
-19.4402 -2.8648 2.0021
-19.5066 -3.3580 2.0133
-19.5953 -3.8629 2.0280
-19.7328 -4.3878 2.0492
-19.8663 -4.9240 2.0713
-19.9803 -5.4679 2.0929
-20.0893 -6.0230 2.1154
-20.2135 -6.5965 2.1411
-20.1952 -7.1348 2.1533
-10.0184 -3.8140 1.0759
-19.8927 -8.1287 2.1534
-19.7383 -8.6278 2.1552
-13.1932 -6.1506 1.4540
-13.1873 -6.5402 1.4680
-19.1386 -10.0748 2.1536
-18.9129 -10.5472 2.1530
-15.9882 -9.4295 1.8426
-18.5912 -11.5790 2.1709
-18.4045 -12.0892 2.1794
-18.1889 -12.5868 2.1860
-18.0153 -13.1213 2.1994
-17.8531 -13.6752 2.2161
-17.7542 -14.2928 2.2429
-16.1971 -13.6987 2.3223
-15.8808 -14.1030 2.3223
-15.5541 -14.4997 2.3223
-15.2171 -14.8884 2.3223
-14.8700 -15.2689 2.3223
-14.5131 -15.6410 2.3223
-14.1465 -16.0043 2.3223
-13.7704 -16.3585 2.3223
-13.3851 -16.7035 2.3223
-10.4731 -13.7367 1.8722
-10.2337 -14.1170 1.8879
-12.1763 -17.6800 2.3223
-11.7565 -17.9853 2.3223
-11.3288 -18.2800 2.3223
-10.8933 -18.5639 2.3223
-10.4503 -18.8369 2.3223
-10.0002 -19.0986 2.3223
-9.4483 -19.1565 2.2992
-8.9894 -19.3929 2.2992
-8.5243 -19.6176 2.2992
-8.0533 -19.8305 2.2992
-7.5767 -20.0313 2.2992
-7.0949 -20.2199 2.2992
-6.6081 -20.3962 2.2992
-5.9550 -20.0162 2.2384
-5.6211 -20.7112 2.2992
-4.2775 -17.4135 1.9202
-3.8333 -17.4097 1.9083
-3.3941 -17.4059 1.8977
-2.9591 -17.4023 1.8884
-2.5279 -17.3986 1.8803
-2.5233 -20.9028 2.2513
-2.1536 -22.3675 2.4023
-1.6132 -22.4164 2.4023
-1.0716 -22.4513 2.4023
-0.5293 -22.4723 2.4023
0.0135 -22.4793 2.4023
0.5563 -22.4723 2.4023
1.0986 -22.4513 2.4023
1.6403 -22.4164 2.4023
2.1807 -22.3675 2.4023
2.6028 -21.3460 2.2990
3.1168 -21.2727 2.2990
3.6287 -21.1861 2.2990
4.1380 -21.0864 2.2990
4.6445 -20.9737 2.2990
5.1477 -20.8480 2.2990
4.6857 -17.1829 1.9075
4.8654 -16.2823 1.8208
5.1526 -15.8389 1.7855
4.7478 -13.4791 1.5327
4.6297 -12.1957 1.3999
4.6229 -11.3445 1.3153
4.7503 -10.8964 1.2771
4.9399 -10.6234 1.2595
5.0116 -10.1304 1.2159
4.9468 -9.4199 1.1455
5.0466 -9.0709 1.1184
5.1601 -8.7696 1.0971
5.2693 -8.4797 1.0774
5.3745 -8.2005 1.0590
5.4805 -7.9373 1.0427
5.0044 -6.8860 0.9211
5.0360 -6.5889 0.8982
5.0708 -6.3125 0.8778
5.1389 -6.0899 0.8647
5.2497 -5.9248 0.8599
5.3835 -5.7880 0.8596
5.5167 -5.6512 0.8598
5.6495 -5.5143 0.8604
5.7820 -5.3771 0.8616
5.8859 -5.2145 0.8590
5.9810 -5.0462 0.8559
6.0750 -4.8793 0.8533
6.1618 -4.7088 0.8503
6.2469 -4.5391 0.8477
6.3073 -4.3542 0.8425
6.3529 -4.1627 0.8360
6.3976 -3.9746 0.8301
6.4415 -3.7893 0.8248
6.4978 -3.6141 0.8217
6.5555 -3.4415 0.8194
