ply
format ascii 1.0
element vertex 2171
property float32 x
property float32 y
property float32 z
end_header
5.5293 -0.9516 1.1427
5.3501 -0.7881 1.1026
5.2721 -0.6469 1.0842
5.1984 -0.5107 1.0674
5.1270 -0.3789 1.0517
5.0576 -0.2511 1.0371
4.9841 -0.1269 1.0223
4.8965 -0.0063 1.0051
4.8119 0.1102 0.9891
4.7737 0.2248 0.9832
4.7699 0.3403 0.9849
4.7660 0.4560 0.9872
4.7621 0.5721 0.9900
4.7547 0.6882 0.9928
4.7445 0.8042 0.9955
4.7343 0.9207 0.9988
4.7240 1.0378 1.0027
4.7136 1.1557 1.0072
4.7000 1.2736 1.0117
4.6768 1.3895 1.0147
4.6535 1.5059 1.0183
4.6301 1.6230 1.0226
4.6065 1.7409 1.0274
4.5826 1.8598 1.0329
4.5654 1.9827 1.0405
4.5611 2.1133 1.0519
4.5567 2.2467 1.0642
4.5524 2.3831 1.0774
4.5481 2.5229 1.0915
4.5623 2.6771 1.1112
4.5810 2.8391 1.1332
4.6005 3.0076 1.1567
4.7159 3.2486 1.2062
4.9345 3.5782 1.2851
4.9548 3.7791 1.3149
4.9758 3.9892 1.3468
4.9972 4.2090 1.3809
4.9784 4.4033 1.4059
4.9589 4.6047 1.4326
4.9465 4.8213 1.4634
5.1034 5.2209 1.5479
5.1783 5.5605 1.6122
5.2314 5.8974 1.6738
5.6195 6.6525 1.8503
5.4653 6.7971 1.8544
5.3105 6.9421 1.8595
5.1548 7.0877 1.8657
4.9950 7.2296 1.8718
5.0184 7.6530 1.9506
5.0397 8.1068 2.0357
5.1139 8.6884 2.1512
5.1648 9.2818 2.2676
5.0036 9.5277 2.2985
4.7693 9.6415 2.2985
4.5325 9.7498 2.2985
4.2934 9.8525 2.2985
4.0520 9.9497 2.2985
3.8086 10.0411 2.2985
3.5631 10.1269 2.2985
3.3159 10.2069 2.2985
3.0669 10.2811 2.2985
2.8164 10.3496 2.2985
2.5644 10.4122 2.2985
2.4149 10.9392 2.4018
2.1489 10.9923 2.4018
1.8818 11.0392 2.4018
1.6138 11.0800 2.4018
1.3449 11.1145 2.4018
1.0754 11.1428 2.4018
0.8052 11.1649 2.4018
0.5347 11.1807 2.4018
0.2638 11.1902 2.4018
-0.0072 11.1935 2.4018
-0.2782 11.1905 2.4018
-0.5490 11.1812 2.4018
-0.8197 11.1656 2.4018
-1.0899 11.1438 2.4018
-1.3595 11.1158 2.4018
-1.6285 11.0815 2.4018
-1.8967 11.0410 2.4018
-2.1639 10.9942 2.4018
-2.4300 10.9413 2.4018
-2.6949 10.8822 2.4018
-2.9584 10.8170 2.4018
-3.2205 10.7457 2.4018
-3.4809 10.6683 2.4018
-3.7395 10.5849 2.4018
-3.9962 10.4954 2.4018
-4.2509 10.4000 2.4018
-4.5033 10.2986 2.4018
-4.7535 10.1913 2.4018
-5.0013 10.0783 2.4018
-5.2465 9.9594 2.4018
-5.4889 9.8348 2.4018
-5.5278 9.3644 2.3176
-5.7135 9.1648 2.3004
-5.9328 9.0225 2.2987
-6.1533 8.8819 2.2987
-6.3705 8.7360 2.2987
-6.5845 8.5851 2.2987
-6.7950 8.4291 2.2987
-7.0020 8.2680 2.2987
-7.2053 8.1021 2.2987
-7.4048 7.9314 2.2987
-7.6004 7.7559 2.2987
-7.7919 7.5757 2.2987
-7.9794 7.3909 2.2987
-8.1626 7.2017 2.2987
-8.3415 7.0080 2.2987
-8.5159 6.8101 2.2987
-8.6858 6.6079 2.2987
-8.8510 6.4015 2.2987
-9.0115 6.1912 2.2987
-2.5248 1.6462 0.6331
-2.5242 1.5601 0.6227
-2.5236 1.4766 0.6130
-2.5231 1.3955 0.6039
-2.5225 1.3166 0.5954
-2.5220 1.2396 0.5874
-2.5215 1.1645 0.5800
-2.5209 1.0911 0.5731
-2.5204 1.0193 0.5666
-2.5199 0.9489 0.5606
-2.5194 0.8797 0.5550
-2.5190 0.8118 0.5498
-2.5185 0.7449 0.5450
-2.5180 0.6790 0.5406
-2.5176 0.6140 0.5366
-2.5171 0.5498 0.5329
-2.5167 0.4863 0.5296
-2.5162 0.4234 0.5266
-2.5158 0.3610 0.5240
-2.5154 0.2991 0.5217
-2.5149 0.2376 0.5197
-2.5145 0.1764 0.5180
-2.5141 0.1154 0.5166
-2.5136 0.0546 0.5155
-2.5132 -0.0062 0.5147
-2.5128 -0.0669 0.5142
-2.5123 -0.1277 0.5140
-2.5119 -0.1886 0.5141
-2.5115 -0.2497 0.5146
-2.5110 -0.3111 0.5153
-2.5106 -0.3728 0.5163
-2.5102 -0.4350 0.5177
-2.5097 -0.4976 0.5193
-2.5093 -0.5608 0.5213
-2.5088 -0.6247 0.5236
-2.5084 -0.6894 0.5263
-2.5079 -0.7548 0.5293
-2.5074 -0.8212 0.5326
-2.5069 -0.8886 0.5364
-2.5065 -0.9572 0.5405
-2.5060 -1.0270 0.5450
-2.5055 -1.0982 0.5499
-2.5049 -1.1708 0.5553
-2.5044 -1.2451 0.5611
-2.5039 -1.3212 0.5674
-2.5033 -1.3992 0.5742
-2.5027 -1.4793 0.5815
-2.5022 -1.5616 0.5894
-2.5016 -1.6465 0.5978
-2.5009 -1.7340 0.6069
-2.5003 -1.8244 0.6167
-2.4996 -1.9181 0.6272
-2.4989 -2.0152 0.6385
-2.4982 -2.1165 0.6885
-2.4974 -2.2216 0.7023
-2.4967 -2.3312 0.7171
-2.4958 -2.4458 0.7330
-2.4950 -2.5658 0.7502
-2.4941 -2.6919 0.7687
-7.2675 -8.2339 2.2987
-7.0717 -8.4127 2.2987
-6.8713 -8.5867 2.2987
-6.6665 -8.7557 2.2987
-6.4575 -8.9197 2.2987
-6.2442 -9.0784 2.2987
-6.0270 -9.2319 2.2987
-5.8058 -9.3799 2.2987
-5.5809 -9.5225 2.2987
-5.5531 -10.0216 2.3849
-5.3500 -10.2296 2.4018
-5.1042 -10.3607 2.4018
-4.8550 -10.4855 2.4018
-4.6026 -10.6041 2.4018
-4.3473 -10.7164 2.4018
-4.0891 -10.8222 2.4018
-3.8282 -10.9216 2.4018
-3.5649 -11.0143 2.4018
-3.2992 -11.1005 2.4018
-3.0313 -11.1799 2.4018
-2.7615 -11.2526 2.4018
-2.4899 -11.3185 2.4018
-2.2166 -11.3775 2.4018
-1.9419 -11.4296 2.4018
-1.6659 -11.4748 2.4018
-1.3889 -11.5130 2.4018
-1.1109 -11.5442 2.4018
-0.8322 -11.5684 2.4018
-0.5530 -11.5856 2.4018
-0.2734 -11.5957 2.4018
0.0063 -11.5988 2.4018
0.2860 -11.5948 2.4018
0.5655 -11.5837 2.4018
0.8447 -11.5656 2.4018
1.1232 -11.5405 2.4018
1.4010 -11.5083 2.4018
1.6779 -11.4692 2.4018
1.9536 -11.4231 2.4018
2.2280 -11.3701 2.4018
2.4907 -11.2640 2.3920
2.6531 -10.7601 2.2985
2.9109 -10.6897 2.2985
3.1669 -10.6129 2.2985
3.4207 -10.5296 2.2985
3.6723 -10.4401 2.2985
3.9214 -10.3443 2.2985
4.1680 -10.2423 2.2985
4.4118 -10.1342 2.2985
4.6528 -10.0200 2.2985
4.8907 -9.8999 2.2985
5.1254 -9.7739 2.2985
5.3567 -9.6421 2.2985
5.5846 -9.5046 2.2985
5.8088 -9.3616 2.2985
5.1896 -7.9300 1.9784
5.3034 -7.6924 1.9518
5.3946 -7.4342 1.9200
5.3594 -7.0228 1.8479
5.3294 -6.6447 1.7830
5.3444 -6.3436 1.7375
5.4445 -6.1546 1.7225
5.6018 -6.0327 1.7270
5.7521 -5.9023 1.7303
5.6763 -5.5501 1.6680
5.3031 -4.9406 1.5241
4.9059 -4.3542 1.3805
4.8057 -4.0622 1.3254
4.7571 -3.8281 1.2873
4.7111 -3.6073 1.2520
4.6675 -3.3984 1.2193
4.6261 -3.2003 1.1890
4.6221 -3.0352 1.1699
4.6501 -2.8955 1.1600
4.6775 -2.7581 1.1510
4.7045 -2.6231 1.1428
4.7309 -2.4901 1.1354
4.7570 -2.3589 1.1288
4.7719 -2.2244 1.1204
4.7814 -2.0898 1.1115
4.8273 -1.9725 1.1119
4.9089 -1.8688 1.1211
4.9905 -1.7631 1.1309
5.0670 -1.6537 1.1400
5.1446 -1.5426 1.1499
5.2235 -1.4296 1.1607
5.3037 -1.3148 1.1723
5.3854 -1.1977 1.1849
5.4595 -1.0765 1.1964
5.5275 -0.9518 1.2072
5.3406 -0.7873 1.1631
5.2646 -0.6466 1.1441
5.1911 -0.5106 1.1263
5.1199 -0.3789 1.1097
5.0508 -0.2513 1.0943
4.9836 -0.1274 1.0799
4.8975 -0.0068 1.0620
4.8129 0.1097 1.0450
4.7762 0.2244 1.0390
4.7723 0.3400 1.0408
4.7684 0.4558 1.0431
4.7639 0.5718 1.0460
4.7538 0.6875 1.0482
4.7436 0.8036 1.0510
4.7334 0.9201 1.0544
4.7231 1.0371 1.0585
4.7127 1.1550 1.0632
4.6989 1.2727 1.0678
4.6757 1.3886 1.0710
4.6524 1.5050 1.0747
4.6289 1.6221 1.0791
4.6053 1.7400 1.0842
4.5816 1.8588 1.0899
4.5773 1.9873 1.1010
4.5731 2.1183 1.1131
4.5689 2.2521 1.1260
4.5647 2.3890 1.1400
4.5605 2.5292 1.1549
4.5787 2.6861 1.1767
4.5976 2.8489 1.2000
4.6176 3.0182 1.2249
4.6970 3.2350 1.2675
4.9196 3.5668 1.3516
4.9394 3.7668 1.3828
4.9600 3.9759 1.4162
4.9814 4.1950 1.4520
4.9777 4.4021 1.4827
4.9582 4.6034 1.5108
4.9553 4.8291 1.5462
5.1092 5.2261 1.6344
5.1580 5.5379 1.6936
5.2101 5.8726 1.7580
5.6118 6.6425 1.9485
5.4578 6.7868 1.9528
5.3032 6.9316 1.9581
5.1476 7.0769 1.9646
4.9930 7.2257 1.9729
5.0114 7.6414 2.0538
5.0313 8.0923 2.1428
5.0734 8.6186 2.2501
4.9656 8.9227 2.2985
4.7460 9.0361 2.2985
4.5238 9.1443 2.2985
4.2993 9.2472 2.2985
4.0726 9.3448 2.2985
3.8437 9.4371 2.2985
3.6128 9.5240 2.2985
3.3801 9.6056 2.2985
3.1456 9.6816 2.2985
2.9094 9.7522 2.2985
2.6718 9.8172 2.2985
2.5268 10.2586 2.3874
2.2909 10.3768 2.4018
2.0386 10.4273 2.4018
1.7853 10.4719 2.4018
1.5310 10.5106 2.4018
1.2759 10.5434 2.4018
1.0202 10.5703 2.4018
0.7639 10.5913 2.4018
0.5072 10.6063 2.4018
0.2503 10.6153 2.4018
-0.0068 10.6184 2.4018
-0.2639 10.6156 2.4018
-0.5209 10.6067 2.4018
-0.7777 10.5919 2.4018
-1.0340 10.5712 2.4018
-1.2898 10.5445 2.4018
-1.5450 10.5119 2.4018
-1.7994 10.4733 2.4018
-2.0529 10.4289 2.4018
-2.3053 10.3786 2.4018
-2.5566 10.3224 2.4018
-2.8065 10.2604 2.4018
-3.0550 10.1925 2.4018
-3.3020 10.1189 2.4018
-3.5473 10.0396 2.4018
-3.7907 9.9545 2.4018
-4.0322 9.8638 2.4018
-4.2716 9.7674 2.4018
-4.5088 9.6655 2.4018
-4.7437 9.5580 2.4018
-4.9761 9.4450 2.4018
-5.2060 9.3266 2.4018
-5.4331 9.2028 2.4018
-5.5225 8.8572 2.3445
-5.6264 8.5555 2.2987
-5.8353 8.4219 2.2987
-6.0412 8.2833 2.2987
-6.2439 8.1399 2.2987
-6.4433 7.9916 2.2987
-6.6393 7.8387 2.2987
-6.8318 7.6811 2.2987
-7.0207 7.5189 2.2987
-7.2059 7.3522 2.2987
-7.3872 7.1811 2.2987
-7.5647 7.0057 2.2987
-7.7380 6.8260 2.2987
-7.9073 6.6421 2.2987
-8.0723 6.4542 2.2987
-8.2330 6.2622 2.2987
-8.3892 6.0664 2.2987
-8.5409 5.8668 2.2987
-2.5248 1.6459 0.6680
-2.5242 1.5598 0.6571
-2.5236 1.4763 0.6469
-2.5231 1.3952 0.6373
-2.5225 1.3163 0.6284
-2.5220 1.2393 0.6200
-2.5214 1.1642 0.6122
-2.5209 1.0908 0.6049
-2.5204 1.0190 0.5981
-2.5199 0.9486 0.5917
-2.5194 0.8794 0.5859
-2.5190 0.8115 0.5805
-2.5185 0.7446 0.5754
-2.5180 0.6788 0.5708
-2.5176 0.6138 0.5666
-2.5171 0.5495 0.5628
-2.5167 0.4860 0.5593
-2.5162 0.4231 0.5562
-2.5158 0.3608 0.5534
-2.5153 0.2989 0.5510
-2.5149 0.2373 0.5489
-2.5145 0.1761 0.5471
-2.5140 0.1151 0.5457
-2.5136 0.0543 0.5446
-2.5132 -0.0065 0.5438
-2.5128 -0.0672 0.5433
-2.5123 -0.1280 0.5431
-2.5119 -0.1889 0.5433
-2.5115 -0.2500 0.5438
-2.5110 -0.3114 0.5446
-2.5106 -0.3731 0.5457
-2.5101 -0.4353 0.5471
-2.5097 -0.4979 0.5489
-2.5093 -0.5611 0.5510
-2.5088 -0.6250 0.5535
-2.5083 -0.6896 0.5564
-2.5079 -0.7551 0.5596
-2.5074 -0.8215 0.5631
-2.5069 -0.8889 0.5671
-2.5064 -0.9575 0.5715
-2.5059 -1.0273 0.5763
-2.5054 -1.0985 0.5815
-2.5049 -1.1711 0.5872
-2.5044 -1.2454 0.5934
-2.5039 -1.3215 0.6001
-2.5033 -1.3995 0.6073
-2.5027 -1.4796 0.6151
-2.5022 -1.5619 0.6235
-2.5015 -1.6468 0.6325
-2.5009 -1.7343 0.6421
-2.5003 -1.8248 0.6525
-2.4996 -1.9184 0.6637
-2.4989 -2.0155 0.6756
-2.4982 -2.1168 0.7265
-2.4974 -2.2219 0.7411
-2.4967 -2.3315 0.7568
-2.4958 -2.4461 0.7736
-2.4950 -2.5662 0.7917
-2.4941 -2.6923 0.8113
-6.8856 -7.8022 2.2987
-6.6998 -7.9713 2.2987
-6.5097 -8.1359 2.2987
-6.3155 -8.2958 2.2987
-6.1173 -8.4508 2.2987
-5.9151 -8.6009 2.2987
-5.7091 -8.7460 2.2987
-5.5573 -8.9795 2.3229
-5.5234 -9.4253 2.4018
-5.2970 -9.5606 2.4018
-5.0673 -9.6902 2.4018
-4.8343 -9.8140 2.4018
-4.5982 -9.9320 2.4018
-4.3591 -10.0442 2.4018
-4.1172 -10.1503 2.4018
-3.8726 -10.2503 2.4018
-3.6255 -10.3442 2.4018
-3.3760 -10.4319 2.4018
-3.1243 -10.5133 2.4018
-2.8706 -10.5884 2.4018
-2.6151 -10.6571 2.4018
-2.3578 -10.7193 2.4018
-2.0990 -10.7751 2.4018
-1.8389 -10.8244 2.4018
-1.5775 -10.8671 2.4018
-1.3152 -10.9032 2.4018
-1.0520 -10.9327 2.4018
-0.7881 -10.9556 2.4018
-0.5237 -10.9718 2.4018
-0.2589 -10.9814 2.4018
0.0060 -10.9843 2.4018
0.2708 -10.9805 2.4018
0.5355 -10.9701 2.4018
0.7998 -10.9530 2.4018
1.0636 -10.9293 2.4018
1.3266 -10.8989 2.4018
1.5888 -10.8620 2.4018
1.8500 -10.8184 2.4018
2.1099 -10.7683 2.4018
2.3684 -10.7117 2.4018
2.5124 -10.1909 2.2985
2.7567 -10.1244 2.2985
2.9991 -10.0518 2.2985
3.2395 -9.9732 2.2985
3.4779 -9.8886 2.2985
3.7139 -9.7981 2.2985
3.9475 -9.7017 2.2985
4.1785 -9.5995 2.2985
4.4069 -9.4916 2.2985
4.6323 -9.3780 2.2985
4.8547 -9.2589 2.2985
5.0740 -9.1344 2.2985
5.2900 -9.0044 2.2985
5.5025 -8.8692 2.2985
5.1122 -7.8128 2.0573
5.2267 -7.5821 2.0304
5.3468 -7.3694 2.0087
5.3476 -7.0084 1.9462
5.3197 -6.6336 1.8785
5.3355 -6.3339 1.8308
5.4311 -6.1404 1.8135
5.5880 -6.0187 1.8181
5.7070 -5.8569 1.8117
5.6346 -5.5101 1.7473
5.4972 -5.1222 1.6671
4.8612 -4.3152 1.4434
4.7959 -4.0546 1.3957
4.7476 -3.8212 1.3555
4.7020 -3.6010 1.3184
4.6587 -3.3927 1.2840
4.6176 -3.1951 1.2521
4.6160 -3.0318 1.2325
4.6440 -2.8923 1.2221
4.6715 -2.7552 1.2126
4.6984 -2.6203 1.2039
4.7249 -2.4875 1.1960
4.7509 -2.3565 1.1890
4.7724 -2.2252 1.1817
4.7819 -2.0906 1.1723
4.8295 -1.9740 1.1731
4.9112 -1.8703 1.1827
4.9892 -1.7632 1.1921
5.0656 -1.6538 1.2016
5.1432 -1.5427 1.2120
5.2220 -1.4298 1.2233
5.3022 -1.3150 1.2355
5.3838 -1.1980 1.2487
5.4576 -1.0768 1.2607
5.5257 -0.9521 1.2720
5.3329 -0.7867 1.2241
5.2572 -0.6462 1.2040
5.1839 -0.5104 1.1853
5.1129 -0.3790 1.1678
5.0440 -0.2515 1.1515
4.9770 -0.1277 1.1363
4.8985 -0.0073 1.1192
4.8138 0.1092 1.1012
4.7786 0.2240 1.0952
4.7747 0.3396 1.0970
4.7709 0.4555 1.0994
4.7630 0.5712 1.1016
4.7528 0.6869 1.1038
4.7427 0.8029 1.1068
4.7324 0.9194 1.1103
4.7221 1.0364 1.1146
4.7118 1.1542 1.1195
4.6977 1.2719 1.1242
4.6745 1.3878 1.1274
4.6512 1.5042 1.1313
4.6278 1.6212 1.1359
4.6042 1.7390 1.1412
4.5936 1.8631 1.1504
4.5893 1.9920 1.1622
4.5852 2.1234 1.1749
4.5811 2.2577 1.1885
4.5771 2.3950 1.2032
4.5767 2.5376 1.2199
4.5952 2.6952 1.2430
4.6146 2.8588 1.2676
4.6349 3.0290 1.2940
4.6782 3.2214 1.3285
4.9046 3.5553 1.4180
4.9241 3.7545 1.4506
4.9443 3.9626 1.4855
4.9652 4.1807 1.5229
4.9770 4.4008 1.5599
4.9575 4.6021 1.5894
4.9641 4.8370 1.6297
5.0899 5.2055 1.7130
5.1377 5.5154 1.7747
5.1888 5.8479 1.8419
5.6027 6.6309 2.0465
5.4485 6.7743 2.0507
5.2935 6.9181 2.0561
5.1377 7.0624 2.0625
4.9823 7.2094 2.0708
5.0003 7.6236 2.1555
5.0188 8.0713 2.2482
4.9275 8.3697 2.2985
4.7213 8.4826 2.2985
4.5125 8.5906 2.2985
4.3014 8.6936 2.2985
4.0880 8.7917 2.2985
3.8725 8.8847 2.2985
3.6549 8.9726 2.2985
3.4354 9.0554 2.2985
3.2141 9.1330 2.2985
2.9912 9.2055 2.2985
2.7667 9.2727 2.2985
2.5407 9.3347 2.2985
2.4174 9.8132 2.4018
2.1786 9.8669 2.4018
1.9387 9.9150 2.4018
1.6978 9.9576 2.4018
1.4560 9.9945 2.4018
1.2134 10.0257 2.4018
0.9702 10.0513 2.4018
0.7265 10.0713 2.4018
0.4823 10.0856 2.4018
0.2380 10.0942 2.4018
-0.0065 10.0971 2.4018
-0.2510 10.0944 2.4018
-0.4954 10.0859 2.4018
-0.7396 10.0718 2.4018
-0.9834 10.0520 2.4018
-1.2266 10.0266 2.4018
-1.4693 9.9955 2.4018
-1.7112 9.9588 2.4018
-1.9522 9.9164 2.4018
-2.1923 9.8685 2.4018
-2.4312 9.8149 2.4018
-2.6688 9.7558 2.4018
-2.9051 9.6912 2.4018
-3.1399 9.6210 2.4018
-3.3731 9.5454 2.4018
-3.6045 9.4644 2.4018
-3.8340 9.3779 2.4018
-4.0616 9.2861 2.4018
-4.2870 9.1890 2.4018
-4.5103 9.0866 2.4018
-4.7312 8.9789 2.4018
-4.9496 8.8661 2.4018
-5.1654 8.7482 2.4018
-5.3785 8.6252 2.4018
-5.5223 8.3960 2.3732
-5.5474 8.0051 2.2987
-5.7429 7.8732 2.2987
-5.9354 7.7366 2.2987
-6.1247 7.5955 2.2987
-6.3109 7.4498 2.2987
-6.4936 7.2998 2.2987
-6.6730 7.1454 2.2987
-6.8487 6.9867 2.2987
-7.0208 6.8239 2.2987
-7.1892 6.6569 2.2987
-7.3537 6.4859 2.2987
-7.5143 6.3109 2.2987
-7.6707 6.1320 2.2987
-7.8231 5.9494 2.2987
-7.9712 5.7631 2.2987
-8.1150 5.5732 2.2987
-2.5248 1.6455 0.7031
-2.5242 1.5595 0.6916
-2.5236 1.4760 0.6809
-2.5230 1.3949 0.6709
-2.5225 1.3159 0.6615
-2.5220 1.2390 0.6527
-2.5214 1.1639 0.6445
-2.5209 1.0905 0.6368
-2.5204 1.0187 0.6297
-2.5199 0.9483 0.6231
-2.5194 0.8791 0.6169
-2.5189 0.8112 0.6112
-2.5185 0.7444 0.6060
-2.5180 0.6785 0.6012
-2.5176 0.6135 0.5968
-2.5171 0.5493 0.5927
-2.5167 0.4858 0.5891
-2.5162 0.4229 0.5859
-2.5158 0.3605 0.5830
-2.5153 0.2986 0.5804
-2.5149 0.2371 0.5783
-2.5145 0.1759 0.5764
-2.5140 0.1149 0.5749
-2.5136 0.0540 0.5738
-2.5132 -0.0067 0.5730
-2.5127 -0.0675 0.5725
-2.5123 -0.1282 0.5724
-2.5119 -0.1892 0.5726
-2.5114 -0.2503 0.5731
-2.5110 -0.3116 0.5740
-2.5106 -0.3734 0.5752
-2.5101 -0.4355 0.5767
-2.5097 -0.4982 0.5786
-2.5092 -0.5614 0.5809
-2.5088 -0.6253 0.5836
-2.5083 -0.6899 0.5866
-2.5079 -0.7554 0.5900
-2.5074 -0.8218 0.5938
-2.5069 -0.8892 0.5980
-2.5064 -0.9578 0.6027
-2.5059 -1.0276 0.6078
-2.5054 -1.0987 0.6133
-2.5049 -1.1714 0.6194
-2.5044 -1.2457 0.6259
-2.5038 -1.3218 0.6330
-2.5033 -1.3998 0.6406
-2.5027 -1.4799 0.6489
-2.5021 -1.5622 0.6577
-2.5015 -1.6471 0.6672
-2.5009 -1.7346 0.6775
-2.5003 -1.8251 0.6885
-2.4996 -1.9187 0.7002
-2.4989 -2.0159 0.7129
-2.4982 -2.1171 0.7647
-2.4974 -2.2222 0.7801
-2.4966 -2.3318 0.7966
-2.4958 -2.4465 0.8144
-2.4950 -2.5665 0.8335
-2.4941 -2.6926 0.8541
-6.5401 -7.4118 2.2987
-6.3634 -7.5722 2.2987
-6.1827 -7.7282 2.2987
-5.9981 -7.8798 2.2987
-5.8096 -8.0268 2.2987
-5.6175 -8.1692 2.2987
-5.5506 -8.5042 2.3533
-5.4567 -8.8180 2.4018
-5.2450 -8.9515 2.4018
-5.0300 -9.0797 2.4018
-4.8118 -9.2025 2.4018
-4.5904 -9.3199 2.4018
-4.3661 -9.4318 2.4018
-4.1390 -9.5381 2.4018
-3.9092 -9.6386 2.4018
-3.6769 -9.7334 2.4018
-3.4422 -9.8224 2.4018
-3.2053 -9.9055 2.4018
-2.9663 -9.9827 2.4018
-2.7255 -10.0539 2.4018
-2.4828 -10.1190 2.4018
-2.2385 -10.1780 2.4018
-1.9928 -10.2308 2.4018
-1.7458 -10.2775 2.4018
-1.4977 -10.3180 2.4018
-1.2486 -10.3522 2.4018
-0.9987 -10.3802 2.4018
-0.7482 -10.4019 2.4018
-0.4972 -10.4173 2.4018
-0.2458 -10.4264 2.4018
0.0056 -10.4291 2.4018
0.2571 -10.4256 2.4018
0.5083 -10.4157 2.4018
0.7593 -10.3995 2.4018
1.0097 -10.3770 2.4018
1.2595 -10.3483 2.4018
1.5084 -10.3133 2.4018
1.7563 -10.2720 2.4018
2.0031 -10.2246 2.4018
2.2485 -10.1710 2.4018
2.4925 -10.1112 2.4018
2.6173 -9.6136 2.2985
2.8475 -9.5448 2.2985
3.0758 -9.4703 2.2985
3.3022 -9.3901 2.2985
3.5263 -9.3043 2.2985
3.7482 -9.2130 2.2985
3.9677 -9.1162 2.2985
4.1846 -9.0139 2.2985
4.3987 -8.9063 2.2985
4.6100 -8.7934 2.2985
4.8184 -8.6753 2.2985
5.0236 -8.5522 2.2985
5.2256 -8.4240 2.2985
5.0366 -7.6984 2.1343
5.1517 -7.4744 2.1073
5.2266 -7.2047 2.0674
5.2597 -6.8940 2.0153
5.3106 -6.6232 1.9743
5.3265 -6.3242 1.9242
5.4177 -6.1261 1.9044
5.5482 -5.9767 1.9004
5.6624 -5.8120 1.8922
5.6035 -5.4806 1.8291
5.6152 -5.2330 1.7925
4.9688 -4.4114 1.5529
4.7944 -4.0540 1.4685
4.7382 -3.8143 1.4238
4.6929 -3.5947 1.3848
4.6500 -3.3869 1.3487
4.6092 -3.1898 1.3152
4.6098 -3.0284 1.2953
4.6379 -2.8891 1.2843
4.6654 -2.7522 1.2742
4.6924 -2.6175 1.2651
4.7189 -2.4849 1.2568
4.7449 -2.3541 1.2493
4.7705 -2.2249 1.2427
4.7823 -2.0914 1.2334
4.8318 -1.9754 1.2346
4.9124 -1.8713 1.2444
4.9878 -1.7633 1.2535
5.0642 -1.6539 1.2635
5.1417 -1.5428 1.2744
5.2205 -1.4300 1.2862
5.3007 -1.3152 1.2990
5.3823 -1.1982 1.3128
5.4558 -1.0770 1.3252
5.5225 -0.9521 1.3367
5.3252 -0.7862 1.2852
5.2497 -0.6459 1.2641
5.1767 -0.5103 1.2444
5.1059 -0.3790 1.2260
5.0372 -0.2517 1.2089
4.9703 -0.1281 1.1929
4.8994 -0.0078 1.1767
4.8148 0.1087 1.1578
4.7811 0.2236 1.1517
4.7772 0.3393 1.1535
4.7722 0.4551 1.1558
4.7621 0.5706 1.1574
4.7519 0.6863 1.1598
4.7417 0.8022 1.1628
4.7315 0.9187 1.1665
4.7212 1.0357 1.1709
4.7108 1.1535 1.1760
4.6966 1.2711 1.1808
4.6734 1.3869 1.1842
4.6501 1.5033 1.1882
4.6267 1.6203 1.1930
4.6098 1.7406 1.2002
4.6056 1.8675 1.2116
4.6015 1.9967 1.2239
4.5975 2.1286 1.2373
4.5935 2.2632 1.2516
4.5896 2.4010 1.2671
4.5931 2.5461 1.2858
4.6119 2.7045 1.3100
4.6317 2.8689 1.3361
4.6524 3.0399 1.3640
4.6743 3.2181 1.3939
4.8838 3.5396 1.4826
4.9088 3.7421 1.5184
4.9285 3.9493 1.5547
4.9490 4.1664 1.5937
4.9704 4.3942 1.6355
4.9569 4.6007 1.6683
4.9730 4.8449 1.7139
5.0705 5.1850 1.7914
5.1175 5.4929 1.8556
5.1677 5.8232 1.9256
5.5920 6.6173 2.1440
5.4380 6.7604 2.1484
5.2833 6.9039 2.1539
5.1278 7.0478 2.1606
4.9717 7.1931 2.1688
4.9892 7.6057 2.2572
4.8892 7.8618 2.2985
4.6952 7.9741 2.2985
4.4987 8.0818 2.2985
4.2999 8.1849 2.2985
4.0988 8.2832 2.2985
3.8955 8.3768 2.2985
3.6902 8.4656 2.2985
3.4829 8.5495 2.2985
3.2738 8.6285 2.2985
3.0630 8.7027 2.2985
2.8506 8.7718 2.2985
2.6366 8.8360 2.2985
2.5251 9.2765 2.3971
2.3038 9.3513 2.4018
2.0762 9.4025 2.4018
1.8476 9.4485 2.4018
1.6180 9.4890 2.4018
1.3876 9.5243 2.4018
1.1564 9.5541 2.4018
0.9246 9.5786 2.4018
0.6923 9.5976 2.4018
0.4597 9.6112 2.4018
0.2268 9.6194 2.4018
-0.0062 9.6222 2.4018
-0.2393 9.6196 2.4018
-0.4722 9.6115 2.4018
-0.7049 9.5980 2.4018
-0.9372 9.5791 2.4018
-1.1691 9.5548 2.4018
-1.4003 9.5251 2.4018
-1.6309 9.4900 2.4018
-1.8606 9.4496 2.4018
-2.0893 9.4038 2.4018
-2.3170 9.3527 2.4018
-2.5434 9.2962 2.4018
-2.7686 9.2345 2.4018
-2.9923 9.1675 2.4018
-3.2144 9.0953 2.4018
-3.4349 9.0180 2.4018
-3.6536 8.9354 2.4018
-3.8704 8.8478 2.4018
-4.0851 8.7550 2.4018
-4.2977 8.6573 2.4018
-4.5081 8.5545 2.4018
-4.7161 8.4469 2.4018
-4.9216 8.3343 2.4018
-5.1246 8.2169 2.4018
-5.3248 8.0947 2.4018
-5.5222 7.9678 2.4018
-5.5295 7.5797 2.3232
-5.6546 7.3696 2.2987
-5.8348 7.2349 2.2987
-6.0120 7.0960 2.2987
-6.1859 6.9528 2.2987
-6.3565 6.8055 2.2987
-6.5237 6.6542 2.2987
-6.6875 6.4988 2.2987
-6.8476 6.3396 2.2987
-7.0040 6.1765 2.2987
-7.1567 6.0096 2.2987
-7.3055 5.8390 2.2987
-7.4503 5.6649 2.2987
-7.5911 5.4873 2.2987
-7.7278 5.3062 2.2987
-2.5248 1.6452 0.7384
-2.5242 1.5591 0.7264
-2.5236 1.4757 0.7151
-2.5230 1.3945 0.7046
-2.5225 1.3156 0.6947
-2.5219 1.2387 0.6855
-2.5214 1.1636 0.6770
-2.5209 1.0902 0.6689
-2.5204 1.0184 0.6615
-2.5199 0.9480 0.6546
-2.5194 0.8788 0.6481
-2.5189 0.8109 0.6422
-2.5185 0.7441 0.6367
-2.5180 0.6782 0.6317
-2.5175 0.6132 0.6271
-2.5171 0.5490 0.6229
-2.5166 0.4855 0.6191
-2.5162 0.4226 0.6157
-2.5157 0.3602 0.6127
-2.5153 0.2983 0.6100
-2.5149 0.2368 0.6078
-2.5144 0.1756 0.6059
-2.5140 0.1146 0.6044
-2.5136 0.0538 0.6032
-2.5132 -0.0070 0.6024
-2.5127 -0.0677 0.6019
-2.5123 -0.1285 0.6018
-2.5119 -0.1894 0.6020
-2.5114 -0.2505 0.6026
-2.5110 -0.3119 0.6035
-2.5106 -0.3736 0.6048
-2.5101 -0.4358 0.6065
-2.5097 -0.4984 0.6085
-2.5092 -0.5617 0.6110
-2.5088 -0.6255 0.6138
-2.5083 -0.6902 0.6170
-2.5079 -0.7556 0.6206
-2.5074 -0.8220 0.6246
-2.5069 -0.8895 0.6291
-2.5064 -0.9580 0.6340
-2.5059 -1.0278 0.6394
-2.5054 -1.0990 0.6453
-2.5049 -1.1717 0.6516
-2.5044 -1.2460 0.6586
-2.5038 -1.3221 0.6660
-2.5033 -1.4001 0.6741
-2.5027 -1.4801 0.6828
-2.5021 -1.5625 0.6921
-2.5015 -1.6474 0.7022
-2.5009 -1.7349 0.7130
-2.5002 -1.8254 0.7246
-2.4996 -1.9190 0.7370
-2.4989 -2.0162 0.7504
-2.4981 -2.1175 0.8031
-2.4974 -2.2225 0.8193
-2.4966 -2.3322 0.8367
-2.4958 -2.4468 0.8554
-2.4949 -2.5669 0.8755
-2.4940 -2.6930 0.8971
-6.2260 -7.0568 2.2987
-6.0577 -7.2093 2.2987
-5.8855 -7.3577 2.2987
-5.7096 -7.5018 2.2987
-5.5581 -7.6802 2.3104
-5.5498 -8.0718 2.3859
-5.3920 -8.2622 2.4018
-5.1937 -8.3940 2.4018
-4.9921 -8.5209 2.4018
-4.7874 -8.6427 2.4018
-4.5796 -8.7595 2.4018
-4.3688 -8.8710 2.4018
-4.1553 -8.9773 2.4018
-3.9390 -9.0783 2.4018
-3.7203 -9.1739 2.4018
-3.4992 -9.2639 2.4018
-3.2758 -9.3485 2.4018
-3.0503 -9.4275 2.4018
-2.8228 -9.5007 2.4018
-2.5936 -9.5684 2.4018
-2.3626 -9.6302 2.4018
-2.1302 -9.6863 2.4018
-1.8964 -9.7365 2.4018
-1.6613 -9.7808 2.4018
-1.4252 -9.8193 2.4018
-1.1882 -9.8518 2.4018
-0.9504 -9.8784 2.4018
-0.7120 -9.8990 2.4018
-0.4731 -9.9136 2.4018
-0.2340 -9.9223 2.4018
0.0053 -9.9249 2.4018
0.2446 -9.9215 2.4018
0.4837 -9.9122 2.4018
0.7225 -9.8968 2.4018
0.9608 -9.8755 2.4018
1.1984 -9.8482 2.4018
1.4353 -9.8150 2.4018
1.6712 -9.7758 2.4018
1.9061 -9.7307 2.4018
2.1397 -9.6798 2.4018
2.3719 -9.6231 2.4018
2.5039 -9.1982 2.3108
2.7097 -9.0842 2.2985
2.9271 -9.0135 2.2985
3.1425 -8.9373 2.2985
3.3559 -8.8558 2.2985
3.5672 -8.7691 2.2985
3.7761 -8.6771 2.2985
3.9826 -8.5799 2.2985
4.1865 -8.4777 2.2985
4.3877 -8.3704 2.2985
4.5861 -8.2582 2.2985
4.7816 -8.1412 2.2985
4.9452 -7.9729 2.2852
4.9629 -7.5868 2.2094
5.0725 -7.3604 2.1797
5.1111 -7.0464 2.1238
5.2229 -6.8468 2.1023
5.2842 -6.5912 2.0636
5.3142 -6.3104 2.0165
5.3894 -6.0951 1.9900
5.5047 -5.9308 1.9804
5.6183 -5.7676 1.9720
5.5775 -5.4560 1.9122
5.5847 -5.2054 1.8724
5.1367 -4.5612 1.6860
4.8157 -4.0727 1.5490
4.7530 -3.8269 1.4999
4.6945 -3.5965 1.4547
4.6412 -3.3811 1.4136
4.6007 -3.1846 1.3785
4.6037 -3.0250 1.3582
4.6318 -2.8859 1.3467
4.6593 -2.7492 1.3361
4.6863 -2.6147 1.3264
4.7128 -2.4822 1.3177
4.7389 -2.3516 1.3098
4.7645 -2.2227 1.3028
4.7828 -2.0922 1.2948
4.8340 -1.9769 1.2965
4.9110 -1.8713 1.3058
4.9864 -1.7634 1.3153
5.0628 -1.6540 1.3257
5.1403 -1.5430 1.3371
5.2190 -1.4302 1.3494
5.2991 -1.3154 1.3627
5.3807 -1.1985 1.3771
5.4540 -1.0772 1.3901
5.5085 -0.9503 1.3990
5.3174 -0.7856 1.3465
5.2422 -0.6455 1.3244
5.1694 -0.5101 1.3037
5.0988 -0.3790 1.2844
5.0303 -0.2519 1.2664
4.9637 -0.1284 1.2497
4.8988 -0.0084 1.2341
4.8158 0.1082 1.2146
4.7836 0.2232 1.2086
4.7797 0.3390 1.2105
4.7712 0.4545 1.2119
4.7611 0.5700 1.2136
4.7510 0.6856 1.2160
4.7408 0.8016 1.2191
4.7305 0.9180 1.2229
4.7202 1.0350 1.2275
4.7099 1.1527 1.2327
4.6954 1.2703 1.2377
4.6722 1.3861 1.2412
4.6490 1.5024 1.2454
4.6260 1.6195 1.2505
4.6219 1.7446 1.2615
4.6178 1.8719 1.2734
4.6138 2.0015 1.2864
4.6098 2.1338 1.3004
4.6060 2.2688 1.3155
4.6022 2.4070 1.3317
4.6096 2.5548 1.3524
4.6289 2.7138 1.3780
4.6490 2.8790 1.4054
4.6702 3.0509 1.4348
4.6925 3.2301 1.4663
4.8628 3.5237 1.5469
4.8935 3.7298 1.5860
4.9128 3.9361 1.6239
4.9329 4.1521 1.6644
4.9538 4.3788 1.7078
4.9562 4.5994 1.7477
4.9820 4.8530 1.7989
5.0512 5.1645 1.8696
5.0974 5.4705 1.9364
5.1466 5.7987 2.0090
5.5812 6.6036 2.2417
5.4275 6.7465 2.2462
5.2731 6.8896 2.2519
5.1178 7.0332 2.2589
4.9616 7.1775 2.2671
4.8504 7.3932 2.2985
4.6678 7.5049 2.2985
4.4827 7.6123 2.2985
4.2952 7.7153 2.2985
4.1054 7.8138 2.2985
3.9135 7.9079 2.2985
3.7195 7.9973 2.2985
3.5235 8.0822 2.2985
3.3256 8.1625 2.2985
3.1260 8.2381 2.2985
2.9247 8.3089 2.2985
2.7345 8.4137 2.3091
2.5330 8.4879 2.3126
2.4160 8.8745 2.4018
2.1999 8.9286 2.4018
1.9826 8.9776 2.4018
1.7643 9.0216 2.4018
1.5451 9.0604 2.4018
1.3250 9.0940 2.4018
1.1043 9.1226 2.4018
0.8829 9.1460 2.4018
0.6611 9.1642 2.4018
0.4390 9.1772 2.4018
0.2165 9.1850 2.4018
-0.0060 9.1877 2.4018
-0.2285 9.1852 2.4018
-0.4509 9.1774 2.4018
-0.6731 9.1645 2.4018
-0.8950 9.1464 2.4018
-1.1164 9.1232 2.4018
-1.3372 9.0948 2.4018
-1.5574 9.0612 2.4018
-1.7767 9.0225 2.4018
-1.9951 8.9787 2.4018
-2.2125 8.9298 2.4018
-2.4287 8.8758 2.4018
-2.6436 8.8167 2.4018
-2.8572 8.7527 2.4018
-3.0693 8.6836 2.4018
-3.2797 8.6096 2.4018
-3.4885 8.5307 2.4018
-3.6954 8.4468 2.4018
-3.9004 8.3582 2.4018
-4.1033 8.2647 2.4018
-4.3041 8.1664 2.4018
-4.5026 8.0634 2.4018
-4.6987 7.9558 2.4018
-4.8924 7.8435 2.4018
-5.0834 7.7267 2.4018
-5.2718 7.6054 2.4018
-5.4573 7.4796 2.4018
-5.5243 7.1987 2.3525
-5.5698 6.9053 2.2987
-5.7387 6.7725 2.2987
-5.9046 6.6356 2.2987
-6.0673 6.4949 2.2987
-6.2267 6.3502 2.2987
-6.3828 6.2018 2.2987
-6.5354 6.0496 2.2987
-6.6845 5.8937 2.2987
-6.8300 5.7343 2.2987
-6.9718 5.5713 2.2987
-7.1098 5.4050 2.2987
-7.2439 5.2353 2.2987
-7.3740 5.0623 2.2987
-2.5248 1.6449 0.7738
-2.5242 1.5588 0.7612
-2.5236 1.4753 0.7495
-2.5230 1.3942 0.7385
-2.5225 1.3153 0.7282
-2.5219 1.2384 0.7186
-2.5214 1.1633 0.7096
-2.5209 1.0899 0.7012
-2.5204 1.0181 0.6935
-2.5199 0.9477 0.6862
-2.5194 0.8786 0.6795
-2.5189 0.8106 0.6733
-2.5184 0.7438 0.6676
-2.5180 0.6779 0.6623
-2.5175 0.6129 0.6575
-2.5171 0.5487 0.6531
-2.5166 0.4852 0.6492
-2.5162 0.4223 0.6457
-2.5157 0.3600 0.6425
-2.5153 0.2981 0.6398
-2.5149 0.2365 0.6375
-2.5144 0.1753 0.6355
-2.5140 0.1143 0.6339
-2.5136 0.0535 0.6327
-2.5131 -0.0073 0.6319
-2.5127 -0.0680 0.6314
-2.5123 -0.1288 0.6313
-2.5119 -0.1897 0.6316
-2.5114 -0.2508 0.6322
-2.5110 -0.3122 0.6332
-2.5106 -0.3739 0.6346
-2.5101 -0.4361 0.6364
-2.5097 -0.4987 0.6386
-2.5092 -0.5619 0.6412
-2.5088 -0.6258 0.6441
-2.5083 -0.6904 0.6475
-2.5078 -0.7559 0.6513
-2.5074 -0.8223 0.6556
-2.5069 -0.8897 0.6603
-2.5064 -0.9583 0.6655
-2.5059 -1.0281 0.6712
-2.5054 -1.0993 0.6774
-2.5049 -1.1720 0.6841
-2.5044 -1.2463 0.6914
-2.5038 -1.3224 0.6993
-2.5033 -1.4004 0.7078
-2.5027 -1.4804 0.7169
-2.5021 -1.5628 0.7268
-2.5015 -1.6477 0.7373
-2.5009 -1.7352 0.7487
-2.5002 -1.8257 0.7609
-2.4996 -1.9194 0.7740
-2.4989 -2.0165 0.7880
-2.4981 -2.1178 0.8417
-2.4974 -2.2229 0.8587
-2.4966 -2.3325 0.8770
-2.4958 -2.4472 0.8966
-2.4949 -2.5673 0.9177
-2.4940 -2.6934 0.9404
-5.9392 -6.7327 2.2987
-5.7785 -6.8780 2.2987
-5.6141 -7.0193 2.2987
-5.5500 -7.2930 2.3425
-5.5113 -7.6167 2.4018
-5.3288 -7.7513 2.4018
-5.1428 -7.8815 2.4018
-4.9536 -8.0070 2.4018
-4.7613 -8.1278 2.4018
-4.5659 -8.2439 2.4018
-4.3676 -8.3550 2.4018
-4.1666 -8.4613 2.4018
-3.9628 -8.5625 2.4018
-3.7566 -8.6587 2.4018
-3.5479 -8.7497 2.4018
-3.3370 -8.8355 2.4018
-3.1239 -8.9160 2.4018
-2.9088 -8.9912 2.4018
-2.6919 -9.0610 2.4018
-2.4732 -9.1253 2.4018
-2.2530 -9.1842 2.4018
-2.0313 -9.2376 2.4018
-1.8083 -9.2854 2.4018
-1.5842 -9.3277 2.4018
-1.3590 -9.3643 2.4018
-1.1330 -9.3953 2.4018
-0.9062 -9.4206 2.4018
-0.6789 -9.4402 2.4018
-0.4512 -9.4541 2.4018
-0.2231 -9.4623 2.4018
0.0050 -9.4649 2.4018
0.2332 -9.4617 2.4018
0.4612 -9.4528 2.4018
0.6889 -9.4382 2.4018
0.9161 -9.4179 2.4018
1.1428 -9.3919 2.4018
1.3686 -9.3602 2.4018
1.5936 -9.3230 2.4018
1.8176 -9.2801 2.4018
2.0404 -9.2316 2.4018
2.2618 -9.1776 2.4018
2.4818 -9.1181 2.4018
2.5841 -8.6639 2.2985
2.7914 -8.5966 2.2985
2.9969 -8.5241 2.2985
3.2004 -8.4465 2.2985
3.4019 -8.3639 2.2985
3.6012 -8.2763 2.2985
3.7982 -8.1838 2.2985
3.9928 -8.0864 2.2985
4.1848 -7.9843 2.2985
4.3741 -7.8775 2.2985
4.5606 -7.7660 2.2985
4.7442 -7.6500 2.2985
4.8910 -7.4777 2.2828
4.9738 -7.2182 2.2407
5.0888 -7.0167 2.2168
5.2011 -6.8191 2.1947
5.2559 -6.5568 2.1517
5.2863 -6.2782 2.1028
5.3652 -6.0686 2.0766
5.4635 -5.8872 2.0603
5.5746 -5.7236 2.0509
5.5516 -5.4315 1.9949
5.5543 -5.1779 1.9518
5.3174 -4.7225 1.8292
4.8395 -4.0935 1.6315
4.7736 -3.8441 1.5787
4.7143 -3.6123 1.5309
4.6586 -3.3945 1.4869
4.6064 -3.1892 1.4463
4.6025 -3.0248 1.4229
4.6266 -2.8832 1.4095
4.6532 -2.7461 1.3981
4.6802 -2.6119 1.3880
4.7067 -2.4796 1.3788
4.7328 -2.3492 1.3705
4.7584 -2.2204 1.3632
4.7833 -2.0929 1.3565
4.8352 -1.9780 1.3584
4.9096 -1.8714 1.3674
4.9850 -1.7635 1.3773
5.0613 -1.6541 1.3882
5.1388 -1.5431 1.4000
5.2175 -1.4304 1.4129
5.2976 -1.3156 1.4268
5.3791 -1.1987 1.4418
5.4524 -1.0775 1.4553
5.5301 -0.9547 1.4708
5.3109 -0.7852 1.4083
5.2347 -0.6452 1.3848
5.1621 -0.5099 1.3631
5.0917 -0.3790 1.3430
5.0234 -0.2521 1.3241
4.9570 -0.1288 1.3066
4.8923 -0.0089 1.2903
4.8167 0.1077 1.2718
4.7861 0.2228 1.2659
4.7804 0.3385 1.2673
4.7703 0.4539 1.2683
4.7602 0.5693 1.2700
4.7500 0.6849 1.2725
4.7398 0.8009 1.2757
4.7296 0.9173 1.2796
4.7193 1.0342 1.2843
4.7089 1.1520 1.2898
4.6942 1.2694 1.2949
4.6711 1.3852 1.2985
4.6478 1.5015 1.3028
4.6382 1.6233 1.3119
4.6341 1.7487 1.3234
4.6301 1.8764 1.3359
4.6262 2.0064 1.3495
4.6224 2.1390 1.3641
4.6187 2.2745 1.3800
4.6150 2.4132 1.3970
4.6264 2.5635 1.4199
4.6460 2.7233 1.4468
4.6666 2.8893 1.4757
4.6882 3.0620 1.5066
4.7110 3.2422 1.5398
4.8419 3.5080 1.6110
4.8782 3.7175 1.6537
4.8971 3.9229 1.6929
4.9168 4.1378 1.7350
4.9371 4.3634 1.7801
4.9555 4.5980 1.8275
4.9894 4.8595 1.8840
5.0320 5.1441 1.9477
5.0773 5.4482 2.0169
5.1255 5.7741 2.0922
5.4728 6.4745 2.2985
5.3116 6.6015 2.2985
5.1475 6.7247 2.2985
4.9807 6.8439 2.2985
4.8112 6.9591 2.2985
4.6391 7.0702 2.2985
4.4645 7.1772 2.2985
4.2875 7.2801 2.2985
4.1083 7.3787 2.2985
3.9269 7.4731 2.2985
3.7433 7.5631 2.2985
3.5578 7.6488 2.2985
3.3704 7.7301 2.2985
3.1811 7.8070 2.2985
2.9902 7.8794 2.2985
2.7977 7.9473 2.2985
2.6038 8.0107 2.2985
2.5166 8.4319 2.4018
2.3111 8.4886 2.4018
2.1044 8.5404 2.4018
1.8966 8.5873 2.4018
1.6878 8.6294 2.4018
1.4781 8.6666 2.4018
1.2676 8.6988 2.4018
1.0564 8.7262 2.4018
0.8446 8.7486 2.4018
0.6324 8.7660 2.4018
0.4199 8.7785 2.4018
0.2071 8.7860 2.4018
-0.0057 8.7885 2.4018
-0.2186 8.7861 2.4018
-0.4314 8.7787 2.4018
-0.6440 8.7663 2.4018
-0.8562 8.7490 2.4018
-1.0680 8.7267 2.4018
-1.2793 8.6994 2.4018
-1.4898 8.6673 2.4018
-1.6996 8.6302 2.4018
-1.9086 8.5882 2.4018
-2.1165 8.5413 2.4018
-2.3233 8.4896 2.4018
-2.5289 8.4330 2.4018
-2.7331 8.3716 2.4018
-2.9360 8.3055 2.4018
-3.1373 8.2345 2.4018
-3.3369 8.1589 2.4018
-3.5348 8.0786 2.4018
-3.7308 7.9937 2.4018
-3.9248 7.9041 2.4018
-4.1168 7.8100 2.4018
-4.3066 7.7114 2.4018
-4.4941 7.6083 2.4018
-4.6792 7.5007 2.4018
-4.8618 7.3889 2.4018
-5.0418 7.2727 2.4018
-5.2191 7.1522 2.4018
-5.3937 7.0276 2.4018
-5.5248 6.8486 2.3843
-5.5326 6.5283 2.3175
-5.6463 6.3445 2.2987
-5.8018 6.2097 2.2987
-5.9541 6.0712 2.2987
-6.1032 5.9291 2.2987
-6.2489 5.7834 2.2987
-6.3913 5.6343 2.2987
-6.5302 5.4816 2.2987
-6.6656 5.3257 2.2987
-6.7973 5.1665 2.2987
-6.9253 5.0041 2.2987
-7.0495 4.8386 2.2987
-2.5248 1.6445 0.8095
-2.5242 1.5585 0.7963
-2.5236 1.4750 0.7841
-2.5230 1.3939 0.7726
-2.5224 1.3150 0.7618
-2.5219 1.2381 0.7518
-2.5214 1.1630 0.7424
-2.5209 1.0896 0.7337
-2.5204 1.0178 0.7256
-2.5199 0.9474 0.7180
-2.5194 0.8783 0.7110
-2.5189 0.8103 0.7046
-2.5184 0.7435 0.6986
-2.5180 0.6776 0.6931
-2.5175 0.6126 0.6881
-2.5171 0.5484 0.6836
-2.5166 0.4849 0.6795
-2.5162 0.4220 0.6758
-2.5157 0.3597 0.6726
-2.5153 0.2978 0.6697
-2.5149 0.2363 0.6673
-2.5144 0.1750 0.6653
-2.5140 0.1140 0.6637
-2.5136 0.0532 0.6624
-2.5131 -0.0075 0.6616
-2.5127 -0.0683 0.6611
-2.5123 -0.1290 0.6610
-2.5118 -0.1900 0.6613
-2.5114 -0.2511 0.6620
-2.5110 -0.3124 0.6631
-2.5105 -0.3742 0.6646
-2.5101 -0.4363 0.6665
-2.5096 -0.4990 0.6688
-2.5092 -0.5622 0.6715
-2.5087 -0.6261 0.6747
-2.5083 -0.6907 0.6782
-2.5078 -0.7562 0.6823
-2.5073 -0.8226 0.6867
-2.5069 -0.8900 0.6917
-2.5064 -0.9586 0.6972
-2.5059 -1.0284 0.7031
-2.5054 -1.0996 0.7097
-2.5049 -1.1723 0.7167
-2.5043 -1.2466 0.7244
-2.5038 -1.3226 0.7327
-2.5032 -1.4006 0.7416
-2.5027 -1.4807 0.7512
-2.5021 -1.5631 0.7616
-2.5015 -1.6480 0.7727
-2.5009 -1.7355 0.7846
-2.5002 -1.8260 0.7974
-2.4995 -1.9197 0.8112
-2.4988 -2.0168 0.8259
-2.4981 -2.1181 0.8806
-2.4974 -2.2232 0.8984
-2.4966 -2.3329 0.9175
-2.4958 -2.4475 0.9381
-2.4949 -2.5676 0.9602
-2.4940 -2.6937 0.9840
-5.6762 -6.4355 2.2987
-5.5558 -6.6138 2.3126
-5.5479 -6.9376 2.3770
-5.4380 -7.1469 2.4018
-5.2668 -7.2797 2.4018
-5.0922 -7.4082 2.4018
-4.9145 -7.5324 2.4018
-4.7336 -7.6522 2.4018
-4.5497 -7.7675 2.4018
-4.3629 -7.8783 2.4018
-4.1734 -7.9844 2.4018
-3.9812 -8.0857 2.4018
-3.7864 -8.1823 2.4018
-3.5893 -8.2741 2.4018
-3.3899 -8.3609 2.4018
-3.1883 -8.4428 2.4018
-2.9847 -8.5196 2.4018
-2.7792 -8.5913 2.4018
-2.5719 -8.6579 2.4018
-2.3630 -8.7193 2.4018
-2.1525 -8.7755 2.4018
-1.9407 -8.8265 2.4018
-1.7277 -8.8721 2.4018
-1.5135 -8.9124 2.4018
-1.2984 -8.9473 2.4018
-1.0825 -8.9769 2.4018
-0.8658 -9.0010 2.4018
-0.6486 -9.0198 2.4018
-0.4310 -9.0331 2.4018
-0.2132 -9.0409 2.4018
0.0048 -9.0433 2.4018
0.2228 -9.0403 2.4018
0.4406 -9.0318 2.4018
0.6581 -9.0179 2.4018
0.8752 -8.9985 2.4018
1.0917 -8.9737 2.4018
1.3076 -8.9436 2.4018
1.5225 -8.9080 2.4018
1.7365 -8.8671 2.4018
1.9493 -8.8209 2.4018
2.1609 -8.7694 2.4018
2.3711 -8.7126 2.4018
2.5008 -8.3857 2.3282
2.6670 -8.2145 2.2985
2.8634 -8.1453 2.2985
3.0579 -8.0713 2.2985
3.2505 -7.9925 2.2985
3.4410 -7.9089 2.2985
3.6293 -7.8207 2.2985
3.8152 -7.7278 2.2985
3.9988 -7.6303 2.2985
4.1797 -7.5284 2.2985
4.3581 -7.4220 2.2985
4.5336 -7.3113 2.2985
4.7063 -7.1963 2.2985
4.8759 -7.0771 2.2985
5.0425 -6.9538 2.2985
5.1793 -6.7916 2.2868
5.2277 -6.5226 2.2393
5.2776 -6.2688 2.1965
5.3548 -6.0577 2.1685
5.4529 -5.8768 2.1515
5.5494 -5.6987 2.1360
5.5258 -5.4071 2.0774
5.5241 -5.1506 2.0308
5.5125 -4.8966 1.9838
4.8697 -4.1198 1.7174
4.7946 -3.8617 1.6587
4.7343 -3.6283 1.6082
4.6778 -3.4091 1.5617
4.6249 -3.2026 1.5189
4.6156 -3.0340 1.4925
4.6400 -2.8922 1.4785
4.6638 -2.7530 1.4656
4.6873 -2.6164 1.4538
4.7107 -2.4823 1.4432
4.7338 -2.3503 1.4336
4.7568 -2.2202 1.4250
4.7797 -2.0919 1.4175
4.8343 -1.9782 1.4202
4.9082 -1.8714 1.4294
4.9836 -1.7635 1.4397
5.0599 -1.6542 1.4510
5.1374 -1.5433 1.4634
5.2160 -1.4305 1.4767
5.2961 -1.3158 1.4912
5.3776 -1.1990 1.5068
5.4673 -1.0811 1.5255
5.5633 -0.9611 1.5467
5.3276 -0.7883 1.4767
5.2439 -0.6469 1.4500
5.1615 -0.5105 1.4246
5.0846 -0.3791 1.4017
5.0165 -0.2523 1.3820
4.9503 -0.1292 1.3637
4.8857 -0.0094 1.3466
4.8177 0.1072 1.3293
4.7886 0.2224 1.3235
4.7794 0.3379 1.3240
4.7693 0.4533 1.3250
4.7592 0.5687 1.3267
4.7491 0.6843 1.3293
4.7389 0.8002 1.3326
4.7287 0.9166 1.3366
4.7183 1.0335 1.3415
4.7080 1.1512 1.3472
4.6931 1.2686 1.3524
4.6699 1.3843 1.3561
4.6545 1.5031 1.3629
4.6504 1.6270 1.3739
4.6464 1.7529 1.3860
4.6425 1.8809 1.3991
4.6387 2.0113 1.4133
4.6351 2.1443 1.4287
4.6315 2.2803 1.4452
4.6280 2.4194 1.4631
4.6434 2.5724 1.4883
4.6634 2.7329 1.5166
4.6844 2.8997 1.5469
4.7065 3.0734 1.5794
4.7297 3.2545 1.6143
4.8211 3.4922 1.6749
4.8629 3.7053 1.7213
4.8814 3.9096 1.7620
4.9006 4.1236 1.8056
4.9205 4.3481 1.8523
4.9412 4.5841 1.9025
4.9710 4.8408 1.9597
5.0128 5.1237 2.0256
5.0572 5.4258 2.0972
5.1045 5.7497 2.1752
5.2425 6.2012 2.2985
5.0882 6.3230 2.2985
4.9311 6.4411 2.2985
4.7714 6.5555 2.2985
4.6091 6.6659 2.2985
4.4443 6.7725 2.2985
4.2771 6.8752 2.2985
4.1077 6.9738 2.2985
3.9360 7.0684 2.2985
3.7622 7.1590 2.2985
3.5864 7.2453 2.2985
3.4087 7.3276 2.2985
3.2292 7.4056 2.2985
3.0479 7.4793 2.2985
2.8651 7.5488 2.2985
2.6807 7.6139 2.2985
2.5277 7.7758 2.3288
2.4113 8.0784 2.4018
2.2145 8.1327 2.4018
2.0164 8.1824 2.4018
1.8173 8.2274 2.4018
1.6172 8.2678 2.4018
1.4163 8.3035 2.4018
1.2146 8.3344 2.4018
1.0122 8.3607 2.4018
0.8093 8.3821 2.4018
0.6060 8.3989 2.4018
0.4023 8.4108 2.4018
0.1985 8.4180 2.4018
-0.0055 8.4205 2.4018
-0.2095 8.4181 2.4018
-0.4134 8.4110 2.4018
-0.6171 8.3991 2.4018
-0.8205 8.3825 2.4018
-1.0234 8.3611 2.4018
-1.2258 8.3349 2.4018
-1.4276 8.3040 2.4018
-1.6286 8.2684 2.4018
-1.8288 8.2281 2.4018
-2.0280 8.1832 2.4018
-2.2261 8.1335 2.4018
-2.4231 8.0792 2.4018
-2.6188 8.0203 2.4018
-2.8131 7.9568 2.4018
-3.0059 7.8888 2.4018
-3.1971 7.8162 2.4018
-3.3867 7.7392 2.4018
-3.5744 7.6577 2.4018
-3.7603 7.5718 2.4018
-3.9441 7.4815 2.4018
-4.1259 7.3869 2.4018
-4.3054 7.2880 2.4018
-4.4827 7.1848 2.4018
-4.6575 7.0775 2.4018
-4.8299 6.9660 2.4018
-4.9997 6.8505 2.4018
-5.1668 6.7310 2.4018
-5.3311 6.6074 2.4018
-5.4925 6.4800 2.4018
-5.5259 6.2083 2.3486
-5.5572 5.9470 2.2987
-5.7181 5.8297 2.3048
-5.8456 5.6780 2.2987
-5.9850 5.5383 2.2987
-6.1212 5.3953 2.2987
-6.2541 5.2490 2.2987
-6.3836 5.0995 2.2987
-6.5096 4.9469 2.2987
-6.6319 4.7912 2.2987
-6.7507 4.6326 2.2987
-2.5247 1.6442 0.8453
-2.5241 1.5581 0.8316
-2.5235 1.4747 0.8188
-2.5230 1.3936 0.8069
-2.5224 1.3147 0.7957
-2.5219 1.2378 0.7852
-2.5214 1.1627 0.7755
-2.5208 1.0893 0.7664
-2.5203 1.0175 0.7579
-2.5198 0.9471 0.7501
-2.5194 0.8780 0.7428
-2.5189 0.8100 0.7360
-2.5184 0.7432 0.7298
-2.5180 0.6773 0.7241
-2.5175 0.6123 0.7189
-2.5170 0.5481 0.7142
-2.5166 0.4846 0.7100
-2.5162 0.4218 0.7062
-2.5157 0.3594 0.7028
-2.5153 0.2975 0.6999
-2.5148 0.2360 0.6973
-2.5144 0.1748 0.6952
-2.5140 0.1138 0.6936
-2.5135 0.0529 0.6923
-2.5131 -0.0078 0.6914
-2.5127 -0.0685 0.6910
-2.5123 -0.1293 0.6909
-2.5118 -0.1902 0.6913
-2.5114 -0.2513 0.6920
-2.5110 -0.3127 0.6932
-2.5105 -0.3744 0.6948
-2.5101 -0.4366 0.6968
-2.5096 -0.4992 0.6992
-2.5092 -0.5625 0.7021
-2.5087 -0.6264 0.7054
-2.5083 -0.6910 0.7091
-2.5078 -0.7565 0.7134
-2.5073 -0.8229 0.7181
-2.5069 -0.8903 0.7233
-2.5064 -0.9589 0.7290
-2.5059 -1.0287 0.7353
-2.5054 -1.0999 0.7421
-2.5048 -1.1726 0.7496
-2.5043 -1.2469 0.7576
-2.5038 -1.3229 0.7663
-2.5032 -1.4009 0.7757
-2.5026 -1.4810 0.7857
-2.5021 -1.5634 0.7966
-2.5015 -1.6483 0.8082
-2.5008 -1.7358 0.8207
-2.5002 -1.8263 0.8342
-2.4995 -1.9200 0.8486
-2.4988 -2.0172 0.8640
-2.4981 -2.1184 0.9197
-2.4973 -2.2236 0.9383
-2.4966 -2.3332 0.9583
-2.4957 -2.4479 0.9798
-2.4949 -2.5680 1.0029
-2.4940 -2.6941 1.0278
-5.5473 -6.2902 2.3466
-5.5239 -6.5768 2.4018
-5.3665 -6.7116 2.4018
-5.2058 -6.8425 2.4018
-5.0417 -6.9695 2.4018
-4.8745 -7.0924 2.4018
-4.7043 -7.2111 2.4018
-4.5310 -7.3257 2.4018
-4.3549 -7.4359 2.4018
-4.1761 -7.5418 2.4018
-3.9946 -7.6432 2.4018
-3.8106 -7.7402 2.4018
-3.6241 -7.8325 2.4018
-3.4354 -7.9202 2.4018
-3.2445 -8.0032 2.4018
-3.0515 -8.0815 2.4018
-2.8566 -8.1549 2.4018
-2.6599 -8.2235 2.4018
-2.4615 -8.2871 2.4018
-2.2615 -8.3458 2.4018
-2.0601 -8.3995 2.4018
-1.8574 -8.4482 2.4018
-1.6535 -8.4918 2.4018
-1.4485 -8.5304 2.4018
-1.2426 -8.5638 2.4018
-1.0360 -8.5920 2.4018
-0.8286 -8.6151 2.4018
-0.6208 -8.6330 2.4018
-0.4125 -8.6457 2.4018
-0.2041 -8.6532 2.4018
0.0046 -8.6555 2.4018
0.2132 -8.6526 2.4018
0.4216 -8.6445 2.4018
0.6298 -8.6312 2.4018
0.8376 -8.6127 2.4018
1.0448 -8.5891 2.4018
1.2513 -8.5603 2.4018
1.4571 -8.5263 2.4018
1.6619 -8.4872 2.4018
1.8656 -8.4430 2.4018
2.0681 -8.3938 2.4018
2.2693 -8.3396 2.4018
2.4690 -8.2803 2.4018
2.5525 -7.8630 2.2985
2.7405 -7.7969 2.2985
2.9267 -7.7261 2.2985
3.1111 -7.6508 2.2985
3.2935 -7.5709 2.2985
3.4738 -7.4865 2.2985
3.6518 -7.3978 2.2985
3.8276 -7.3046 2.2985
4.0009 -7.2071 2.2985
4.1716 -7.1055 2.2985
4.3397 -6.9996 2.2985
4.5051 -6.8897 2.2985
4.6676 -6.7757 2.2985
4.8272 -6.6578 2.2985
4.9837 -6.5360 2.2985
5.1371 -6.4105 2.2985
5.2691 -6.2596 2.2906
5.3443 -6.0467 2.2605
5.4424 -5.8663 2.2428
5.5244 -5.6739 2.2209
5.4915 -5.3744 2.1562
5.5035 -5.1321 2.1130
5.6157 -4.9890 2.1106
4.9004 -4.1465 1.8049
4.8158 -3.8794 1.7399
4.7546 -3.6445 1.6866
4.6973 -3.4240 1.6377
4.6436 -3.2161 1.5925
4.6271 -3.0422 1.5623
4.6536 -2.9012 1.5483
4.6773 -2.7616 1.5347
4.7008 -2.6245 1.5223
4.7241 -2.4899 1.5111
4.7472 -2.3575 1.5009
4.7702 -2.2270 1.4919
4.7930 -2.0983 1.4839
4.8488 -1.9847 1.4871
4.9228 -1.8775 1.4966
4.9979 -1.7692 1.5072
5.0742 -1.6595 1.5189
5.1518 -1.5482 1.5318
5.2310 -1.4352 1.5458
5.3118 -1.3203 1.5611
5.3986 -1.2043 1.5789
5.4936 -1.0869 1.5998
5.5895 -0.9662 1.6218
5.3481 -0.7919 1.5471
5.2624 -0.6497 1.5185
5.1793 -0.5128 1.4918
5.0995 -0.3807 1.4669
5.0226 -0.2532 1.4438
4.9484 -0.1297 1.4223
4.8792 -0.0099 1.4031
4.8164 0.1066 1.3866
4.7885 0.2219 1.3809
4.7785 0.3373 1.3810
4.7684 0.4527 1.3820
4.7583 0.5681 1.3838
4.7481 0.6836 1.3864
4.7379 0.7995 1.3898
4.7277 0.9159 1.3940
4.7174 1.0328 1.3990
4.7070 1.1504 1.4049
4.6919 1.2677 1.4103
4.6710 1.3841 1.4147
4.6668 1.5066 1.4252
4.6628 1.6308 1.4367
4.6589 1.7570 1.4493
4.6551 1.8854 1.4630
4.6514 2.0162 1.4779
4.6479 2.1497 1.4939
4.6444 2.2861 1.5113
4.6412 2.4257 1.5300
4.6607 2.5813 1.5576
4.6810 2.7427 1.5873
4.7024 2.9103 1.6191
4.7250 3.0848 1.6532
4.7487 3.2669 1.6898
4.8003 3.4765 1.7387
4.8477 3.6930 1.7889
4.8658 3.8964 1.8310
4.8845 4.1093 1.8761
4.9039 4.3327 1.9245
4.9410 4.5831 1.9831
4.9824 4.8512 2.0475
5.0351 5.1458 2.1209
5.0925 5.4630 2.2014
5.1553 5.8060 2.2899
5.0296 5.9485 2.2985
4.8816 6.0655 2.2985
4.7310 6.1789 2.2985
4.5779 6.2887 2.2985
4.4222 6.3948 2.2985
4.2642 6.4972 2.2985
4.1039 6.5958 2.2985
3.9413 6.6906 2.2985
3.7767 6.7815 2.2985
3.6100 6.8684 2.2985
3.4413 6.9514 2.2985
3.2709 7.0304 2.2985
3.0986 7.1053 2.2985
2.9247 7.1762 2.2985
2.7493 7.2429 2.2985
2.5724 7.3055 2.2985
2.5016 7.6947 2.4018
2.3139 7.7513 2.4018
2.1250 7.8035 2.4018
1.9350 7.8512 2.4018
1.7439 7.8945 2.4018
1.5519 7.9333 2.4018
1.3591 7.9675 2.4018
1.1656 7.9973 2.4018
0.9714 8.0225 2.4018
0.7767 8.0431 2.4018
0.5815 8.0592 2.4018
0.3861 8.0707 2.4018
0.1904 8.0776 2.4018
-0.0053 8.0799 2.4018
-0.2011 8.0777 2.4018
-0.3968 8.0708 2.4018
-0.5922 8.0594 2.4018
-0.7874 8.0434 2.4018
-0.9821 8.0228 2.4018
-1.1764 7.9977 2.4018
-1.3700 7.9680 2.4018
-1.5629 7.9338 2.4018
-1.7550 7.8951 2.4018
-1.9461 7.8518 2.4018
-2.1362 7.8041 2.4018
-2.3252 7.7520 2.4018
-2.5130 7.6954 2.4018
-2.6994 7.6344 2.4018
-2.8844 7.5690 2.4018
-3.0679 7.4993 2.4018
-3.2497 7.4252 2.4018
-3.4298 7.3469 2.4018
-3.6081 7.2644 2.4018
-3.7844 7.1776 2.4018
-3.9588 7.0867 2.4018
-4.1310 6.9917 2.4018
-4.3010 6.8927 2.4018
-4.4687 6.7896 2.4018
-4.6339 6.6825 2.4018
-4.7967 6.5715 2.4018
-4.9569 6.4567 2.4018
-5.1145 6.3381 2.4018
-5.2692 6.2157 2.4018
-5.4212 6.0896 2.4018
-5.5264 5.9132 2.3829
-5.5324 5.6396 2.3246
-5.6075 5.4458 2.2987
-5.7411 5.3117 2.2987
-5.8716 5.1744 2.2987
-5.9989 5.0339 2.2987
-6.1230 4.8904 2.2987
-6.2436 4.7439 2.2987
-6.3608 4.5945 2.2987
-6.4746 4.4423 2.2987
-2.5247 1.6438 0.8814
-2.5241 1.5578 0.8671
-2.5235 1.4743 0.8538
-2.5230 1.3933 0.8414
-2.5224 1.3143 0.8297
-2.5219 1.2374 0.8189
-2.5213 1.1624 0.8087
-2.5208 1.0890 0.7992
-2.5203 1.0172 0.7904
-2.5198 0.9468 0.7823
-2.5193 0.8777 0.7747
-2.5189 0.8097 0.7677
-2.5184 0.7429 0.7613
-2.5179 0.6770 0.7553
-2.5175 0.6121 0.7499
-2.5170 0.5479 0.7450
-2.5166 0.4844 0.7406
-2.5161 0.4215 0.7367
-2.5157 0.3591 0.7332
-2.5153 0.2972 0.7301
-2.5148 0.2357 0.7275
-2.5144 0.1745 0.7254
-2.5140 0.1135 0.7237
-2.5135 0.0527 0.7224
-2.5131 -0.0081 0.7215
-2.5127 -0.0688 0.7210
-2.5122 -0.1296 0.7210
-2.5118 -0.1905 0.7214
-2.5114 -0.2516 0.7222
-2.5109 -0.3130 0.7234
-2.5105 -0.3747 0.7251
-2.5101 -0.4369 0.7272
-2.5096 -0.4995 0.7298
-2.5092 -0.5627 0.7328
-2.5087 -0.6266 0.7363
-2.5083 -0.6913 0.7402
-2.5078 -0.7567 0.7446
-2.5073 -0.8231 0.7496
-2.5068 -0.8906 0.7551
-2.5064 -0.9592 0.7611
-2.5059 -1.0290 0.7677
-2.5054 -1.1002 0.7748
-2.5048 -1.1729 0.7826
-2.5043 -1.2472 0.7910
-2.5038 -1.3232 0.8001
-2.5032 -1.4012 0.8099
-2.5026 -1.4813 0.8205
-2.5021 -1.5637 0.8318
-2.5014 -1.6486 0.8440
-2.5008 -1.7361 0.8571
-2.5002 -1.8266 0.8711
-2.4995 -1.9203 0.8862
-2.4988 -2.0175 0.9024
-2.4981 -2.1188 0.9590
-2.4973 -2.2239 0.9785
-2.4965 -2.3336 0.9993
-2.4957 -2.4482 1.0218
-2.4949 -2.5683 1.0459
-2.4940 -2.6945 1.0718
-5.4442 -6.1741 2.4018
-5.2965 -6.3069 2.4018
-5.1454 -6.4360 2.4018
-4.9912 -6.5614 2.4018
-4.8339 -6.6830 2.4018
-4.6735 -6.8007 2.4018
-4.5101 -6.9144 2.4018
-4.3440 -7.0241 2.4018
-4.1751 -7.1297 2.4018
-4.0036 -7.2311 2.4018
-3.8295 -7.3283 2.4018
-3.6530 -7.4211 2.4018
-3.4743 -7.5095 2.4018
-3.2933 -7.5935 2.4018
-3.1103 -7.6729 2.4018
-2.9252 -7.7479 2.4018
-2.7384 -7.8182 2.4018
-2.5498 -7.8838 2.4018
-2.3596 -7.9448 2.4018
-2.1678 -8.0010 2.4018
-1.9748 -8.0524 2.4018
-1.7804 -8.0990 2.4018
-1.5849 -8.1408 2.4018
-1.3885 -8.1777 2.4018
-1.1911 -8.2096 2.4018
-0.9930 -8.2367 2.4018
-0.7943 -8.2588 2.4018
-0.5951 -8.2759 2.4018
-0.3955 -8.2881 2.4018
-0.1956 -8.2953 2.4018
0.0044 -8.2975 2.4018
0.2043 -8.2948 2.4018
0.4041 -8.2870 2.4018
0.6037 -8.2743 2.4018
0.8028 -8.2566 2.4018
1.0015 -8.2340 2.4018
1.1995 -8.2064 2.4018
1.3967 -8.1739 2.4018
1.5930 -8.1364 2.4018
1.7883 -8.0942 2.4018
1.9824 -8.0471 2.4018
2.1753 -7.9951 2.4018
2.3668 -7.9384 2.4018
2.4974 -7.6940 2.3460
2.6271 -7.4751 2.2985
2.8057 -7.4074 2.2985
2.9824 -7.3352 2.2985
3.1573 -7.2588 2.2985
3.3302 -7.1780 2.2985
3.5009 -7.0930 2.2985
3.6695 -7.0038 2.2985
3.8357 -6.9105 2.2985
3.9995 -6.8131 2.2985
4.1607 -6.7117 2.2985
4.3193 -6.6064 2.2985
4.4752 -6.4973 2.2985
4.6283 -6.3844 2.2985
4.7785 -6.2677 2.2985
4.9257 -6.1475 2.2985
5.0698 -6.0237 2.2985
5.2107 -5.8964 2.2985
5.3483 -5.7658 2.2985
5.4827 -5.6319 2.2985
5.4556 -5.3402 2.2339
5.4886 -5.1191 2.1975
5.6015 -4.9772 2.1953
4.9317 -4.1737 1.8940
4.8441 -3.9029 1.8248
4.7752 -3.6610 1.7662
4.7171 -3.4390 1.7147
4.6626 -3.2299 1.6672
4.6387 -3.0504 1.6330
4.6666 -2.9100 1.6187
4.6910 -2.7702 1.6046
4.7144 -2.6327 1.5916
4.7376 -2.4977 1.5798
4.7607 -2.3648 1.5691
4.7837 -2.2339 1.5596
4.8065 -2.1048 1.5512
4.8634 -1.9913 1.5548
4.9377 -1.8838 1.5647
5.0132 -1.7752 1.5758
5.0898 -1.6652 1.5880
5.1678 -1.5536 1.6014
5.2474 -1.4403 1.6161
5.3286 -1.3251 1.6320
5.4265 -1.2111 1.6539
5.5211 -1.0929 1.6755
5.6178 -0.9717 1.6986
5.3806 -0.7973 1.6219
5.2795 -0.6524 1.5875
5.1974 -0.5151 1.5598
5.1170 -0.3826 1.5337
5.0395 -0.2546 1.5094
4.9648 -0.1306 1.4868
4.8925 -0.0105 1.4659
4.8226 0.1062 1.4464
4.7930 0.2216 1.4399
4.7800 0.3369 1.4392
4.7674 0.4520 1.4394
4.7573 0.5674 1.4412
4.7471 0.6830 1.4439
4.7370 0.7988 1.4473
4.7267 0.9151 1.4517
4.7164 1.0320 1.4569
4.7060 1.1497 1.4630
4.6907 1.2669 1.4684
4.6834 1.3872 1.4773
4.6793 1.5101 1.4883
4.6754 1.6347 1.5003
4.6716 1.7613 1.5134
4.6679 1.8900 1.5277
4.6643 2.0213 1.5432
4.6608 2.1552 1.5600
4.6575 2.2920 1.5781
4.6583 2.4341 1.5990
4.6781 2.5904 1.6279
4.6989 2.7526 1.6590
4.7207 2.9210 1.6923
4.7437 3.0965 1.7280
4.7680 3.2796 1.7664
4.7936 3.4710 1.8076
4.8324 3.6807 1.8565
4.8541 3.8863 1.9016
4.9110 4.1310 1.9637
4.9733 4.3932 2.0317
4.9998 4.6370 2.0890
5.0340 4.9007 2.1534
5.0892 5.2002 2.2315
5.1083 5.4790 2.2985
4.9715 5.5982 2.2985
4.8321 5.7141 2.2985
4.6900 5.8266 2.2985
4.5454 5.9357 2.2985
4.3983 6.0413 2.2985
4.2489 6.1434 2.2985
4.0971 6.2418 2.2985
3.9431 6.3366 2.2985
3.7870 6.4278 2.2985
3.6288 6.5152 2.2985
3.4687 6.5988 2.2985
3.3067 6.6787 2.2985
3.1429 6.7546 2.2985
2.9775 6.8267 2.2985
2.8104 6.8949 2.2985
2.6418 6.9591 2.2985
2.5224 7.1628 2.3455
2.4039 7.3933 2.4018
2.2235 7.4477 2.4018
2.0421 7.4979 2.4018
1.8595 7.5439 2.4018
1.6758 7.5855 2.4018
1.4914 7.6228 2.4018
1.3061 7.6558 2.4018
1.1200 7.6844 2.4018
0.9334 7.7086 2.4018
0.7463 7.7285 2.4018
0.5588 7.7439 2.4018
0.3710 7.7550 2.4018
0.1830 7.7616 2.4018
-0.0051 7.7639 2.4018
-0.1933 7.7617 2.4018
-0.3813 7.7551 2.4018
-0.5691 7.7441 2.4018
-0.7567 7.7287 2.4018
-0.9438 7.7089 2.4018
-1.1305 7.6847 2.4018
-1.3165 7.6561 2.4018
-1.5019 7.6232 2.4018
-1.6865 7.5860 2.4018
-1.8701 7.5444 2.4018
-2.0528 7.4984 2.4018
-2.2344 7.4483 2.4018
-2.4148 7.3938 2.4018
-2.5939 7.3351 2.4018
-2.7717 7.2722 2.4018
-2.9479 7.2051 2.4018
-3.1226 7.1339 2.4018
-3.2956 7.0586 2.4018
