ply
format ascii 1.0
element vertex 2179
property float32 x
property float32 y
property float32 z
end_header
1.1801 0.0838 0.2987
1.1658 0.1111 0.2960
1.1513 0.1379 0.2933
1.1368 0.1642 0.2908
1.1222 0.1898 0.2884
1.1075 0.2150 0.2861
1.0926 0.2397 0.2840
1.0776 0.2638 0.2819
1.0626 0.2875 0.2799
1.0474 0.3108 0.2781
1.0320 0.3336 0.2763
1.0166 0.3560 0.2746
1.0011 0.3780 0.2730
0.9840 0.3990 0.2712
0.9599 0.4165 0.2674
0.9362 0.4334 0.2639
0.9128 0.4497 0.2605
0.8898 0.4655 0.2573
0.8671 0.4806 0.2542
0.8447 0.4953 0.2513
2.5300 1.5669 0.7642
2.4971 1.6314 0.7665
2.4633 1.6957 0.7691
2.4285 1.7599 0.7719
2.3928 1.8240 0.7749
2.3562 1.8879 0.7781
2.3185 1.9517 0.7816
2.2799 2.0154 0.7853
2.2402 2.0791 0.7892
2.1995 2.1426 0.7934
2.1576 2.2062 0.7979
2.1147 2.2697 0.8026
2.0707 2.3331 0.8075
2.0255 2.3966 0.8127
1.9790 2.4601 0.8182
1.9313 2.5235 0.8239
1.8727 2.5737 0.8257
1.8134 2.6234 0.8278
1.7534 2.6727 0.8301
4.6726 7.5129 2.2986
4.4873 7.6205 2.2986
4.2997 7.7236 2.2986
4.1097 7.8222 2.2986
3.9176 7.9164 2.2986
3.7234 8.0060 2.2986
3.5272 8.0909 2.2986
3.3292 8.1713 2.2986
3.1294 8.2469 2.2986
2.9279 8.3179 2.2986
2.7249 8.3841 2.2986
2.5204 8.4455 2.2986
2.4186 8.8841 2.4018
2.2023 8.9382 2.4018
1.9848 8.9872 2.4018
1.7663 9.0311 2.4018
1.5468 9.0699 2.4018
1.3265 9.1036 2.4018
1.1056 9.1321 2.4018
0.8840 9.1555 2.4018
0.6620 9.1737 2.4018
0.4396 9.1866 2.4018
0.2170 9.1944 2.4018
-0.0058 9.1970 2.4018
-0.2285 9.1944 2.4018
-0.4512 9.1866 2.4018
-0.6736 9.1736 2.4018
-0.8956 9.1554 2.4018
-1.1172 9.1320 2.4018
-1.3382 9.1035 2.4018
-1.5585 9.0698 2.4018
-1.7780 9.0309 2.4018
-1.9966 8.9869 2.4018
-2.2141 8.9379 2.4018
-2.4305 8.8837 2.4018
-2.6456 8.8245 2.4018
-2.8593 8.7603 2.4018
-3.0715 8.6910 2.4018
-3.2821 8.6168 2.4018
-3.4909 8.5377 2.4018
-3.6980 8.4537 2.4018
-3.9030 8.3648 2.4018
-4.1060 8.2711 2.4018
-4.3069 8.1726 2.4018
-4.5054 8.0695 2.4018
-4.7016 7.9616 2.4018
-4.8953 7.8491 2.4018
-5.0863 7.7321 2.4018
-5.2747 7.6105 2.4018
-5.4602 7.4845 2.4018
-5.5433 7.2244 2.3595
-5.5726 6.9095 2.2988
-5.7415 6.7765 2.2988
-5.9073 6.6395 2.2988
-6.0700 6.4985 2.2988
-6.2293 6.3537 2.2988
-6.3854 6.2050 2.2988
-6.5379 6.0526 2.2988
-6.6869 5.8966 2.2988
-6.8323 5.7369 2.2988
-6.9740 5.5738 2.2988
-7.1119 5.4073 2.2988
-5.8054 4.1962 1.8418
-5.8882 4.0428 1.8351
-7.5018 4.8880 2.2988
-7.6237 4.7087 2.2988
-7.7413 4.5264 2.2988
-7.8547 4.3412 2.2988
-7.9637 4.1532 2.2988
-8.0684 3.9626 2.2988
-8.1685 3.7694 2.2988
-8.2641 3.5736 2.2988
-8.3550 3.3756 2.2988
-8.4413 3.1752 2.2988
-8.5228 2.9727 2.2988
-8.5996 2.7681 2.2988
-8.6715 2.5616 2.2988
-8.7384 2.3532 2.2988
-8.8005 2.1432 2.2988
-8.8575 1.9315 2.2988
-8.9095 1.7184 2.2988
-8.9564 1.5038 2.2988
-8.9982 1.2881 2.2988
-9.0348 1.0712 2.2988
-9.0662 0.8533 2.2988
-9.0924 0.6345 2.2988
-9.1133 0.4150 2.2988
-9.1290 0.1948 2.2988
-9.1393 -0.0259 2.2988
-9.1443 -0.2469 2.2988
-9.1440 -0.4682 2.2988
-9.1383 -0.6896 2.2988
-9.1272 -0.9109 2.2988
-9.1108 -1.1322 2.2988
-9.0890 -1.3531 2.2988
-9.0618 -1.5737 2.2988
-9.0292 -1.7937 2.2988
-8.9913 -2.0130 2.2988
-8.9480 -2.2315 2.2988
-8.8993 -2.4491 2.2988
-8.8453 -2.6657 2.2988
-8.7860 -2.8810 2.2988
-8.7214 -3.0949 2.2988
-8.6516 -3.3074 2.2988
-8.5765 -3.5183 2.2988
-8.4962 -3.7275 2.2988
-8.4107 -3.9348 2.2988
-8.3202 -4.1401 2.2988
-8.2245 -4.3432 2.2988
-8.1238 -4.5441 2.2988
-8.0181 -4.7426 2.2988
-7.9075 -4.9386 2.2988
-7.7920 -5.1319 2.2988
-7.6717 -5.3225 2.2988
-7.5466 -5.5102 2.2988
-7.4169 -5.6949 2.2988
-7.2826 -5.8764 2.2988
-6.8161 -5.7780 2.2988
-6.6792 -5.9447 2.2988
-6.5380 -6.1080 2.2988
-6.3928 -6.2679 2.2988
-6.2436 -6.4243 2.2988
-6.0905 -6.5770 2.2988
-5.9336 -6.7260 2.2988
-5.7729 -6.8711 2.2988
-5.6087 -7.0122 2.2988
-5.5449 -7.2861 2.3427
-5.5059 -7.6088 2.4018
-5.3235 -7.7433 2.4018
-5.1377 -7.8733 2.4018
-4.9486 -7.9986 2.4018
-4.7564 -8.1193 2.4018
-4.5612 -8.2352 2.4018
-4.3631 -8.3463 2.4018
-4.1622 -8.4524 2.4018
-3.9587 -8.5535 2.4018
-3.7526 -8.6495 2.4018
-3.5442 -8.7404 2.4018
-3.3334 -8.8261 2.4018
-3.1206 -8.9065 2.4018
-2.9057 -8.9816 2.4018
-2.6890 -9.0514 2.4018
-2.4706 -9.1157 2.4018
-2.2506 -9.1745 2.4018
-2.0291 -9.2279 2.4018
-1.8063 -9.2757 2.4018
-1.5824 -9.3179 2.4018
-1.3575 -9.3546 2.4018
-1.1317 -9.3855 2.4018
-0.9052 -9.4109 2.4018
-0.6781 -9.4305 2.4018
-0.4505 -9.4445 2.4018
-0.2227 -9.4528 2.4018
0.0053 -9.4554 2.4018
0.2332 -9.4523 2.4018
0.4610 -9.4435 2.4018
0.6885 -9.4290 2.4018
0.9155 -9.4088 2.4018
1.1420 -9.3829 2.4018
1.3677 -9.3514 2.4018
1.5925 -9.3143 2.4018
1.8163 -9.2716 2.4018
2.0389 -9.2233 2.4018
2.2601 -9.1695 2.4018
2.4800 -9.1101 2.4018
2.5822 -8.6565 2.2986
2.7894 -8.5893 2.2986
2.9948 -8.5170 2.2986
3.1982 -8.4396 2.2986
3.3996 -8.3572 2.2986
3.5989 -8.2698 2.2986
3.7958 -8.1775 2.2986
3.9903 -8.0803 2.2986
4.1822 -7.9784 2.2986
0.8122 -1.4625 0.4271
0.8525 -1.4515 0.4299
0.8929 -1.4395 0.4328
0.9333 -1.4267 0.4358
0.9738 -1.4130 0.4389
1.0143 -1.3983 0.4421
1.0548 -1.3828 0.4453
1.0954 -1.3663 0.4486
1.1359 -1.3488 0.4520
1.1764 -1.3304 0.4555
1.2169 -1.3110 0.4591
1.2573 -1.2907 0.4627
1.2976 -1.2693 0.4665
1.3378 -1.2469 0.4703
1.3779 -1.2235 0.4742
1.4178 -1.1991 0.4781
1.4576 -1.1736 0.4822
1.4972 -1.1470 0.4863
1.5365 -1.1194 0.4905
1.5756 -1.0906 0.4948
1.6115 -1.0589 0.4983
1.6273 -1.0139 0.4958
1.6421 -0.9689 0.4934
1.6558 -0.9238 0.4911
1.6684 -0.8788 0.4888
1.6800 -0.8337 0.4865
1.6906 -0.7887 0.4843
1.7002 -0.7437 0.4822
1.7087 -0.6988 0.4801
1.7162 -0.6540 0.4780
1.7228 -0.6093 0.4760
1.7284 -0.5647 0.4740
1.7330 -0.5202 0.4721
1.7367 -0.4759 0.4702
1.7395 -0.4318 0.4684
1.7413 -0.3879 0.4667
1.7422 -0.3441 0.4649
1.7422 -0.3006 0.4633
1.7413 -0.2573 0.4616
1.7396 -0.2142 0.4601
1.7370 -0.1714 0.4586
1.7335 -0.1289 0.4571
1.7292 -0.0866 0.4557
1.7240 -0.0447 0.4543
1.7181 -0.0030 0.4529
1.1747 0.0264 0.3100
1.1614 0.0542 0.3071
1.1480 0.0814 0.3042
1.1344 0.1080 0.3015
1.1206 0.1341 0.2988
1.1068 0.1597 0.2963
1.0928 0.1847 0.2940
1.0787 0.2093 0.2917
1.0645 0.2334 0.2895
1.0501 0.2570 0.2875
1.0356 0.2801 0.2855
1.0210 0.3029 0.2836
1.0062 0.3252 0.2819
0.9914 0.3470 0.2802
0.9764 0.3685 0.2786
0.9593 0.3888 0.2766
0.9361 0.4061 0.2729
0.9133 0.4227 0.2693
0.8908 0.4388 0.2660
0.8686 0.4543 0.2627
0.8467 0.4692 0.2597
0.8251 0.4837 0.2567
2.4706 1.5299 0.7806
2.4384 1.5928 0.7830
2.4052 1.6555 0.7855
2.3711 1.7180 0.7883
2.3361 1.7804 0.7912
2.3001 1.8427 0.7945
2.2632 1.9048 0.7979
2.2252 1.9668 0.8016
2.1862 2.0287 0.8055
2.1462 2.0905 0.8097
2.1052 2.1522 0.8141
2.0630 2.2139 0.8188
2.0198 2.2755 0.8237
1.9754 2.3370 0.8289
1.9298 2.3986 0.8343
1.8831 2.4601 0.8400
1.8351 2.5216 0.8460
1.7780 2.5719 0.8486
1.7191 2.6201 0.8509
4.4689 7.1846 2.2986
4.2918 7.2876 2.2986
4.1124 7.3863 2.2986
3.9308 7.4808 2.2986
3.7471 7.5710 2.2986
3.5614 7.6568 2.2986
3.3738 7.7382 2.2986
3.1844 7.8151 2.2986
2.9933 7.8876 2.2986
2.8006 7.9556 2.2986
2.6065 8.0190 2.2986
2.5026 8.3851 2.3860
2.3136 8.4973 2.4018
2.1066 8.5492 2.4018
1.8986 8.5961 2.4018
1.6896 8.6382 2.4018
1.4797 8.6754 2.4018
1.2690 8.7077 2.4018
1.0576 8.7350 2.4018
0.8456 8.7573 2.4018
0.6332 8.7747 2.4018
0.4205 8.7872 2.4018
0.2075 8.7946 2.4018
-0.0055 8.7971 2.4018
-0.2186 8.7946 2.4018
-0.4316 8.7871 2.4018
-0.6444 8.7746 2.4018
-0.8568 8.7572 2.4018
-1.0687 8.7348 2.4018
-1.2801 8.7074 2.4018
-1.4909 8.6752 2.4018
-1.7009 8.6379 2.4018
-1.9099 8.5958 2.4018
-2.1180 8.5488 2.4018
-2.3249 8.4969 2.4018
-2.5306 8.4402 2.4018
-2.7350 8.3786 2.4018
-2.9380 8.3123 2.4018
-3.1394 8.2412 2.4018
-3.3391 8.1654 2.4018
-3.5371 8.0849 2.4018
-3.7332 7.9998 2.4018
-3.9273 7.9100 2.4018
-4.1193 7.8157 2.4018
-4.3091 7.7169 2.4018
-4.4967 7.6136 2.4018
-4.6818 7.5059 2.4018
-4.8645 7.3938 2.4018
-5.0445 7.2774 2.4018
-5.2218 7.1568 2.4018
-5.3963 7.0319 2.4018
-5.5433 6.8723 2.3912
-5.5492 6.5486 2.3234
-5.6488 6.3481 2.2988
-5.8042 6.2131 2.2988
-5.9565 6.0745 2.2988
-6.1055 5.9321 2.2988
-6.2512 5.7863 2.2988
-6.3935 5.6369 2.2988
-6.5323 5.4841 2.2988
-6.6676 5.3280 2.2988
-6.7992 5.1686 2.2988
-5.8018 4.1929 1.9253
-5.8841 4.0393 1.9183
-7.1714 4.6718 2.2988
-7.2876 4.5002 2.2988
-7.3999 4.3258 2.2988
-7.5080 4.1487 2.2988
-7.6120 3.9689 2.2988
-7.7117 3.7865 2.2988
-7.8071 3.6017 2.2988
-7.8982 3.4145 2.2988
-7.9849 3.2251 2.2988
-8.0670 3.0335 2.2988
-8.1447 2.8399 2.2988
-8.2177 2.6443 2.2988
-8.2861 2.4468 2.2988
-8.3498 2.2477 2.2988
-8.4088 2.0469 2.2988
-8.4630 1.8445 2.2988
-8.5123 1.6408 2.2988
-8.5568 1.4358 2.2988
-8.5964 1.2296 2.2988
-8.6311 1.0224 2.2988
-8.6608 0.8142 2.2988
-8.6854 0.6052 2.2988
-8.7051 0.3955 2.2988
-8.7197 0.1852 2.2988
-8.7292 -0.0256 2.2988
-8.7337 -0.2367 2.2988
-8.7330 -0.4480 2.2988
-8.7273 -0.6595 2.2988
-8.7164 -0.8709 2.2988
-8.7003 -1.0821 2.2988
-8.6792 -1.2930 2.2988
-8.6529 -1.5036 2.2988
-8.6214 -1.7136 2.2988
-8.5849 -1.9230 2.2988
-8.5432 -2.1315 2.2988
-8.4964 -2.3392 2.2988
-8.4446 -2.5458 2.2988
-8.3877 -2.7513 2.2988
-8.3257 -2.9554 2.2988
-8.2587 -3.1582 2.2988
-8.1867 -3.3594 2.2988
-8.1098 -3.5589 2.2988
-8.0279 -3.7566 2.2988
-7.9412 -3.9524 2.2988
-7.8496 -4.1462 2.2988
-7.7532 -4.3378 2.2988
-7.6521 -4.5271 2.2988
-7.5463 -4.7139 2.2988
-7.4358 -4.8983 2.2988
-7.3208 -5.0800 2.2988
-7.2012 -5.2589 2.2988
-7.0772 -5.4350 2.2988
-6.9488 -5.6080 2.2988
-6.5156 -5.5241 2.2988
-6.3845 -5.6833 2.2988
-6.2494 -5.8393 2.2988
-6.1105 -5.9920 2.2988
-5.9677 -6.1413 2.2988
-5.8212 -6.2871 2.2988
-5.6711 -6.4293 2.2988
-5.5518 -6.6088 2.3131
-5.5435 -6.9317 2.3774
-5.4329 -7.1399 2.4018
-5.2618 -7.2725 2.4018
-5.0874 -7.4008 2.4018
-4.9097 -7.5249 2.4018
-4.7290 -7.6445 2.4018
-4.5452 -7.7597 2.4018
-4.3586 -7.8703 2.4018
-4.1692 -7.9763 2.4018
-3.9772 -8.0775 2.4018
-3.7826 -8.1740 2.4018
-3.5857 -8.2657 2.4018
-3.3865 -8.3524 2.4018
-3.1851 -8.4342 2.4018
-2.9816 -8.5109 2.4018
-2.7763 -8.5826 2.4018
-2.5692 -8.6491 2.4018
-2.3605 -8.7105 2.4018
-2.1503 -8.7666 2.4018
-1.9387 -8.8176 2.4018
-1.7258 -8.8632 2.4018
-1.5119 -8.9035 2.4018
-1.2970 -8.9384 2.4018
-1.0812 -8.9680 2.4018
-0.8648 -8.9921 2.4018
-0.6478 -9.0109 2.4018
-0.4304 -9.0243 2.4018
-0.2128 -9.0322 2.4018
0.0050 -9.0346 2.4018
0.2228 -9.0317 2.4018
0.4404 -9.0233 2.4018
0.6578 -9.0094 2.4018
0.8747 -8.9902 2.4018
1.0910 -8.9655 2.4018
1.3067 -8.9355 2.4018
1.5215 -8.9001 2.4018
1.7353 -8.8593 2.4018
1.9480 -8.8132 2.4018
2.1594 -8.7619 2.4018
2.3695 -8.7053 2.4018
2.5059 -8.4017 2.3347
2.6652 -8.2078 2.2986
2.8615 -8.1388 2.2986
3.0559 -8.0650 2.2986
3.2484 -7.9863 2.2986
3.4388 -7.9029 2.2986
3.6270 -7.8149 2.2986
3.8129 -7.7222 2.2986
3.9964 -7.6249 2.2986
0.7820 -1.4083 0.4303
0.8206 -1.3973 0.4331
0.8593 -1.3855 0.4359
0.8980 -1.3728 0.4388
0.9367 -1.3593 0.4418
0.9754 -1.3449 0.4448
1.0141 -1.3295 0.4480
1.0528 -1.3133 0.4512
1.0915 -1.2962 0.4544
1.1301 -1.2782 0.4578
1.1686 -1.2592 0.4612
1.2070 -1.2393 0.4648
1.2454 -1.2184 0.4684
1.2836 -1.1966 0.4720
1.3216 -1.1737 0.4758
1.3595 -1.1499 0.4796
1.3972 -1.1251 0.4835
1.4346 -1.0993 0.4875
1.4719 -1.0725 0.4915
1.5088 -1.0446 0.4956
1.5448 -1.0153 0.4996
1.5604 -0.9724 0.4973
1.5749 -0.9294 0.4950
1.5884 -0.8864 0.4927
1.6009 -0.8434 0.4905
1.6124 -0.8003 0.4883
1.6229 -0.7573 0.4862
1.6324 -0.7142 0.4841
1.6409 -0.6713 0.4821
1.6485 -0.6283 0.4801
1.6551 -0.5855 0.4781
1.6608 -0.5428 0.4762
1.6656 -0.5002 0.4744
1.6695 -0.4577 0.4726
1.6724 -0.4153 0.4708
1.6744 -0.3732 0.4691
1.6756 -0.3312 0.4675
1.6759 -0.2893 0.4658
1.6753 -0.2477 0.4643
1.6739 -0.2063 0.4627
1.6716 -0.1652 0.4613
1.6686 -0.1242 0.4598
1.6646 -0.0836 0.4585
1.6599 -0.0432 0.4571
1.6544 -0.0030 0.4558
1.6481 0.0368 0.4546
1.1302 0.0526 0.3122
1.1174 0.0791 0.3094
1.1045 0.1051 0.3067
1.0914 0.1305 0.3041
1.0781 0.1554 0.3016
1.0647 0.1799 0.2993
1.0512 0.2039 0.2970
1.0376 0.2274 0.2948
1.0238 0.2504 0.2928
1.0098 0.2731 0.2908
0.9958 0.2953 0.2890
0.9816 0.3171 0.2872
0.9672 0.3385 0.2856
0.9527 0.3595 0.2840
0.9356 0.3791 0.2818
0.9133 0.3961 0.2781
0.8914 0.4125 0.2746
0.8697 0.4283 0.2712
0.8483 0.4436 0.2680
0.8272 0.4583 0.2649
2.4444 1.4327 0.7944
2.4137 1.4943 0.7964
2.3820 1.5557 0.7987
2.3495 1.6168 0.8013
2.3160 1.6778 0.8040
2.2817 1.7386 0.8070
2.2463 1.7993 0.8102
2.2101 1.8598 0.8136
2.1728 1.9201 0.8172
2.1345 1.9804 0.8211
2.0952 2.0405 0.8253
2.0549 2.1005 0.8297
2.0135 2.1604 0.8343
1.9711 2.2203 0.8392
1.9275 2.2800 0.8443
1.8827 2.3397 0.8497
1.8368 2.3994 0.8554
1.7897 2.4590 0.8614
1.7414 2.5186 0.8676
1.6860 2.5693 0.8711
1.6274 2.6160 0.8737
4.1116 6.9808 2.2986
3.9398 7.0755 2.2986
3.7659 7.1661 2.2986
3.5900 7.2526 2.2986
3.4121 7.3349 2.2986
3.2324 7.4130 2.2986
3.0510 7.4868 2.2986
2.8679 7.5563 2.2986
2.6833 7.6215 2.2986
2.5120 7.7274 2.3121
2.4137 8.0864 2.4018
2.2167 8.1408 2.4018
2.0185 8.1905 2.4018
1.8192 8.2356 2.4018
1.6189 8.2760 2.4018
1.4178 8.3116 2.4018
1.2159 8.3426 2.4018
1.0133 8.3688 2.4018
0.8103 8.3902 2.4018
0.6067 8.4069 2.4018
0.4029 8.4189 2.4018
0.1988 8.4260 2.4018
-0.0053 8.4284 2.4018
-0.2095 8.4260 2.4018
-0.4136 8.4188 2.4018
-0.6174 8.4068 2.4018
-0.8210 8.3901 2.4018
-1.0240 8.3686 2.4018
-1.2266 8.3423 2.4018
-1.4285 8.3113 2.4018
-1.6297 8.2756 2.4018
-1.8300 8.2352 2.4018
-2.0293 8.1901 2.4018
-2.2276 8.1403 2.4018
-2.4247 8.0859 2.4018
-2.6205 8.0268 2.4018
-2.8149 7.9632 2.4018
-3.0078 7.8950 2.4018
-3.1992 7.8223 2.4018
-3.3888 7.7450 2.4018
-3.5766 7.6634 2.4018
-3.7625 7.5773 2.4018
-3.9464 7.4868 2.4018
-4.1282 7.3920 2.4018
-4.3078 7.2929 2.4018
-4.4851 7.1896 2.4018
-4.6600 7.0821 2.4018
-4.8323 6.9705 2.4018
-5.0021 6.8547 2.4018
-5.1692 6.7350 2.4018
-5.3335 6.6113 2.4018
-5.4949 6.4837 2.4018
-5.5433 6.2286 2.3551
-5.5594 5.9502 2.2988
-5.7051 5.8172 2.2988
-5.8477 5.6808 2.2988
-5.9871 5.5409 2.2988
-6.1232 5.3978 2.2988
-6.2560 5.2513 2.2988
-6.3854 5.1017 2.2988
-6.5113 4.9489 2.2988
-5.7983 4.1895 2.0093
-5.8801 4.0358 2.0018
-6.8671 4.4727 2.2988
-6.9782 4.3083 2.2988
-7.0855 4.1412 2.2988
-7.1888 3.9714 2.2988
-7.2881 3.7992 2.2988
-7.3834 3.6244 2.2988
-7.4745 3.4474 2.2988
-7.5615 3.2681 2.2988
-7.6442 3.0866 2.2988
-7.7226 2.9031 2.2988
-7.7967 2.7177 2.2988
-7.8664 2.5303 2.2988
-7.9316 2.3413 2.2988
-7.9923 2.1506 2.2988
-8.0485 1.9583 2.2988
-8.1001 1.7646 2.2988
-8.1470 1.5695 2.2988
-8.1893 1.3733 2.2988
-8.2269 1.1759 2.2988
-8.2598 0.9775 2.2988
-8.2879 0.7783 2.2988
-8.3113 0.5782 2.2988
-8.3298 0.3775 2.2988
-8.3435 0.1763 2.2988
-8.3523 -0.0254 2.2988
-8.3563 -0.2274 2.2988
-8.3553 -0.4295 2.2988
-8.3495 -0.6318 2.2988
-8.3388 -0.8340 2.2988
-8.3232 -1.0361 2.2988
-8.3026 -1.2378 2.2988
-8.2772 -1.4392 2.2988
-8.2468 -1.6400 2.2988
-8.2116 -1.8402 2.2988
-8.1714 -2.0397 2.2988
-8.1264 -2.2382 2.2988
-8.0765 -2.4357 2.2988
-8.0218 -2.6322 2.2988
-7.9623 -2.8273 2.2988
-7.8980 -3.0211 2.2988
-7.8289 -3.2134 2.2988
-7.7550 -3.4041 2.2988
-7.6765 -3.5930 2.2988
-7.5933 -3.7802 2.2988
-7.5055 -3.9653 2.2988
-7.4131 -4.1484 2.2988
-7.3162 -4.3292 2.2988
-7.2148 -4.5078 2.2988
-7.1090 -4.6839 2.2988
-6.9988 -4.8575 2.2988
-6.8843 -5.0284 2.2988
-6.7655 -5.1965 2.2988
-6.6426 -5.3618 2.2988
-6.2388 -5.2903 2.2988
-6.1131 -5.4426 2.2988
-5.9836 -5.5918 2.2988
-5.8505 -5.7379 2.2988
-5.7345 -5.9021 2.3071
-5.5733 -6.0201 2.2988
-5.5439 -6.2860 2.3472
-5.5190 -6.5707 2.4018
-5.3617 -6.7053 2.4018
-5.2011 -6.8361 2.4018
-5.0371 -6.9629 2.4018
-4.8701 -7.0856 2.4018
-4.6999 -7.2042 2.4018
-4.5268 -7.3186 2.4018
-4.3508 -7.4287 2.4018
-4.1721 -7.5345 2.4018
-3.9908 -7.6358 2.4018
-3.8069 -7.7326 2.4018
-3.6207 -7.8249 2.4018
-3.4321 -7.9125 2.4018
-3.2414 -7.9954 2.4018
-3.0486 -8.0736 2.4018
-2.8538 -8.1469 2.4018
-2.6573 -8.2154 2.4018
-2.4591 -8.2790 2.4018
-2.2593 -8.3377 2.4018
-2.0580 -8.3914 2.4018
-1.8555 -8.4400 2.4018
-1.6518 -8.4836 2.4018
-1.4470 -8.5221 2.4018
-1.2413 -8.5555 2.4018
-1.0348 -8.5838 2.4018
-0.8277 -8.6069 2.4018
-0.6200 -8.6249 2.4018
-0.4120 -8.6376 2.4018
-0.2037 -8.6452 2.4018
0.0048 -8.6476 2.4018
0.2132 -8.6447 2.4018
0.4215 -8.6367 2.4018
0.6295 -8.6235 2.4018
0.8371 -8.6051 2.4018
1.0442 -8.5815 2.4018
1.2506 -8.5528 2.4018
1.4561 -8.5190 2.4018
1.6608 -8.4800 2.4018
1.8644 -8.4360 2.4018
2.0668 -8.3869 2.4018
2.2678 -8.3328 2.4018
2.4675 -8.2737 2.4018
2.5509 -7.8568 2.2986
2.7388 -7.7908 2.2986
2.9249 -7.7203 2.2986
3.1092 -7.6451 2.2986
3.2915 -7.5654 2.2986
3.4717 -7.4812 2.2986
3.6498 -7.3926 2.2986
3.8254 -7.2996 2.2986
3.9987 -7.2023 2.2986
0.7909 -1.3468 0.4360
0.8279 -1.3351 0.4387
0.8650 -1.3226 0.4415
0.9021 -1.3092 0.4444
0.9391 -1.2950 0.4474
0.9762 -1.2800 0.4504
1.0132 -1.2641 0.4535
1.0501 -1.2473 0.4567
1.0870 -1.2296 0.4599
1.1237 -1.2110 0.4633
1.1604 -1.1916 0.4667
1.1969 -1.1712 0.4701
1.2333 -1.1498 0.4737
1.2695 -1.1276 0.4773
1.3055 -1.1044 0.4809
1.3413 -1.0803 0.4847
1.3768 -1.0551 0.4885
1.4121 -1.0291 0.4924
1.4471 -1.0020 0.4964
1.4818 -0.9740 0.5004
1.4984 -0.9340 0.4986
1.5127 -0.8929 0.4964
1.5259 -0.8518 0.4942
1.5382 -0.8106 0.4921
1.5496 -0.7693 0.4900
1.5600 -0.7281 0.4879
1.5694 -0.6869 0.4859
1.5779 -0.6457 0.4839
1.5855 -0.6045 0.4820
1.5922 -0.5634 0.4801
1.5980 -0.5224 0.4783
1.6028 -0.4815 0.4765
1.6068 -0.4407 0.4748
1.6099 -0.4000 0.4731
1.6122 -0.3595 0.4714
1.6135 -0.3191 0.4698
1.6141 -0.2788 0.4682
1.6138 -0.2388 0.4667
1.6126 -0.1990 0.4652
1.6107 -0.1593 0.4638
1.6080 -0.1199 0.4624
1.6044 -0.0807 0.4611
1.6001 -0.0418 0.4598
1.5950 -0.0031 0.4585
1.5891 0.0353 0.4573
1.5825 0.0735 0.4561
1.0882 0.0769 0.3144
1.0759 0.1022 0.3117
1.0634 0.1271 0.3091
1.0508 0.1514 0.3067
1.0379 0.1752 0.3043
1.0250 0.1987 0.3021
1.0119 0.2216 0.2999
0.9986 0.2442 0.2979
0.9852 0.2663 0.2960
0.9716 0.2880 0.2941
0.9579 0.3093 0.2924
0.9441 0.3303 0.2907
0.9301 0.3508 0.2891
0.9130 0.3699 0.2867
0.8915 0.3865 0.2831
0.8704 0.4026 0.2796
0.8495 0.4182 0.2762
0.8288 0.4333 0.2730
2.4184 1.3396 0.8077
2.3891 1.4000 0.8095
2.3590 1.4601 0.8116
2.3279 1.5200 0.8139
2.2960 1.5797 0.8164
2.2632 1.6392 0.8191
2.2294 1.6985 0.8220
2.1947 1.7576 0.8252
2.1591 1.8166 0.8286
2.1225 1.8754 0.8322
2.0849 1.9340 0.8361
2.0463 1.9926 0.8402
2.0067 2.0509 0.8446
1.9661 2.1092 0.8492
1.9243 2.1674 0.8540
1.8815 2.2254 0.8591
1.8376 2.2834 0.8645
1.7925 2.3412 0.8701
1.7463 2.3990 0.8760
1.6988 2.4567 0.8822
1.6502 2.5144 0.8887
1.5964 2.5658 0.8933
3.9450 6.6970 2.2986
3.7802 6.7880 2.2986
3.6134 6.8750 2.2986
3.4446 6.9581 2.2986
3.2740 7.0372 2.2986
3.1016 7.1122 2.2986
2.9275 7.1831 2.2986
2.7519 7.2499 2.2986
2.5748 7.3125 2.2986
2.5026 7.6978 2.4005
2.3162 7.7588 2.4018
2.1271 7.8110 2.4018
1.9369 7.8588 2.4018
1.7457 7.9021 2.4018
1.5535 7.9408 2.4018
1.3605 7.9751 2.4018
1.1668 8.0048 2.4018
0.9724 8.0300 2.4018
0.7775 8.0506 2.4018
0.5822 8.0667 2.4018
0.3866 8.0781 2.4018
0.1908 8.0850 2.4018
-0.0051 8.0873 2.4018
-0.2011 8.0849 2.4018
-0.3969 8.0780 2.4018
-0.5925 8.0665 2.4018
-0.7878 8.0504 2.4018
-0.9827 8.0298 2.4018
-1.1771 8.0046 2.4018
-1.3708 7.9748 2.4018
-1.5639 7.9404 2.4018
-1.7561 7.9016 2.4018
-1.9473 7.8583 2.4018
-2.1376 7.8104 2.4018
-2.3267 7.7581 2.4018
-2.5145 7.7014 2.4018
-2.7011 7.6402 2.4018
-2.8862 7.5747 2.4018
-3.0697 7.5048 2.4018
-3.2516 7.4307 2.4018
-3.4318 7.3522 2.4018
-3.6101 7.2695 2.4018
-3.7865 7.1826 2.4018
-3.9609 7.0915 2.4018
-4.1332 6.9963 2.4018
-4.3032 6.8971 2.4018
-4.4709 6.7938 2.4018
-4.6362 6.6866 2.4018
-4.7990 6.5755 2.4018
-4.9592 6.4605 2.4018
-5.1167 6.3417 2.4018
-5.2714 6.2191 2.4018
-5.4233 6.0929 2.4018
-5.5433 5.9321 2.3894
-5.5476 5.6558 2.3302
-5.6094 5.4485 2.2988
-5.7430 5.3142 2.2988
-5.8735 5.1767 2.2988
-6.0007 5.0361 2.2988
-6.1246 4.8925 2.2988
-6.2452 4.7458 2.2988
-5.7947 4.1862 2.0937
-5.8760 4.0322 2.0858
-6.5860 4.2888 2.2988
-6.6924 4.1310 2.2988
-6.7951 3.9706 2.2988
-6.8939 3.8077 2.2988
-6.9890 3.6424 2.2988
-7.0802 3.4747 2.2988
-7.1673 3.3049 2.2988
-7.2505 3.1328 2.2988
-7.3296 2.9588 2.2988
-7.4046 2.7827 2.2988
-7.4754 2.6048 2.2988
-7.5419 2.4251 2.2988
-7.6042 2.2438 2.2988
-7.6622 2.0609 2.2988
-7.7158 1.8765 2.2988
-7.7650 1.6907 2.2988
-7.8098 1.5037 2.2988
-7.8501 1.3156 2.2988
-7.8859 1.1263 2.2988
-7.9172 0.9361 2.2988
-7.9439 0.7451 2.2988
-7.9660 0.5534 2.2988
-7.9835 0.3610 2.2988
-7.9963 0.1681 2.2988
-8.0045 -0.0252 2.2988
-8.0081 -0.2187 2.2988
-8.0069 -0.4125 2.2988
-8.0011 -0.6063 2.2988
-7.9906 -0.8000 2.2988
-7.9753 -0.9936 2.2988
-7.9554 -1.1869 2.2988
-7.9307 -1.3798 2.2988
-7.9014 -1.5722 2.2988
-7.8674 -1.7640 2.2988
-7.8287 -1.9550 2.2988
-7.7853 -2.1451 2.2988
-7.7373 -2.3343 2.2988
-7.6846 -2.5224 2.2988
-7.6273 -2.7092 2.2988
-7.5655 -2.8948 2.2988
-7.4991 -3.0789 2.2988
-7.4281 -3.2614 2.2988
-7.3527 -3.4423 2.2988
-7.2728 -3.6214 2.2988
-7.1885 -3.7986 2.2988
-7.0998 -3.9739 2.2988
-7.0067 -4.1470 2.2988
-6.9094 -4.3178 2.2988
-6.8079 -4.4864 2.2988
-6.7022 -4.6525 2.2988
-6.5924 -4.8160 2.2988
-6.4785 -4.9769 2.2988
-6.3606 -5.1350 2.2988
-5.9830 -5.0742 2.2988
-5.8623 -5.2201 2.2988
-5.7380 -5.3631 2.2988
-5.6102 -5.5031 2.2988
-5.5483 -5.7114 2.3279
-5.5435 -5.9889 2.3845
-5.4396 -6.1686 2.4018
-5.2920 -6.3012 2.4018
-5.1410 -6.4302 2.4018
-4.9869 -6.5554 2.4018
-4.8296 -6.6769 2.4018
-4.6693 -6.7944 2.4018
-4.5061 -6.9080 2.4018
-4.3401 -7.0176 2.4018
-4.1713 -7.1231 2.4018
-3.9999 -7.2243 2.4018
-3.8260 -7.3214 2.4018
-3.6497 -7.4141 2.4018
-3.4711 -7.5024 2.4018
-3.2902 -7.5863 2.4018
-3.1073 -7.6657 2.4018
-2.9225 -7.7406 2.4018
-2.7358 -7.8108 2.4018
-2.5473 -7.8764 2.4018
-2.3573 -7.9373 2.4018
-2.1658 -7.9935 2.4018
-1.9728 -8.0449 2.4018
-1.7787 -8.0914 2.4018
-1.5834 -8.1332 2.4018
-1.3871 -8.1701 2.4018
-1.1899 -8.2021 2.4018
-0.9920 -8.2291 2.4018
-0.7934 -8.2513 2.4018
-0.5943 -8.2684 2.4018
-0.3949 -8.2806 2.4018
-0.1952 -8.2879 2.4018
0.0046 -8.2902 2.4018
0.2044 -8.2875 2.4018
0.4040 -8.2798 2.4018
0.6034 -8.2671 2.4018
0.8024 -8.2495 2.4018
1.0009 -8.2270 2.4018
1.1988 -8.1995 2.4018
1.3958 -8.1671 2.4018
1.5920 -8.1298 2.4018
1.7872 -8.0876 2.4018
1.9812 -8.0407 2.4018
2.1740 -7.9889 2.4018
2.3654 -7.9323 2.4018
2.5024 -7.7082 2.3522
2.6255 -7.4695 2.2986
2.8040 -7.4019 2.2986
2.9807 -7.3300 2.2986
3.1555 -7.2536 2.2986
3.3283 -7.1730 2.2986
3.4990 -7.0882 2.2986
3.6675 -6.9991 2.2986
3.8337 -6.9060 2.2986
0.7630 -1.2995 0.4387
0.7986 -1.2880 0.4414
0.8342 -1.2756 0.4441
0.8697 -1.2625 0.4469
0.9053 -1.2485 0.4498
0.9408 -1.2337 0.4527
0.9762 -1.2181 0.4557
1.0115 -1.2016 0.4588
1.0468 -1.1843 0.4619
1.0819 -1.1662 0.4651
1.1169 -1.1471 0.4684
1.1518 -1.1272 0.4718
1.1865 -1.1064 0.4752
1.2210 -1.0847 0.4787
1.2553 -1.0621 0.4822
1.2893 -1.0386 0.4858
1.3231 -1.0142 0.4895
1.3566 -0.9888 0.4932
1.3899 -0.9626 0.4971
1.4227 -0.9354 0.5009
1.4408 -0.8982 0.4998
1.4548 -0.8589 0.4977
1.4678 -0.8195 0.4956
1.4800 -0.7800 0.4935
1.4912 -0.7405 0.4915
1.5014 -0.7010 0.4895
1.5108 -0.6614 0.4876
1.5193 -0.6218 0.4857
1.5268 -0.5823 0.4838
1.5335 -0.5428 0.4820
1.5393 -0.5034 0.4802
1.5443 -0.4641 0.4785
1.5484 -0.4248 0.4768
1.5516 -0.3857 0.4752
1.5540 -0.3466 0.4736
1.5556 -0.3078 0.4720
1.5563 -0.2690 0.4705
1.5562 -0.2305 0.4690
1.5554 -0.1921 0.4676
1.5537 -0.1538 0.4662
1.5512 -0.1158 0.4648
1.5480 -0.0780 0.4635
1.5440 -0.0405 0.4623
1.5393 -0.0032 0.4610
1.5338 0.0339 0.4599
1.5276 0.0708 0.4587
1.5206 0.1073 0.4576
1.0486 0.0995 0.3165
1.0367 0.1238 0.3139
1.0246 0.1475 0.3115
1.0123 0.1708 0.3092
0.9998 0.1937 0.3069
0.9872 0.2161 0.3048
0.9745 0.2382 0.3028
0.9616 0.2598 0.3009
0.9485 0.2810 0.2990
0.9352 0.3019 0.2973
0.9219 0.3224 0.2956
0.9083 0.3425 0.2941
0.8912 0.3610 0.2915
0.8706 0.3774 0.2879
0.8502 0.3932 0.2844
0.8300 0.4085 0.2810
0.8101 0.4234 0.2779
2.3647 1.3096 0.8223
2.3359 1.3685 0.8241
2.3064 1.4273 0.8262
2.2759 1.4858 0.8285
2.2445 1.5440 0.8309
2.2123 1.6021 0.8336
2.1792 1.6599 0.8365
2.1451 1.7176 0.8397
2.1101 1.7751 0.8431
2.0742 1.8324 0.8467
2.0372 1.8895 0.8505
1.9993 1.9465 0.8546
1.9604 2.0034 0.8589
1.9205 2.0600 0.8634
1.8795 2.1166 0.8683
1.8375 2.1730 0.8733
1.7943 2.2293 0.8786
1.7501 2.2855 0.8842
1.7047 2.3415 0.8901
1.6581 2.3975 0.8962
1.6103 2.4533 0.9026
1.5613 2.5091 0.9093
3.7904 6.4338 2.2986
3.6321 6.5213 2.2986
3.4718 6.6050 2.2986
3.3097 6.6849 2.2986
3.1458 6.7610 2.2986
2.9802 6.8331 2.2986
2.8130 6.9013 2.2986
2.6443 6.9656 2.2986
2.5075 7.1205 2.3296
2.4061 7.4002 2.4018
2.2257 7.4547 2.4018
2.0440 7.5049 2.4018
1.8612 7.5509 2.4018
1.6775 7.5925 2.4018
1.4928 7.6298 2.4018
1.3074 7.6628 2.4018
1.1212 7.6914 2.4018
0.9344 7.7156 2.4018
0.7472 7.7355 2.4018
0.5595 7.7509 2.4018
0.3715 7.7619 2.4018
0.1833 7.7685 2.4018
-0.0049 7.7707 2.4018
-0.1932 7.7685 2.4018
-0.3814 7.7618 2.4018
-0.5694 7.7507 2.4018
-0.7571 7.7353 2.4018
-0.9443 7.7154 2.4018
-1.1311 7.6911 2.4018
-1.3173 7.6624 2.4018
-1.5028 7.6294 2.4018
-1.6875 7.5920 2.4018
-1.8713 7.5503 2.4018
-2.0541 7.5043 2.4018
-2.2357 7.4540 2.4018
-2.4162 7.3994 2.4018
-2.5955 7.3406 2.4018
-2.7733 7.2776 2.4018
-2.9496 7.2103 2.4018
-3.1244 7.1390 2.4018
-3.2974 7.0635 2.4018
-3.4687 6.9839 2.4018
-3.6382 6.9003 2.4018
-3.8057 6.8127 2.4018
-3.9711 6.7212 2.4018
-4.1344 6.6258 2.4018
-4.2955 6.5264 2.4018
-4.4542 6.4233 2.4018
-4.6105 6.3164 2.4018
-4.7644 6.2058 2.4018
-4.9156 6.0916 2.4018
-5.0642 5.9738 2.4018
-5.2100 5.8524 2.4018
-5.3530 5.7275 2.4018
-5.4930 5.5993 2.4018
-5.5433 5.3834 2.3648
-5.5515 5.1362 2.3133
-5.6418 4.9718 2.2988
-5.7639 4.8366 2.2988
-5.8828 4.6985 2.2988
-5.9985 4.5575 2.2988
-5.7911 4.1828 2.1785
-5.8719 4.0286 2.1702
-6.3254 4.1182 2.2988
-6.4274 3.9666 2.2988
-6.5259 3.8124 2.2988
-6.6207 3.6559 2.2988
-6.7118 3.4971 2.2988
-6.7991 3.3360 2.2988
-6.8827 3.1728 2.2988
-6.9624 3.0075 2.2988
-7.0381 2.8403 2.2988
-7.1099 2.6712 2.2988
-7.1777 2.5003 2.2988
-7.2414 2.3277 2.2988
-7.3010 2.1535 2.2988
-7.3565 1.9778 2.2988
-7.4077 1.8007 2.2988
-7.4547 1.6224 2.2988
-7.4975 1.4428 2.2988
-7.5360 1.2621 2.2988
-7.5701 1.0804 2.2988
-7.5999 0.8978 2.2988
-7.6253 0.7144 2.2988
-7.6463 0.5303 2.2988
-7.6629 0.3457 2.2988
-7.6750 0.1605 2.2988
-7.6826 -0.0250 2.2988
-7.6858 -0.2108 2.2988
-7.6844 -0.3967 2.2988
-7.6786 -0.5827 2.2988
-7.6683 -0.7686 2.2988
-7.6534 -0.9543 2.2988
-7.6341 -1.1398 2.2988
-7.6102 -1.3249 2.2988
-7.5818 -1.5094 2.2988
-7.5489 -1.6934 2.2988
-7.5116 -1.8766 2.2988
-7.4697 -2.0590 2.2988
-7.4234 -2.2404 2.2988
-7.3727 -2.4208 2.2988
-7.3175 -2.6000 2.2988
-7.2580 -2.7779 2.2988
-7.1941 -2.9545 2.2988
-7.1258 -3.1295 2.2988
-7.0532 -3.3030 2.2988
-6.9764 -3.4747 2.2988
-6.8953 -3.6446 2.2988
-6.8101 -3.8125 2.2988
-6.7207 -3.9785 2.2988
-6.6272 -4.1423 2.2988
-6.5296 -4.3038 2.2988
-6.4280 -4.4630 2.2988
-6.3225 -4.6197 2.2988
-6.2132 -4.7739 2.2988
-6.1000 -4.9254 2.2988
-5.7459 -4.8739 2.2988
-5.6299 -5.0139 2.2988
-5.5511 -5.1892 2.3158
-5.5435 -5.4385 2.3653
-5.4972 -5.6596 2.4018
-5.3620 -5.7936 2.4018
-5.2234 -5.9242 2.4018
-5.0815 -6.0514 2.4018
-4.9365 -6.1751 2.4018
-4.7884 -6.2953 2.4018
-4.6373 -6.4118 2.4018
-4.4833 -6.5246 2.4018
-4.3266 -6.6336 2.4018
-4.1671 -6.7387 2.4018
-4.0050 -6.8398 2.4018
-3.8404 -6.9370 2.4018
-3.6733 -7.0300 2.4018
-3.5040 -7.1189 2.4018
-3.3325 -7.2037 2.4018
-3.1588 -7.2841 2.4018
-2.9832 -7.3603 2.4018
-2.8057 -7.4320 2.4018
-2.6264 -7.4994 2.4018
-2.4455 -7.5623 2.4018
-2.2630 -7.6207 2.4018
-2.0791 -7.6746 2.4018
-1.8939 -7.7239 2.4018
-1.7075 -7.7685 2.4018
-1.5200 -7.8086 2.4018
-1.3316 -7.8439 2.4018
-1.1423 -7.8746 2.4018
-0.9523 -7.9006 2.4018
-0.7617 -7.9218 2.4018
-0.5706 -7.9383 2.4018
-0.3791 -7.9500 2.4018
-0.1874 -7.9569 2.4018
0.0044 -7.9591 2.4018
0.1962 -7.9565 2.4018
0.3878 -7.9492 2.4018
0.5792 -7.9370 2.4018
0.7703 -7.9202 2.4018
0.9608 -7.8985 2.4018
1.1508 -7.8722 2.4018
1.3400 -7.8411 2.4018
1.5283 -7.8054 2.4018
1.7157 -7.7650 2.4018
1.9020 -7.7199 2.4018
2.0870 -7.6702 2.4018
2.2708 -7.6160 2.4018
2.4531 -7.5572 2.4018
2.5206 -7.1718 2.2986
2.7115 -7.1587 2.3153
2.8616 -7.0380 2.2986
3.0295 -6.9648 2.2986
3.1955 -6.8875 2.2986
3.3594 -6.8061 2.2986
3.5212 -6.7207 2.2986
3.6808 -6.6314 2.2986
0.7369 -1.2552 0.4413
0.7711 -1.2438 0.4439
0.8053 -1.2316 0.4465
0.8395 -1.2187 0.4492
0.8736 -1.2049 0.4520
0.9076 -1.1904 0.4549
0.9416 -1.1751 0.4578
0.9755 -1.1590 0.4607
1.0092 -1.1420 0.4638
1.0429 -1.1242 0.4669
1.0764 -1.1056 0.4701
1.1097 -1.0862 0.4733
1.1428 -1.0659 0.4766
1.1758 -1.0447 0.4799
1.2085 -1.0227 0.4834
1.2409 -0.9998 0.4869
1.2731 -0.9760 0.4904
1.3050 -0.9514 0.4940
1.3366 -0.9259 0.4977
1.3679 -0.8995 0.5014
1.3871 -0.8649 0.5010
1.4008 -0.8272 0.4989
1.4137 -0.7894 0.4969
1.4256 -0.7515 0.4949
1.4366 -0.7136 0.4929
1.4468 -0.6756 0.4910
1.4561 -0.6376 0.4892
1.4645 -0.5996 0.4873
1.4720 -0.5616 0.4855
1.4787 -0.5236 0.4838
1.4845 -0.4857 0.4820
1.4895 -0.4478 0.4804
1.4937 -0.4100 0.4787
1.4970 -0.3723 0.4771
1.4995 -0.3347 0.4756
1.5012 -0.2972 0.4740
1.5022 -0.2598 0.4726
1.5023 -0.2226 0.4711
1.5017 -0.1856 0.4697
1.5002 -0.1487 0.4684
1.4981 -0.1120 0.4671
1.4951 -0.0755 0.4658
1.4915 -0.0393 0.4646
1.4871 -0.0032 0.4634
1.4819 0.0326 0.4623
1.4760 0.0682 0.4612
1.4695 0.1035 0.4601
1.4622 0.1386 0.4591
1.0111 0.1206 0.3185
0.9995 0.1438 0.3161
0.9877 0.1666 0.3138
0.9758 0.1889 0.3116
0.9636 0.2108 0.3095
0.9513 0.2324 0.3075
0.9389 0.2536 0.3056
0.9263 0.2743 0.3037
0.9135 0.2948 0.3020
0.9005 0.3148 0.3004
0.8874 0.3346 0.2988
0.8704 0.3524 0.2961
0.8505 0.3686 0.2925
0.8308 0.3842 0.2890
0.8113 0.3992 0.2857
2.3403 1.2228 0.8348
2.3129 1.2806 0.8364
2.2847 1.3383 0.8382
2.2557 1.3956 0.8402
2.2258 1.4528 0.8425
2.1950 1.5097 0.8449
2.1634 1.5664 0.8476
2.1308 1.6228 0.8505
2.0974 1.6791 0.8536
2.0630 1.7352 0.8570
2.0277 1.7911 0.8605
1.9914 1.8468 0.8643
1.9542 1.9023 0.8684
1.9160 1.9576 0.8727
1.8767 2.0128 0.8772
1.8365 2.0678 0.8819
1.7952 2.1227 0.8870
1.7528 2.1774 0.8922
1.7093 2.2319 0.8978
4.2348 5.8162 2.2986
4.0910 5.9146 2.2986
3.9450 6.0095 2.2986
3.7968 6.1010 2.2986
3.6465 6.1888 2.2986
3.4943 6.2731 2.2986
3.3402 6.3537 2.2986
3.1842 6.4307 2.2986
3.0266 6.5039 2.2986
2.8673 6.5734 2.2986
2.7144 6.6587 2.3054
2.5441 6.7010 2.2986
2.4874 7.0626 2.4018
2.3150 7.1192 2.4018
2.1414 7.1717 2.4018
1.9666 7.2201 2.4018
1.7908 7.2643 2.4018
1.6140 7.3045 2.4018
1.4363 7.3404 2.4018
1.2579 7.3721 2.4018
1.0788 7.3997 2.4018
0.8991 7.4230 2.4018
0.7189 7.4421 2.4018
0.5383 7.4570 2.4018
0.3574 7.4676 2.4018
0.1764 7.4739 2.4018
-0.0048 7.4760 2.4018
-0.1859 7.4739 2.4018
-0.3670 7.4675 2.4018
-0.5479 7.4568 2.4018
-0.7284 7.4419 2.4018
-0.9086 7.4227 2.4018
-1.0884 7.3994 2.4018
-1.2675 7.3717 2.4018
-1.4460 7.3399 2.4018
-1.6236 7.3039 2.4018
-1.8005 7.2638 2.4018
-1.9763 7.2194 2.4018
-2.1511 7.1709 2.4018
-2.3247 7.1184 2.4018
-2.4971 7.0617 2.4018
-2.6682 7.0010 2.4018
-2.8378 6.9363 2.4018
-3.0059 6.8675 2.4018
-3.1724 6.7948 2.4018
-3.3372 6.7182 2.4018
-3.5002 6.6377 2.4018
-3.6612 6.5534 2.4018
-3.8204 6.4652 2.4018
-3.9774 6.3733 2.4018
-4.1323 6.2776 2.4018
-4.2849 6.1783 2.4018
-4.4352 6.0754 2.4018
-4.5831 5.9689 2.4018
-4.7285 5.8589 2.4018
-4.8714 5.7455 2.4018
-5.0116 5.6286 2.4018
-5.1490 5.5084 2.4018
-5.2836 5.3850 2.4018
-5.4153 5.2583 2.4018
-5.5433 5.1278 2.4015
-5.5434 4.8842 2.3483
-5.5539 4.6596 2.3030
-5.6580 4.5181 2.2988
-5.7691 4.3825 2.2988
-5.7875 4.1794 2.2637
-5.8678 4.0250 2.2550
-6.0831 3.9597 2.2988
-6.1810 3.8138 2.2988
-6.2756 3.6654 2.2988
-6.3666 3.5148 2.2988
-6.4540 3.3620 2.2988
-6.5379 3.2070 2.2988
-6.6181 3.0500 2.2988
-6.6945 2.8910 2.2988
-6.7672 2.7302 2.2988
-6.8360 2.5675 2.2988
-6.9010 2.4031 2.2988
-6.9621 2.2371 2.2988
-7.0192 2.0696 2.2988
-7.0723 1.9007 2.2988
-7.1214 1.7304 2.2988
-7.1665 1.5588 2.2988
-7.2074 1.3861 2.2988
-7.2442 1.2124 2.2988
-7.2768 1.0377 2.2988
-7.3052 0.8622 2.2988
-7.3294 0.6859 2.2988
-7.3494 0.5089 2.2988
-7.3651 0.3314 2.2988
-7.3765 0.1535 2.2988
-7.3837 -0.0248 2.2988
-7.3865 -0.2034 2.2988
-7.3850 -0.3820 2.2988
-7.3792 -0.5608 2.2988
-7.3691 -0.7394 2.2988
-7.3546 -0.9179 2.2988
-7.3358 -1.0960 2.2988
-7.3126 -1.2739 2.2988
-7.2852 -1.4512 2.2988
-7.2534 -1.6279 2.2988
-7.2173 -1.8039 2.2988
-7.1769 -1.9791 2.2988
-7.1322 -2.1533 2.2988
-7.0833 -2.3266 2.2988
-7.0301 -2.4987 2.2988
-6.9727 -2.6695 2.2988
-6.9111 -2.8391 2.2988
-6.8453 -3.0072 2.2988
-6.7755 -3.1737 2.2988
-6.7015 -3.3386 2.2988
-6.6234 -3.5017 2.2988
-6.5414 -3.6629 2.2988
-6.4553 -3.8222 2.2988
-6.3654 -3.9794 2.2988
-6.2715 -4.1345 2.2988
-6.1738 -4.2873 2.2988
-6.0724 -4.4377 2.2988
-5.9672 -4.5857 2.2988
-5.8583 -4.7311 2.2988
-5.5525 -4.7106 2.3100
-5.5435 -4.9378 2.3539
-5.5363 -5.1762 2.4018
-5.4128 -5.3110 2.4018
-5.2859 -5.4428 2.4018
-5.1557 -5.5715 2.4018
-5.0223 -5.6970 2.4018
-4.8858 -5.8192 2.4018
-4.7463 -5.9381 2.4018
-4.6039 -6.0535 2.4018
-4.4585 -6.1654 2.4018
-4.3104 -6.2738 2.4018
-4.1596 -6.3784 2.4018
-4.0062 -6.4794 2.4018
-3.8503 -6.5766 2.4018
-3.6920 -6.6699 2.4018
-3.5314 -6.7592 2.4018
-3.3686 -6.8446 2.4018
-3.2037 -6.9260 2.4018
-3.0367 -7.0033 2.4018
-2.8678 -7.0764 2.4018
-2.6972 -7.1453 2.4018
-2.5248 -7.2100 2.4018
-2.3509 -7.2705 2.4018
-2.1754 -7.3265 2.4018
-1.9986 -7.3783 2.4018
-1.8206 -7.4256 2.4018
-1.6414 -7.4685 2.4018
-1.4612 -7.5069 2.4018
-1.2800 -7.5409 2.4018
-1.0980 -7.5703 2.4018
-0.9154 -7.5953 2.4018
-0.7322 -7.6157 2.4018
-0.5485 -7.6315 2.4018
-0.3644 -7.6427 2.4018
-0.1802 -7.6494 2.4018
0.0042 -7.6515 2.4018
0.1886 -7.6490 2.4018
0.3728 -7.6420 2.4018
0.5568 -7.6303 2.4018
0.7404 -7.6141 2.4018
0.9236 -7.5934 2.4018
1.1062 -7.5681 2.4018
1.2881 -7.5382 2.4018
1.4691 -7.5039 2.4018
1.6492 -7.4651 2.4018
1.8283 -7.4218 2.4018
2.0062 -7.3742 2.4018
2.1829 -7.3221 2.4018
2.3581 -7.2657 2.4018
2.5024 -7.1209 2.3738
2.5878 -6.8329 2.2986
2.7510 -6.7667 2.2986
2.9124 -6.6964 2.2986
3.0720 -6.6221 2.2986
3.2296 -6.5440 2.2986
3.3852 -6.4620 2.2986
3.5387 -6.3762 2.2986
3.6900 -6.2866 2.2986
0.7452 -1.2022 0.4462
0.7782 -1.1903 0.4488
0.8110 -1.1775 0.4514
0.8438 -1.1641 0.4541
0.8765 -1.1498 0.4569
0.9092 -1.1348 0.4597
0.9417 -1.1190 0.4626
0.9741 -1.1024 0.4655
1.0063 -1.0850 0.4685
1.0384 -1.0668 0.4716
1.0703 -1.0478 0.4747
1.1020 -1.0279 0.4779
1.1335 -1.0073 0.4812
1.1648 -0.9858 0.4845
1.1958 -0.9636 0.4878
1.2265 -0.9404 0.4913
1.2569 -0.9165 0.4947
1.2870 -0.8917 0.4983
1.3168 -0.8661 0.5019
1.3370 -0.8338 0.5021
1.3504 -0.7976 0.5001
1.3630 -0.7613 0.4981
1.3747 -0.7249 0.4962
1.3856 -0.6884 0.4943
1.3956 -0.6519 0.4924
1.4048 -0.6153 0.4906
1.4131 -0.5787 0.4888
1.4206 -0.5421 0.4871
1.4273 -0.5055 0.4854
1.4331 -0.4690 0.4837
1.4381 -0.4325 0.4821
1.4423 -0.3961 0.4805
1.4458 -0.3597 0.4790
1.4484 -0.3234 0.4774
1.4503 -0.2872 0.4760
1.4513 -0.2512 0.4745
1.4517 -0.2153 0.4731
1.4512 -0.1795 0.4718
1.4500 -0.1439 0.4705
1.4481 -0.1084 0.4692
1.4454 -0.0732 0.4680
1.4420 -0.0381 0.4668
1.4379 -0.0033 0.4656
1.4331 0.0314 0.4645
1.4276 0.0658 0.4635
1.4213 0.1000 0.4624
5.9660 0.5648 1.9463
5.9354 0.7070 1.9428
0.9755 0.1402 0.3205
0.9642 0.1625 0.3182
0.9527 0.1843 0.3160
0.9410 0.2058 0.3140
0.9291 0.2269 0.3120
0.9171 0.2476 0.3101
0.9049 0.2679 0.3083
0.8926 0.2879 0.3065
0.8800 0.3076 0.3049
0.8674 0.3269 0.3034
0.8504 0.3442 0.3005
0.8312 0.3601 0.2969
0.8122 0.3754 0.2934
0.7934 0.3903 0.2902
5.3753 2.8078 1.9915
5.3369 2.9543 2.0045
5.2933 3.0998 2.0169
5.2481 3.2464 2.0303
5.2772 3.4437 2.0745
5.2744 3.6268 2.1085
5.2710 3.8157 2.1447
5.3114 4.0444 2.2016
5.4385 4.3531 2.2986
5.3286 4.4811 2.2986
5.2157 4.6063 2.2986
5.1000 4.7287 2.2986
4.9814 4.8483 2.2986
4.8601 4.9650 2.2986
4.7361 5.0787 2.2986
4.6096 5.1895 2.2986
4.4805 5.2971 2.2986
4.3489 5.4017 2.2986
4.2150 5.5030 2.2986
4.0787 5.6011 2.2986
3.9403 5.6959 2.2986
3.7996 5.7874 2.2986
3.6570 5.8756 2.2986
3.5123 5.9603 2.2986
3.3657 6.0415 2.2986
3.2173 6.1192 2.2986
3.0671 6.1934 2.2986
2.9153 6.2640 2.2986
2.7619 6.3310 2.2986
2.6070 6.3944 2.2986
2.5029 6.5916 2.3476
2.3960 6.8024 2.4018
2.2300 6.8570 2.4018
2.0628 6.9076 2.4018
1.8944 6.9542 2.4018
1.7250 6.9969 2.4018
1.5547 7.0356 2.4018
1.3836 7.0703 2.4018
1.2117 7.1009 2.4018
1.0392 7.1274 2.4018
0.8661 7.1499 2.4018
0.6925 7.1683 2.4018
0.5186 7.1826 2.4018
0.3443 7.1929 2.4018
0.1699 7.1990 2.4018
-0.0046 7.2010 2.4018
-0.1791 7.1989 2.4018
-0.3535 7.1928 2.4018
-0.5278 7.1825 2.4018
-0.7017 7.1681 2.4018
-0.8753 7.1496 2.4018
-1.0484 7.1271 2.4018
-1.2210 7.1004 2.4018
-1.3929 7.0698 2.4018
-1.5640 7.0350 2.4018
-1.7344 6.9963 2.4018
-1.9038 6.9535 2.4018
-2.0721 6.9068 2.4018
-2.2394 6.8561 2.4018
-2.4054 6.8015 2.4018
-2.5702 6.7429 2.4018
-2.7335 6.6805 2.4018
-2.8954 6.6142 2.4018
-3.0557 6.5441 2.4018
-3.2144 6.4703 2.4018
-3.3714 6.3927 2.4018
-3.5265 6.3113 2.4018
-3.6797 6.2263 2.4018
-3.8309 6.1377 2.4018
-3.9800 6.0455 2.4018
-4.1270 5.9498 2.4018
-4.2717 5.8506 2.4018
-4.4141 5.7479 2.4018
-4.5540 5.6419 2.4018
-4.6915 5.5326 2.4018
-4.8265 5.4199 2.4018
-4.9587 5.3041 2.4018
-5.0883 5.1851 2.4018
-5.2150 5.0630 2.4018
-5.3389 4.9379 2.4018
-5.4599 4.8098 2.4018
-5.5433 4.6499 2.3870
-5.5454 4.4275 2.3397
-5.5552 4.2192 2.2988
-5.6590 4.0859 2.2988
-5.7597 3.9501 2.2988
-5.8571 3.8119 2.2988
-5.9513 3.6713 2.2988
-6.0422 3.5284 2.2988
-6.1297 3.3833 2.2988
-6.2138 3.2361 2.2988
-6.2944 3.0868 2.2988
-6.3714 2.9356 2.2988
-6.4449 2.7824 2.2988
-6.5147 2.6275 2.2988
-6.5808 2.4709 2.2988
-6.6432 2.3126 2.2988
-6.7018 2.1527 2.2988
-6.7566 1.9914 2.2988
-6.8076 1.8287 2.2988
-6.8547 1.6648 2.2988
-6.8979 1.4996 2.2988
-6.9371 1.3334 2.2988
-6.9723 1.1662 2.2988
-7.0035 0.9980 2.2988
-7.0307 0.8290 2.2988
-7.0538 0.6593 2.2988
-7.0729 0.4890 2.2988
-7.0878 0.3182 2.2988
-7.0986 0.1469 2.2988
-7.1053 -0.0246 2.2988
-7.1078 -0.1964 2.2988
-7.1062 -0.3684 2.2988
-7.1004 -0.5403 2.2988
-7.0905 -0.7122 2.2988
-7.0764 -0.8839 2.2988
-7.0581 -1.0553 2.2988
-7.0357 -1.2264 2.2988
-7.0091 -1.3969 2.2988
-6.9783 -1.5669 2.2988
-6.9434 -1.7362 2.2988
-6.9043 -1.9047 2.2988
-6.8612 -2.0723 2.2988
-6.8139 -2.2389 2.2988
-6.7626 -2.4044 2.2988
-6.7072 -2.5687 2.2988
-6.6478 -2.7317 2.2988
-6.5844 -2.8933 2.2988
-6.5170 -3.0534 2.2988
-6.4457 -3.2119 2.2988
-6.3705 -3.3687 2.2988
-6.2914 -3.5237 2.2988
-6.2085 -3.6768 2.2988
-6.1219 -3.8280 2.2988
-6.0315 -3.9770 2.2988
-5.9374 -4.1239 2.2988
-5.8397 -4.2684 2.2988
-5.7384 -4.4107 2.2988
-5.6336 -4.5504 2.2988
-5.5435 -4.7038 2.3955
-5.4459 -4.8516 2.4018
-5.3301 -4.9842 2.4018
-5.2110 -5.1139 2.4018
-5.0888 -5.2407 2.4018
-4.9634 -5.3645 2.4018
-4.8349 -5.4852 2.4018
-4.7034 -5.6028 2.4018
-4.5691 -5.7171 2.4018
-4.4318 -5.8281 2.4018
-4.2919 -5.9358 2.4018
-4.1493 -6.0400 2.4018
-4.0040 -6.1406 2.4018
-3.8563 -6.2377 2.4018
-3.7062 -6.3312 2.4018
-3.5538 -6.4209 2.4018
-3.3992 -6.5069 2.4018
-3.2424 -6.5890 2.4018
-3.0836 -6.6672 2.4018
-2.9229 -6.7416 2.4018
-2.7603 -6.8119 2.4018
-2.5960 -6.8782 2.4018
-2.4301 -6.9404 2.4018
-2.2627 -6.9985 2.4018
-2.0938 -7.0524 2.4018
-1.9236 -7.1021 2.4018
-1.7523 -7.1477 2.4018
-1.5798 -7.1889 2.4018
-1.4063 -7.2259 2.4018
-1.2319 -7.2585 2.4018
-1.0568 -7.2868 2.4018
-0.8810 -7.3108 2.4018
-0.7047 -7.3304 2.4018
-0.5279 -7.3456 2.4018
-0.3508 -7.3564 2.4018
-0.1734 -7.3629 2.4018
0.0040 -7.3649 2.4018
0.1815 -7.3625 2.4018
0.3588 -7.3557 2.4018
0.5359 -7.3445 2.4018
0.7126 -7.3290 2.4018
0.8889 -7.3090 2.4018
1.0646 -7.2847 2.4018
1.2397 -7.2560 2.4018
1.4140 -7.2230 2.4018
1.5873 -7.1857 2.4018
1.7597 -7.1441 2.4018
1.9309 -7.0982 2.4018
2.1010 -7.0482 2.4018
2.2697 -6.9939 2.4018
2.4370 -6.9355 2.4018
2.5105 -6.6296 2.3168
2.6479 -6.5138 2.2986
2.8032 -6.4462 2.2986
2.9569 -6.3748 2.2986
3.1086 -6.2997 2.2986
3.2585 -6.2208 2.2986
3.4062 -6.1383 2.2986
3.5519 -6.0522 2.2986
0.7209 -1.1631 0.4484
0.7526 -1.1514 0.4509
0.7842 -1.1388 0.4535
0.8158 -1.1256 0.4561
0.8473 -1.1116 0.4588
0.8787 -1.0969 0.4615
0.9099 -1.0814 0.4643
0.9410 -1.0651 0.4672
0.9720 -1.0481 0.4701
1.0027 -1.0303 0.4730
1.0333 -1.0117 0.4761
1.0637 -0.9924 0.4792
1.0939 -0.9723 0.4823
1.1238 -0.9514 0.4855
1.1535 -0.9296 0.4888
1.1828 -0.9071 0.4921
1.2119 -0.8838 0.4954
1.2406 -0.8597 0.4988
1.2690 -0.8348 0.5023
1.2900 -0.8047 0.5031
1.3032 -0.7699 0.5011
1.3155 -0.7350 0.4992
1.3271 -0.6999 0.4974
1.3378 -0.6648 0.4956
1.3476 -0.6296 0.4938
1.3567 -0.5944 0.4920
1.3649 -0.5591 0.4903
1.3723 -0.5239 0.4886
1.3790 -0.4886 0.4869
1.3848 -0.4534 0.4853
1.3898 -0.4181 0.4837
1.3941 -0.3830 0.4822
1.3976 -0.3479 0.4807
1.4003 -0.3128 0.4792
1.4023 -0.2779 0.4778
1.4035 -0.2431 0.4764
1.4040 -0.2084 0.4750
1.4037 -0.1738 0.4737
1.4027 -0.1393 0.4725
1.4010 -0.1051 0.4712
1.3986 -0.0710 0.4700
1.3954 -0.0370 0.4689
1.3916 -0.0033 0.4677
1.3871 0.0302 0.4667
1.3818 0.0636 0.4656
1.3759 0.0967 0.4646
6.0260 0.5698 2.0403
5.9949 0.7135 2.0364
5.9679 0.8570 2.0352
0.9415 0.1586 0.3225
0.9305 0.1799 0.3203
0.9192 0.2009 0.3183
0.9078 0.2216 0.3163
0.8962 0.2418 0.3144
0.8844 0.2618 0.3126
0.8725 0.2813 0.3109
0.8603 0.3006 0.3093
0.8480 0.3195 0.3078
0.8311 0.3363 0.3047
0.8126 0.3519 0.3011
0.7942 0.3670 0.2977
5.2730 2.5933 2.0009
5.2914 2.7633 2.0339
5.2670 2.9149 2.0523
5.2236 3.0583 2.0649
5.1786 3.2027 2.0783
5.2533 3.4274 2.1423
5.2501 3.6095 2.1772
5.2491 3.7991 2.2156
5.3002 4.0352 2.2790
5.2429 4.1958 2.2986
5.1370 4.3192 2.2986
5.0283 4.4400 2.2986
4.9168 4.5581 2.2986
4.8026 4.6735 2.2986
4.6857 4.7861 2.2986
4.5663 4.8959 2.2986
4.4443 5.0027 2.2986
4.3199 5.1066 2.2986
4.1931 5.2074 2.2986
4.0640 5.3052 2.2986
3.9327 5.3999 2.2986
3.7993 5.4914 2.2986
3.6637 5.5797 2.2986
3.5262 5.6647 2.2986
3.3867 5.7465 2.2986
3.2454 5.8249 2.2986
3.1023 5.8999 2.2986
2.9575 5.9715 2.2986
2.8112 6.0396 2.2986
2.6633 6.1043 2.2986
2.5151 6.1684 2.2997
2.4693 6.5025 2.4018
2.3105 6.5590 2.4018
2.1504 6.6116 2.4018
1.9892 6.6605 2.4018
1.8269 6.7055 2.4018
1.6635 6.7467 2.4018
1.4993 6.7840 2.4018
1.3343 6.8175 2.4018
1.1685 6.8470 2.4018
1.0021 6.8727 2.4018
0.8352 6.8944 2.4018
0.6678 6.9121 2.4018
0.5001 6.9260 2.4018
0.3320 6.9358 2.4018
0.1638 6.9418 2.4018
-0.0044 6.9437 2.4018
-0.1727 6.9417 2.4018
-0.3409 6.9357 2.4018
-0.5090 6.9258 2.4018
-0.6767 6.9119 2.4018
-0.8441 6.8941 2.4018
-1.0111 6.8723 2.4018
-1.1775 6.8466 2.4018
-1.3432 6.8170 2.4018
-1.5083 6.7835 2.4018
-1.6725 6.7461 2.4018
-1.8359 6.7048 2.4018
-1.9982 6.6597 2.4018
-2.1595 6.6107 2.4018
-2.3196 6.5580 2.4018
-2.4784 6.5015 2.4018
-2.6359 6.4412 2.4018
-2.7920 6.3773 2.4018
-2.9466 6.3096 2.4018
-3.0996 6.2383 2.4018
-3.2509 6.1634 2.4018
-3.4004 6.0849 2.4018
-3.5481 6.0029 2.4018
-3.6939 5.9174 2.4018
-3.8376 5.8284 2.4018
-3.9792 5.7360 2.4018
-4.1187 5.6403 2.4018
-4.2559 5.5412 2.4018
-4.3908 5.4389 2.4018
-4.5233 5.3334 2.4018
-4.6533 5.2247 2.4018
-4.7808 5.1130 2.4018
-4.9056 4.9982 2.4018
-5.0277 4.8804 2.4018
-5.1471 4.7597 2.4018
-5.2636 4.6361 2.4018
-5.3772 4.5097 2.4018
-5.4878 4.3806 2.4018
-5.5433 4.2094 2.3795
-5.5461 4.0036 2.3371
-5.5547 3.8088 2.2998
-5.6459 3.6737 2.2988
-5.7366 3.5381 2.2988
-5.8241 3.4003 2.2988
-5.9083 3.2604 2.2988
-5.9892 3.1184 2.2988
-6.0668 2.9745 2.2988
-6.1409 2.8286 2.2988
-6.2115 2.6810 2.2988
-6.2787 2.5316 2.2988
-6.3423 2.3806 2.2988
-6.4023 2.2279 2.2988
-6.4586 2.0738 2.2988
-6.5113 1.9184 2.2988
-6.5603 1.7616 2.2988
-6.6055 1.6035 2.2988
-6.6469 1.4443 2.2988
-6.6846 1.2841 2.2988
-6.7184 1.1229 2.2988
-6.7483 0.9609 2.2988
-6.7743 0.7980 2.2988
-6.7964 0.6345 2.2988
-6.8146 0.4704 2.2988
-6.8288 0.3058 2.2988
-6.8391 0.1408 2.2988
-6.8454 -0.0245 2.2988
-6.8476 -0.1900 2.2988
-6.8459 -0.3556 2.2988
-6.8402 -0.5213 2.2988
-6.8304 -0.6868 2.2988
-6.8167 -0.8522 2.2988
-6.7989 -1.0173 2.2988
-6.7771 -1.1821 2.2988
-6.7513 -1.3463 2.2988
-6.7215 -1.5100 2.2988
-6.6877 -1.6730 2.2988
-6.6500 -1.8352 2.2988
-6.6083 -1.9966 2.2988
-6.5626 -2.1570 2.2988
-6.5130 -2.3164 2.2988
-6.4595 -2.4746 2.2988
-6.4022 -2.6315 2.2988
-6.3410 -2.7871 2.2988
-6.2759 -2.9412 2.2988
-6.2071 -3.0938 2.2988
-6.1346 -3.2447 2.2988
-6.0583 -3.3939 2.2988
-5.9783 -3.5413 2.2988
-5.8947 -3.6867 2.2988
-5.8076 -3.8301 2.2988
-5.7347 -3.9839 2.3059
-5.6227 -4.1106 2.2988
-5.5524 -4.2685 2.3101
-5.5435 -4.4784 2.3494
-5.3574 -4.5467 2.4018
-5.2490 -4.6770 2.4018
-5.1373 -4.8046 2.4018
-5.0225 -4.9296 2.4018
-4.9045 -5.0517 2.4018
-4.7836 -5.1709 2.4018
-4.6597 -5.2872 2.4018
-4.5329 -5.4004 2.4018
-4.4034 -5.5105 2.4018
-4.2711 -5.6175 2.4018
-4.1361 -5.7211 2.4018
-3.9986 -5.8215 2.4018
-3.8586 -5.9184 2.4018
-3.7163 -6.0119 2.4018
-3.5716 -6.1019 2.4018
-3.4246 -6.1883 2.4018
-3.2756 -6.2710 2.4018
-3.1245 -6.3501 2.4018
-2.9714 -6.4254 2.4018
-2.8165 -6.4970 2.4018
-2.6599 -6.5647 2.4018
-2.5015 -6.6285 2.4018
-2.3416 -6.6884 2.4018
-2.1803 -6.7443 2.4018
-2.0176 -6.7963 2.4018
-1.8536 -6.8441 2.4018
-1.6884 -6.8880 2.4018
-1.5222 -6.9277 2.4018
-1.3551 -6.9633 2.4018
-1.1871 -6.9947 2.4018
-1.0183 -7.0220 2.4018
-0.8489 -7.0450 2.4018
-0.6790 -7.0639 2.4018
-0.5086 -7.0786 2.4018
-0.3380 -7.0890 2.4018
-0.1671 -7.0952 2.4018
0.0039 -7.0971 2.4018
0.1748 -7.0948 2.4018
0.3457 -7.0883 2.4018
0.5163 -7.0775 2.4018
0.6866 -7.0625 2.4018
0.8565 -7.0433 2.4018
1.0258 -7.0199 2.4018
1.1945 -6.9923 2.4018
1.3624 -6.9605 2.4018
1.5295 -6.9246 2.4018
1.6956 -6.8846 2.4018
1.8606 -6.8405 2.4018
2.0244 -6.7923 2.4018
2.1870 -6.7400 2.4018
2.3482 -6.6838 2.4018
2.5024 -6.6089 2.3965
2.5515 -6.2775 2.2986
2.7133 -6.2401 2.3088
2.8493 -6.1437 2.2986
2.9956 -6.0714 2.2986
3.1400 -5.9954 2.2986
3.2824 -5.9160 2.2986
3.4228 -5.8331 2.2986
0.6979 -1.1262 0.4505
0.7285 -1.1146 0.4529
0.7590 -1.1023 0.4554
0.7894 -1.0893 0.4580
0.8197 -1.0756 0.4606
0.8499 -1.0612 0.4632
0.8800 -1.0460 0.4659
0.9099 -1.0301 0.4687
0.9397 -1.0134 0.4715
0.9692 -0.9960 0.4744
0.9986 -0.9779 0.4773
1.0278 -0.9590 0.4803
1.0567 -0.9394 0.4834
1.0854 -0.9190 0.4865
1.1138 -0.8978 0.4896
1.1419 -0.8759 0.4928
1.1697 -0.8532 0.4961
1.1972 -0.8298 0.4994
1.2243 -0.8055 0.5027
1.2459 -0.7773 0.5040
1.2588 -0.7438 0.5022
1.2709 -0.7102 0.5003
1.2823 -0.6765 0.4985
1.2928 -0.6426 0.4967
1.3025 -0.6087 0.4950
1.3114 -0.5747 0.4933
1.3196 -0.5407 0.4916
1.3269 -0.5067 0.4900
1.3335 -0.4726 0.4884
1.3393 -0.4386 0.4868
1.3444 -0.4046 0.4853
1.3487 -0.3706 0.4838
1.3522 -0.3367 0.4823
1.3550 -0.3029 0.4809
1.3571 -0.2691 0.4795
1.3584 -0.2354 0.4781
1.3590 -0.2018 0.4768
1.3589 -0.1684 0.4755
1.3581 -0.1351 0.4743
1.3566 -0.1019 0.4731
1.3543 -0.0689 0.4719
1.3514 -0.0360 0.4708
1.3478 -0.0033 0.4697
1.3436 0.0291 0.4687
1.3386 0.0614 0.4676
1.3331 0.0935 0.4667
6.0877 0.5750 2.1369
6.0561 0.7201 2.1328
6.0291 0.8652 2.1314
6.0054 1.0105 2.1326
0.9091 0.1757 0.3245
0.8983 0.1963 0.3224
0.8873 0.2164 0.3204
0.8760 0.2363 0.3186
0.8647 0.2558 0.3168
0.8531 0.2750 0.3151
0.8413 0.2939 0.3135
0.8294 0.3124 0.3120
0.8126 0.3287 0.3088
0.7947 0.3441 0.3052
0.7769 0.3590 0.3018
5.1927 2.5532 2.0421
5.2095 2.7199 2.0752
5.1984 2.8763 2.0992
5.1552 3.0176 2.1119
5.1259 3.1695 2.1320
5.2198 3.4049 2.2059
5.2259 3.5921 2.2458
5.2383 3.7906 2.2912
5.1588 3.9268 2.2986
5.0596 4.0484 2.2986
4.9575 4.1676 2.2986
4.8526 4.2842 2.2986
4.7451 4.3983 2.2986
4.6349 4.5097 2.2986
4.5222 4.6184 2.2986
4.4070 4.7244 2.2986
4.2894 4.8276 2.2986
4.1693 4.9279 2.2986
4.0470 5.0253 2.2986
3.9225 5.1198 2.2986
3.7958 5.2112 2.2986
3.6670 5.2996 2.2986
3.5363 5.3849 2.2986
3.4035 5.4670 2.2986
3.2690 5.5460 2.2986
3.1326 5.6217 2.2986
2.9945 5.6942 2.2986
2.8548 5.7634 2.2986
2.7157 5.8339 2.3004
2.5708 5.8917 2.2986
2.5026 6.1370 2.3706
2.3836 6.2762 2.4018
2.2303 6.3307 2.4018
2.0758 6.3815 2.4018
1.9202 6.4287 2.4018
1.7635 6.4722 2.4018
1.6058 6.5120 2.4018
1.4473 6.5481 2.4018
1.2880 6.5804 2.4018
1.1280 6.6090 2.4018
0.9674 6.6337 2.4018
0.8062 6.6547 2.4018
0.6447 6.6719 2.4018
0.4827 6.6852 2.4018
0.3205 6.6948 2.4018
0.1581 6.7005 2.4018
-0.0043 6.7024 2.4018
-0.1668 6.7004 2.4018
-0.3291 6.6946 2.4018
-0.4914 6.6850 2.4018
-0.6533 6.6716 2.4018
-0.8149 6.6544 2.4018
-0.9760 6.6333 2.4018
-1.1367 6.6085 2.4018
-1.2967 6.5799 2.4018
-1.4560 6.5475 2.4018
-1.6145 6.5114 2.4018
-1.7722 6.4715 2.4018
-1.9289 6.4279 2.4018
-2.0846 6.3806 2.4018
-2.2391 6.3297 2.4018
-2.3924 6.2751 2.4018
-2.5444 6.2169 2.4018
-2.6951 6.1551 2.4018
-2.8443 6.0897 2.4018
-2.9919 6.0208 2.4018
-3.1379 5.9485 2.4018
-3.2822 5.8726 2.4018
-3.4247 5.7934 2.4018
-3.5654 5.7108 2.4018
-3.7041 5.6248 2.4018
-3.8407 5.5356 2.4018
-3.9753 5.4431 2.4018
-4.1077 5.3475 2.4018
-4.2378 5.2486 2.4018
-4.3656 5.1467 2.4018
-4.4910 5.0418 2.4018
-4.6140 4.9338 2.4018
-4.7344 4.8230 2.4018
-4.8522 4.7092 2.4018
-4.9672 4.5926 2.4018
-5.0796 4.4733 2.4018
-5.1891 4.3513 2.4018
