ply
format ascii 1.0
element vertex 2178
property float32 x
property float32 y
property float32 z
end_header
6.5248 5.4912 2.2986
6.3859 5.6438 2.2986
6.2434 5.7930 2.2986
6.0976 5.9387 2.2986
5.9484 6.0808 2.2986
5.7961 6.2193 2.2986
5.6406 6.3541 2.2986
5.4820 6.4851 2.2986
5.3205 6.6123 2.2986
5.1561 6.7356 2.2986
4.9890 6.8549 2.2986
4.8192 6.9702 2.2986
4.6468 7.0814 2.2986
4.4719 7.1885 2.2986
4.2946 7.2914 2.2986
4.1150 7.3901 2.2986
3.9333 7.4845 2.2986
3.7494 7.5746 2.2986
3.5635 7.6603 2.2986
3.3758 7.7416 2.2986
3.1863 7.8184 2.2986
2.9950 7.8908 2.2986
2.8022 7.9586 2.2986
2.6428 8.1290 2.3293
2.5206 8.4436 2.4019
2.3148 8.5001 2.4019
2.1078 8.5518 2.4019
1.8997 8.5986 2.4019
1.6906 8.6405 2.4019
1.4806 8.6775 2.4019
1.2698 8.7096 2.4019
1.0583 8.7368 2.4019
0.8463 8.7589 2.4019
0.6339 8.7762 2.4019
0.4211 8.7884 2.4019
0.2081 8.7957 2.4019
-0.0050 8.7980 2.4019
-0.2181 8.7953 2.4019
-0.4311 8.7876 2.4019
-0.6438 8.7750 2.4019
-0.8562 8.7573 2.4019
-1.0682 8.7348 2.4019
-1.2796 8.7072 2.4019
-1.4903 8.6747 2.4019
-1.7002 8.6373 2.4019
-1.9092 8.5950 2.4019
-2.1172 8.5478 2.4019
-2.3241 8.4958 2.4019
-2.5297 8.4389 2.4019
-2.7340 8.3772 2.4019
-2.9369 8.3107 2.4019
-3.1381 8.2395 2.4019
-3.3378 8.1635 2.4019
-3.5356 8.0829 2.4019
-3.7316 7.9976 2.4019
-3.9256 7.9077 2.4019
-4.1174 7.8133 2.4019
-4.3071 7.7143 2.4019
-4.4945 7.6109 2.4019
-4.6795 7.5031 2.4019
-4.8620 7.3909 2.4019
-5.0418 7.2744 2.4019
-5.2190 7.1537 2.4019
-5.3934 7.0288 2.4019
-5.4129 6.7114 2.3363
-5.4872 6.4762 2.2988
-5.6455 6.3449 2.2988
-5.8007 6.2099 2.2988
-5.6588 5.7715 2.1853
-5.7534 5.5906 2.1676
-6.2471 5.7830 2.2988
-6.3892 5.6337 2.2988
-6.5279 5.4809 2.2988
-6.6629 5.3248 2.2988
-6.7944 5.1654 2.2988
-6.9221 5.0029 2.2988
-7.0460 4.8373 2.2988
-7.1660 4.6687 2.2988
-7.2821 4.4972 2.2988
-7.3941 4.3228 2.2988
-7.5021 4.1457 2.2988
-7.6059 3.9660 2.2988
-7.7054 3.7838 2.2988
-7.8007 3.5990 2.2988
-7.8916 3.4120 2.2988
-7.9781 3.2226 2.2988
-8.0602 3.0312 2.2988
-8.1376 2.8377 2.2988
-8.2106 2.6422 2.2988
-8.2788 2.4449 2.2988
-8.3424 2.2459 2.2988
-8.4013 2.0452 2.2988
-8.4554 1.8430 2.2988
-8.5046 1.6395 2.2988
-8.5490 1.4346 2.2988
-8.5885 1.2286 2.2988
-8.6231 1.0215 2.2988
-8.6527 0.8135 2.2988
-8.6773 0.6047 2.2988
-8.6969 0.3951 2.2988
-8.7115 0.1850 2.2988
-8.7210 -0.0256 2.2988
-8.7254 -0.2365 2.2988
-8.7247 -0.4476 2.2988
-8.7189 -0.6588 2.2988
-8.7080 -0.8700 2.2988
-8.6920 -1.0811 2.2988
-8.6709 -1.2918 2.2988
-8.6446 -1.5022 2.2988
-8.6132 -1.7120 2.2988
-8.5767 -1.9212 2.2988
-8.5351 -2.1296 2.2988
-8.4884 -2.3371 2.2988
-8.4366 -2.5435 2.2988
-8.3798 -2.7488 2.2988
-8.3179 -2.9528 2.2988
-8.2510 -3.1554 2.2988
-8.1791 -3.3564 2.2988
-8.1023 -3.5558 2.2988
-8.0206 -3.7534 2.2988
-7.9339 -3.9490 2.2988
-7.8425 -4.1427 2.2988
-7.7463 -4.3341 2.2988
-7.6453 -4.5233 2.2988
-7.5396 -4.7101 2.2988
-7.4293 -4.8943 2.2988
-7.3144 -5.0759 2.2988
-7.1950 -5.2548 2.2988
-7.0712 -5.4308 2.2988
-6.9430 -5.6037 2.2988
-6.5103 -5.5201 2.2988
-6.3794 -5.6792 2.2988
-6.2445 -5.8352 2.2988
-6.1058 -5.9879 2.2988
-5.9632 -6.1372 2.2988
-5.8169 -6.2829 2.2988
-5.6669 -6.4252 2.2988
-5.5134 -6.5637 2.2988
-5.4327 -6.7938 2.3315
-5.4291 -7.1356 2.4019
-5.2582 -7.2682 2.4019
-5.0839 -7.3966 2.4019
-4.9065 -7.5207 2.4019
-4.7259 -7.6404 2.4019
-4.5423 -7.7557 2.4019
-4.3559 -7.8664 2.4019
-4.1667 -7.9724 2.4019
-3.9748 -8.0738 2.4019
-3.7804 -8.1704 2.4019
-3.5836 -8.2621 2.4019
-3.3845 -8.3490 2.4019
-3.1833 -8.4309 2.4019
-2.9800 -8.5077 2.4019
-2.7748 -8.5795 2.4019
-2.5678 -8.6462 2.4019
-2.3592 -8.7078 2.4019
-2.1491 -8.7641 2.4019
-1.9376 -8.8151 2.4019
-1.7248 -8.8609 2.4019
-1.5109 -8.9014 2.4019
-1.2961 -8.9365 2.4019
-1.0805 -8.9663 2.4019
-0.8641 -8.9906 2.4019
-0.6472 -9.0096 2.4019
-0.4298 -9.0231 2.4019
-0.2122 -9.0312 2.4019
0.0056 -9.0339 2.4019
0.2234 -9.0311 2.4019
0.4410 -9.0229 2.4019
0.6583 -9.0092 2.4019
0.8753 -8.9902 2.4019
1.0916 -8.9657 2.4019
1.3073 -8.9359 2.4019
1.5222 -8.9006 2.4019
1.7360 -8.8601 2.4019
1.9488 -8.8142 2.4019
2.1603 -8.7630 2.4019
2.3704 -8.7066 2.4019
2.5791 -8.6449 2.4019
2.6663 -8.2094 2.2986
2.8626 -8.1405 2.2986
3.0572 -8.0668 2.2986
3.2498 -7.9883 2.2986
3.4403 -7.9051 2.2986
3.6287 -7.8172 2.2986
3.8147 -7.7246 2.2986
3.9983 -7.6275 2.2986
4.1794 -7.5258 2.2986
4.3579 -7.4197 2.2986
3.5187 -5.6731 1.7841
4.7063 -7.1946 2.2986
4.8762 -7.0757 2.2986
5.0429 -6.9527 2.2986
5.2065 -6.8256 2.2986
5.3668 -6.6945 2.2986
5.5238 -6.5596 2.2986
5.6772 -6.4210 2.2986
5.8271 -6.2786 2.2986
5.9414 -6.0998 2.2863
5.9125 -5.7842 2.2222
5.8785 -5.4798 2.1604
5.7788 -5.1319 2.0789
5.8477 -4.9461 2.0615
5.9816 -4.8166 2.0685
6.1163 -4.6864 2.0767
6.2473 -4.5519 2.0847
6.3758 -4.4140 2.0929
6.5367 -4.2958 2.1125
6.7789 -4.2243 2.1587
7.0316 -4.1496 2.2082
7.2959 -4.0715 2.2614
7.4676 -3.9340 2.2862
7.6314 -3.7879 2.3094
7.3072 -3.4097 2.1874
7.0086 -3.0666 2.0768
6.9269 -2.8336 2.0333
6.8578 -2.6139 1.9955
6.7898 -2.4020 1.9598
6.6172 -2.1626 1.8959
6.4774 -1.9451 1.8433
6.4018 -1.7551 1.8107
6.3281 -1.5716 1.7800
6.2466 -1.3921 1.7486
6.0507 -1.1958 1.6865
5.8939 -1.0176 1.6369
5.8253 -0.8614 1.6129
5.7585 -0.7099 1.5905
5.6933 -0.5626 1.5696
5.6295 -0.4193 1.5500
5.5315 -0.2778 1.5220
5.4351 -0.1414 1.4954
5.3420 -0.0099 1.4705
5.3136 0.1186 1.4643
5.2988 0.2465 1.4626
5.2839 0.3739 1.4618
5.2689 0.5011 1.4618
5.2539 0.6281 1.4626
5.2280 0.7536 1.4613
5.1934 0.8772 1.4583
5.1590 1.0002 1.4562
5.1247 1.1228 1.4550
5.2349 1.2803 1.4958
5.4266 1.4671 1.5615
5.6053 1.6619 1.6254
5.7991 1.8730 1.6955
6.4817 2.2680 1.9121
6.7339 2.5406 2.0056
7.2857 2.9520 2.1923
7.7537 3.3622 2.3587
7.6086 3.5203 2.3416
7.4525 3.6695 2.3219
7.2741 3.8030 2.2960
7.0994 3.9332 2.2720
6.9548 4.0760 2.2582
6.8152 4.2189 2.2470
6.6903 4.3690 2.2416
6.5700 4.5209 2.2388
6.6268 4.8003 2.2986
6.5044 4.9560 2.2986
6.3784 5.1086 2.2986
6.2489 5.2581 2.2986
6.1159 5.4044 2.2986
5.9797 5.5474 2.2986
5.8401 5.6871 2.2986
5.6974 5.8234 2.2986
5.5516 5.9562 2.2986
5.4028 6.0854 2.2986
5.2510 6.2110 2.2986
5.0965 6.3330 2.2986
4.9391 6.4512 2.2986
4.7791 6.5656 2.2986
4.6165 6.6762 2.2986
4.4514 6.7829 2.2986
4.2840 6.8856 2.2986
4.1142 6.9843 2.2986
3.9423 7.0790 2.2986
3.7682 7.1695 2.2986
3.5921 7.2559 2.2986
3.4141 7.3381 2.2986
3.2343 7.4161 2.2986
3.0527 7.4898 2.2986
2.8695 7.5593 2.2986
2.6848 7.6243 2.2986
2.6110 8.0303 2.4019
2.4151 8.0891 2.4019
2.2179 8.1433 2.4019
2.0196 8.1929 2.4019
1.8202 8.2378 2.4019
1.6199 8.2781 2.4019
1.4186 8.3136 2.4019
1.2167 8.3444 2.4019
1.0141 8.3704 2.4019
0.8109 8.3917 2.4019
0.6074 8.4083 2.4019
0.4035 8.4200 2.4019
0.1994 8.4270 2.4019
-0.0048 8.4292 2.4019
-0.2090 8.4266 2.4019
-0.4130 8.4192 2.4019
-0.6169 8.4071 2.4019
-0.8204 8.3902 2.4019
-1.0235 8.3685 2.4019
-1.2260 8.3421 2.4019
-1.4279 8.3110 2.4019
-1.6290 8.2751 2.4019
-1.8293 8.2345 2.4019
-2.0286 8.1892 2.4019
-2.2268 8.1393 2.4019
-2.4238 8.0847 2.4019
-2.6195 8.0255 2.4019
-2.8138 7.9617 2.4019
-3.0067 7.8934 2.4019
-3.1979 7.8205 2.4019
-3.3874 7.7432 2.4019
-3.5751 7.6614 2.4019
-3.7609 7.5752 2.4019
-3.9447 7.4846 2.4019
-4.1263 7.3897 2.4019
-4.3058 7.2905 2.4019
-4.4829 7.1870 2.4019
-4.6577 7.0795 2.4019
-4.8299 6.9677 2.4019
-4.9995 6.8519 2.4019
-5.1664 6.7321 2.4019
-5.3305 6.6084 2.4019
-5.4105 6.3848 2.3663
-5.4211 6.0920 2.3045
-5.5561 5.9473 2.2988
-5.6548 5.7665 2.2799
-5.7502 5.5866 2.2618
-5.9833 5.5380 2.2988
-6.1193 5.3948 2.2988
-6.2519 5.2483 2.2988
-6.3811 5.0987 2.2988
-6.5068 4.9459 2.2988
-6.6289 4.7902 2.2988
-6.7474 4.6314 2.2988
-6.8621 4.4699 2.2988
-6.9731 4.3055 2.2988
-7.0802 4.1384 2.2988
-7.1834 3.9687 2.2988
-7.2825 3.7966 2.2988
-7.3776 3.6219 2.2988
-7.4686 3.4450 2.2988
-7.5554 3.2657 2.2988
-7.6380 3.0844 2.2988
-7.7163 2.9010 2.2988
-7.7902 2.7156 2.2988
-7.8598 2.5284 2.2988
-7.9249 2.3395 2.2988
-7.9855 2.1489 2.2988
-8.0415 1.9568 2.2988
-8.0930 1.7632 2.2988
-8.1399 1.5683 2.2988
-8.1821 1.3722 2.2988
-8.2197 1.1750 2.2988
-8.2525 0.9768 2.2988
-8.2805 0.7776 2.2988
-8.3038 0.5778 2.2988
-8.3223 0.3772 2.2988
-8.3359 0.1762 2.2988
-8.3447 -0.0253 2.2988
-8.3486 -0.2271 2.2988
-8.3477 -0.4291 2.2988
-8.3419 -0.6312 2.2988
-8.3311 -0.8333 2.2988
-8.3155 -1.0351 2.2988
-8.2950 -1.2367 2.2988
-8.2696 -1.4379 2.2988
-8.2393 -1.6386 2.2988
-8.2040 -1.8386 2.2988
-8.1640 -2.0379 2.2988
-8.1190 -2.2363 2.2988
-8.0692 -2.4336 2.2988
-8.0146 -2.6299 2.2988
-7.9551 -2.8249 2.2988
-7.8909 -3.0185 2.2988
-7.8219 -3.2107 2.2988
-7.7481 -3.4013 2.2988
-7.6697 -3.5901 2.2988
-7.5867 -3.7771 2.2988
-7.4990 -3.9621 2.2988
-7.4067 -4.1450 2.2988
-7.3099 -4.3258 2.2988
-7.2086 -4.5042 2.2988
-7.1030 -4.6802 2.2988
-6.9929 -4.8537 2.2988
-6.8786 -5.0246 2.2988
-6.7600 -5.1926 2.2988
-6.6372 -5.3578 2.2988
-6.2340 -5.2866 2.2988
-6.1084 -5.4389 2.2988
-5.9791 -5.5881 2.2988
-5.8461 -5.7341 2.2988
-5.7094 -5.8769 2.2988
-5.5692 -6.0163 2.2988
-5.4381 -6.1667 2.3041
-5.4282 -6.4632 2.3640
-5.3580 -6.7013 2.4019
-5.1975 -6.8321 2.4019
-5.0338 -6.9590 2.4019
-4.8669 -7.0817 2.4019
-4.6969 -7.2004 2.4019
-4.5239 -7.3149 2.4019
-4.3481 -7.4250 2.4019
-4.1696 -7.5309 2.4019
-3.9884 -7.6323 2.4019
-3.8047 -7.7292 2.4019
-3.6185 -7.8215 2.4019
-3.4301 -7.9092 2.4019
-3.2395 -7.9922 2.4019
-3.0468 -8.0705 2.4019
-2.8522 -8.1440 2.4019
-2.6558 -8.2126 2.4019
-2.4577 -8.2764 2.4019
-2.2580 -8.3352 2.4019
-2.0569 -8.3890 2.4019
-1.8544 -8.4378 2.4019
-1.6508 -8.4816 2.4019
-1.4461 -8.5202 2.4019
-1.2405 -8.5538 2.4019
-1.0341 -8.5822 2.4019
-0.8270 -8.6055 2.4019
-0.6194 -8.6236 2.4019
-0.4113 -8.6365 2.4019
-0.2031 -8.6443 2.4019
0.0054 -8.6468 2.4019
0.2138 -8.6442 2.4019
0.4221 -8.6363 2.4019
0.6301 -8.6233 2.4019
0.8377 -8.6051 2.4019
1.0448 -8.5817 2.4019
1.2512 -8.5531 2.4019
1.4568 -8.5195 2.4019
1.6615 -8.4807 2.4019
1.8652 -8.4368 2.4019
2.0676 -8.3879 2.4019
2.2688 -8.3340 2.4019
2.4685 -8.2751 2.4019
2.6155 -8.0539 2.3559
2.7399 -7.7924 2.2986
2.9262 -7.7220 2.2986
3.1106 -7.6469 2.2986
3.2930 -7.5674 2.2986
3.4733 -7.4833 2.2986
3.6514 -7.3948 2.2986
3.8272 -7.3019 2.2986
4.0006 -7.2047 2.2986
4.1715 -7.1033 2.2986
3.5181 -5.6729 1.8634
4.5053 -6.8881 2.2986
4.6679 -6.7744 2.2986
4.8276 -6.6567 2.2986
4.9843 -6.5352 2.2986
5.1379 -6.4099 2.2986
5.2883 -6.2809 2.2986
5.4353 -6.1482 2.2986
5.5790 -6.0121 2.2986
5.7191 -5.8725 2.2986
5.8557 -5.7295 2.2986
5.8720 -5.4745 2.2538
5.7831 -5.1366 2.1728
5.8481 -4.9472 2.1531
5.9820 -4.8177 2.1603
6.1164 -4.6873 2.1687
6.2441 -4.5503 2.1759
6.3725 -4.4125 2.1843
6.5333 -4.2943 2.2047
6.7752 -4.2228 2.2529
7.0277 -4.1482 2.3045
7.2541 -4.0490 2.3477
7.4140 -3.9067 2.3699
7.5761 -3.7613 2.3937
7.0492 -3.2901 2.2031
6.8863 -3.0138 2.1304
6.8191 -2.7903 2.0897
6.7531 -2.5748 2.0514
6.6881 -2.3667 2.0152
6.5253 -2.1333 1.9516
6.4133 -1.9266 1.9051
6.3397 -1.7387 1.8717
6.2677 -1.5573 1.8402
6.1974 -1.3818 1.8107
6.0202 -1.1905 1.7514
5.8709 -1.0143 1.7017
5.8029 -0.8587 1.6768
5.7366 -0.7078 1.6536
5.6719 -0.5611 1.6318
5.6087 -0.4183 1.6116
5.5247 -0.2780 1.5863
5.4285 -0.1419 1.5585
5.3356 -0.0105 1.5326
5.3058 0.1178 1.5256
5.2910 0.2455 1.5238
5.2761 0.3728 1.5229
5.2612 0.4998 1.5229
5.2462 0.6266 1.5237
5.2301 0.7533 1.5251
5.1955 0.8770 1.5219
5.1611 1.0001 1.5197
5.1268 1.1227 1.5184
5.2356 1.2799 1.5605
5.4212 1.4651 1.6272
5.5996 1.6595 1.6936
5.7929 1.8704 1.7666
6.3810 2.2320 1.9633
6.6243 2.4985 2.0577
7.0291 2.8472 2.2059
7.7496 3.3595 2.4586
7.6046 3.5176 2.4406
7.4284 3.6567 2.4135
7.2509 3.7899 2.3867
7.0770 3.9199 2.3616
6.9322 4.0619 2.3471
6.7980 4.2075 2.3370
6.5798 4.2960 2.2986
6.4696 4.4510 2.2986
6.3559 4.6032 2.2986
6.2386 4.7526 2.2986
6.1179 4.8991 2.2986
5.9938 5.0426 2.2986
5.8664 5.1831 2.2986
5.7359 5.3204 2.2986
5.6022 5.4545 2.2986
5.4654 5.5854 2.2986
5.3256 5.7129 2.2986
5.1830 5.8370 2.2986
5.0375 5.9576 2.2986
4.8893 6.0747 2.2986
4.7384 6.1883 2.2986
4.5850 6.2982 2.2986
4.4291 6.4044 2.2986
4.2708 6.5068 2.2986
4.1102 6.6055 2.2986
3.9474 6.7003 2.2986
3.7825 6.7912 2.2986
3.6155 6.8782 2.2986
3.4466 6.9612 2.2986
3.2758 7.0402 2.2986
3.1034 7.1151 2.2986
2.9292 7.1859 2.2986
2.7535 7.2526 2.2986
2.6369 7.4875 2.3528
2.5054 7.7047 2.4019
2.3175 7.7612 2.4019
2.1283 7.8133 2.4019
1.9380 7.8610 2.4019
1.7467 7.9042 2.4019
1.5544 7.9428 2.4019
1.3614 7.9769 2.4019
1.1675 8.0065 2.4019
0.9731 8.0315 2.4019
0.7782 8.0520 2.4019
0.5829 8.0679 2.4019
0.3872 8.0792 2.4019
0.1914 8.0859 2.4019
-0.0046 8.0880 2.4019
-0.2005 8.0855 2.4019
-0.3963 8.0785 2.4019
-0.5920 8.0668 2.4019
-0.7873 8.0506 2.4019
-0.9821 8.0298 2.4019
-1.1765 8.0044 2.4019
-1.3702 7.9744 2.4019
-1.5632 7.9400 2.4019
-1.7554 7.9010 2.4019
-1.9466 7.8575 2.4019
-2.1368 7.8095 2.4019
-2.3258 7.7571 2.4019
-2.5136 7.7002 2.4019
-2.7000 7.6389 2.4019
-2.8850 7.5733 2.4019
-3.0685 7.5033 2.4019
-3.2503 7.4289 2.4019
-3.4304 7.3504 2.4019
-3.6086 7.2676 2.4019
-3.7849 7.1805 2.4019
-3.9591 7.0894 2.4019
-4.1312 6.9941 2.4019
-4.3011 6.8948 2.4019
-4.4687 6.7914 2.4019
-4.6339 6.6841 2.4019
-4.7965 6.5729 2.4019
-4.9566 6.4578 2.4019
-5.1139 6.3390 2.4019
-5.2685 6.2164 2.4019
-5.4109 6.0796 2.3977
-5.4145 5.7948 2.3352
-5.4695 5.5767 2.2988
-5.6060 5.4457 2.2988
-5.7395 5.3114 2.2988
-5.8698 5.1740 2.2988
-5.9968 5.0334 2.2988
-6.1206 4.8897 2.2988
-6.2410 4.7431 2.2988
-6.3580 4.5936 2.2988
-6.4715 4.4412 2.2988
-6.5814 4.2861 2.2988
-6.6876 4.1284 2.2988
-6.7901 3.9680 2.2988
-6.8889 3.8052 2.2988
-6.9838 3.6400 2.2988
-7.0748 3.4724 2.2988
-7.1619 3.3026 2.2988
-7.2449 3.1307 2.2988
-7.3239 2.9567 2.2988
-7.3987 2.7808 2.2988
-7.4694 2.6030 2.2988
-7.5358 2.4234 2.2988
-7.5980 2.2422 2.2988
-7.6559 2.0594 2.2988
-7.7094 1.8751 2.2988
-7.7585 1.6895 2.2988
-7.8032 1.5026 2.2988
-7.8435 1.3146 2.2988
-7.8792 1.1255 2.2988
-7.9104 0.9354 2.2988
-7.9370 0.7445 2.2988
-7.9591 0.5529 2.2988
-7.9765 0.3607 2.2988
-7.9893 0.1680 2.2988
-7.9975 -0.0251 2.2988
-8.0010 -0.2185 2.2988
-7.9999 -0.4121 2.2988
-7.9940 -0.6058 2.2988
-7.9835 -0.7993 2.2988
-7.9683 -0.9928 2.2988
-7.9483 -1.1859 2.2988
-7.9237 -1.3786 2.2988
-7.8944 -1.5709 2.2988
-7.8604 -1.7625 2.2988
-7.8218 -1.9533 2.2988
-7.7784 -2.1433 2.2988
-7.7305 -2.3323 2.2988
-7.6779 -2.5203 2.2988
-7.6207 -2.7070 2.2988
-7.5589 -2.8924 2.2988
-7.4926 -3.0764 2.2988
-7.4217 -3.2588 2.2988
-7.3464 -3.4396 2.2988
-7.2666 -3.6186 2.2988
-7.1824 -3.7957 2.2988
-7.0938 -3.9708 2.2988
-7.0009 -4.1438 2.2988
-6.9038 -4.3146 2.2988
-6.8024 -4.4830 2.2988
-6.6968 -4.6490 2.2988
-6.5871 -4.8125 2.2988
-6.4733 -4.9733 2.2988
-6.3556 -5.1314 2.2988
-5.9785 -5.0708 2.2988
-5.8580 -5.2167 2.2988
-5.7339 -5.3597 2.2988
-5.6187 -5.5118 2.3039
-5.4750 -5.6364 2.2988
-5.4300 -5.8669 2.3374
-5.4278 -6.1558 2.3983
-5.2884 -6.2975 2.4019
-5.1376 -6.4265 2.4019
-4.9836 -6.5518 2.4019
-4.8265 -6.6733 2.4019
-4.6664 -6.7909 2.4019
-4.5033 -6.9045 2.4019
-4.3374 -7.0141 2.4019
-4.1688 -7.1197 2.4019
-3.9975 -7.2210 2.4019
-3.8238 -7.3181 2.4019
-3.6476 -7.4109 2.4019
-3.4691 -7.4993 2.4019
-3.2884 -7.5833 2.4019
-3.1056 -7.6628 2.4019
-2.9209 -7.7378 2.4019
-2.7343 -7.8081 2.4019
-2.5460 -7.8738 2.4019
-2.3560 -7.9349 2.4019
-2.1646 -7.9912 2.4019
-1.9717 -8.0427 2.4019
-1.7777 -8.0894 2.4019
-1.5824 -8.1313 2.4019
-1.3862 -8.1683 2.4019
-1.1891 -8.2004 2.4019
-0.9912 -8.2277 2.4019
-0.7927 -8.2499 2.4019
-0.5937 -8.2673 2.4019
-0.3943 -8.2797 2.4019
-0.1946 -8.2871 2.4019
0.0051 -8.2895 2.4019
0.2049 -8.2870 2.4019
0.4046 -8.2795 2.4019
0.6040 -8.2670 2.4019
0.8030 -8.2495 2.4019
1.0015 -8.2271 2.4019
1.1994 -8.1998 2.4019
1.3965 -8.1676 2.4019
1.5927 -8.1304 2.4019
1.7880 -8.0884 2.4019
1.9820 -8.0416 2.4019
2.1749 -7.9899 2.4019
2.3663 -7.9335 2.4019
2.5563 -7.8724 2.4019
2.6287 -7.4768 2.3004
2.8255 -7.4571 2.3153
2.9820 -7.3316 2.2986
3.1569 -7.2554 2.2986
3.3298 -7.1749 2.2986
3.5006 -7.0902 2.2986
3.6692 -7.0013 2.2986
3.8355 -6.9082 2.2986
3.9994 -6.8111 2.2986
3.5176 -5.6727 1.9433
4.3195 -6.6049 2.2986
4.4756 -6.4960 2.2986
4.6288 -6.3833 2.2986
4.7791 -6.2669 2.2986
4.9264 -6.1469 2.2986
5.0707 -6.0233 2.2986
5.2118 -5.8962 2.2986
5.3497 -5.7658 2.2986
5.4842 -5.6321 2.2986
5.6153 -5.4951 2.2986
5.7430 -5.3550 2.2986
5.7874 -5.1412 2.2674
5.8485 -4.9484 2.2453
5.9824 -4.8189 2.2527
6.1131 -4.6856 2.2601
6.2408 -4.5487 2.2675
6.3691 -4.4109 2.2762
6.5298 -4.2929 2.2975
6.6304 -4.1333 2.2986
7.0237 -4.1467 2.4012
7.2026 -4.0211 2.4301
7.3609 -3.8795 2.4529
7.5047 -3.7267 2.4719
6.8667 -3.2057 2.2372
6.7780 -2.9672 2.1858
6.7140 -2.7481 2.1447
6.6509 -2.5366 2.1059
6.5887 -2.3323 2.0693
6.4354 -2.1046 2.0061
6.3502 -1.9083 1.9661
6.2783 -1.7226 1.9318
6.2082 -1.5432 1.8997
6.1395 -1.3696 1.8694
5.9898 -1.1851 1.8160
5.8479 -1.0109 1.7664
5.7805 -0.8561 1.7406
5.7148 -0.7057 1.7165
5.6507 -0.5596 1.6940
5.5879 -0.4174 1.6730
5.5179 -0.2783 1.6508
5.4220 -0.1423 1.6219
5.3293 -0.0110 1.5949
5.2979 0.1171 1.5871
5.2832 0.2446 1.5852
5.2683 0.3717 1.5842
5.2534 0.4985 1.5842
5.2384 0.6251 1.5849
5.2233 0.7518 1.5866
5.1976 0.8768 1.5860
5.1631 0.9999 1.5836
5.1288 1.1226 1.5822
5.2363 1.2795 1.6256
5.4159 1.4630 1.6931
5.5939 1.6572 1.7621
5.7867 1.8677 1.8379
6.2828 2.1970 2.0133
6.5176 2.4575 2.1085
6.7769 2.7443 2.2148
7.4819 3.2426 2.4719
7.3960 3.4202 2.4719
7.3060 3.5956 2.4719
7.2119 3.7687 2.4719
6.6152 3.6632 2.2986
6.5202 3.8197 2.2986
6.4216 3.9737 2.2986
6.3194 4.1252 2.2986
6.2138 4.2741 2.2986
6.1047 4.4205 2.2986
5.9922 4.5641 2.2986
5.8764 4.7049 2.2986
5.7573 4.8429 2.2986
5.6351 4.9779 2.2986
5.5098 5.1099 2.2986
5.3815 5.2388 2.2986
5.2502 5.3646 2.2986
5.1160 5.4872 2.2986
4.9791 5.6066 2.2986
4.8394 5.7226 2.2986
4.6971 5.8352 2.2986
4.5523 5.9444 2.2986
4.4050 6.0501 2.2986
4.2553 6.1522 2.2986
4.1033 6.2507 2.2986
3.9490 6.3456 2.2986
3.7926 6.4368 2.2986
3.6342 6.5243 2.2986
3.4739 6.6079 2.2986
3.3116 6.6878 2.2986
3.1476 6.7637 2.2986
2.9819 6.8358 2.2986
2.8146 6.9039 2.2986
2.6484 6.9752 2.3010
2.5867 7.3439 2.4019
2.4074 7.4026 2.4019
2.2269 7.4570 2.4019
2.0451 7.5071 2.4019
1.8623 7.5529 2.4019
1.6784 7.5945 2.4019
1.4937 7.6317 2.4019
1.3082 7.6645 2.4019
1.1220 7.6930 2.4019
0.9351 7.7170 2.4019
0.7478 7.7367 2.4019
0.5601 7.7520 2.4019
0.3721 7.7629 2.4019
0.1839 7.7694 2.4019
-0.0044 7.7714 2.4019
-0.1927 7.7690 2.4019
-0.3809 7.7622 2.4019
-0.5689 7.7510 2.4019
-0.7565 7.7354 2.4019
-0.9438 7.7154 2.4019
-1.1305 7.6909 2.4019
-1.3167 7.6621 2.4019
-1.5022 7.6290 2.4019
-1.6868 7.5915 2.4019
-1.8705 7.5496 2.4019
-2.0533 7.5035 2.4019
-2.2349 7.4530 2.4019
-2.4153 7.3983 2.4019
-2.5945 7.3394 2.4019
-2.7722 7.2762 2.4019
-2.9484 7.2089 2.4019
-3.1231 7.1374 2.4019
-3.2961 7.0618 2.4019
-3.4673 6.9822 2.4019
-3.6366 6.8984 2.4019
-3.8040 6.8108 2.4019
-3.9693 6.7191 2.4019
-4.1325 6.6236 2.4019
-4.2934 6.5242 2.4019
-4.4520 6.4210 2.4019
-4.6082 6.3141 2.4019
-4.7619 6.2034 2.4019
-4.9130 6.0891 2.4019
-5.0615 5.9712 2.4019
-5.2071 5.8498 2.4019
-5.3500 5.7249 2.4019
-5.4117 5.5170 2.3677
-5.4202 5.2644 2.3137
-5.5133 5.1014 2.2988
-5.6384 4.9692 2.2988
-5.7603 4.8341 2.2988
-5.8791 4.6960 2.2988
-5.9946 4.5550 2.2988
-6.1069 4.4113 2.2988
-6.2157 4.2649 2.2988
-6.3211 4.1158 2.2988
-6.4230 3.9642 2.2988
-6.5213 3.8101 2.2988
-6.6159 3.6536 2.2988
-6.7069 3.4949 2.2988
-6.7941 3.3339 2.2988
-6.8776 3.1707 2.2988
-6.9571 3.0055 2.2988
-7.0328 2.8384 2.2988
-7.1044 2.6694 2.2988
-7.1721 2.4986 2.2988
-7.2357 2.3261 2.2988
-7.2952 2.1520 2.2988
-7.3506 1.9764 2.2988
-7.4018 1.7995 2.2988
-7.4487 1.6212 2.2988
-7.4914 1.4417 2.2988
-7.5298 1.2612 2.2988
-7.5639 1.0796 2.2988
-7.5936 0.8971 2.2988
-7.6189 0.7139 2.2988
-7.6399 0.5300 2.2988
-7.6564 0.3454 2.2988
-7.6685 0.1604 2.2988
-7.6761 -0.0249 2.2988
-7.6792 -0.2106 2.2988
-7.6779 -0.3963 2.2988
-7.6720 -0.5822 2.2988
-7.6617 -0.7679 2.2988
-7.6469 -0.9535 2.2988
-7.6275 -1.1389 2.2988
-7.6037 -1.3238 2.2988
-7.5753 -1.5082 2.2988
-7.5425 -1.6920 2.2988
-7.5052 -1.8751 2.2988
-7.4634 -2.0573 2.2988
-7.4171 -2.2386 2.2988
-7.3665 -2.4189 2.2988
-7.3114 -2.5980 2.2988
-7.2519 -2.7758 2.2988
-7.1881 -2.9522 2.2988
-7.1199 -3.1271 2.2988
-7.0474 -3.3004 2.2988
-6.9707 -3.4721 2.2988
-6.8897 -3.6418 2.2988
-6.8046 -3.8097 2.2988
-6.7153 -3.9756 2.2988
-6.6219 -4.1393 2.2988
-6.5245 -4.3007 2.2988
-6.4230 -4.4598 2.2988
-6.3177 -4.6165 2.2988
-6.2084 -4.7706 2.2988
-6.0954 -4.9221 2.2988
-5.7417 -4.8708 2.2988
-5.6258 -5.0108 2.2988
-5.5065 -5.1480 2.2988
-5.4333 -5.3309 2.3199
-5.4270 -5.5879 2.3728
-5.3583 -5.7902 2.4019
-5.2198 -5.9208 2.4019
-5.0781 -6.0481 2.4019
-4.9333 -6.1718 2.4019
-4.7853 -6.2920 2.4019
-4.6344 -6.4085 2.4019
-4.4805 -6.5213 2.4019
-4.3239 -6.6303 2.4019
-4.1645 -6.7355 2.4019
-4.0026 -6.8367 2.4019
-3.8381 -6.9339 2.4019
-3.6712 -7.0270 2.4019
-3.5020 -7.1160 2.4019
-3.3306 -7.2008 2.4019
-3.1571 -7.2813 2.4019
-2.9816 -7.3576 2.4019
-2.8042 -7.4295 2.4019
-2.6250 -7.4969 2.4019
-2.4442 -7.5599 2.4019
-2.2618 -7.6185 2.4019
-2.0780 -7.6724 2.4019
-1.8929 -7.7218 2.4019
-1.7065 -7.7667 2.4019
-1.5191 -7.8068 2.4019
-1.3307 -7.8423 2.4019
-1.1415 -7.8731 2.4019
-0.9515 -7.8992 2.4019
-0.7610 -7.9206 2.4019
-0.5699 -7.9372 2.4019
-0.3785 -7.9491 2.4019
-0.1868 -7.9562 2.4019
0.0050 -7.9585 2.4019
0.1967 -7.9561 2.4019
0.3884 -7.9489 2.4019
0.5798 -7.9369 2.4019
0.7709 -7.9202 2.4019
0.9614 -7.8987 2.4019
1.1514 -7.8725 2.4019
1.3406 -7.8416 2.4019
1.5290 -7.8059 2.4019
1.7164 -7.7657 2.4019
1.9028 -7.7208 2.4019
2.0879 -7.6712 2.4019
2.2717 -7.6171 2.4019
2.4541 -7.5585 2.4019
2.6163 -7.4426 2.3850
2.6931 -7.1085 2.2986
2.8629 -7.0395 2.2986
3.0308 -6.9665 2.2986
3.1969 -6.8893 2.2986
3.3609 -6.8080 2.2986
3.5228 -6.7227 2.2986
3.6825 -6.6334 2.2986
3.8399 -6.5403 2.2986
3.5170 -5.6725 2.0236
4.1474 -6.3425 2.2986
4.2973 -6.2381 2.2986
4.4445 -6.1300 2.2986
4.5889 -6.0183 2.2986
4.7305 -5.9032 2.2986
4.8691 -5.7846 2.2986
5.0047 -5.6627 2.2986
5.1371 -5.5375 2.2986
5.2664 -5.4092 2.2986
5.3925 -5.2778 2.2986
5.5151 -5.1434 2.2986
5.6344 -5.0061 2.2986
5.7502 -4.8659 2.2986
5.8625 -4.7230 2.2986
5.9711 -4.5775 2.2986
6.0761 -4.4294 2.2986
6.1774 -4.2789 2.2986
6.2749 -4.1260 2.2986
6.3685 -3.9709 2.2986
6.4583 -3.8136 2.2986
6.5441 -3.6543 2.2986
6.6259 -3.4929 2.2986
7.2090 -3.5807 2.4719
6.7342 -3.1447 2.2839
6.6723 -2.9218 2.2399
6.6114 -2.7068 2.1984
6.5511 -2.4993 2.1592
6.4916 -2.2987 2.1222
6.3595 -2.0805 2.0634
6.2878 -1.8903 2.0262
6.2178 -1.7067 1.9913
6.1493 -1.5292 1.9584
6.0823 -1.3575 1.9274
5.9595 -1.1798 1.8803
5.8249 -1.0076 1.8310
5.7581 -0.8534 1.8044
5.6930 -0.7037 1.7795
5.6294 -0.5581 1.7562
5.5672 -0.4164 1.7344
5.5062 -0.2783 1.7141
5.4154 -0.1427 1.6855
5.3229 -0.0116 1.6575
5.2900 0.1163 1.6489
5.2753 0.2437 1.6469
5.2605 0.3706 1.6458
5.2456 0.4972 1.6457
5.2306 0.6236 1.6464
5.2155 0.7501 1.6481
5.1997 0.8766 1.6506
5.1652 0.9998 1.6480
5.1309 1.1225 1.6465
5.2371 1.2791 1.6912
5.4105 1.4610 1.7594
5.5881 1.6549 1.8310
5.7805 1.8650 1.9096
6.1869 2.1627 2.0620
6.4136 2.4176 2.1580
6.6606 2.6964 2.2639
7.1941 3.1170 2.4719
6.6132 3.0574 2.2986
6.5329 3.2143 2.2986
6.4489 3.3692 2.2986
6.3613 3.5219 2.2986
6.2701 3.6724 2.2986
6.1755 3.8206 2.2986
6.0774 3.9664 2.2986
5.9759 4.1097 2.2986
5.8711 4.2505 2.2986
5.7630 4.3888 2.2986
5.6518 4.5243 2.2986
5.5374 4.6571 2.2986
5.4200 4.7870 2.2986
5.2995 4.9141 2.2986
5.1762 5.0382 2.2986
5.0500 5.1593 2.2986
4.9211 5.2773 2.2986
4.7895 5.3922 2.2986
4.6552 5.5039 2.2986
4.5184 5.6123 2.2986
4.3791 5.7175 2.2986
4.2375 5.8192 2.2986
4.0935 5.9176 2.2986
3.9474 6.0125 2.2986
3.7990 6.1038 2.2986
3.6487 6.1916 2.2986
3.4963 6.2758 2.2986
3.3421 6.3564 2.2986
3.1860 6.4333 2.2986
3.0282 6.5065 2.2986
2.8688 6.5759 2.2986
2.7079 6.6415 2.2986
2.6362 6.9421 2.3805
2.4887 7.0649 2.4019
2.3163 7.1214 2.4019
2.1426 7.1738 2.4019
1.9677 7.2221 2.4019
1.7918 7.2663 2.4019
1.6149 7.3062 2.4019
1.4372 7.3421 2.4019
1.2587 7.3737 2.4019
1.0795 7.4011 2.4019
0.8998 7.4243 2.4019
0.7195 7.4433 2.4019
0.5389 7.4580 2.4019
0.3580 7.4685 2.4019
0.1770 7.4747 2.4019
-0.0042 7.4767 2.4019
-0.1854 7.4744 2.4019
-0.3664 7.4679 2.4019
-0.5473 7.4571 2.4019
-0.7279 7.4420 2.4019
-0.9081 7.4227 2.4019
-1.0878 7.3992 2.4019
-1.2669 7.3715 2.4019
-1.4453 7.3395 2.4019
-1.6230 7.3034 2.4019
-1.7997 7.2631 2.4019
-1.9755 7.2186 2.4019
-2.1503 7.1701 2.4019
-2.3238 7.1174 2.4019
-2.4962 7.0606 2.4019
-2.6672 6.9998 2.4019
-2.8367 6.9349 2.4019
-3.0047 6.8661 2.4019
-3.1711 6.7933 2.4019
-3.3358 6.7166 2.4019
-3.4987 6.6360 2.4019
-3.6596 6.5515 2.4019
-3.8186 6.4633 2.4019
-3.9756 6.3713 2.4019
-4.1303 6.2756 2.4019
-4.2829 6.1762 2.4019
-4.4331 6.0732 2.4019
-4.5808 5.9667 2.4019
-4.7261 5.8567 2.4019
-4.8688 5.7432 2.4019
-5.0089 5.6263 2.4019
-5.1462 5.5061 2.4019
-5.2806 5.3826 2.4019
-5.4121 5.2557 2.4018
-5.4130 5.0077 2.3464
-5.4242 4.7797 2.2992
-5.5404 4.6487 2.2988
-5.6545 4.5158 2.2988
-5.7655 4.3801 2.2988
-5.8733 4.2418 2.2988
-5.9778 4.1009 2.2988
-6.0790 3.9575 2.2988
-6.1769 3.8116 2.2988
-6.2713 3.6633 2.2988
-6.3622 3.5127 2.2988
-6.4495 3.3600 2.2988
-6.5332 3.2051 2.2988
-6.6133 3.0481 2.2988
-6.6896 2.8892 2.2988
-6.7622 2.7284 2.2988
-6.8310 2.5658 2.2988
-6.8958 2.4015 2.2988
-6.9568 2.2356 2.2988
-7.0139 2.0682 2.2988
-7.0669 1.8994 2.2988
-7.1159 1.7292 2.2988
-7.1608 1.5578 2.2988
-7.2017 1.3852 2.2988
-7.2384 1.2116 2.2988
-7.2710 1.0370 2.2988
-7.2993 0.8616 2.2988
-7.3235 0.6854 2.2988
-7.3434 0.5086 2.2988
-7.3591 0.3312 2.2988
-7.3705 0.1534 2.2988
-7.3776 -0.0248 2.2988
-7.3804 -0.2032 2.2988
-7.3789 -0.3817 2.2988
-7.3731 -0.5603 2.2988
-7.3630 -0.7388 2.2988
-7.3485 -0.9171 2.2988
-7.3297 -1.0952 2.2988
-7.3066 -1.2729 2.2988
-7.2792 -1.4500 2.2988
-7.2474 -1.6266 2.2988
-7.2113 -1.8025 2.2988
-7.1710 -1.9775 2.2988
-7.1264 -2.1517 2.2988
-7.0775 -2.3248 2.2988
-7.0244 -2.4968 2.2988
-6.9670 -2.6675 2.2988
-6.9055 -2.8370 2.2988
-6.8399 -3.0049 2.2988
-6.7701 -3.1714 2.2988
-6.6962 -3.3361 2.2988
-6.6182 -3.4991 2.2988
-6.5363 -3.6603 2.2988
-6.4503 -3.8195 2.2988
-6.3605 -3.9767 2.2988
-6.2667 -4.1316 2.2988
-6.1692 -4.2844 2.2988
-6.0678 -4.4348 2.2988
-5.9628 -4.5827 2.2988
-5.8540 -4.7280 2.2988
-5.5215 -4.6847 2.2988
-5.4351 -4.8417 2.3095
-5.4263 -5.0738 2.3558
-5.4091 -5.3079 2.4019
-5.2823 -5.4397 2.4019
-5.1523 -5.5684 2.4019
-5.0190 -5.6939 2.4019
-4.8827 -5.8161 2.4019
-4.7433 -5.9350 2.4019
-4.6010 -6.0504 2.4019
-4.4558 -6.1624 2.4019
-4.3078 -6.2707 2.4019
-4.1571 -6.3754 2.4019
-4.0039 -6.4764 2.4019
-3.8481 -6.5737 2.4019
-3.6899 -6.6670 2.4019
-3.5294 -6.7565 2.4019
-3.3667 -6.8419 2.4019
-3.2019 -6.9234 2.4019
-3.0350 -7.0007 2.4019
-2.8663 -7.0739 2.4019
-2.6957 -7.1430 2.4019
-2.5235 -7.2077 2.4019
-2.3496 -7.2683 2.4019
-2.1743 -7.3245 2.4019
-1.9975 -7.3763 2.4019
-1.8196 -7.4237 2.4019
-1.6404 -7.4667 2.4019
-1.4603 -7.5053 2.4019
-1.2792 -7.5394 2.4019
-1.0973 -7.5690 2.4019
-0.9147 -7.5940 2.4019
-0.7315 -7.6145 2.4019
-0.5478 -7.6305 2.4019
-0.3638 -7.6419 2.4019
-0.1796 -7.6487 2.4019
0.0048 -7.6509 2.4019
0.1891 -7.6486 2.4019
0.3734 -7.6417 2.4019
0.5574 -7.6302 2.4019
0.7410 -7.6141 2.4019
0.9242 -7.5935 2.4019
1.1068 -7.5683 2.4019
1.2887 -7.5386 2.4019
1.4698 -7.5044 2.4019
1.6500 -7.4658 2.4019
1.8291 -7.4226 2.4019
2.0071 -7.3751 2.4019
2.1838 -7.3231 2.4019
2.3591 -7.2668 2.4019
2.5330 -7.2062 2.4019
2.6223 -6.9223 2.3282
2.7522 -6.7681 2.2986
2.9136 -6.6979 2.2986
3.0733 -6.6238 2.2986
3.2310 -6.5457 2.2986
3.3867 -6.4638 2.2986
3.5403 -6.3781 2.2986
3.6917 -6.2886 2.2986
3.5164 -5.6722 2.1045
3.9874 -6.0986 2.2986
4.1316 -5.9983 2.2986
4.2732 -5.8945 2.2986
4.4121 -5.7872 2.2986
4.5483 -5.6766 2.2986
4.6816 -5.5627 2.2986
4.8121 -5.4455 2.2986
4.9395 -5.3253 2.2986
5.0639 -5.2020 2.2986
5.1852 -5.0757 2.2986
5.3033 -4.9466 2.2986
5.4181 -4.8146 2.2986
5.5296 -4.6800 2.2986
5.6376 -4.5427 2.2986
5.7422 -4.4028 2.2986
5.8433 -4.2605 2.2986
5.9408 -4.1158 2.2986
6.0347 -3.9689 2.2986
6.1249 -3.8198 2.2986
6.2114 -3.6686 2.2986
6.2941 -3.5154 2.2986
6.3730 -3.3603 2.2986
6.4480 -3.2035 2.2986
6.5191 -3.0449 2.2986
6.5693 -2.8774 2.2927
6.5111 -2.6665 2.2508
6.4536 -2.4628 2.2112
6.3967 -2.2658 2.1739
6.2961 -2.0605 2.1236
6.2262 -1.8725 2.0856
6.1580 -1.6909 2.0499
6.0912 -1.5154 2.0164
6.0257 -1.3455 1.9848
5.9293 -1.1744 1.9445
5.8019 -1.0043 1.8956
5.7358 -0.8507 1.8681
5.6712 -0.7016 1.8423
5.6082 -0.5566 1.8183
5.5464 -0.4155 1.7958
5.4860 -0.2779 1.7748
5.4088 -0.1431 1.7495
5.3165 -0.0121 1.7203
5.2821 0.1156 1.7108
5.2674 0.2427 1.7087
5.2527 0.3694 1.7076
5.2378 0.4959 1.7074
5.2229 0.6221 1.7082
5.2078 0.7484 1.7099
5.1925 0.8748 1.7126
5.1673 0.9996 1.7130
5.1330 1.1223 1.7113
5.2378 1.2787 1.7573
5.4051 1.4589 1.8260
5.5823 1.6525 1.9001
5.7742 1.8624 1.9816
6.0933 2.1293 2.1096
6.3122 2.3786 2.2062
6.5103 2.6349 2.2986
6.4404 2.7897 2.2986
6.3668 2.9427 2.2986
6.2896 3.0938 2.2986
6.2089 3.2430 2.2986
6.1247 3.3901 2.2986
6.0370 3.5351 2.2986
5.9460 3.6778 2.2986
5.8517 3.8183 2.2986
5.7541 3.9564 2.2986
5.6533 4.0921 2.2986
5.5493 4.2253 2.2986
5.4423 4.3559 2.2986
5.3323 4.4838 2.2986
5.2193 4.6090 2.2986
5.1034 4.7315 2.2986
4.9848 4.8511 2.2986
4.8633 4.9678 2.2986
4.7392 5.0816 2.2986
4.6126 5.1923 2.2986
4.4833 5.3000 2.2986
4.3516 5.4045 2.2986
4.2176 5.5058 2.2986
4.0812 5.6039 2.2986
3.9426 5.6987 2.2986
3.8019 5.7902 2.2986
3.6591 5.8782 2.2986
3.5143 5.9629 2.2986
3.3676 6.0441 2.2986
3.2191 6.1217 2.2986
3.0688 6.1959 2.2986
2.9169 6.2664 2.2986
2.7634 6.3333 2.2986
2.6410 6.4766 2.3274
2.5621 6.7462 2.4019
2.3973 6.8046 2.4019
2.2312 6.8590 2.4019
2.0639 6.9096 2.4019
1.8955 6.9561 2.4019
1.7260 6.9987 2.4019
1.5557 7.0373 2.4019
1.3845 7.0718 2.4019
1.2125 7.1023 2.4019
1.0399 7.1288 2.4019
0.8668 7.1511 2.4019
0.6932 7.1694 2.4019
0.5192 7.1836 2.4019
0.3449 7.1937 2.4019
0.1705 7.1997 2.4019
-0.0041 7.2016 2.4019
-0.1786 7.1994 2.4019
-0.3530 7.1931 2.4019
-0.5272 7.1827 2.4019
-0.7012 7.1682 2.4019
-0.8747 7.1496 2.4019
-1.0478 7.1269 2.4019
-1.2204 7.1002 2.4019
-1.3923 7.0694 2.4019
-1.5634 7.0346 2.4019
-1.7337 6.9957 2.4019
-1.9030 6.9528 2.4019
-2.0713 6.9060 2.4019
-2.2385 6.8552 2.4019
-2.4045 6.8004 2.4019
-2.5692 6.7418 2.4019
-2.7324 6.6793 2.4019
-2.8943 6.6129 2.4019
-3.0545 6.5427 2.4019
-3.2131 6.4688 2.4019
-3.3699 6.3910 2.4019
-3.5250 6.3096 2.4019
-3.6781 6.2246 2.4019
-3.8292 6.1359 2.4019
-3.9782 6.0436 2.4019
-4.1250 5.9478 2.4019
-4.2696 5.8486 2.4019
-4.4119 5.7459 2.4019
-4.5517 5.6398 2.4019
-4.6891 5.5304 2.4019
-4.8239 5.4178 2.4019
-4.9561 5.3019 2.4019
-5.0855 5.1829 2.4019
-5.2121 5.0608 2.4019
-5.3359 4.9356 2.4019
-5.4127 4.7688 2.3825
-5.4165 4.5440 2.3338
-5.4450 4.3477 2.2988
-5.5518 4.2170 2.2988
-5.6555 4.0838 2.2988
-5.7560 3.9480 2.2988
-5.8534 3.8098 2.2988
-5.9475 3.6692 2.2988
-6.0382 3.5264 2.2988
-6.1256 3.3814 2.2988
-6.2096 3.2342 2.2988
-6.2900 3.0850 2.2988
-6.3670 2.9338 2.2988
-6.4403 2.7807 2.2988
-6.5100 2.6259 2.2988
-6.5761 2.4693 2.2988
-6.6384 2.3111 2.2988
-6.6969 2.1513 2.2988
-6.7516 1.9901 2.2988
-6.8025 1.8276 2.2988
-6.8495 1.6637 2.2988
-6.8926 1.4986 2.2988
-6.9318 1.3325 2.2988
-6.9669 1.1654 2.2988
-6.9981 0.9973 2.2988
-7.0252 0.8285 2.2988
-7.0483 0.6589 2.2988
-7.0673 0.4887 2.2988
-7.0822 0.3180 2.2988
-7.0930 0.1469 2.2988
-7.0996 -0.0246 2.2988
-7.1022 -0.1963 2.2988
-7.1005 -0.3681 2.2988
-7.0948 -0.5399 2.2988
-7.0848 -0.7117 2.2988
-7.0707 -0.8832 2.2988
-7.0525 -1.0545 2.2988
-7.0300 -1.2255 2.2988
-7.0034 -1.3959 2.2988
-6.9727 -1.5657 2.2988
-6.9378 -1.7349 2.2988
-6.8989 -1.9033 2.2988
-6.8557 -2.0707 2.2988
-6.8085 -2.2372 2.2988
-6.7573 -2.4026 2.2988
-6.7020 -2.5668 2.2988
-6.6426 -2.7297 2.2988
-6.5793 -2.8913 2.2988
-6.5120 -3.0513 2.2988
-6.4408 -3.2097 2.2988
-6.3656 -3.3664 2.2988
-6.2867 -3.5213 2.2988
-6.2039 -3.6744 2.2988
-6.1173 -3.8254 2.2988
-6.0270 -3.9744 2.2988
-5.9330 -4.1212 2.2988
-5.8354 -4.2657 2.2988
-5.7343 -4.4079 2.2988
-5.6296 -4.5476 2.2988
-5.4262 -4.6047 2.3464
-5.4260 -4.8344 2.3947
-5.3265 -4.9813 2.4019
-5.2076 -5.1110 2.4019
-5.0854 -5.2378 2.4019
-4.9602 -5.3616 2.4019
-4.8318 -5.4823 2.4019
-4.7005 -5.5999 2.4019
-4.5662 -5.7142 2.4019
-4.4291 -5.8253 2.4019
-4.2893 -5.9329 2.4019
-4.1468 -6.0371 2.4019
-4.0017 -6.1379 2.4019
-3.8541 -6.2350 2.4019
-3.7041 -6.3285 2.4019
-3.5518 -6.4183 2.4019
-3.3973 -6.5043 2.4019
-3.2406 -6.5865 2.4019
-3.0819 -6.6648 2.4019
-2.9213 -6.7392 2.4019
-2.7588 -6.8096 2.4019
-2.5946 -6.8759 2.4019
-2.4288 -6.9383 2.4019
-2.2615 -6.9964 2.4019
-2.0927 -7.0505 2.4019
-1.9226 -7.1003 2.4019
-1.7513 -7.1459 2.4019
-1.5789 -7.1873 2.4019
-1.4054 -7.2244 2.4019
-1.2311 -7.2571 2.4019
-1.0561 -7.2856 2.4019
-0.8803 -7.3097 2.4019
-0.7040 -7.3294 2.4019
-0.5272 -7.3447 2.4019
-0.3501 -7.3557 2.4019
-0.1728 -7.3622 2.4019
0.0046 -7.3644 2.4019
0.1820 -7.3621 2.4019
0.3593 -7.3554 2.4019
0.5364 -7.3444 2.4019
0.7132 -7.3289 2.4019
0.8895 -7.3091 2.4019
1.0652 -7.2849 2.4019
1.2403 -7.2564 2.4019
1.4146 -7.2235 2.4019
1.5880 -7.1863 2.4019
1.7605 -7.1448 2.4019
1.9318 -7.0991 2.4019
2.1019 -7.0491 2.4019
2.2706 -6.9950 2.4019
2.4380 -6.9367 2.4019
2.6038 -6.8743 2.4019
2.6490 -6.5151 2.2986
2.8044 -6.4476 2.2986
2.9582 -6.3763 2.2986
3.1100 -6.3013 2.2986
3.2599 -6.2225 2.2986
3.4078 -6.1400 2.2986
3.5535 -6.0540 2.2986
3.5158 -5.6720 2.1859
3.8383 -5.8713 2.2986
3.9771 -5.7748 2.2986
4.1135 -5.6749 2.2986
4.2473 -5.5717 2.2986
4.3784 -5.4653 2.2986
4.5069 -5.3558 2.2986
4.6325 -5.2431 2.2986
4.7553 -5.1274 2.2986
4.8752 -5.0088 2.2986
4.9920 -4.8874 2.2986
5.1058 -4.7631 2.2986
5.2164 -4.6361 2.2986
5.3238 -4.5066 2.2986
5.4280 -4.3745 2.2986
5.5288 -4.2399 2.2986
5.6262 -4.1030 2.2986
5.7202 -3.9638 2.2986
5.8107 -3.8224 2.2986
5.8977 -3.6788 2.2986
5.9811 -3.5333 2.2986
6.0609 -3.3859 2.2986
6.1369 -3.2366 2.2986
6.2093 -3.0857 2.2986
6.2779 -2.9330 2.2986
6.3428 -2.7789 2.2986
6.4038 -2.6233 2.2986
6.3717 -2.4323 2.2668
6.3039 -2.2336 2.2244
6.2334 -2.0407 2.1830
6.1654 -1.8549 2.1443
6.0989 -1.6754 2.1079
6.0337 -1.5018 2.0737
5.9698 -1.3337 2.0415
5.8992 -1.1691 2.0085
5.7790 -1.0009 1.9601
5.7134 -0.8480 1.9317
5.6495 -0.6995 1.9052
5.5869 -0.5551 1.8803
5.5257 -0.4145 1.8571
5.4657 -0.2774 1.8355
5.4021 -0.1435 1.8137
5.3101 -0.0127 1.7835
5.2742 0.1149 1.7731
5.2595 0.2418 1.7709
5.2448 0.3683 1.7696
5.2300 0.4945 1.7694
5.2150 0.6206 1.7701
5.2000 0.7467 1.7719
5.1847 0.8729 1.7746
5.1694 0.9994 1.7784
5.1351 1.1222 1.7766
5.2358 1.2776 1.8229
5.3997 1.4568 1.8929
5.5764 1.6502 1.9697
5.7679 1.8597 2.0540
6.0092 2.0992 2.1588
6.2698 2.3619 2.2738
6.2746 2.5387 2.2986
6.2073 2.6880 2.2986
6.1365 2.8355 2.2986
6.0622 2.9812 2.2986
5.9845 3.1251 2.2986
5.9035 3.2669 2.2986
5.8191 3.4067 2.2986
5.7315 3.5444 2.2986
5.6407 3.6799 2.2986
5.5467 3.8131 2.2986
5.4497 3.9440 2.2986
5.3496 4.0724 2.2986
5.2465 4.1984 2.2986
5.1405 4.3218 2.2986
5.0317 4.4426 2.2986
4.9201 4.5607 2.2986
4.8057 4.6761 2.2986
4.6888 4.7888 2.2986
4.5692 4.8985 2.2986
4.4471 5.0053 2.2986
4.3226 5.1092 2.2986
4.1957 5.2100 2.2986
4.0665 5.3078 2.2986
3.9351 5.4025 2.2986
3.8015 5.4939 2.2986
3.6659 5.5822 2.2986
3.5282 5.6672 2.2986
3.3886 5.7489 2.2986
3.2472 5.8273 2.2986
3.1040 5.9022 2.2986
2.9592 5.9738 2.2986
2.8127 6.0419 2.2986
2.6647 6.1064 2.2986
2.6282 6.4445 2.4019
2.4707 6.5046 2.4019
2.3118 6.5610 2.4019
2.1516 6.6136 2.4019
1.9903 6.6623 2.4019
1.8279 6.7073 2.4019
1.6645 6.7484 2.4019
1.5002 6.7856 2.4019
1.3351 6.8189 2.4019
1.1693 6.8484 2.4019
1.0029 6.8739 2.4019
0.8359 6.8955 2.4019
0.6685 6.9132 2.4019
0.5007 6.9269 2.4019
0.3326 6.9367 2.4019
0.1644 6.9425 2.4019
-0.0039 6.9443 2.4019
-0.1722 6.9422 2.4019
-0.3404 6.9361 2.4019
-0.5084 6.9260 2.4019
-0.6762 6.9120 2.4019
-0.8436 6.8941 2.4019
-1.0105 6.8722 2.4019
-1.1769 6.8464 2.4019
-1.3426 6.8166 2.4019
-1.5076 6.7830 2.4019
-1.6718 6.7455 2.4019
-1.8351 6.7041 2.4019
-1.9974 6.6589 2.4019
-2.1586 6.6099 2.4019
-2.3187 6.5570 2.4019
-2.4775 6.5004 2.4019
-2.6349 6.4401 2.4019
-2.7909 6.3760 2.4019
-2.9454 6.3083 2.4019
-3.0983 6.2369 2.4019
-3.2495 6.1619 2.4019
-3.3990 6.0834 2.4019
-3.5466 6.0013 2.4019
-3.6922 5.9157 2.4019
-3.8358 5.8266 2.4019
-3.9774 5.7342 2.4019
-4.1168 5.6384 2.4019
-4.2539 5.5393 2.4019
-4.3887 5.4370 2.4019
-4.5210 5.3314 2.4019
-4.6509 5.2227 2.4019
-4.7783 5.1109 2.4019
-4.9030 4.9961 2.4019
-5.0250 4.8783 2.4019
-5.1442 4.7576 2.4019
-5.2606 4.6340 2.4019
-5.3741 4.5076 2.4019
-5.4134 4.3217 2.3707
-5.4186 4.1151 2.3274
-5.4519 3.9360 2.2988
-5.5487 3.8050 2.2988
-5.6424 3.6718 2.2988
-5.7330 3.5362 2.2988
-5.8204 3.3984 2.2988
-5.9045 3.2586 2.2988
-5.9853 3.1167 2.2988
-6.0627 2.9728 2.2988
-6.1367 2.8270 2.2988
-6.2073 2.6794 2.2988
-6.2743 2.5301 2.2988
-6.3378 2.3791 2.2988
-6.3978 2.2266 2.2988
-6.4540 2.0726 2.2988
-6.5066 1.9172 2.2988
-6.5555 1.7605 2.2988
-6.6007 1.6025 2.2988
-6.6420 1.4434 2.2988
-6.6796 1.2833 2.2988
-6.7133 1.1222 2.2988
-6.7432 0.9603 2.2988
-6.7692 0.7975 2.2988
-6.7913 0.6341 2.2988
-6.8094 0.4701 2.2988
-6.8236 0.3057 2.2988
-6.8338 0.1408 2.2988
-6.8401 -0.0244 2.2988
-6.8423 -0.1898 2.2988
-6.8406 -0.3553 2.2988
-6.8349 -0.5209 2.2988
-6.8251 -0.6863 2.2988
-6.8114 -0.8516 2.2988
-6.7936 -1.0166 2.2988
-6.7718 -1.1812 2.2988
-6.7461 -1.3453 2.2988
-6.7163 -1.5089 2.2988
-6.6826 -1.6718 2.2988
-6.6448 -1.8339 2.2988
-6.6032 -1.9952 2.2988
-6.5576 -2.1555 2.2988
-6.5080 -2.3148 2.2988
-6.4546 -2.4728 2.2988
-6.3973 -2.6297 2.2988
-6.3362 -2.7852 2.2988
-6.2712 -2.9392 2.2988
-6.2025 -3.0917 2.2988
-6.1300 -3.2425 2.2988
-6.0538 -3.3917 2.2988
-5.9739 -3.5390 2.2988
-5.8905 -3.6843 2.2988
-5.8034 -3.8277 2.2988
-5.7128 -3.9690 2.2988
-5.6187 -4.1080 2.2988
-5.5212 -4.2448 2.2988
-5.4354 -4.3915 2.3052
-5.3538 -4.5441 2.4019
-5.2455 -4.6743 2.4019
-5.1339 -4.8020 2.4019
-5.0192 -4.9269 2.4019
-4.9014 -5.0490 2.4019
-4.7806 -5.1682 2.4019
-4.6568 -5.2845 2.4019
-4.5301 -5.3977 2.4019
-4.4007 -5.5079 2.4019
-4.2685 -5.6148 2.4019
-4.1337 -5.7185 2.4019
-3.9963 -5.8188 2.4019
-3.8564 -5.9158 2.4019
-3.7141 -6.0094 2.4019
-3.5695 -6.0994 2.4019
-3.4227 -6.1858 2.4019
-3.2738 -6.2686 2.4019
-3.1228 -6.3478 2.4019
-2.9698 -6.4232 2.4019
-2.8150 -6.4948 2.4019
-2.6584 -6.5626 2.4019
-2.5002 -6.6265 2.4019
-2.3404 -6.6864 2.4019
-2.1791 -6.7424 2.4019
-2.0165 -6.7945 2.4019
-1.8525 -6.8424 2.4019
-1.6875 -6.8864 2.4019
-1.5213 -6.9262 2.4019
-1.3542 -6.9619 2.4019
-1.1863 -6.9934 2.4019
-1.0175 -7.0208 2.4019
-0.8482 -7.0440 2.4019
-0.6783 -7.0629 2.4019
-0.5080 -7.0777 2.4019
-0.3374 -7.0882 2.4019
-0.1665 -7.0946 2.4019
0.0044 -7.0966 2.4019
0.1754 -7.0944 2.4019
0.3463 -7.0880 2.4019
0.5169 -7.0774 2.4019
0.6872 -7.0625 2.4019
0.8571 -7.0434 2.4019
1.0264 -7.0201 2.4019
1.1951 -6.9926 2.4019
1.3631 -6.9610 2.4019
1.5302 -6.9252 2.4019
1.6963 -6.8853 2.4019
1.8614 -6.8412 2.4019
2.0253 -6.7931 2.4019
2.1879 -6.7410 2.4019
2.3492 -6.6849 2.4019
2.5090 -6.6248 2.4019
2.6177 -6.4390 2.3573
2.7024 -6.2138 2.2986
2.8506 -6.1451 2.2986
2.9969 -6.0728 2.2986
3.1414 -5.9970 2.2986
3.2839 -5.9176 2.2986
3.4244 -5.8347 2.2986
3.5152 -5.6718 2.2679
3.6989 -5.6588 2.2986
3.8327 -5.5659 2.2986
3.9642 -5.4697 2.2986
4.0932 -5.3704 2.2986
4.2197 -5.2679 2.2986
4.3435 -5.1624 2.2986
4.4647 -5.0539 2.2986
4.5831 -4.9425 2.2986
4.6987 -4.8282 2.2986
4.8114 -4.7112 2.2986
4.9211 -4.5916 2.2986
5.0278 -4.4693 2.2986
5.1314 -4.3445 2.2986
5.2319 -4.2172 2.2986
5.3292 -4.0876 2.2986
5.4232 -3.9556 2.2986
5.5139 -3.8215 2.2986
5.6013 -3.6853 2.2986
5.6853 -3.5470 2.2986
5.7657 -3.4068 2.2986
5.8427 -3.2648 2.2986
5.9162 -3.1210 2.2986
5.9861 -2.9755 2.2986
6.0524 -2.8284 2.2986
6.1150 -2.6798 2.2986
6.1740 -2.5299 2.2986
6.2292 -2.3786 2.2986
6.2608 -2.2191 2.2913
6.1851 -2.0256 2.2465
6.1100 -1.8389 2.2039
6.0405 -1.6601 2.1652
5.9769 -1.4884 2.1303
5.9145 -1.3220 2.0975
5.8531 -1.1607 2.0666
5.7561 -0.9976 2.0246
5.6911 -0.8453 1.9954
5.6277 -0.6974 1.9680
5.5657 -0.5536 1.9424
5.5050 -0.4136 1.9185
5.4455 -0.2770 1.8962
5.3870 -0.1437 1.8754
5.3037 -0.0133 1.8470
5.2662 0.1141 1.8356
5.2516 0.2409 1.8333
5.2369 0.3672 1.8320
5.2221 0.4932 1.8317
5.2072 0.6191 1.8324
5.1921 0.7450 1.8342
5.1769 0.8710 1.8370
5.1616 0.9973 1.8408
5.1373 1.1221 1.8425
5.2307 1.2758 1.8878
5.3942 1.4547 1.9602
5.5706 1.6478 2.0396
5.7580 1.8558 2.1254
5.9806 2.0885 2.2270
6.1150 2.3029 2.2986
6.0537 2.4486 2.2986
5.9889 2.5927 2.2986
5.9207 2.7351 2.2986
5.8491 2.8757 2.2986
5.7743 3.0146 2.2986
5.6962 3.1515 2.2986
5.6149 3.2865 2.2986
5.5305 3.4194 2.2986
5.4430 3.5502 2.2986
5.3524 3.6788 2.2986
5.2588 3.8051 2.2986
5.1623 3.9292 2.2986
5.0630 4.0508 2.2986
4.9608 4.1700 2.2986
4.8558 4.2866 2.2986
4.7482 4.4007 2.2986
4.6379 4.5121 2.2986
4.5251 4.6209 2.2986
4.4098 4.7269 2.2986
4.2920 4.8300 2.2986
4.1719 4.9304 2.2986
4.0495 5.0278 2.2986
3.9248 5.1222 2.2986
3.7981 5.2136 2.2986
3.6692 5.3020 2.2986
3.5383 5.3872 2.2986
3.4055 5.4694 2.2986
3.2708 5.5483 2.2986
3.1343 5.6240 2.2986
2.9962 5.6964 2.2986
2.8564 5.7655 2.2986
2.7150 5.8313 2.2986
2.6349 6.0375 2.3547
2.5370 6.2201 2.4019
2.3849 6.2781 2.4019
2.2315 6.3325 2.4019
2.0769 6.3833 2.4019
1.9212 6.4305 2.4019
1.7645 6.4739 2.4019
1.6068 6.5136 2.4019
1.4482 6.5496 2.4019
1.2888 6.5818 2.4019
1.1288 6.6102 2.4019
0.9681 6.6349 2.4019
0.8069 6.6558 2.4019
0.6453 6.6728 2.4019
0.4833 6.6861 2.4019
0.3211 6.6955 2.4019
0.1587 6.7011 2.4019
-0.0038 6.7029 2.4019
-0.1662 6.7009 2.4019
-0.3286 6.6950 2.4019
-0.4908 6.6853 2.4019
-0.6528 6.6717 2.4019
-0.8143 6.6544 2.4019
-0.9755 6.6332 2.4019
-1.1361 6.6083 2.4019
-1.2961 6.5796 2.4019
-1.4553 6.5471 2.4019
-1.6139 6.5109 2.4019
-1.7715 6.4709 2.4019
-1.9281 6.4272 2.4019
-2.0837 6.3798 2.4019
-2.2382 6.3288 2.4019
-2.3915 6.2741 2.4019
-2.5434 6.2158 2.4019
-2.6940 6.1539 2.4019
-2.8431 6.0885 2.4019
-2.9907 6.0195 2.4019
-3.1366 5.9471 2.4019
-3.2808 5.8712 2.4019
-3.4232 5.7919 2.4019
-3.5638 5.7092 2.4019
-3.7024 5.6232 2.4019
-3.8390 5.5339 2.4019
-3.9734 5.4414 2.4019
-4.1057 5.3457 2.4019
-4.2358 5.2468 2.4019
-4.3635 5.1449 2.4019
-4.4888 5.0399 2.4019
-4.6116 4.9319 2.4019
-4.7319 4.8210 2.4019
-4.8496 4.7073 2.4019
-4.9645 4.5907 2.4019
-5.0768 4.4714 2.4019
-5.1862 4.3493 2.4019
-5.2927 4.2247 2.4019
-5.3963 4.0975 2.4019
-5.4139 3.9079 2.3656
-5.4193 3.7156 2.3267
-5.4447 3.5424 2.2988
-5.5320 3.4115 2.2988
-5.6162 3.2785 2.2988
-5.6973 3.1435 2.2988
-5.7751 3.0065 2.2988
-5.8497 2.8676 2.2988
-5.9210 2.7269 2.2988
-5.9890 2.5845 2.2988
-6.0536 2.4403 2.2988
-6.1147 2.2946 2.2988
-6.1724 2.1474 2.2988
-6.2265 1.9988 2.2988
-6.2771 1.8488 2.2988
-6.3242 1.6976 2.2988
-6.3676 1.5452 2.2988
-6.4074 1.3917 2.2988
-6.4435 1.2372 2.2988
-6.4758 1.0818 2.2988
-6.5045 0.9256 2.2988
-6.5294 0.7686 2.2988
-6.5506 0.6109 2.2988
-6.5679 0.4527 2.2988
-6.5815 0.2941 2.2988
-6.5912 0.1350 2.2988
-6.5971 -0.0243 2.2988
-6.5991 -0.1838 2.2988
-6.5973 -0.3434 2.2988
-6.5916 -0.5031 2.2988
-6.5821 -0.6626 2.2988
-6.5686 -0.8220 2.2988
-6.5514 -0.9811 2.2988
-6.5302 -1.1398 2.2988
-6.5052 -1.2980 2.2988
-6.4764 -1.4557 2.2988
-6.4437 -1.6128 2.2988
-6.4072 -1.7691 2.2988
-6.3669 -1.9245 2.2988
-6.3227 -2.0791 2.2988
-6.2749 -2.2326 2.2988
-6.2232 -2.3849 2.2988
-6.1678 -2.5361 2.2988
-6.1087 -2.6859 2.2988
-6.0460 -2.8344 2.2988
-5.9796 -2.9813 2.2988
-5.9096 -3.1267 2.2988
-5.8360 -3.2704 2.2988
-5.7589 -3.4123 2.2988
-5.6783 -3.5524 2.2988
-5.6153 -3.7044 2.3074
-5.5069 -3.8266 2.2988
-5.4345 -3.9741 2.3066
-5.4262 -4.1726 2.3438
-5.4254 -4.3841 2.3871
-5.1658 -4.3852 2.4019
-5.0612 -4.5108 2.4019
-4.9534 -4.6339 2.4019
-4.8427 -4.7544 2.4019
-4.7289 -4.8721 2.4019
-4.6123 -4.9871 2.4019
-4.4928 -5.0992 2.4019
-4.3705 -5.2083 2.4019
-4.2456 -5.3145 2.4019
-4.1180 -5.4176 2.4019
-3.9879 -5.5175 2.4019
-3.8553 -5.6143 2.4019
-3.7203 -5.7078 2.4019
-3.5830 -5.7979 2.4019
-3.4435 -5.8847 2.4019
-3.3018 -5.9680 2.4019
-3.1581 -6.0479 2.4019
-3.0124 -6.1242 2.4019
-2.8648 -6.1968 2.4019
-2.7154 -6.2659 2.4019
-2.5644 -6.3312 2.4019
-2.4117 -6.3928 2.4019
-2.2576 -6.4506 2.4019
-2.1020 -6.5045 2.4019
-1.9451 -6.5547 2.4019
-1.7869 -6.6009 2.4019
-1.6277 -6.6432 2.4019
-1.4674 -6.6816 2.4019
-1.3062 -6.7160 2.4019
-1.1442 -6.7464 2.4019
-0.9815 -6.7728 2.4019
-0.8181 -6.7951 2.4019
-0.6543 -6.8134 2.4019
-0.4900 -6.8276 2.4019
-0.3254 -6.8378 2.4019
-0.1606 -6.8439 2.4019
0.0043 -6.8458 2.4019
0.1692 -6.8437 2.4019
0.3340 -6.8376 2.4019
0.4986 -6.8273 2.4019
0.6629 -6.8130 2.4019
0.8267 -6.7946 2.4019
0.9901 -6.7721 2.4019
1.1528 -6.7456 2.4019
1.3148 -6.7151 2.4019
1.4760 -6.6806 2.4019
1.6362 -6.6421 2.4019
1.7955 -6.5997 2.4019
1.9536 -6.5534 2.4019
2.1105 -6.5031 2.4019
2.2661 -6.4490 2.4019
2.4202 -6.3911 2.4019
2.5729 -6.3294 2.4019
2.6266 -6.0402 2.3161
2.7497 -5.9285 2.2986
2.8910 -5.8589 2.2986
3.0304 -5.7857 2.2986
3.1679 -5.7092 2.2986
3.3035 -5.6294 2.2986
3.4370 -5.5462 2.2986
3.5683 -5.4598 2.2986
3.6975 -5.3702 2.2986
3.8244 -5.2775 2.2986
3.9489 -5.1817 2.2986
4.0709 -5.0829 2.2986
4.1905 -4.9812 2.2986
4.3074 -4.8766 2.2986
4.4217 -4.7692 2.2986
4.5333 -4.6590 2.2986
4.6421 -4.5462 2.2986
4.7481 -4.4308 2.2986
4.8511 -4.3129 2.2986
4.9512 -4.1925 2.2986
5.0482 -4.0698 2.2986
5.1421 -3.9448 2.2986
5.2330 -3.8176 2.2986
5.3206 -3.6882 2.2986
5.4050 -3.5568 2.2986
5.4861 -3.4235 2.2986
5.5639 -3.2883 2.2986
5.6383 -3.1512 2.2986
5.7093 -3.0125 2.2986
5.7768 -2.8722 2.2986
5.8409 -2.7303 2.2986
5.9015 -2.5869 2.2986
5.9585 -2.4423 2.2986
6.0119 -2.2963 2.2986
6.0618 -2.1492 2.2986
6.1080 -2.0010 2.2986
6.0751 -1.8291 2.2704
6.0033 -1.6505 2.2295
5.9335 -1.4782 2.1911
5.8656 -1.3118 2.1551
5.7998 -1.1507 2.1215
5.7331 -0.9943 2.0891
5.6688 -0.8426 2.0590
5.6059 -0.6954 2.0308
5.5445 -0.5521 2.0045
5.4843 -0.4126 1.9799
5.4252 -0.2766 1.9569
5.3672 -0.1437 1.9354
5.2972 -0.0138 1.9108
5.2582 0.1134 1.8984
5.2436 0.2399 1.8960
5.2289 0.3660 1.8946
5.2141 0.4919 1.8942
5.1993 0.6176 1.8950
5.1842 0.7433 1.8967
5.1691 0.8691 1.8996
5.1537 0.9952 1.9035
5.1382 1.1217 1.9085
5.2256 1.2739 1.9531
5.3867 1.4521 2.0271
5.5582 1.6435 2.1074
5.7403 1.8494 2.1942
5.9520 2.0778 2.2951
5.9054 2.2233 2.2986
5.8463 2.3640 2.2986
5.7838 2.5032 2.2986
5.7180 2.6408 2.2986
5.6491 2.7767 2.2986
5.5769 2.9108 2.2986
5.5016 3.0431 2.2986
5.4232 3.1735 2.2986
5.3417 3.3020 2.2986
5.2573 3.4284 2.2986
5.1699 3.5526 2.2986
5.0796 3.6747 2.2986
4.9864 3.7946 2.2986
4.8905 3.9121 2.2986
4.7919 4.0273 2.2986
4.6906 4.1401 2.2986
4.5867 4.2503 2.2986
4.4803 4.3581 2.2986
4.3713 4.4632 2.2986
4.2600 4.5656 2.2986
4.1463 4.6653 2.2986
4.0303 4.7623 2.2986
3.9121 4.8565 2.2986
3.7917 4.9478 2.2986
3.6693 5.0362 2.2986
3.5448 5.1216 2.2986
3.4184 5.2040 2.2986
3.2901 5.2834 2.2986
3.1601 5.3597 2.2986
3.0282 5.4329 2.2986
2.8948 5.5029 2.2986
2.7597 5.5698 2.2986
2.6428 5.6756 2.3158
2.5968 5.9494 2.4019
2.4512 6.0091 2.4019
2.3043 6.0652 2.4019
2.1561 6.1178 2.4019
2.0068 6.1669 2.4019
1.8563 6.2125 2.4019
1.7049 6.2545 2.4019
1.5525 6.2929 2.4019
1.3993 6.3277 2.4019
1.2453 6.3589 2.4019
1.0907 6.3864 2.4019
0.9354 6.4102 2.4019
0.7797 6.4304 2.4019
0.6235 6.4469 2.4019
0.4670 6.4598 2.4019
0.3103 6.4689 2.4019
0.1534 6.4743 2.4019
-0.0036 6.4760 2.4019
-0.1606 6.4740 2.4019
-0.3175 6.4683 2.4019
-0.4742 6.4590 2.4019
-0.6307 6.4459 2.4019
-0.7868 6.4291 2.4019
-0.9425 6.4086 2.4019
-1.0977 6.3845 2.4019
-1.2523 6.3568 2.4019
-1.4062 6.3253 2.4019
-1.5594 6.2903 2.4019
-1.7116 6.2516 2.4019
-1.8630 6.2094 2.4019
-2.0133 6.1636 2.4019
-2.1626 6.1142 2.4019
-2.3106 6.0614 2.4019
-2.4575 6.0050 2.4019
-2.6029 5.9451 2.4019
-2.7470 5.8819 2.4019
-2.8895 5.8152 2.4019
-3.0305 5.7451 2.4019
-3.1698 5.6718 2.4019
-3.3073 5.5951 2.4019
-3.4431 5.5152 2.4019
-3.5770 5.4320 2.4019
-3.7089 5.3457 2.4019
-3.8388 5.2562 2.4019
-3.9665 5.1637 2.4019
-4.0921 5.0681 2.4019
-4.2154 4.9696 2.4019
-4.3364 4.8681 2.4019
-4.4550 4.7637 2.4019
-4.5711 4.6565 2.4019
-4.6847 4.5466 2.4019
-4.7958 4.4339 2.4019
-4.9041 4.3186 2.4019
-5.0097 4.2006 2.4019
-5.1126 4.0802 2.4019
-5.2126 3.9572 2.4019
-5.3096 3.8319 2.4019
-5.4037 3.7042 2.4019
-5.4145 3.5220 2.3667
-5.4188 3.3410 2.3313
-5.4263 3.1670 2.2996
-5.5027 3.0354 2.2988
-5.5777 2.9031 2.2988
-5.6497 2.7689 2.2988
-5.7185 2.6329 2.2988
-5.7840 2.4953 2.2988
-5.8462 2.3561 2.2988
-5.9052 2.2153 2.2988
-5.9607 2.0731 2.2988
-6.0129 1.9295 2.2988
-6.0617 1.7847 2.2988
-6.1070 1.6386 2.2988
-6.1488 1.4914 2.2988
-6.1871 1.3432 2.2988
-6.2218 1.1940 2.2988
-6.2529 1.0439 2.2988
-6.2805 0.8930 2.2988
-6.3044 0.7414 2.2988
-6.3247 0.5892 2.2988
