ply
format ascii 1.0
element vertex 1966
property float32 x
property float32 y
property float32 z
end_header
-19.8258 28.7313 -5.5124
-9.0949 12.5223 -2.4457
-9.0373 11.8316 -2.3545
-9.3087 11.5956 -2.3534
-9.5820 11.3629 -2.3544
-9.8578 11.1332 -2.3573
-10.1367 10.9060 -2.3624
-10.4192 10.6808 -2.3694
-10.6178 10.3713 -2.3591
-10.9133 10.1569 -2.3717
-11.3328 10.0478 -2.4117
-11.3352 9.5712 -2.3646
-12.0027 9.6482 -2.4568
-12.3516 9.4470 -2.4833
-12.7112 9.2443 -2.5125
-11.8550 8.1915 -2.3058
-11.8411 7.7664 -2.2684
-11.8045 7.3410 -2.2291
-11.7746 6.9338 -2.1935
-12.4735 6.9454 -2.2943
-12.0224 6.3188 -2.1850
-13.0948 6.4838 -2.3534
-12.9955 6.0484 -2.3112
-13.7703 6.0088 -2.4253
-13.9577 5.6934 -2.4362
-14.1497 5.3769 -2.4491
-13.6728 4.8211 -2.3485
-11.6355 3.7894 -1.9846
-52.8040 15.7965 -8.9494
-26.7862 7.3132 -4.5140
-26.6413 6.5864 -4.4668
-26.9298 5.9714 -4.4951
-37.3779 7.3457 -6.2153
-17.0844 2.9308 -2.8317
-26.8870 3.9463 -4.4448
-17.2790 2.1110 -2.8507
-17.1264 1.6736 -2.8215
-16.9028 1.2403 -2.7823
-16.2089 0.7963 -2.6675
-16.6864 0.4159 -2.7470
-16.8266 0.0128 -2.7726
-15.6561 -0.3665 -2.5837
-15.9561 -0.7596 -2.6387
-16.0490 -1.1533 -2.6612
-14.1923 -1.3653 -2.3610
-15.8344 -1.9105 -2.6443
-15.6841 -2.2782 -2.6308
-15.5557 -2.6449 -2.6224
-15.4485 -3.0125 -2.6190
-14.9449 -3.2911 -2.5495
-16.9302 -4.1597 -2.9079
-16.3392 -4.4359 -2.8274
-10.3225 -3.0722 -1.8007
-10.0702 -3.2641 -1.7720
-9.8289 -3.4506 -1.7457
-9.4073 -3.5603 -1.6876
-9.3253 -3.7894 -1.6907
-8.9734 -3.9017 -1.6454
-8.7248 -4.0472 -1.6191
-9.4909 -4.6847 -1.7837
-9.7904 -5.1305 -1.8648
-9.7793 -5.4301 -1.8892
-9.6117 -5.6453 -1.8846
-8.3761 -5.1960 -1.6683
-8.4930 -5.5573 -1.7196
-8.9690 -6.1835 -1.8476
-8.9186 -6.4725 -1.8708
-9.3397 -7.1292 -1.9966
-15.8878 -12.7472 -3.4647
-15.4890 -13.0572 -3.2184
-12.3108 -10.8980 -2.6146
-12.7864 -11.8829 -2.7785
-12.3872 -12.0832 -2.7571
-12.2934 -12.5861 -2.8058
-12.0639 -12.9641 -2.8266
-12.2495 -13.8192 -2.9502
-8.7160 -10.3256 -2.1606
-8.6160 -10.7229 -2.2012
-8.5172 -11.1414 -2.2460
-10.3611 -14.2554 -2.8246
-10.6600 -15.4385 -3.0092
-11.9349 -18.2118 -3.4950
-11.8465 -19.0676 -3.6057
-11.5692 -19.6672 -3.6676
-17.3624 -31.2198 -5.7456
-16.3882 -31.2231 -5.6751
-21.3527 -43.1894 -7.7585
-18.2484 -39.2745 -6.9778
-11.6430 -26.7321 -4.7005
-10.5773 -25.9851 -4.5251
-9.0324 -23.8246 -4.1116
-8.4188 -23.9378 -4.0967
-7.8127 -24.0591 -4.0856
-7.2127 -24.1887 -4.0784
-6.5810 -24.1930 -4.0525
-5.8698 -23.8417 -3.9701
-8.0052 -36.2746 -6.0082
-9.1120 -46.6236 -7.6857
-15.9977 -93.8659 -15.4089
5.0470 -68.8587 -11.1821
7.1186 -72.8843 -11.8593
4.5550 -37.2866 -6.0825
5.4377 -37.0421 -6.0614
6.4334 -37.4887 -6.1571
13.5617 -68.9718 -11.3761
12.7371 -57.4040 -9.5139
14.4452 -58.3845 -9.7289
15.6147 -57.1438 -9.5795
15.0288 -50.1910 -8.4697
16.4457 -50.4476 -8.5746
18.0097 -51.0217 -8.7403
27.9117 -73.3687 -12.6752
24.1350 -59.0978 -10.3031
17.3722 -39.7619 -7.0000
18.0749 -38.7844 -6.8995
19.0155 -38.3514 -6.8987
13.8666 -26.3454 -4.7953
14.4457 -25.9051 -4.7746
14.9600 -25.3646 -4.7374
15.5163 -24.9104 -4.7183
17.0677 -25.9789 -4.9942
17.7804 -25.6874 -5.0159
18.2078 -24.9907 -4.9609
27.3903 -35.7442 -7.2197
19.0486 -23.6507 -4.8649
13.4201 -15.8612 -3.3258
13.6615 -15.3762 -3.2898
27.8575 -29.8668 -6.5269
18.0333 -18.4200 -4.1160
29.8664 -29.0659 -6.6484
15.3969 -14.2756 -3.3465
14.3109 -12.6390 -3.0403
14.6454 -12.3170 -3.0443
14.9853 -11.9964 -3.0507
15.3313 -11.6764 -3.0597
15.5685 -11.2727 -3.0487
16.0570 -11.0447 -3.0879
16.5047 -10.7741 -3.1197
13.3052 -8.2337 -2.4739
14.1171 -8.2709 -2.5841
14.7297 -8.1579 -2.6564
14.8747 -7.7744 -2.6449
15.0087 -7.3880 -2.6332
15.3455 -7.0982 -2.6583
15.6459 -6.7829 -2.6780
16.2886 -6.5985 -2.7566
3.5142 -1.3256 -0.5884
3.5859 -1.2545 -0.5945
19.0887 -6.1644 -3.1350
19.3691 -5.7418 -3.1534
19.5954 -5.2971 -3.1645
19.6332 -4.8013 -3.1470
19.5536 -4.2837 -3.1128
19.4799 -3.7766 -3.0817
18.6349 -3.1475 -2.9314
19.3288 -2.7861 -3.0251
20.0819 -2.4008 -3.1289
24.4054 -2.3209 -3.7878
23.5686 -1.6678 -3.6458
13.6704 -0.6358 -2.1089
13.7541 -0.3069 -2.1173
24.4251 0.0453 -3.7540
21.8320 0.5682 -3.3522
22.4820 1.1292 -3.4506
37.1268 2.7654 -5.6993
36.3869 3.5961 -5.5900
31.9510 3.9393 -4.9152
23.7523 3.5129 -3.6612
18.1629 3.1364 -2.8068
19.9595 3.9455 -3.0942
17.3724 3.8723 -2.7033
18.1775 4.5153 -2.8410
18.2886 5.0150 -2.8727
18.4075 5.5290 -2.9078
18.4169 6.0204 -2.9276
18.4036 6.5122 -2.9459
18.3942 7.0132 -2.9668
16.7988 6.8741 -2.7321
16.4107 7.1828 -2.6930
18.6486 8.7049 -3.0900
16.4778 8.1819 -2.7589
17.9396 9.4546 -3.0373
15.7935 8.8172 -2.7060
15.8418 9.3530 -2.7489
16.1548 10.0717 -2.8413
23.0748 15.1716 -4.1168
22.3267 15.4647 -4.0442
21.7528 15.8578 -4.0039
21.4339 16.4323 -4.0127
20.8478 16.7976 -3.9734
18.9149 16.0086 -3.6737
18.1021 16.0867 -3.5865
17.2921 16.1307 -3.4986
18.1599 17.7792 -3.7561
17.4026 17.8809 -3.6841
17.4616 18.8304 -3.7881
39.9675 45.2439 -8.8966
51.0870 60.7251 -11.6841
50.7234 63.3357 -11.9366
55.6412 73.0216 -13.4931
57.4235 79.2588 -14.3732
19.0283 30.7209 -5.2942
16.8251 28.6883 -4.8689
13.2514 26.8814 -4.3787
12.7105 27.4349 -4.4148
12.1010 27.8635 -4.4329
11.4712 28.2614 -4.4483
10.6577 28.1913 -4.3932
15.1788 43.2805 -6.6822
8.4320 26.0390 -3.9858
27.0785 91.0644 -13.8291
24.1381 88.9828 -13.4152
22.9624 93.5269 -14.0074
-14.7597 49.4144 -7.5027
-15.0955 46.4223 -7.1045
-7.0527 20.0312 -3.0921
-7.5859 19.9916 -3.1147
-8.0719 19.8168 -3.1185
-8.5568 19.6367 -3.1233
-9.0138 19.3934 -3.1200
-6.7424 13.6354 -2.2205
-7.2507 13.8138 -2.2788
-7.7908 14.0101 -2.3430
-10.1911 17.3281 -2.9402
-8.4439 13.5952 -2.3423
-7.6775 11.7203 -2.0521
-8.0609 11.6804 -2.0802
-8.4459 11.6275 -2.1081
-8.7020 11.3913 -2.1045
-8.9601 11.1601 -2.1029
-9.2207 10.9332 -2.1032
-9.4845 10.7102 -2.1057
-9.7519 10.4907 -2.1101
-10.0236 10.2740 -2.1165
-10.3003 10.0598 -2.1251
-10.3056 9.5899 -2.0798
-10.9169 9.6777 -2.1575
-11.2503 9.4982 -2.1797
-10.9738 8.8200 -2.0864
-11.1464 8.5241 -2.0817
-11.2899 8.2095 -2.0731
-11.2544 7.7753 -2.0337
-11.2248 7.3610 -1.9979
-14.9386 9.2883 -2.6212
-12.4317 7.3195 -2.1521
-12.0426 6.7041 -2.0585
-11.2935 5.9345 -1.9077
-12.9980 6.4346 -2.1713
-13.0780 6.0854 -2.1621
-13.4052 5.8481 -2.1949
-13.5864 5.5406 -2.2047
-13.7718 5.2319 -2.2164
-33.1977 11.7022 -5.3024
-13.6415 4.4413 -2.1638
-14.6104 4.3694 -2.3030
-27.1223 7.4023 -4.2513
-27.1954 6.7208 -4.2415
-18.0555 3.5466 -2.7933
-26.8682 4.6066 -4.1436
-26.7720 3.9269 -4.1184
-16.7776 2.0482 -2.5760
-16.6350 1.6240 -2.5507
-16.0910 1.1792 -2.4654
-16.3573 0.8020 -2.5058
-16.0980 0.3998 -2.4672
-15.8515 0.0105 -2.4319
-16.7231 -0.3931 -2.5697
-17.3642 -0.8283 -2.6740
-18.0374 -1.2979 -2.7854
-14.1907 -1.3665 -2.1987
-22.3436 -2.6980 -3.4755
-22.4736 -3.2665 -3.5116
-22.3570 -3.8034 -3.5113
-18.1003 -3.5313 -2.8590
-17.3194 -3.8157 -2.7530
-11.3335 -2.7857 -1.8140
-10.8409 -2.9442 -1.7483
-9.9949 -2.9757 -1.6250
-9.7559 -3.1632 -1.6001
-9.4462 -3.3172 -1.5639
-9.2599 -3.5054 -1.5486
-8.9549 -3.6398 -1.5137
-8.5340 -3.7116 -1.4591
-8.7519 -4.0607 -1.5144
-8.9903 -4.4385 -1.5757
-9.2523 -4.8495 -1.6436
-9.5387 -5.2975 -1.7187
-9.3595 -5.4982 -1.7118
-9.1841 -5.6982 -1.7063
-8.2233 -5.3818 -1.5532
-8.3151 -5.7337 -1.5980
-8.7087 -6.3212 -1.7044
-8.8769 -6.7770 -1.7707
-9.0621 -7.2719 -1.8441
-8.6032 -7.2536 -1.6601
-8.5570 -7.5761 -1.6879
-8.5137 -7.9132 -1.7183
-12.3863 -12.0839 -2.5608
-12.2919 -12.5862 -2.6060
-12.4799 -13.4129 -2.7165
-11.9723 -13.5082 -2.6789
-29.1921 -34.5873 -6.7232
-13.9790 -17.3995 -3.3184
-7.7472 -10.1355 -1.8984
-7.8362 -10.7828 -1.9852
-12.8423 -18.6012 -3.3691
-9.9603 -15.2006 -2.7108
-9.8114 -15.7938 -2.7756
-11.1574 -18.9692 -3.2876
-17.6506 -31.7414 -5.4293
-17.0799 -32.5446 -5.4980
-20.3739 -41.2141 -6.8818
-12.2134 -26.2887 -4.3416
-11.1454 -25.5925 -4.1832
-9.9840 -24.5301 -3.9711
-9.4790 -25.0052 -4.0118
-8.9170 -25.3572 -4.0344
-7.4625 -22.9830 -3.6285
-6.8792 -23.0727 -3.6169
-9.2776 -34.1097 -5.3124
-8.3976 -34.1125 -5.2816
-7.8648 -35.6421 -5.4891
-9.2241 -47.2018 -7.2350
-7.8566 -46.1032 -7.0373
-5.4299 -37.2902 -5.6717
5.0593 -69.0308 -10.4242
6.8570 -70.2110 -10.6234
4.5173 -36.9807 -5.6097
5.3115 -36.1855 -5.5061
6.6656 -38.8448 -5.9324
12.0353 -61.2140 -9.3883
12.1344 -54.6926 -8.4285
13.5987 -54.9678 -8.5167
15.6108 -57.1349 -8.9056
15.6006 -52.1055 -8.1753
16.4510 -50.4685 -7.9755
17.5880 -49.8317 -7.9366
27.8681 -73.2611 -11.7668
34.9172 -85.5079 -13.8589
17.1644 -39.2901 -6.4302
18.0434 -38.7207 -6.4032
18.9893 -38.3024 -6.4045
13.8700 -26.3545 -4.4589
14.4490 -25.9136 -4.4394
15.5170 -26.3117 -4.5676
15.7083 -25.2213 -4.4399
17.0674 -25.9812 -4.6417
17.7801 -25.6897 -4.6617
24.9558 -34.2564 -6.3191
18.4697 -24.1055 -4.5241
18.2906 -22.7122 -4.3408
19.8850 -23.5049 -4.5790
25.7995 -29.0413 -5.7724
12.9327 -13.8672 -2.8152
13.6691 -13.9640 -2.8984
12.7533 -12.4131 -2.6372
13.3056 -12.3383 -2.6863
13.7625 -12.1564 -2.7157
14.0806 -11.8437 -2.7184
14.4049 -11.5334 -2.7235
14.7362 -11.2248 -2.7310
17.3063 -12.5330 -3.1468
15.4780 -10.6481 -2.7637
15.6519 -10.2191 -2.7467
14.7959 -9.1578 -2.5539
14.8339 -8.6924 -2.5205
14.8171 -8.2079 -2.4802
14.7528 -7.7121 -2.4346
14.5459 -7.1617 -2.3683
14.8077 -6.8509 -2.3803
15.2946 -6.6321 -2.4290
15.9493 -6.4626 -2.5042
3.5138 -1.3258 -0.5458
3.5850 -1.2546 -0.5513
17.8924 -5.7798 -2.7255
18.7070 -5.5473 -2.8246
19.0096 -5.1406 -2.8469
19.0550 -4.6617 -2.8321
19.0215 -4.1690 -2.8075
18.9542 -3.6765 -2.7798
20.2577 -3.4235 -2.9539
25.2532 -3.6423 -3.6634
23.8310 -2.8512 -3.4412
22.4122 -2.1335 -3.2235
24.9688 -1.7692 -3.5789
13.6694 -0.6371 -1.9538
13.7520 -0.3082 -1.9612
22.9661 0.0405 -3.2697
23.7798 0.6167 -3.3819
21.8223 1.0940 -3.1019
25.8900 1.9260 -3.6804
36.6428 3.6180 -5.2124
32.0354 3.9467 -4.5628
29.4549 4.3536 -4.2030
20.0079 3.4531 -2.8620
23.1940 4.5826 -3.3279
18.0583 4.0235 -2.6006
22.0823 5.4831 -3.1937
17.2044 4.7160 -2.5005
17.8065 5.3467 -2.6024
17.9211 5.8566 -2.6354
17.9097 6.3356 -2.6518
19.0546 7.2632 -2.8425
16.7992 6.8726 -2.5267
16.5067 7.2231 -2.5048
18.5307 8.6480 -2.8390
16.4788 8.1806 -2.5508
18.3489 9.6683 -2.8719
15.7962 8.8170 -2.5017
15.8914 9.3805 -2.5486
17.1488 10.6895 -2.7874
15.6810 10.3086 -2.5853
19.2156 13.3076 -3.2161
20.9206 15.2487 -3.5578
20.5097 15.7214 -3.5472
20.4635 16.4855 -3.6028
17.9413 15.1823 -3.2187
17.1157 15.2080 -3.1320
18.3176 17.0849 -3.4226
18.0402 17.6597 -3.4457
17.9202 18.4103 -3.5030
16.4926 17.7832 -3.3035
16.6377 18.8317 -3.4192
16.5795 19.7049 -3.5005
49.5338 61.8428 -10.7602
55.4865 72.8099 -12.4199
57.1029 78.8070 -13.1919
56.1242 81.5288 -13.4049
20.6581 31.6170 -5.1106
17.4851 28.2262 -4.4892
50.0204 85.2797 -13.3567
12.3614 26.6786 -3.9609
11.6210 26.7554 -3.9270
10.5037 25.8750 -3.7572
16.0903 42.5567 -6.1178
15.0034 42.7758 -6.0922
13.8092 42.6398 -6.0206
13.2490 44.5515 -6.2405
24.3652 89.8107 -12.4887
23.2102 94.5264 -13.0575
-0.0554 90.3973 -12.1020
-2.2381 90.4030 -12.1064
-4.4236 90.4087 -12.1183
-6.6146 90.4143 -12.1377
-10.6377 39.0219 -5.4251
-11.3765 38.0843 -5.3334
-11.9538 36.7575 -5.1887
-6.8884 19.5628 -2.7854
-7.4122 19.5321 -2.8071
-7.8955 19.3817 -2.8136
-8.3821 19.2340 -2.8223
-8.8731 19.0886 -2.8332
-9.3989 19.0058 -2.8555
-6.7511 12.8606 -1.9575
-7.2287 12.9979 -2.0057
-7.5787 12.8848 -2.0174
-7.9387 12.7805 -2.0320
-7.2959 11.1366 -1.7995
-7.6554 11.0916 -1.8231
-8.0270 11.0495 -1.8490
-8.3363 10.9114 -1.8607
-8.5841 10.6906 -1.8595
-8.8341 10.4735 -1.8600
-9.0867 10.2598 -1.8623
-9.3424 10.0489 -1.8662
-11.6907 11.9812 -2.2792
-11.8427 11.5647 -2.2560
-12.6951 11.8120 -2.3659
-13.1983 11.6985 -2.4089
-10.7572 9.0806 -1.9249
-11.0812 8.9049 -1.9460
-10.6185 8.1191 -1.8318
-10.7121 7.7882 -1.8171
-10.6894 7.3838 -1.7846
-12.4921 8.1905 -2.0544
-12.6726 7.8780 -2.0547
-11.2837 6.6423 -1.8052
-11.2470 6.2600 -1.7769
-12.3848 6.5067 -1.9337
-12.6307 6.2514 -1.9505
-12.8494 5.9778 -1.9639
-13.0594 5.6959 -1.9770
-13.2093 5.3855 -1.9821
-13.3477 5.0695 -1.9866
-48.3167 17.0270 -7.1374
-18.4675 6.0106 -2.7095
-18.4413 5.5132 -2.6890
-11.8945 3.2452 -1.7248
-35.4605 7.8563 -5.0954
-36.9804 6.3369 -5.2784
-17.1870 2.5194 -2.4473
-16.3061 1.9891 -2.3176
-15.9831 1.5589 -2.2689
-16.0450 1.1744 -2.2762
-11.3470 0.5553 -1.6097
-11.4192 0.2826 -1.6208
-11.4972 0.0066 -1.6337
-11.5812 -0.2733 -1.6484
-16.6342 -0.7950 -2.3730
-17.2600 -1.2436 -2.4694
-14.1892 -1.3677 -2.0370
-24.0583 -2.9073 -3.4678
-11.4510 -1.6654 -1.6582
-11.2255 -1.9107 -1.6341
-11.0125 -2.1495 -1.6124
-10.8106 -2.3827 -1.5930
-10.6190 -2.6111 -1.5758
-10.3295 -2.8064 -1.5445
-9.6885 -2.8854 -1.4607
-9.4616 -3.0687 -1.4392
-9.2006 -3.2318 -1.4128
-12.6360 -4.7848 -1.9601
-10.1946 -4.1447 -1.5986
-10.0165 -4.3574 -1.5888
-8.3304 -3.8660 -1.3375
-8.5412 -4.2177 -1.3890
-8.7718 -4.5986 -1.4460
-9.0252 -5.0132 -1.5092
-9.1098 -5.3525 -1.5464
-8.9400 -5.5478 -1.5417
-8.7732 -5.7426 -1.5383
-8.0761 -5.5698 -1.4409
-8.3131 -6.0350 -1.5105
-8.4591 -6.4590 -1.5668
-8.6192 -6.9175 -1.6287
-8.0650 -6.8008 -1.4371
-8.0139 -7.0962 -1.4598
-7.9647 -7.4039 -1.4847
-7.9173 -7.7251 -1.5119
-7.8719 -8.0614 -1.5417
-7.8260 -8.4121 -1.5737
-7.6645 -8.6488 -1.5844
-7.3932 -8.7607 -1.5732
-7.1289 -8.8743 -1.5637
-6.8707 -8.9899 -1.5558
-6.6181 -9.1076 -1.5494
-6.3702 -9.2278 -1.5445
-10.8919 -16.6242 -2.7398
-9.2512 -14.8937 -2.4190
-11.4613 -19.4881 -3.1217
-12.8758 -23.1574 -3.6612
-16.8179 -32.0488 -5.0048
-18.0347 -36.4861 -5.6318
-11.6729 -25.1280 -3.8364
-10.6214 -24.3918 -3.6860
-10.6911 -26.2700 -3.9319
-9.9560 -26.2663 -3.8963
-8.7154 -24.7863 -3.6463
-8.2188 -25.3148 -3.6955
-7.7643 -26.0439 -3.7752
-7.2616 -26.7003 -3.8454
-8.7133 -35.3986 -5.0682
-7.7477 -35.1148 -5.0010
-7.2179 -36.9393 -5.2362
-4.4786 -26.2834 -3.7103
5.0644 -69.1063 -9.6517
3.6566 -37.4434 -5.2398
4.6702 -38.2355 -5.3642
5.4855 -37.3741 -5.2595
6.2525 -36.4407 -5.1469
7.2295 -36.7737 -5.2159
12.4022 -55.9048 -7.9674
14.0373 -56.7458 -8.1308
15.5197 -56.8066 -8.1881
15.1716 -50.6770 -7.3526
16.2949 -49.9943 -7.3056
17.6600 -50.0403 -7.3694
27.4071 -72.0559 -10.7010
24.5635 -60.1586 -9.0152
17.1001 -39.1468 -5.9234
17.8152 -38.2348 -5.8456
19.0480 -38.4245 -5.9397
19.7636 -37.5569 -5.8740
14.4102 -25.8467 -4.0931
14.9961 -25.4311 -4.0806
15.7210 -25.2443 -4.1075
17.0513 -25.9594 -4.2864
25.1598 -36.3565 -6.0970
17.6580 -24.2416 -4.1323
17.6616 -23.0536 -3.9981
24.0695 -29.8916 -5.2787
19.8808 -23.5026 -4.2303
25.8930 -29.1501 -5.3529
17.3784 -18.6365 -3.4950
42.2981 -43.2161 -8.2857
30.1493 -29.3489 -5.7592
18.4799 -17.1387 -3.4463
13.0935 -11.5671 -2.3863
13.4841 -11.3435 -2.4041
13.7929 -11.0450 -2.4082
16.1098 -12.2730 -2.7569
16.6496 -12.0593 -2.7952
17.0012 -11.6979 -2.8026
15.1219 -9.8747 -2.4497
14.5763 -9.0234 -2.3224
14.5672 -8.5377 -2.2845
14.3827 -7.9687 -2.2218
14.1841 -7.4163 -2.1600
13.9992 -6.8940 -2.1030
14.1343 -6.5408 -2.0961
14.8040 -6.4209 -2.1689
15.5294 -6.2940 -2.2491
3.5133 -1.3260 -0.5033
3.5841 -1.2546 -0.5083
17.1524 -5.5424 -2.4092
17.9550 -5.3261 -2.4996
18.3585 -4.9663 -2.5346
18.5056 -4.5290 -2.5354
18.3690 -4.0277 -2.4989
18.9786 -3.6830 -2.5651
30.2865 -5.1212 -4.0695
29.5244 -4.2612 -3.9462
26.2099 -3.1382 -3.4867
25.4888 -2.4287 -3.3769
22.5358 -1.5989 -2.9751
13.6684 -0.6383 -1.7992
13.7499 -0.3094 -1.8056
25.9704 0.0433 -3.4043
22.2781 0.5757 -2.9168
35.0851 1.7556 -4.5906
26.0281 1.9339 -3.4055
25.0962 2.4756 -3.2853
26.2229 3.2282 -3.4367
20.0663 2.9640 -2.6344
22.6315 3.9038 -2.9781
22.2690 4.3977 -2.9390
21.6269 4.8165 -2.8644
22.8889 5.6812 -3.0442
18.0327 4.9413 -2.4099
23.1806 6.9581 -3.1146
17.1187 5.5927 -2.3141
17.2814 6.1117 -2.3519
18.7890 7.1601 -2.5760
17.0556 6.9757 -2.3573
16.3139 7.1370 -2.2746
15.8162 7.3795 -2.2262
15.7001 7.7924 -2.2325
15.8565 8.3533 -2.2795
16.0391 8.9509 -2.3329
15.8930 9.3798 -2.3407
16.8890 10.5257 -2.5206
16.7570 11.0141 -2.5365
16.9729 11.7526 -2.6079
22.5876 16.4612 -3.5260
21.7009 16.6319 -3.4448
19.5746 15.7670 -3.1628
19.1432 16.1971 -3.1514
18.4310 16.3743 -3.0946
18.0415 16.8251 -3.0928
17.7972 17.4195 -3.1184
17.5881 18.0667 -3.1537
18.4207 19.8596 -3.3841
57.5433 65.1235 -10.8453
15.7228 18.6845 -3.0442
49.3555 61.6127 -9.8310
20.3676 26.7234 -4.1800
19.7227 27.2160 -4.1772
18.6736 27.1231 -4.0887
17.5235 26.8165 -3.9738
51.2734 82.7611 -12.0662
49.7428 84.7971 -12.1738
21.6465 41.3537 -5.7706
18.6270 40.1965 -5.4689
17.9270 41.2693 -5.5505
16.6806 41.0869 -5.4666
15.9156 42.0902 -5.5439
14.7020 41.9122 -5.4689
13.5039 41.6927 -5.3932
26.6030 89.4467 -11.4781
23.6904 87.3147 -11.1226
23.1965 94.4610 -11.9529
2.1664 92.0572 -11.2909
-0.0553 90.5910 -11.1075
-2.2452 90.6891 -11.1229
-4.4393 90.7251 -11.1375
-6.7367 92.0761 -11.3209
-21.4153 96.7285 -12.1637
-19.3018 78.1885 -9.8914
-25.1172 92.1282 -11.7327
-14.2075 47.5569 -6.1010
-15.9169 48.9390 -6.3286
-6.7321 19.1170 -2.4937
-7.2468 19.0945 -2.5142
-7.7190 18.9467 -2.5200
-8.5200 19.5485 -2.6282
-8.8542 19.0461 -2.5903
-9.1150 18.4299 -2.5374
-9.6997 18.4756 -2.5771
-10.4530 18.7936 -2.6579
-11.0992 18.8683 -2.7077
-18.5684 29.8900 -4.3560
-19.3137 29.4775 -4.3663
-7.2898 10.5607 -1.5913
-7.6387 10.5139 -1.6131
-7.9996 10.4694 -1.6369
-8.2395 10.2602 -1.6364
-8.4796 10.0521 -1.6371
-8.7220 9.8468 -1.6392
-11.0921 11.9294 -2.0320
-11.2721 11.5507 -2.0155
-11.7434 11.4663 -2.0520
-12.1013 11.2579 -2.0688
-12.7344 11.2858 -2.1323
-13.3150 11.2382 -2.1860
-13.8308 11.1129 -2.2287
-10.9281 8.3545 -1.7301
-11.2534 8.1803 -1.7520
-11.5899 8.0044 -1.7761
-11.9339 7.8232 -1.8017
-12.1021 7.5220 -1.8015
-11.2074 6.5962 -1.6463
-12.4491 6.9277 -1.8061
-10.9636 5.7589 -1.5721
-12.1386 6.0066 -1.7217
-12.5061 5.8168 -1.7558
-12.7051 5.5402 -1.7670
-12.8366 5.2323 -1.7698
-12.7393 4.8372 -1.7423
-12.6022 4.4399 -1.7109
-12.1199 3.9436 -1.6344
-48.3791 14.4587 -6.4846
-49.6023 13.5281 -6.6128
-14.0697 3.4745 -1.8668
-15.0320 3.3290 -1.9862
-15.5093 3.0436 -2.0421
-16.9194 2.8977 -2.2213
-16.4655 2.4121 -2.1567
-15.8617 1.9334 -2.0741
-15.7364 1.5333 -2.0554
-15.5040 1.1333 -2.0240
-10.7303 0.5242 -1.4009
-10.7954 0.2661 -1.4103
-10.8652 0.0052 -1.4212
-10.9400 -0.2591 -1.4336
-11.0202 -0.5277 -1.4476
-11.0047 -0.7939 -1.4499
-10.8624 -1.0480 -1.4362
-10.7309 -1.2977 -1.4248
-10.6095 -1.5440 -1.4153
-10.4975 -1.7878 -1.4079
-10.3260 -2.0165 -1.3931
-10.1452 -2.2370 -1.3777
-9.9728 -2.4532 -1.3639
-9.8083 -2.6657 -1.3518
-9.4011 -2.8007 -1.3066
-9.1469 -2.9675 -1.2827
-16.2415 -5.7067 -2.2996
-10.0271 -3.7978 -1.4344
-9.8988 -4.0255 -1.4315
-9.7484 -4.2417 -1.4262
-9.5653 -4.4401 -1.4167
-8.1361 -4.0185 -1.2207
-8.3400 -4.3731 -1.2685
-8.5631 -4.7575 -1.3213
-8.7968 -5.1695 -1.3780
-8.7093 -5.4055 -1.3862
-8.5476 -5.5959 -1.3833
-14.7564 -10.1788 -2.4304
-7.9336 -5.7605 -1.3309
-8.0800 -6.1705 -1.3817
-8.1181 -6.5163 -1.4164
-7.5307 -6.3511 -1.2310
-7.4236 -6.5745 -1.2406
-7.3195 -6.8051 -1.2519
-7.2183 -7.0439 -1.2648
-7.1196 -7.2919 -1.2795
-7.0232 -7.5501 -1.2961
-6.9289 -7.8197 -1.3147
-6.8365 -8.1019 -1.3354
-6.7425 -8.3943 -1.3577
-6.5004 -8.5064 -1.3513
-6.2630 -8.6201 -1.3462
-6.0298 -8.7357 -1.3424
-11.3483 -17.3226 -2.6214
-12.0451 -19.3937 -2.8924
-12.0276 -20.4533 -3.0087
-10.7513 -19.3386 -2.8079
-12.6884 -24.1820 -3.4683
-11.9977 -24.2752 -3.4415
-11.1794 -24.0681 -3.3753
-11.1563 -25.6228 -3.5568
-10.4521 -25.6856 -3.5316
-9.7318 -25.6776 -3.4992
-9.0265 -25.6739 -3.4699
-8.5522 -26.3445 -3.5334
-7.4789 -25.0892 -3.3415
-6.8204 -25.0805 -3.3189
-6.1491 -24.9839 -3.2869
-5.4944 -24.9049 -3.2593
-4.8538 -24.8430 -3.2360
-6.2383 -36.6147 -4.7498
5.0834 -69.3703 -8.9040
7.2058 -73.7934 -9.4903
4.5869 -37.5568 -4.8422
5.4140 -36.8900 -4.7708
6.4462 -37.5725 -4.8768
11.2866 -57.4160 -7.4837
12.5576 -56.6099 -7.4139
14.0174 -56.6704 -7.4615
15.6112 -57.1466 -7.5689
15.2744 -51.0252 -6.8024
16.3527 -50.1761 -6.7369
17.4285 -49.3892 -6.6827
28.1358 -73.9788 -10.0938
34.2145 -83.8031 -11.5374
19.0390 -43.5893 -6.0591
18.1261 -38.9060 -5.4641
19.4671 -39.2739 -5.5765
13.7900 -26.2078 -3.7649
14.1747 -25.4270 -3.6982
15.0346 -25.4990 -3.7576
15.7956 -25.3668 -3.7903
16.2526 -24.7463 -3.7521
16.7074 -24.1451 -3.7180
16.9785 -23.3113 -3.6485
26.0767 -34.0417 -5.4199
24.6928 -30.6692 -4.9718
19.8775 -23.5015 -3.8828
41.1502 -46.3322 -7.8090
26.2195 -28.1211 -4.8400
41.7811 -42.6933 -7.5116
18.0059 -17.5302 -3.1565
15.9316 -14.7773 -2.7263
15.2932 -13.5122 -2.5574
15.2832 -12.8589 -2.5000
16.4070 -13.1402 -2.6278
16.5271 -12.5928 -2.5942
15.1674 -10.9874 -2.3354
14.8167 -10.1964 -2.2399
14.4967 -9.4681 -2.1534
14.2316 -8.8115 -2.0790
13.9862 -8.1986 -2.0108
13.7474 -7.6182 -1.9467
13.5273 -7.0743 -1.8881
12.9057 -6.3568 -1.7768
15.1035 -6.9908 -2.0525
13.9628 -6.0574 -1.8742
14.6964 -5.9578 -1.9499
3.5129 -1.3262 -0.4610
3.5832 -1.2546 -0.4654
16.5394 -5.3459 -2.1274
17.0433 -5.0572 -2.1725
19.0071 -5.1436 -2.4025
19.1054 -4.6776 -2.3961
18.0203 -3.9529 -2.2437
29.0227 -5.6349 -3.5899
29.4500 -4.9825 -3.6209
25.6918 -3.7104 -3.1417
25.4032 -3.0440 -3.0914
24.8623 -2.3713 -3.0127
24.8861 -1.7680 -3.0046
13.6674 -0.6395 -1.6450
13.7478 -0.3106 -1.6505
22.8117 0.0360 -2.7335
25.8559 0.6657 -3.0941
32.0088 1.5987 -3.8274
31.7488 2.3559 -3.7956
22.7625 2.2433 -2.7224
21.5983 2.6569 -2.5857
25.2459 3.7268 -3.0272
31.6813 5.4618 -3.8071
24.1734 4.7715 -2.9131
22.9556 5.1102 -2.7757
22.5287 5.5897 -2.7351
20.5364 5.6254 -2.5048
22.6993 6.8114 -2.7833
26.7255 8.7287 -3.2965
27.6207 9.7655 -3.4294
18.5315 7.0601 -2.3176
17.0565 6.9744 -2.1501
16.4542 7.1968 -2.0921
15.9021 7.4179 -2.0409
15.7857 7.8333 -2.0464
15.8871 8.3678 -2.0819
15.8215 8.8278 -2.0974
15.8946 9.3790 -2.1333
16.6376 10.3672 -2.2626
16.5028 10.8451 -2.2758
17.0529 11.8060 -2.3868
22.1978 16.1745 -3.1561
21.9799 16.8432 -3.1776
19.6810 15.8504 -2.8957
18.1510 15.3553 -2.7206
17.8833 15.8855 -2.7335
17.7097 16.5134 -2.7635
17.5083 17.1344 -2.7922
17.1595 17.6242 -2.8001
16.8106 18.1214 -2.8103
52.5115 59.4215 -9.0050
52.0095 61.7988 -9.1615
19.8754 24.8085 -3.6014
54.4711 71.4605 -10.1685
47.8628 66.0394 -9.2200
51.1884 82.6146 -10.9531
49.9120 85.0761 -11.1059
20.2335 43.6586 -5.3994
15.7427 41.6287 -4.9832
14.3449 40.8900 -4.8488
13.1323 40.5413 -4.7655
27.2890 91.7442 -10.6977
23.4788 86.5260 -10.0150
23.1442 94.2385 -10.8346
2.1668 92.0572 -10.2565
-0.0552 90.5910 -10.0899
-2.2327 90.1838 -10.0475
-4.4336 90.6023 -10.1035
-6.6297 90.6081 -10.1198
-19.3117 78.2217 -8.9906
-25.1194 92.1282 -10.6600
-14.3327 47.9719 -5.5918
-14.7437 45.3277 -5.3262
-7.5882 21.5460 -2.5539
-7.0891 18.6772 -2.2348
-12.1912 29.9210 -3.6167
-8.2529 18.9338 -2.3136
-8.5031 18.2891 -2.2608
-8.6501 17.4881 -2.1886
-11.0811 21.1047 -2.6760
-10.0227 18.0181 -2.3166
-10.7530 18.2777 -2.3847
-11.0066 17.7157 -2.3475
-19.0250 29.0338 -3.9106
-19.6602 28.4787 -3.9025
-21.0606 28.9846 -4.0444
-7.6267 9.9802 -1.4194
-7.9224 9.8641 -1.4312
-8.1534 9.6642 -1.4319
-10.6998 12.0782 -1.8294
-11.9590 12.8602 -1.9933
-10.5325 10.7915 -1.7137
-11.4067 11.1361 -1.8138
-11.9576 11.1228 -1.8605
-12.3649 10.9568 -1.8846
-12.0617 10.1790 -1.8027
-12.3573 9.9276 -1.8130
-13.9346 10.6515 -2.0088
-10.7889 7.8414 -1.5297
-11.1057 7.6688 -1.5501
-11.4205 7.4854 -1.5705
-11.5822 7.1976 -1.5707
-11.7468 6.9123 -1.5722
-12.7333 7.0847 -1.6834
-12.6376 6.6369 -1.6516
-12.5246 6.1963 -1.6192
-12.2317 5.6879 -1.5656
-12.1471 5.2956 -1.5403
-11.6177 4.7343 -1.4606
-14.2033 5.3916 -1.7715
-15.4002 5.4241 -1.9070
-14.4999 4.7166 -1.7838
-16.0035 4.7813 -1.9572
-16.0295 4.3702 -1.9500
-16.0644 3.9654 -1.9453
-16.1083 3.5658 -1.9428
-14.6374 2.8712 -1.7594
-16.0586 2.7488 -1.9249
-15.7928 2.3121 -1.8890
-15.4420 1.8809 -1.8442
-25.9904 2.5301 -3.1009
-26.2559 1.9169 -3.1314
-10.1787 0.4963 -1.2142
-10.2377 0.2514 -1.2222
-10.3006 0.0040 -1.2314
-10.1774 -0.2420 -1.2191
-10.0417 -0.4818 -1.2059
-9.9154 -0.7162 -1.1945
-9.7977 -0.9462 -1.1847
-9.6882 -1.1725 -1.1765
-9.5861 -1.3960 -1.1698
-9.4911 -1.6173 -1.1645
-9.4028 -1.8371 -1.1607
-9.3208 -2.0561 -1.1583
-9.2448 -2.2750 -1.1572
-9.1745 -2.4943 -1.1575
-16.3647 -4.8769 -2.0822
-16.0552 -5.2104 -2.0615
-9.8705 -3.4691 -1.2798
-9.7442 -3.6917 -1.2766
-9.6206 -3.9133 -1.2744
-9.4951 -4.1325 -1.2725
-9.3186 -4.3265 -1.2644
-9.1463 -4.5184 -1.2574
-7.9499 -4.1694 -1.1081
-8.1390 -4.5227 -1.1510
-8.2873 -4.8710 -1.1900
-8.4487 -5.2447 -1.2327
-8.3338 -5.4569 -1.2366
-8.8186 -6.0839 -1.3318
-16.6515 -12.0922 -2.5615
-7.7047 -5.8848 -1.2083
-7.6410 -6.1342 -1.2228
-12.6618 -10.6801 -1.8836
-12.6368 -11.1930 -1.9222
-12.6078 -11.7233 -1.9630
-12.3701 -12.0730 -1.9734
-11.9646 -12.2560 -1.9579
-12.2303 -13.1497 -2.0554
-6.2781 -7.0861 -1.0848
-6.1858 -7.3318 -1.1005
-6.0943 -7.5883 -1.1178
-6.0034 -7.8569 -1.1369
-5.9128 -8.1390 -1.1580
-5.7246 -8.2946 -1.1613
-5.5073 -8.4076 -1.1592
-11.9295 -19.2097 -2.6106
-11.5519 -19.6465 -2.6336
-13.2799 -23.8893 -3.1612
-12.8127 -24.4216 -3.1924
-20.8408 -42.1721 -5.4497
-11.5013 -24.7638 -3.1657
-10.8454 -24.9114 -3.1524
-10.1799 -25.0193 -3.1362
-9.4808 -25.0179 -3.1084
-8.7424 -24.8682 -3.0646
-8.2168 -25.3139 -3.0959
-7.7258 -25.9199 -3.1479
-7.1883 -26.4362 -3.1902
-11.1866 -45.4557 -5.4536
-7.8959 -35.7937 -4.2720
-6.9361 -35.5044 -4.2178
-5.3249 -31.2565 -3.6981
-5.2223 -35.8759 -4.2297
4.2598 -86.9445 -10.1649
5.0249 -68.5765 -8.0287
7.1983 -73.7227 -8.6480
4.5635 -37.3676 -4.3944
5.3063 -36.1591 -4.2653
6.1500 -35.8490 -4.2440
11.5375 -58.6970 -6.9778
12.5320 -56.4993 -6.7484
13.8186 -55.8718 -6.7090
15.3466 -56.1831 -6.7862
17.5690 -58.6956 -7.1358
16.4203 -50.3881 -6.1693
17.5952 -49.8660 -6.1525
9.3305 -24.5354 -3.0524
9.8166 -24.0464 -3.0184
16.9598 -38.8330 -4.9214
17.8389 -38.2932 -4.9028
18.7412 -37.8132 -4.8944
13.7656 -26.1640 -3.4261
13.3587 -23.9657 -3.1771
22.9832 -38.9842 -5.2358
27.9354 -44.8675 -6.1096
17.0739 -25.9996 -3.5923
25.0407 -36.1923 -5.0780
25.8981 -35.5618 -5.0709
26.8860 -35.1021 -5.0914
23.9116 -29.7024 -4.3862
14.1511 -16.7331 -2.5181
25.2450 -28.4275 -4.3636
28.8398 -30.9353 -4.8486
15.1913 -15.5249 -2.4872
15.2489 -14.8479 -2.4341
14.9005 -13.8228 -2.3215
15.3906 -13.6001 -2.3430
15.7009 -13.2122 -2.3378
16.0130 -12.8265 -2.3342
14.8000 -11.2785 -2.1142
14.4368 -10.4598 -2.0227
14.0217 -9.6509 -1.9285
14.9969 -9.7964 -2.0265
13.4440 -8.3253 -1.7863
13.2230 -7.7527 -1.7289
13.0190 -7.2159 -1.6764
12.2253 -6.3947 -1.5514
16.2539 -8.0076 -2.0342
16.2715 -7.5331 -2.0098
16.2910 -7.0691 -1.9873
13.2425 -5.3697 -1.5965
3.5125 -1.3264 -0.4188
3.5822 -1.2546 -0.4226
15.7859 -5.1039 -1.8442
16.3009 -4.8385 -1.8869
16.8477 -4.5608 -1.9335
17.2374 -4.2219 -1.9625
18.7925 -4.1241 -2.1239
18.7189 -3.6361 -2.1013
18.6319 -3.1540 -2.0786
24.3060 -3.5125 -2.6965
24.5499 -2.9440 -2.7100
25.2139 -2.4072 -2.7710
24.1702 -1.7193 -2.6461
13.6664 -0.6407 -1.4913
13.7456 -0.3118 -1.4959
21.9394 0.0325 -2.3827
22.6326 0.5807 -2.4542
22.5050 1.1220 -2.4381
21.5756 1.5991 -2.3365
20.7285 2.0409 -2.2453
31.0124 3.8120 -3.3620
31.6262 4.6656 -3.4334
31.5896 5.4431 -3.4363
22.8498 4.5081 -2.4922
22.5549 5.0189 -2.4679
22.0406 5.4665 -2.4210
20.5355 5.6232 -2.2658
20.6313 6.1889 -2.2880
22.5160 7.3516 -2.5114
21.1772 7.4853 -2.3773
18.2816 6.9631 -2.0668
17.0574 6.9730 -1.9434
16.1039 7.0419 -1.8504
15.9886 7.4566 -1.8540
15.8720 7.8744 -1.8588
15.8884 8.3668 -1.8806
15.9089 8.8748 -1.9046
17.9506 10.5903 -2.1754
17.9361 11.1744 -2.2021
17.6911 11.6241 -2.2022
17.1334 11.8598 -2.1643
21.4666 15.6393 -2.7542
19.9658 15.2975 -2.6042
20.8789 16.8125 -2.7712
19.8213 16.7659 -2.6797
17.1919 15.2692 -2.3699
17.0285 15.8760 -2.3960
16.8649 16.5025 -2.4249
16.5748 17.0214 -2.4382
16.2449 17.5094 -2.4478
15.8817 17.9693 -2.4545
15.3330 18.2168 -2.4338
48.7745 60.8727 -7.9628
48.6643 63.8350 -8.1841
48.4684 70.3835 -8.6925
51.4150 82.9712 -9.9067
49.1057 83.6927 -9.8380
22.2705 45.1576 -5.0900
40.9215 88.2889 -9.8287
7.9499 18.2976 -2.0133
6.6777 16.4449 -1.7897
16.4618 43.5256 -4.6888
14.7080 41.9208 -4.4732
14.2060 43.8515 -4.6381
26.1813 88.0111 -9.2335
23.7630 87.5645 -9.1185
23.3273 94.9744 -9.8234
20.6931 93.9916 -9.6625
4.5717 95.8049 -9.6095
2.1671 92.0572 -9.2247
-0.0550 90.5917 -9.0748
-2.2430 90.5969 -9.0781
-2.5359 51.8188 -5.1972
-6.6302 90.6081 -9.1018
-17.5406 79.2135 -8.1407
-19.3329 78.3006 -8.0959
-25.1217 92.1283 -9.5900
-13.4628 45.0563 -4.7250
-6.9985 21.5142 -2.2745
-7.1927 20.4213 -2.1780
-11.5996 30.5575 -3.2901
-8.4210 20.6660 -2.2479
-7.8570 18.0238 -1.9820
-9.2110 19.8099 -2.2040
-9.7442 19.6981 -2.2189
-10.2144 19.4522 -2.2203
-17.0220 30.5979 -3.5416
-10.2147 17.3609 -2.0394
-18.9294 30.4648 -3.6350
-12.2479 18.6893 -2.2669
-10.9926 15.9214 -1.9649
-10.9373 15.0508 -1.8917
-10.3103 13.4905 -1.7283
-10.3806 12.9233 -1.6893
-10.3185 12.2290 -1.6326
-11.4424 12.9149 -1.7628
-11.7305 12.6129 -1.7620
-11.9175 12.2091 -1.7476
-11.8099 11.5282 -1.6928
-11.5417 10.7345 -1.6190
-12.0923 10.7138 -1.6618
-11.4874 9.6930 -1.5483
-11.6851 9.3863 -1.5462
-11.7419 8.9741 -1.5269
-11.8030 8.5773 -1.5098
-10.6615 7.3609 -1.3427
-10.9507 7.1763 -1.3590
-12.6106 7.8355 -1.5436
-12.5550 7.3867 -1.5170
-12.5027 6.9550 -1.4924
-12.4209 6.5218 -1.4658
-12.7722 6.3175 -1.4913
-12.6606 5.8861 -1.4638
-13.0872 5.7041 -1.4993
-13.5227 5.5092 -1.5362
-13.7095 5.2029 -1.5454
-14.5344 5.1178 -1.6269
-45.8013 14.8937 -5.0940
-15.4835 4.6246 -1.7122
-26.7619 5.2468 -2.9107
-36.1799 6.1896 -3.9249
-35.6026 5.2089 -3.8546
-36.7301 4.4704 -3.9712
-37.6717 3.6638 -4.0697
-8.1338 0.3958 -0.8789
-8.3909 0.2053 -0.9075
-23.3964 0.0069 -2.5344
-23.8775 -0.5700 -2.5920
-24.0620 -1.1567 -2.6192
-14.4155 -1.0426 -1.5743
-14.1844 -1.3712 -1.5551
-23.7589 -2.8777 -2.6165
-23.8306 -3.4726 -2.6376
-23.5650 -4.0177 -2.6230
-14.6509 -2.8639 -1.6409
-15.0572 -3.3230 -1.6980
-15.5021 -3.8163 -1.7612
-15.9292 -4.3323 -1.8243
-14.4291 -4.3014 -1.6668
-9.7237 -3.1565 -1.1337
-9.5994 -3.3748 -1.1304
-9.4776 -3.5916 -1.1278
-9.3582 -3.8075 -1.1262
-9.2408 -4.0227 -1.1253
-9.0850 -4.2190 -1.1203
-8.9185 -4.4068 -1.1144
-7.5902 -3.9815 -0.9617
-7.7077 -4.2839 -0.9910
-7.8346 -4.6058 -1.0229
-7.9722 -4.9498 -1.0578
-8.1218 -5.3190 -1.0961
-8.2851 -5.7168 -1.1381
-8.4640 -6.1475 -1.1845
-15.9498 -12.1842 -2.2760
-12.6606 -10.1656 -1.8438
-12.1943 -10.2872 -1.6353
-12.3555 -10.9453 -1.6945
-13.5263 -12.5791 -1.8990
-12.6856 -12.3825 -1.8251
-12.2460 -12.5458 -1.8075
-11.8181 -12.7081 -1.7916
-11.3723 -12.8376 -1.7730
-11.7511 -13.9298 -1.8864
-21.9893 -27.3830 -3.6398
-13.4622 -17.6206 -2.3010
-12.9863 -17.8777 -2.2956
-12.5071 -18.1239 -2.2903
-11.9287 -18.2126 -2.2669
-11.3398 -18.2623 -2.2407
-11.4573 -19.4877 -2.3588
-11.3483 -20.4168 -2.4397
-11.8511 -22.5912 -2.6669
-11.5164 -23.3063 -2.7201
-11.0795 -23.8580 -2.7548
-10.5520 -24.2400 -2.7709
-9.9222 -24.3883 -2.7617
-9.2430 -24.3928 -2.7381
-8.3334 -23.7074 -2.6396
-17.3228 -53.3726 -5.8979
-15.4882 -51.9681 -5.7031
-7.5667 -27.8306 -3.0349
-8.1731 -33.2141 -3.6012
-10.0526 -45.5756 -4.9159
-9.1698 -46.9431 -5.0401
-5.9653 -35.0191 -3.7447
-9.4717 -65.0737 -6.9343
3.4218 -69.8448 -7.3812
2.7799 -37.9400 -4.0151
8.1010 -82.9737 -8.7979
4.5525 -37.2806 -3.9628
5.4047 -36.8323 -3.9270
6.1605 -35.9134 -3.8428
7.2463 -36.8687 -3.9614
12.5994 -56.8081 -6.1325
14.0966 -57.0007 -6.1859
15.2794 -55.9420 -6.1065
17.0300 -56.9001 -6.2512
10.1154 -31.0436 -3.4346
8.6780 -24.5963 -2.7421
9.0823 -23.8849 -2.6848
9.6550 -23.6529 -2.6824
10.3591 -23.7215 -2.7159
18.0595 -38.7705 -4.4841
18.5236 -37.3778 -4.3701
13.7413 -26.1205 -3.0893
14.7965 -26.5476 -3.1784
15.3726 -26.0778 -3.1628
22.8715 -36.7381 -4.5171
17.0729 -26.0007 -3.2435
17.9632 -25.9657 -3.2889
26.1419 -35.9006 -4.6210
23.7054 -30.9530 -4.0522
24.3699 -30.2752 -4.0347
13.4701 -15.9297 -2.1631
13.7336 -15.4667 -2.1421
13.8971 -14.9087 -2.1080
40.4443 -41.3378 -5.9736
18.1458 -17.6709 -2.6127
18.3527 -17.0276 -2.5789
15.4147 -13.6233 -2.1161
14.3226 -12.0541 -1.9228
14.2842 -11.4434 -1.8772
13.8555 -10.5603 -1.7840
15.6754 -11.3590 -1.9794
16.1555 -11.1213 -2.0023
16.4450 -10.7441 -2.0021
12.7291 -7.8840 -1.5236
12.5404 -7.3538 -1.4768
15.4545 -8.5674 -1.7920
15.6865 -8.2067 -1.7923
15.8457 -7.8081 -1.7852
15.8670 -7.3474 -1.7640
16.2779 -7.0650 -1.7869
16.4275 -6.6629 -1.7819
3.5120 -1.3265 -0.3767
3.5813 -1.2547 -0.3800
14.9627 -4.8392 -1.5719
15.5016 -4.6027 -1.6133
14.5072 -3.9285 -1.4966
16.5102 -4.0453 -1.6893
16.7398 -3.6752 -1.6999
16.9771 -3.2993 -1.7120
30.9658 -5.2448 -3.1028
26.8329 -3.8802 -2.6732
24.7946 -2.9757 -2.4573
24.7709 -2.3672 -2.4436
24.2061 -1.7241 -2.3783
13.6654 -0.6419 -1.3380
13.7435 -0.3130 -1.3418
21.6113 0.0301 -2.1050
25.1072 0.6418 -2.4413
26.2922 1.3084 -2.5536
26.7881 1.9829 -2.6002
22.1375 2.1776 -2.1489
28.4184 3.4906 -2.7602
22.3783 3.2992 -2.1762
22.3414 3.8474 -2.1765
22.0292 4.3441 -2.1512
21.6225 4.8094 -2.1179
20.9852 5.2027 -2.0630
20.5346 5.6210 -2.0273
20.6227 6.1844 -2.0460
21.4355 6.9967 -2.1384
20.9427 7.4004 -2.1023
20.6231 7.8528 -2.0845
17.0596 6.9723 -1.7373
16.1915 7.0786 -1.6626
16.0465 7.4820 -1.6625
15.9590 7.9160 -1.6696
15.8897 8.3658 -1.6797
15.9970 8.9223 -1.7101
17.6535 10.4131 -1.9100
17.6352 10.9850 -1.9325
17.5076 11.5015 -1.9449
17.2145 11.9140 -1.9402
21.7119 15.8154 -2.4850
21.3898 16.3859 -2.4883
20.6555 16.6302 -2.4447
19.7039 16.6643 -2.3750
18.7002 16.6065 -2.2979
16.3542 15.2453 -2.0509
17.8695 17.4832 -2.2895
17.8178 18.2955 -2.3352
15.6530 16.8692 -2.1010
15.2433 17.2448 -2.0982
17.7717 21.1115 -2.5120
50.0125 62.4103 -7.2699
47.4539 62.2401 -7.1046
58.4215 80.5893 -9.0232
48.4604 70.3638 -7.7349
54.4457 83.2906 -8.9973
51.0130 82.3132 -8.7454
49.4065 84.1960 -8.8057
47.7228 86.0203 -8.8633
43.4089 88.0109 -8.8231
40.5143 87.4012 -8.6528
7.1318 16.4129 -1.6058
6.6993 16.4964 -1.5963
16.0973 42.5576 -4.0758
15.1077 43.0555 -4.0841
14.8970 45.9800 -4.3229
26.0379 87.5204 -8.1611
23.6430 87.1135 -8.0623
21.7502 88.5447 -8.1389
20.6568 93.8172 -8.5705
2.1675 92.0572 -8.1952
-0.0549 90.5910 -8.0619
-2.2454 90.6891 -8.0730
-4.4401 90.7251 -8.0838
-6.7381 92.0761 -8.2170
-17.5514 79.2555 -7.2374
-19.2924 78.1298 -7.1785
-5.9031 21.6463 -2.0024
-5.8185 19.4711 -1.8147
-6.5571 20.1554 -1.8939
-7.1634 20.3362 -1.9279
-7.7061 20.2988 -1.9428
-8.1974 20.1152 -1.9452
-8.6181 19.7679 -1.9327
-8.9792 19.3093 -1.9102
-8.5369 17.2558 -1.7286
-8.7585 16.6777 -1.6930
-9.1775 16.4952 -1.6982
-9.6006 16.3155 -1.7049
-9.8843 15.9060 -1.6885
-10.1318 15.4586 -1.6684
-10.2655 14.8668 -1.6328
-10.2416 14.0919 -1.5764
-9.9909 13.0711 -1.4907
-10.6160 13.2149 -1.5379
-10.8981 12.9144 -1.5352
-11.1799 12.6171 -1.5337
-11.4618 12.3225 -1.5333
-11.5828 11.8646 -1.5130
-11.6553 11.3758 -1.4884
-11.7269 10.9052 -1.4657
-13.0553 11.5654 -1.5989
-12.2278 10.3162 -1.4690
-12.7043 10.2033 -1.4987
-13.4989 10.3153 -1.5652
-13.9061 10.1039 -1.5864
-12.0770 8.3368 -1.3567
-12.2495 8.0262 -1.3563
-12.2820 7.6300 -1.3415
-12.3154 7.2445 -1.3281
-12.2808 6.8303 -1.3086
-12.2119 6.4108 -1.2868
-12.3551 6.1100 -1.2884
-11.7881 5.4793 -1.2174
-12.5608 5.4735 -1.2856
-13.1313 5.3485 -1.3330
-13.2124 5.0129 -1.3312
-14.0836 4.9577 -1.4093
-15.0174 4.8820 -1.4934
-48.8516 14.5859 -4.8314
-47.7372 13.0059 -4.6982
-15.5267 3.8299 -1.5216
-16.4813 3.6453 -1.6093
-16.8198 3.2961 -1.6375
-34.6170 5.9190 -3.3621
-36.7719 5.3766 -3.5651
-36.9982 4.4996 -3.5828
-39.2877 3.8173 -3.8023
-37.0979 2.7016 -3.5904
-37.4979 1.8213 -3.6313
-7.8549 0.1915 -0.7616
-8.0974 0.0017 -0.7865
-8.3582 -0.2003 -0.8137
-8.6397 -0.4161 -0.8436
-14.4110 -1.0436 -1.4120
-14.1829 -1.3724 -1.3954
-19.4565 -2.3584 -1.9232
-18.9732 -2.7665 -1.8853
-18.3869 -3.1366 -1.8377
-23.2111 -4.5394 -2.3348
-18.1324 -4.0034 -1.8368
-9.5569 -2.3536 -0.9755
-9.5924 -2.6098 -0.9872
-9.5855 -2.8584 -0.9953
-9.4632 -3.0729 -0.9919
-9.3434 -3.2857 -0.9893
-9.2258 -3.4971 -0.9874
-9.1103 -3.7075 -0.9861
-8.9966 -3.9173 -0.9856
-8.8633 -4.1169 -0.9834
-8.7023 -4.3009 -0.9786
-8.5445 -4.4830 -0.9745
-8.3894 -4.6637 -0.9711
-8.2369 -4.8432 -0.9684
-31.1490 -19.3434 -3.7224
-17.2439 -11.2949 -2.0962
-7.1474 -4.9325 -0.8846
-7.9644 -5.7856 -1.0043
-8.1295 -6.2112 -1.0454
-14.5894 -11.7160 -1.9150
-14.1715 -11.9570 -1.6932
-13.4644 -11.9294 -1.6455
-11.6655 -10.8501 -1.4597
-11.8160 -11.5353 -1.5154
-13.0371 -13.3580 -1.7156
-12.9978 -13.9785 -1.7571
-11.6160 -13.1144 -1.6151
-11.4308 -13.5518 -1.6368
-11.2100 -13.9614 -1.6554
-10.8295 -14.1765 -1.6516
-12.5164 -17.2328 -1.9744
-12.7900 -18.5360 -2.0903
-9.2796 -14.1698 -1.5741
-11.9620 -19.2665 -2.1101
-11.6820 -19.8721 -2.1473
-10.7677 -19.3743 -2.0670
-10.6837 -20.3679 -2.1471
-10.4006 -21.0505 -2.1941
-10.2391 -22.0508 -2.2740
-9.9688 -22.9027 -2.3385
-9.6529 -23.7289 -2.4003
-9.0139 -23.7906 -2.3858
-13.5167 -38.4570 -3.8256
-16.7916 -51.7415 -5.1089
-15.6041 -52.3622 -5.1348
-12.3679 -45.4947 -4.4335
-6.8092 -27.6740 -2.6815
-6.2800 -28.4743 -2.7450
-8.9218 -45.6782 -4.3834
-5.0110 -29.4201 -2.8120
-4.2935 -29.5010 -2.8100
-4.7176 -39.0133 -3.7053
1.3599 -54.8996 -5.1822
3.4093 -69.5937 -6.5748
3.4581 -47.2001 -4.4654
6.6210 -67.8204 -6.4285
4.3863 -35.9230 -3.4134
5.4231 -36.9608 -3.5226
6.4802 -37.7804 -3.6135
5.3395 -27.1693 -2.6093
5.7961 -26.1357 -2.5218
6.3261 -25.5825 -2.4813
6.5237 -23.8870 -2.3303
7.1998 -24.0577 -2.3620
7.8257 -24.0188 -2.3746
8.3065 -23.5456 -2.3455
8.9134 -23.4430 -2.3544
9.5017 -23.2796 -2.3586
10.2164 -23.3969 -2.3930
10.9255 -23.4573 -2.4234
18.6428 -37.6221 -3.9287
13.7172 -26.0772 -2.7544
14.1702 -25.4266 -2.7184
15.3063 -25.9681 -2.8121
24.8190 -39.8706 -4.3766
17.2862 -26.3284 -2.9318
17.9578 -25.9607 -2.9349
25.7179 -35.3222 -4.0575
23.7216 -30.9777 -3.6187
23.1431 -28.7544 -3.4189
19.8677 -23.4982 -2.8464
12.7064 -14.3116 -1.7679
13.4356 -14.4154 -1.8177
13.9767 -14.2873 -1.8409
14.3394 -13.9660 -1.8409
13.6125 -12.6314 -1.7052
13.6333 -12.0506 -1.6682
13.6562 -11.4949 -1.6338
12.6481 -10.1342 -1.4810
15.5015 -11.8166 -1.7781
15.5099 -11.2407 -1.7443
15.2298 -10.4858 -1.6808
12.2620 -8.0125 -1.3291
12.0681 -7.4759 -1.2858
15.2180 -8.9256 -1.5949
15.0993 -8.3721 -1.5578
15.3253 -8.0193 -1.5577
15.4583 -7.6188 -1.5490
15.7163 -7.2792 -1.5536
15.8611 -6.8857 -1.5479
15.8760 -6.4407 -1.5306
3.5116 -1.3267 -0.3347
3.5804 -1.2547 -0.3375
13.9930 -4.5269 -1.3056
19.8362 -5.8917 -1.8331
15.2366 -4.1275 -1.3954
15.7208 -3.8534 -1.4277
16.0582 -3.5270 -1.4470
16.2798 -3.1653 -1.4564
21.1753 -3.5885 -1.8818
21.1314 -3.0577 -1.8666
21.0587 -2.5293 -1.8500
23.7817 -2.2748 -2.0790
23.3110 -1.6625 -2.0292
13.6644 -0.6431 -1.1850
13.7414 -0.3142 -1.1880
24.0060 0.0312 -2.0700
24.6054 0.6268 -2.1174
25.3015 1.2568 -2.1743
25.2496 1.8667 -2.1680
25.1254 2.4692 -2.1568
24.4497 3.0008 -2.0995
23.7303 3.4964 -2.0396
31.6044 5.4397 -2.7205
23.3451 4.6014 -2.0139
22.5351 5.0102 -1.9494
22.2120 5.5047 -1.9279
20.5337 5.6188 -1.7894
20.6141 6.1798 -1.8047
22.2336 7.2550 -1.9568
20.7138 7.3175 -1.8339
20.3992 7.7656 -1.8180
17.6662 7.2184 -1.5859
16.2799 7.1156 -1.4732
16.0484 7.4812 -1.4649
15.9898 7.9296 -1.4734
16.2084 8.5319 -1.5088
16.0860 8.9702 -1.5139
17.3667 10.2421 -1.6537
16.8093 10.4687 -1.6208
17.4263 11.4462 -1.7029
17.2962 11.9686 -1.7145
20.9932 15.2895 -2.1126
20.5423 15.7344 -2.1007
20.0985 16.1794 -2.0906
19.3520 16.3643 -2.0495
18.6518 16.5612 -2.0133
17.3431 16.1650 -1.9101
17.9781 17.5871 -2.0225
17.5917 18.0610 -2.0240
17.5944 18.9590 -2.0727
17.3772 19.6565 -2.0989
17.0242 20.2211 -2.1111
16.5381 20.6354 -2.1086
12.4107 16.2758 -1.6295
50.1940 69.2318 -6.7974
48.5701 70.5151 -6.7961
51.3328 82.8201 -7.7120
48.4314 82.5253 -7.5633
46.5207 83.8445 -7.5692
42.8784 86.9262 -7.6328
7.5936 16.3799 -1.4202
7.1550 16.4646 -1.4106
6.7210 16.5481 -1.4020
15.7345 41.5940 -3.4873
6.2016 17.6723 -1.4673
5.8525 18.0622 -1.4863
13.6811 45.9809 -3.7523
23.8316 87.7994 -7.1106
21.7047 88.3503 -7.1059
20.6937 93.9753 -7.5112
4.5729 95.8049 -7.4669
2.1678 92.0572 -7.1677
-0.0548 90.5910 -7.0510
-2.2329 90.1838 -7.0214
-4.4344 90.6023 -7.0606
-4.9447 67.5647 -5.2736
-17.8046 80.3916 -6.4223
-19.3067 78.1809 -6.2845
-25.1262 92.1283 -7.4568
-14.0030 46.8555 -3.8212
-10.2394 31.4712 -2.5879
-6.6768 18.9530 -1.5725
-7.2516 19.0999 -1.6001
-7.8491 19.2587 -1.6303
-8.3977 19.2604 -1.6487
-7.7834 16.7364 -1.4497
-8.1717 16.5160 -1.4489
-8.3839 15.9629 -1.4193
-8.6525 15.5501 -1.4024
-9.1290 15.5125 -1.4202
-9.3473 15.0402 -1.3990
-9.5564 14.5791 -1.3790
-9.6922 14.0350 -1.3511
-9.6089 13.2197 -1.2965
-11.3918 14.9022 -1.4902
-10.3771 12.9160 -1.3183
-10.6535 12.6231 -1.3163
-10.9296 12.3332 -1.3153
-11.1897 12.0285 -1.3134
-11.2670 11.5397 -1.2916
-11.3430 11.0696 -1.2715
-11.9495 11.1108 -1.3113
-12.1607 10.7715 -1.3079
-10.1358 8.5502 -1.0696
-10.5332 8.4585 -1.0917
-10.9472 8.3642 -1.1154
-11.3303 8.2312 -1.1361
-11.6137 8.0158 -1.1470
-11.9027 7.7977 -1.1590
-11.9425 7.4178 -1.1474
-11.9789 7.0453 -1.1366
-12.0160 6.6818 -1.1268
-11.9803 6.2880 -1.1112
-12.7803 6.3189 -1.1734
-12.8711 5.9814 -1.1707
-13.1323 5.7212 -1.1841
-13.3995 5.4564 -1.1986
-13.1787 4.9989 -1.1703
-13.6608 4.8075 -1.2052
-14.0789 4.5756 -1.2347
-14.1469 4.2227 -1.2342
-14.2160 3.8718 -1.2345
-26.9062 5.2701 -2.3131
-14.0805 2.4063 -1.2080
-36.2658 5.2992 -3.1065
-36.6292 4.4514 -3.1348
-37.8071 3.6700 -3.2346
-42.0218 3.0563 -3.5962
-42.0294 2.0376 -3.6000
-17.8589 0.4336 -1.5319
-7.5983 0.0009 -0.6531
-7.8273 -0.1883 -0.6745
-8.0732 -0.3896 -0.6980
-8.3383 -0.6046 -0.7236
-8.6252 -0.8354 -0.7517
-8.9369 -1.0841 -0.7828
-9.0065 -1.3141 -0.7932
-9.0267 -1.5407 -0.7998
-9.0490 -1.7705 -0.8072
-9.0736 -2.0042 -0.8153
-9.1006 -2.2421 -0.8242
-9.1300 -2.4849 -0.8339
-9.1620 -2.7330 -0.8444
-9.1968 -2.9873 -0.8559
-9.1011 -3.2014 -0.8558
-8.9875 -3.4076 -0.8544
-8.8757 -3.6129 -0.8536
-8.7655 -3.8176 -0.8534
-8.6526 -4.0199 -0.8534
-8.4968 -4.2002 -0.8495
-8.3439 -4.3786 -0.8463
-8.1935 -4.5556 -0.8436
-8.0453 -4.7314 -0.8415
-16.7793 -10.9925 -1.8155
-16.4607 -11.3617 -1.8136
-16.0939 -11.6929 -1.8071
-15.7334 -12.0226 -1.8019
-15.7350 -12.6378 -1.8398
-14.0354 -11.8439 -1.4720
-13.4691 -11.9353 -1.4453
-13.1874 -12.2673 -1.4491
-14.7000 -14.3526 -1.6560
-11.1524 -11.4284 -1.2894
-12.9951 -13.9773 -1.5438
-24.9745 -28.1995 -3.0521
-11.0907 -13.1502 -1.3961
-10.6698 -13.2902 -1.3854
-10.2058 -13.3615 -1.3688
-9.7568 -13.4350 -1.3538
-9.2845 -13.4573 -1.3350
-12.0400 -18.3868 -1.7971
-11.7853 -18.9839 -1.8295
-11.5403 -19.6332 -1.8671
-11.3076 -20.3480 -1.9109
-11.1040 -21.1714 -1.9648
-9.9572 -20.1551 -1.8497
-19.2372 -41.4331 -3.7626
-10.5907 -24.3339 -2.1882
-9.7155 -23.8853 -2.1282
-10.3985 -27.4478 -2.4247
-17.0356 -48.4739 -4.2482
-17.1119 -52.7338 -4.5876
-13.0589 -43.8258 -3.7869
-11.9554 -43.9816 -3.7770
-12.5426 -50.9811 -4.3535
-7.8891 -35.7737 -3.0395
-5.2746 -27.0079 -2.2844
-4.6968 -27.5782 -2.3235
-4.1004 -28.1773 -2.3659
-4.4084 -36.4598 -3.0526
2.6890 -54.8945 -4.5723
3.4575 -47.1959 -3.9364
6.6217 -67.8329 -5.6685
4.5591 -37.3408 -3.1280
5.3319 -36.3421 -3.0534
6.2261 -36.3017 -3.0607
5.2335 -26.6323 -2.2546
5.7466 -25.9148 -2.2040
6.1868 -25.0211 -2.1390
6.4919 -23.7729 -2.0439
6.8421 -22.8646 -1.9783
7.4397 -22.8361 -1.9894
8.0808 -22.9078 -2.0106
8.6989 -22.8811 -2.0246
9.3679 -22.9540 -2.0487
9.9805 -22.8590 -2.0593
10.7738 -23.1339 -2.1050
11.4879 -23.1854 -2.1321
14.0430 -26.6992 -2.4831
14.1708 -25.4303 -2.3936
15.3014 -25.9623 -2.4749
23.6538 -38.0026 -3.6716
17.2893 -26.3360 -2.5808
18.0428 -26.0864 -2.5949
24.8862 -34.1836 -3.4544
23.3054 -30.4376 -3.1274
23.7142 -29.4674 -3.0812
19.8644 -23.4971 -2.5026
25.9780 -29.2635 -3.1777
12.5764 -13.4951 -1.4956
13.0075 -13.2982 -1.5057
13.4501 -13.1016 -1.5172
13.9055 -12.9049 -1.5302
13.0171 -11.5075 -1.3989
12.7854 -10.7634 -1.3431
14.8474 -11.8980 -1.5262
12.4278 -9.4750 -1.2511
13.1232 -9.5125 -1.2951
13.5513 -9.3316 -1.3120
13.9972 -9.1479 -1.3306
14.3483 -8.8900 -1.3404
14.6781 -8.6104 -1.3485
14.9411 -8.2859 -1.3509
14.9810 -7.8407 -1.3340
15.0901 -7.4388 -1.3244
15.3240 -7.0990 -1.3264
15.1856 -6.5940 -1.2973
14.9218 -6.0551 -1.2589
3.5112 -1.3269 -0.2928
3.5795 -1.2547 -0.2951
18.5669 -6.0084 -1.5147
19.1589 -5.6923 -1.5475
19.6405 -5.3224 -1.5717
36.4303 -8.9330 -2.8899
15.4312 -3.3907 -1.2142
20.3128 -3.9514 -1.5863
19.6733 -3.3358 -1.5257
19.9103 -2.8828 -1.5343
20.1512 -2.4221 -1.5439
22.8027 -2.1833 -1.7380
21.9774 -1.5694 -1.6673
13.6635 -0.6443 -1.0324
13.7393 -0.3155 -1.0345
22.8974 0.0277 -1.7190
23.4741 0.5958 -1.7582
23.9325 1.1866 -1.7894
23.6561 1.7467 -1.7666
23.3914 2.2966 -1.7458
23.0736 2.8298 -1.7221
31.7759 4.6789 -2.3729
23.4753 4.0383 -1.7552
22.5764 4.4478 -1.6910
21.2511 4.7228 -1.5955
21.5521 5.3392 -1.6230
20.5328 5.6165 -1.5519
20.6055 6.1752 -1.5641
21.8742 7.1357 -1.6686
20.7540 7.3297 -1.5920
20.1804 7.6803 -1.5577
19.9303 8.1416 -1.5491
17.0131 7.4344 -1.3325
16.1549 7.5292 -1.2759
15.9904 7.9283 -1.2744
16.2983 8.5775 -1.3118
16.1757 9.0185 -1.3158
19.3488 11.4089 -1.5920
18.4933 11.5154 -1.5403
17.8989 11.7547 -1.5104
17.3084 11.9751 -1.4810
17.3737 12.6515 -1.5088
19.1192 14.6420 -1.6867
19.9146 16.0290 -1.7864
19.0329 16.0921 -1.7378
18.3219 16.2660 -1.7046
18.0008 16.7757 -1.7082
17.6518 17.2657 -1.7106
17.3717 17.8328 -1.7211
17.8645 19.2477 -1.8118
19.7759 22.3670 -2.0558
19.7579 23.4652 -2.1082
11.7178 14.6190 -1.2852
10.8382 14.2120 -1.2238
52.9270 72.9930 -6.1624
48.6036 70.5557 -5.8457
53.7674 82.2345 -6.6926
49.6509 80.0976 -6.4088
10.1853 17.3534 -1.3663
9.8440 17.7399 -1.3755
7.6185 16.4319 -1.2229
7.0896 16.3123 -1.1994
6.7428 16.6000 -1.2068
6.3114 16.6825 -1.2000
6.1787 17.6053 -1.2539
5.8502 18.0532 -1.2741
13.3900 44.9982 -3.1492
12.4181 45.7455 -3.1768
11.3830 46.3304 -3.1948
9.8459 57.8915 -3.9247
2.1682 92.0572 -6.1419
-0.0546 90.5910 -6.0419
-2.2455 90.6891 -6.0502
-4.4406 90.7251 -6.0583
-6.7390 92.0761 -6.1584
-17.4399 78.7384 -5.3919
-19.2917 78.1131 -5.3828
-13.0259 47.7567 -3.3140
-7.2583 24.2848 -1.6982
-7.5038 23.0612 -1.6262
-10.9209 30.9973 -2.2057
-11.2377 29.5960 -2.1268
-8.4204 20.6585 -1.5003
-8.4795 19.4463 -1.4283
-7.4642 16.0483 -1.1930
-7.7886 15.7401 -1.1852
-8.0160 15.2609 -1.1648
-8.2377 14.8032 -1.1463
-8.4545 14.3648 -1.1295
-18.6539 30.0119 -2.3980
-13.0514 19.9091 -1.6180
-13.9943 20.2626 -1.6764
-13.6333 18.7545 -1.5810
-10.3482 13.5355 -1.1638
-10.5189 13.0911 -1.1491
-10.4202 12.3452 -1.1074
-10.6907 12.0622 -1.1069
-10.8879 11.7026 -1.0998
-10.9686 11.2326 -1.0824
-11.4458 11.1684 -1.1047
-11.6539 10.8345 -1.1015
-11.8612 10.5047 -1.0991
-12.3823 10.4436 -1.1260
-10.2845 8.2576 -0.9189
-10.6838 8.1617 -0.9387
-11.0376 8.0174 -0.9547
-11.3634 7.8418 -0.9684
-10.5568 6.9147 -0.8872
-11.5340 7.1629 -0.9568
-11.5635 6.7997 -0.9476
-12.3500 6.8663 -1.0006
-12.4785 6.5482 -1.0003
-12.5861 6.2216 -0.9991
-12.6937 5.8977 -0.9985
-12.9226 5.6286 -1.0081
-13.1834 5.3671 -1.0206
-13.4373 5.0956 -1.0330
-13.2291 4.6544 -1.0107
-13.7896 4.4802 -1.0477
-13.8633 4.1367 -1.0481
-13.9315 3.7930 -1.0488
-13.9761 3.4448 -1.0483
-13.9554 3.0840 -1.0436
-13.8683 2.7152 -1.0347
-13.7843 2.3544 -1.0266
-35.2101 5.1417 -2.6193
-35.5813 4.3207 -2.6454
-35.7989 3.4718 -2.6617
-35.7501 2.5969 -2.6597
-41.2683 1.9969 -3.0740
-17.8575 0.4320 -1.3326
-41.2938 0.0008 -3.0888
-7.3607 -0.1777 -0.5522
-7.5774 -0.3663 -0.5705
-7.8097 -0.5670 -0.5904
-8.0597 -0.7813 -0.6121
-8.2891 -1.0063 -0.6329
-8.3806 -1.2235 -0.6436
-8.4773 -1.4477 -0.6552
-8.5798 -1.6795 -0.6678
-8.6642 -1.9146 -0.6795
-8.6866 -2.1409 -0.6869
-8.7109 -2.3716 -0.6949
-8.7372 -2.6072 -0.7036
-8.7657 -2.8481 -0.7130
-8.7965 -3.0951 -0.7231
-8.7616 -3.3229 -0.7284
-8.6533 -3.5233 -0.7280
-8.5463 -3.7230 -0.7281
-8.4406 -3.9223 -0.7287
-8.3011 -4.1043 -0.7267
-8.1528 -4.2792 -0.7242
-8.0068 -4.4527 -0.7222
-17.0083 -10.0043 -1.5589
-16.9003 -10.4988 -1.5753
-17.2834 -11.3247 -1.6395
-15.3034 -10.5647 -1.4786
-15.1427 -11.0036 -1.4914
-14.8851 -11.3762 -1.4958
-9.2009 -7.3909 -0.9441
-9.2081 -7.7714 -0.8315
-9.6858 -8.5839 -0.8951
-13.2574 -12.3341 -1.2551
-12.8337 -12.5321 -1.2460
-13.5883 -13.9263 -1.3543
-12.9923 -13.9761 -1.3309
-12.5042 -14.1206 -1.3180
-26.8756 -31.8700 -2.9188
-14.2355 -17.7337 -1.5951
-13.5355 -17.7228 -1.5670
-12.7053 -17.4969 -1.5221
-13.1389 -19.0461 -1.6315
-11.6240 -17.7535 -1.4986
-11.4135 -18.3870 -1.5307
-11.3557 -19.3212 -1.5876
-10.8776 -19.5763 -1.5887
-10.5361 -20.0908 -1.6116
-10.3803 -21.0138 -1.6672
-15.3514 -33.0674 -2.5965
-10.3888 -23.8725 -1.8564
-8.5879 -21.1151 -1.6272
-10.3965 -27.4453 -2.0973
