ply
format ascii 1.0
element vertex 2174
property float32 x
property float32 y
property float32 z
end_header
-3.5776 -2.3540 1.6437
-3.3987 -2.3558 1.5867
-3.2316 -2.3574 1.5345
-3.0827 -2.3650 1.4901
-3.0838 -2.4863 1.5188
-3.0849 -2.6128 1.6013
-3.0861 -2.7444 1.6354
-3.0873 -2.8819 1.6721
-3.0886 -3.0259 1.7115
-3.0899 -3.1770 1.7538
-3.0913 -3.3358 1.7994
-3.0928 -3.5034 1.8486
-3.0532 -3.6316 1.8764
-3.0664 -3.8314 1.9404
-3.0977 -4.0680 2.0214
-3.0996 -4.2810 2.0891
-3.4461 -5.0097 2.4029
-3.3248 -5.0923 2.4029
-3.2014 -5.1720 2.4029
-3.0762 -5.2486 2.4029
-2.9492 -5.3222 2.4029
-2.8203 -5.3926 2.4029
-2.6898 -5.4599 2.4029
-2.5576 -5.5240 2.4029
-2.4239 -5.5849 2.4029
-2.2887 -5.6425 2.4029
-2.1522 -5.6968 2.4029
-2.0143 -5.7477 2.4029
-1.8753 -5.7953 2.4029
-1.7351 -5.8395 2.4029
-1.5939 -5.8802 2.4029
-1.4517 -5.9175 2.4029
-1.3086 -5.9513 2.4029
-1.1647 -5.9816 2.4029
-1.0201 -6.0084 2.4029
-0.8749 -6.0317 2.4029
-0.7292 -6.0514 2.4029
-0.5831 -6.0676 2.4029
-0.4365 -6.0801 2.4029
-0.2897 -6.0891 2.4029
-0.1427 -6.0945 2.4029
0.0043 -6.0963 2.4029
0.1514 -6.0946 2.4029
0.2984 -6.0892 2.4029
0.4452 -6.0803 2.4029
0.5918 -6.0677 2.4029
0.7380 -6.0516 2.4029
0.8837 -6.0320 2.4029
1.0290 -6.0087 2.4029
1.1736 -5.9820 2.4029
1.3175 -5.9517 2.4029
1.4607 -5.9179 2.4029
1.6029 -5.8806 2.4029
1.7442 -5.8399 2.4029
1.8845 -5.7957 2.4029
2.0236 -5.7482 2.4029
2.1615 -5.6972 2.4029
2.2981 -5.6429 2.4029
2.4026 -5.5146 2.3725
2.4569 -5.2871 2.2997
2.5835 -5.2257 2.2997
2.7085 -5.1613 2.2997
2.8319 -5.0938 2.2997
2.9536 -5.0234 2.2997
3.0735 -4.9500 2.2997
3.1917 -4.8737 2.2997
3.3079 -4.7946 2.2997
3.4221 -4.7127 2.2997
3.5342 -4.6280 2.2997
3.6443 -4.5406 2.2997
3.7522 -4.4506 2.2997
3.8578 -4.3580 2.2997
3.9612 -4.2629 2.2997
4.0622 -4.1653 2.2997
4.1607 -4.0653 2.2997
4.2568 -3.9629 2.2997
4.3503 -3.8583 2.2997
4.4413 -3.7514 2.2997
4.5296 -3.6423 2.2997
4.6152 -3.5312 2.2997
4.6980 -3.4180 2.2997
4.7781 -3.3029 2.2997
4.8554 -3.1858 2.2997
4.9297 -3.0670 2.2997
5.0011 -2.9464 2.2997
5.0696 -2.8241 2.2997
5.1350 -2.7002 2.2997
5.1975 -2.5748 2.2997
5.2568 -2.4480 2.2997
5.2854 -2.3077 2.2877
5.2549 -2.1448 2.2520
5.2249 -1.9868 2.2185
5.1952 -1.8332 2.1871
5.1660 -1.6838 2.1576
5.1595 -1.5448 2.1392
5.1784 -1.4152 2.1329
5.1991 -1.2867 2.1285
5.2237 -1.1597 2.1271
5.2475 -1.0327 2.1266
5.2746 -0.9062 2.1287
5.3082 -0.7805 2.1346
5.3415 -0.6540 2.1416
5.3744 -0.5266 2.1497
5.4070 -0.3982 2.1588
5.4392 -0.2687 2.1691
5.4712 -0.1379 2.1805
5.3262 -0.0055 2.1227
4.9476 0.1145 1.9729
4.7719 0.2259 1.9050
4.7735 0.3417 1.9089
4.7507 0.4557 1.9042
4.7145 0.5675 1.8952
4.7328 0.6861 1.9092
4.7615 0.8082 1.9286
4.7882 0.9323 1.9485
4.8091 1.0576 1.9674
4.8664 1.1942 2.0027
4.9383 1.3392 2.0456
5.1246 1.5236 2.1380
5.4694 1.7711 2.2997
5.4235 1.9023 2.2997
5.3744 2.0323 2.2997
5.3223 2.1610 2.2997
5.2670 2.2884 2.2997
5.2088 2.4145 2.2997
5.1475 2.5390 2.2997
5.0833 2.6620 2.2997
5.0161 2.7834 2.2997
4.9460 2.9032 2.2997
4.8732 3.0211 2.2997
4.7975 3.1373 2.2997
4.7190 3.2516 2.2997
4.6379 3.3640 2.2997
4.5540 3.4743 2.2997
4.4676 3.5826 2.2997
4.3787 3.6887 2.2997
4.2872 3.7927 2.2997
4.1932 3.8944 2.2997
4.0969 3.9938 2.2997
3.9982 4.0909 2.2997
3.8973 4.1855 2.2997
3.7941 4.2777 2.2997
3.6888 4.3673 2.2997
3.5813 4.4544 2.2997
3.4718 4.5389 2.2997
2.8347 3.8978 1.9399
2.6982 3.9054 1.9110
2.6967 4.1126 1.9802
3.0148 4.8496 2.2997
2.8961 4.9204 2.2997
2.7758 4.9882 2.2997
2.6538 5.0531 2.2997
2.5304 5.1151 2.2997
2.4791 5.3323 2.3700
2.3817 5.4649 2.4029
2.2484 5.5202 2.4029
2.1139 5.5724 2.4029
1.9782 5.6212 2.4029
1.8414 5.6668 2.4029
1.7036 5.7091 2.4029
1.5647 5.7481 2.4029
1.4250 5.7838 2.4029
1.2845 5.8161 2.4029
1.1433 5.8450 2.4029
1.0014 5.8705 2.4029
0.8590 5.8927 2.4029
0.7161 5.9114 2.4029
0.5728 5.9267 2.4029
0.4292 5.9386 2.4029
0.2853 5.9470 2.4029
0.1413 5.9520 2.4029
-0.0028 5.9535 2.4029
-0.1469 5.9516 2.4029
-0.2909 5.9462 2.4029
-0.4348 5.9374 2.4029
-0.5783 5.9252 2.4029
-0.7216 5.9095 2.4029
-0.8644 5.8904 2.4029
-1.0068 5.8679 2.4029
-1.1485 5.8420 2.4029
-1.2896 5.8127 2.4029
-1.4300 5.7800 2.4029
-1.5695 5.7440 2.4029
-1.7082 5.7047 2.4029
-1.8459 5.6621 2.4029
-1.9825 5.6161 2.4029
-2.1180 5.5669 2.4029
-2.2523 5.5145 2.4029
-2.3854 5.4589 2.4029
-2.5170 5.4001 2.4029
-2.6472 5.3382 2.4029
-2.7760 5.2731 2.4029
-2.9031 5.2050 2.4029
-3.0286 5.1339 2.4029
-3.1523 5.0597 2.4029
-3.2743 4.9826 2.4029
-3.3944 4.9026 2.4029
-3.5125 4.8198 2.4029
-3.6287 4.7341 2.4029
-3.7428 4.6457 2.4029
-3.8547 4.5545 2.4029
-3.9645 4.4606 2.4029
-4.0720 4.3642 2.4029
-4.1771 4.2652 2.4029
-4.2799 4.1636 2.4029
-4.3802 4.0597 2.4029
-4.4780 3.9533 2.4029
-4.5733 3.8446 2.4029
-4.6659 3.7336 2.4029
-4.7558 3.6204 2.4029
-4.8431 3.5051 2.4029
-4.9275 3.3876 2.4029
-5.0092 3.2682 2.4029
-5.0879 3.1468 2.4029
-5.1637 3.0235 2.4029
-5.2366 2.8984 2.4029
-5.3064 2.7716 2.4029
-5.3732 2.6431 2.4029
-5.4369 2.5130 2.4029
-5.4975 2.3814 2.4029
-5.5549 2.2484 2.4029
-5.5898 2.1067 2.3947
-5.5909 1.9540 2.3736
-5.5919 1.8039 2.3542
-5.5958 1.6569 2.3376
-5.6002 1.5119 2.3229
-5.6043 1.3686 2.3096
-5.6136 1.2278 2.2998
-5.6431 1.0921 2.2998
-5.6695 0.9556 2.2998
-5.6925 0.8185 2.2998
-5.7122 0.6809 2.2998
-5.7286 0.5427 2.2998
-5.7417 0.4042 2.2998
-5.7514 0.2654 2.2998
-5.7578 0.1264 2.2998
-5.7608 -0.0128 2.2998
-5.7605 -0.1521 2.2998
-5.7568 -0.2913 2.2998
-5.7497 -0.4304 2.2998
-5.7393 -0.5694 2.2998
-5.7255 -0.7081 2.2998
-5.7084 -0.8465 2.2998
-5.6879 -0.9844 2.2998
-5.6640 -1.1219 2.2998
-5.6369 -1.2588 2.2998
-5.6244 -1.3994 2.3072
-5.6224 -1.5441 2.3203
-5.6200 -1.6904 2.3349
-5.6176 -1.8388 2.3510
-5.6187 -1.9906 2.3702
-5.6198 -2.1452 2.3912
-5.5952 -2.2921 2.4029
-5.5397 -2.4272 2.4029
-5.4810 -2.5610 2.4029
-4.7124 -2.3421 2.0896
-4.4453 -2.3449 1.9952
-4.2009 -2.3474 1.9099
-3.9764 -2.3497 1.8326
-3.7691 -2.3518 1.7623
-3.5769 -2.3537 1.6981
-3.3981 -2.3555 1.6393
-3.2310 -2.3572 1.5853
-3.0827 -2.3652 1.5398
-3.0838 -2.4865 1.5694
-3.0849 -2.6130 1.6534
-3.0861 -2.7447 1.6887
-3.0873 -2.8822 1.7265
-3.0886 -3.0261 1.7672
-3.0899 -3.1772 1.8109
-3.0913 -3.3361 1.8580
-3.0858 -3.4957 1.9045
-3.0345 -3.6097 1.9257
-3.0388 -3.7972 1.9856
-3.0978 -4.0683 2.0873
-3.4527 -4.7690 2.4029
-3.3372 -4.8518 2.4029
-3.2197 -4.9318 2.4029
-3.1003 -5.0089 2.4029
-2.9790 -5.0831 2.4029
-2.8559 -5.1543 2.4029
-2.7312 -5.2225 2.4029
-2.6047 -5.2877 2.4029
-2.4767 -5.3497 2.4029
-2.3472 -5.4087 2.4029
-2.2163 -5.4644 2.4029
-2.0841 -5.5170 2.4029
-1.9506 -5.5663 2.4029
-1.8160 -5.6123 2.4029
-1.6802 -5.6551 2.4029
-1.5434 -5.6946 2.4029
-1.4057 -5.7307 2.4029
-1.2672 -5.7634 2.4029
-1.1279 -5.7927 2.4029
-0.9878 -5.8187 2.4029
-0.8472 -5.8412 2.4029
-0.7061 -5.8602 2.4029
-0.5646 -5.8759 2.4029
-0.4227 -5.8880 2.4029
-0.2805 -5.8967 2.4029
-0.1382 -5.9020 2.4029
0.0042 -5.9037 2.4029
0.1466 -5.9020 2.4029
0.2890 -5.8968 2.4029
0.4311 -5.8882 2.4029
0.5731 -5.8760 2.4029
0.7146 -5.8604 2.4029
0.8558 -5.8414 2.4029
0.9964 -5.8189 2.4029
1.1365 -5.7930 2.4029
1.2758 -5.7637 2.4029
1.4145 -5.7310 2.4029
1.5522 -5.6949 2.4029
1.6891 -5.6554 2.4029
1.8249 -5.6127 2.4029
1.9596 -5.5666 2.4029
2.0932 -5.5173 2.4029
2.2255 -5.4648 2.4029
2.3565 -5.4090 2.4029
2.4101 -5.1865 2.3295
2.5018 -5.0607 2.2997
2.6229 -4.9984 2.2997
2.7424 -4.9330 2.2997
2.8602 -4.8649 2.2997
2.9764 -4.7938 2.2997
3.0908 -4.7200 2.2997
3.2033 -4.6434 2.2997
3.3140 -4.5641 2.2997
3.4226 -4.4821 2.2997
3.5292 -4.3975 2.2997
3.6337 -4.3103 2.2997
3.7360 -4.2207 2.2997
3.8361 -4.1286 2.2997
3.9339 -4.0341 2.2997
4.0294 -3.9372 2.2997
4.1225 -3.8381 2.2997
4.2131 -3.7368 2.2997
4.3012 -3.6333 2.2997
4.3867 -3.5277 2.2997
4.4696 -3.4201 2.2997
4.5499 -3.3105 2.2997
4.6275 -3.1990 2.2997
4.7023 -3.0857 2.2997
4.7744 -2.9706 2.2997
4.8436 -2.8538 2.2997
4.9099 -2.7354 2.2997
4.9733 -2.6155 2.2997
5.0338 -2.4940 2.2997
5.0913 -2.3712 2.2997
5.1458 -2.2470 2.2997
5.1973 -2.1216 2.2997
5.2002 -1.9777 2.2797
5.1710 -1.8250 2.2476
5.1423 -1.6763 2.2174
5.1210 -1.5336 2.1922
5.1399 -1.4049 2.1857
5.1611 -1.2776 2.1815
5.1855 -1.1515 2.1800
5.2093 -1.0254 2.1796
5.2429 -0.9011 2.1845
5.2763 -0.7761 2.1905
5.3093 -0.6504 2.1977
5.3419 -0.5237 2.2059
5.3741 -0.3961 2.2152
5.4060 -0.2673 2.2257
5.4376 -0.1373 2.2373
5.2522 -0.0057 2.1609
4.8861 0.1128 2.0114
4.7507 0.2246 1.9579
4.7523 0.3399 1.9619
4.7423 0.4546 1.9623
4.7062 0.5662 1.9530
4.7221 0.6843 1.9664
4.7506 0.8061 1.9864
4.7795 0.9303 2.0078
4.8029 1.0560 2.0284
4.8584 1.1920 2.0640
4.9871 1.3522 2.1325
5.2117 1.5492 2.2445
5.2985 1.7155 2.2997
5.2540 1.8425 2.2997
5.2065 1.9685 2.2997
5.1560 2.0932 2.2997
5.1026 2.2167 2.2997
5.0462 2.3388 2.2997
4.9868 2.4595 2.2997
4.9246 2.5787 2.2997
4.8596 2.6963 2.2997
4.7918 2.8123 2.2997
4.7212 2.9266 2.2997
4.6479 3.0392 2.2997
4.5719 3.1500 2.2997
4.4933 3.2588 2.2997
4.4122 3.3657 2.2997
4.3285 3.4707 2.2997
4.2423 3.5735 2.2997
4.1537 3.6743 2.2997
4.0627 3.7728 2.2997
3.9694 3.8692 2.2997
3.8738 3.9632 2.2997
3.7760 4.0549 2.2997
3.6761 4.1443 2.2997
3.5740 4.2311 2.2997
3.4699 4.3155 2.2997
2.9778 3.8927 2.0357
2.8330 3.8952 2.0010
2.6956 3.9014 1.9704
2.6941 4.1082 2.0417
2.9211 4.6986 2.2997
2.8061 4.7672 2.2997
2.6895 4.8329 2.2997
2.5714 4.8958 2.2997
2.4823 5.0176 2.3283
2.4355 5.2382 2.4029
2.3077 5.2949 2.4029
2.1786 5.3485 2.4029
2.0483 5.3990 2.4029
1.9168 5.4464 2.4029
1.7843 5.4906 2.4029
1.6507 5.5316 2.4029
1.5162 5.5694 2.4029
1.3808 5.6039 2.4029
1.2447 5.6353 2.4029
1.1078 5.6633 2.4029
0.9704 5.6881 2.4029
0.8324 5.7095 2.4029
0.6939 5.7277 2.4029
0.5550 5.7425 2.4029
0.4159 5.7540 2.4029
0.2765 5.7622 2.4029
0.1369 5.7670 2.4029
-0.0027 5.7685 2.4029
-0.1423 5.7666 2.4029
-0.2819 5.7614 2.4029
-0.4212 5.7529 2.4029
-0.5604 5.7410 2.4029
-0.6992 5.7259 2.4029
-0.8376 5.7073 2.4029
-0.9755 5.6855 2.4029
-1.1129 5.6604 2.4029
-1.2496 5.6320 2.4029
-1.3856 5.6004 2.4029
-1.5208 5.5655 2.4029
-1.6552 5.5274 2.4029
-1.7886 5.4860 2.4029
-1.9210 5.4415 2.4029
-2.0523 5.3938 2.4029
-2.1824 5.3430 2.4029
-2.3113 5.2891 2.4029
-2.4388 5.2321 2.4029
-2.5650 5.1721 2.4029
-2.6897 5.1091 2.4029
-2.8129 5.0431 2.4029
-2.9345 4.9741 2.4029
-3.0544 4.9023 2.4029
-3.1726 4.8276 2.4029
-3.2889 4.7500 2.4029
-3.4034 4.6697 2.4029
-3.5159 4.5867 2.4029
-3.6264 4.5010 2.4029
-3.7349 4.4126 2.4029
-3.8412 4.3217 2.4029
-3.9453 4.2282 2.4029
-4.0472 4.1322 2.4029
-4.1467 4.0338 2.4029
-4.2439 3.9331 2.4029
-4.3387 3.8300 2.4029
-4.4309 3.7246 2.4029
-4.5207 3.6171 2.4029
-4.6078 3.5074 2.4029
-4.6923 3.3956 2.4029
-4.7741 3.2818 2.4029
-4.8531 3.1661 2.4029
-4.9294 3.0485 2.4029
-5.0028 2.9290 2.4029
-5.0734 2.8078 2.4029
-5.1410 2.6849 2.4029
-5.2057 2.5604 2.4029
-5.2674 2.4344 2.4029
-5.3260 2.3068 2.4029
-5.3816 2.1779 2.4029
-5.4340 2.0477 2.4029
-5.4834 1.9162 2.4029
-5.5295 1.7835 2.4029
-5.5725 1.6497 2.4029
-5.5940 1.5100 2.3951
-5.5950 1.3660 2.3801
-5.5960 1.2237 2.3666
-5.5970 1.0828 2.3546
-5.5992 0.9435 2.3446
-5.6021 0.8052 2.3364
-5.6047 0.6677 2.3294
-5.6070 0.5309 2.3237
-5.6089 0.3946 2.3192
-5.6106 0.2586 2.3160
-5.6121 0.1229 2.3141
-5.6132 -0.0128 2.3133
-5.6140 -0.1485 2.3138
-5.6146 -0.2844 2.3156
-5.6149 -0.4206 2.3185
-5.6148 -0.5574 2.3228
-5.6145 -0.6947 2.3283
-5.6140 -0.8328 2.3350
-5.6131 -0.9718 2.3431
-5.6125 -1.1120 2.3527
-5.6135 -1.2538 2.3645
-5.6145 -1.3973 2.3778
-5.6155 -1.5425 2.3926
-5.6021 -1.6854 2.4029
-5.5613 -1.8207 2.4029
-5.5172 -1.9550 2.4029
-5.4699 -2.0883 2.4029
-5.4193 -2.2204 2.4029
-5.3655 -2.3512 2.4029
-5.3086 -2.4808 2.4029
-5.2485 -2.6089 2.4029
-4.4442 -2.3446 2.0595
-4.2000 -2.3471 1.9715
-3.9755 -2.3494 1.8918
-3.7683 -2.3516 1.8192
-3.5762 -2.3535 1.7529
-3.3974 -2.3553 1.6923
-3.2304 -2.3570 1.6366
-3.0827 -2.3654 1.5899
-3.0838 -2.4868 1.6205
-3.0849 -2.6133 1.7060
-3.0861 -2.7449 1.7424
-3.0873 -2.8824 1.7815
-3.0886 -3.0264 1.8234
-3.0899 -3.1775 1.8686
-3.0913 -3.3364 1.9172
-3.0734 -3.4820 1.9573
-3.0226 -3.5958 1.9793
-3.0293 -3.7855 2.0425
-3.4560 -4.5392 2.4029
-3.3461 -4.6221 2.4029
-3.2341 -4.7023 2.4029
-3.1203 -4.7798 2.4029
-3.0045 -4.8545 2.4029
-2.8870 -4.9264 2.4029
-2.7677 -4.9953 2.4029
-2.6467 -5.0614 2.4029
-2.5242 -5.1245 2.4029
-2.4001 -5.1847 2.4029
-2.2747 -5.2418 2.4029
-2.1478 -5.2958 2.4029
-2.0197 -5.3467 2.4029
-1.8903 -5.3945 2.4029
-1.7598 -5.4391 2.4029
-1.6282 -5.4805 2.4029
-1.4957 -5.5187 2.4029
-1.3622 -5.5537 2.4029
-1.2280 -5.5854 2.4029
-1.0929 -5.6138 2.4029
-0.9573 -5.6389 2.4029
-0.8210 -5.6607 2.4029
-0.6843 -5.6792 2.4029
-0.5471 -5.6943 2.4029
-0.4096 -5.7061 2.4029
-0.2718 -5.7146 2.4029
-0.1339 -5.7196 2.4029
0.0041 -5.7213 2.4029
0.1421 -5.7197 2.4029
0.2801 -5.7146 2.4029
0.4178 -5.7062 2.4029
0.5553 -5.6945 2.4029
0.6925 -5.6794 2.4029
0.8293 -5.6609 2.4029
0.9656 -5.6391 2.4029
1.1013 -5.6140 2.4029
1.2364 -5.5856 2.4029
1.3707 -5.5539 2.4029
1.5042 -5.5190 2.4029
1.6368 -5.4808 2.4029
1.7684 -5.4393 2.4029
1.8990 -5.3947 2.4029
2.0284 -5.3469 2.4029
2.1567 -5.2960 2.4029
2.2836 -5.2420 2.4029
2.4050 -5.1758 2.3987
2.4244 -4.9045 2.2997
2.5418 -4.8441 2.2997
2.6576 -4.7808 2.2997
2.7718 -4.7147 2.2997
2.8844 -4.6459 2.2997
2.9953 -4.5744 2.2997
3.1043 -4.5001 2.2997
3.2116 -4.4233 2.2997
3.3169 -4.3439 2.2997
3.4202 -4.2619 2.2997
3.5215 -4.1775 2.2997
3.6206 -4.0906 2.2997
3.7177 -4.0014 2.2997
3.8125 -3.9098 2.2997
3.9050 -3.8160 2.2997
3.9952 -3.7199 2.2997
4.0831 -3.6218 2.2997
4.1685 -3.5215 2.2997
4.2514 -3.4192 2.2997
4.3318 -3.3149 2.2997
4.4096 -3.2087 2.2997
4.4848 -3.1007 2.2997
4.5574 -2.9909 2.2997
4.6272 -2.8793 2.2997
4.6943 -2.7662 2.2997
4.7586 -2.6514 2.2997
4.8201 -2.5352 2.2997
4.8788 -2.4175 2.2997
4.9345 -2.2985 2.2997
4.9874 -2.1781 2.2997
5.0373 -2.0566 2.2997
5.0842 -1.9339 2.2997
5.1281 -1.8101 2.2997
5.1185 -1.6688 2.2772
5.0905 -1.5247 2.2483
5.1016 -1.3947 2.2382
5.1233 -1.2685 2.2342
5.1476 -1.1433 2.2327
5.1778 -1.0195 2.2351
5.2114 -0.8959 2.2402
5.2445 -0.7717 2.2463
5.2772 -0.6467 2.2536
5.3095 -0.5208 2.2619
5.3414 -0.3940 2.2714
5.3729 -0.2660 2.2821
5.4042 -0.1368 2.2939
5.1784 -0.0059 2.1980
4.8255 0.1111 2.0493
4.7296 0.2234 2.0108
4.7311 0.3382 2.0149
4.7322 0.4534 2.0200
4.6978 0.5650 2.0111
4.7113 0.6825 2.0239
4.7397 0.8040 2.0444
4.7684 0.9279 2.0664
4.7968 1.0544 2.0897
4.8700 1.1946 2.1342
5.0386 1.3659 2.2225
5.1765 1.5385 2.2997
5.1364 1.6627 2.2997
5.0934 1.7859 2.2997
5.0474 1.9080 2.2997
4.9985 2.0290 2.2997
4.9467 2.1487 2.2997
4.8920 2.2671 2.2997
4.8346 2.3841 2.2997
4.7743 2.4996 2.2997
4.7113 2.6137 2.2997
4.6455 2.7262 2.2997
4.5771 2.8370 2.2997
4.5061 2.9462 2.2997
4.4325 3.0536 2.2997
4.3563 3.1592 2.2997
4.2777 3.2628 2.2997
4.1965 3.3646 2.2997
4.1130 3.4643 2.2997
4.0271 3.5620 2.2997
3.9389 3.6576 2.2997
3.8485 3.7510 2.2997
3.7558 3.8422 2.2997
3.6610 3.9312 2.2997
3.5642 4.0178 2.2997
3.4652 4.1021 2.2997
3.3643 4.1839 2.2997
2.9760 3.8901 2.0983
2.8313 3.8926 2.0625
2.6930 3.8974 2.0303
2.6914 4.1039 2.1036
2.8323 4.5554 2.2997
2.7208 4.6219 2.2997
2.6078 4.6857 2.2997
2.4933 4.7467 2.2997
2.4768 5.0060 2.3959
2.3615 5.0787 2.4029
2.2376 5.1337 2.4029
2.1124 5.1857 2.4029
1.9861 5.2347 2.4029
1.8586 5.2806 2.4029
1.7301 5.3235 2.4029
1.6006 5.3633 2.4029
1.4702 5.3999 2.4029
1.3389 5.4334 2.4029
1.2069 5.4638 2.4029
1.0742 5.4910 2.4029
0.9409 5.5150 2.4029
0.8071 5.5358 2.4029
0.6729 5.5535 2.4029
0.5382 5.5678 2.4029
0.4033 5.5790 2.4029
0.2681 5.5869 2.4029
0.1328 5.5916 2.4029
-0.0026 5.5931 2.4029
-0.1380 5.5913 2.4029
-0.2733 5.5862 2.4029
-0.4084 5.5780 2.4029
-0.5433 5.5665 2.4029
-0.6779 5.5517 2.4029
-0.8121 5.5338 2.4029
-0.9459 5.5126 2.4029
-1.0791 5.4883 2.4029
-1.2116 5.4608 2.4029
-1.3435 5.4301 2.4029
-1.4746 5.3962 2.4029
-1.6049 5.3592 2.4029
-1.7343 5.3192 2.4029
-1.8626 5.2760 2.4029
-1.9899 5.2297 2.4029
-2.1161 5.1805 2.4029
-2.2411 5.1282 2.4029
-2.3647 5.0729 2.4029
-2.4871 5.0147 2.4029
-2.6080 4.9536 2.4029
-2.7274 4.8895 2.4029
-2.8453 4.8227 2.4029
-2.9616 4.7530 2.4029
-3.0761 4.6805 2.4029
-3.1889 4.6053 2.4029
-3.2999 4.5275 2.4029
-3.4090 4.4469 2.4029
-3.5161 4.3638 2.4029
-3.6213 4.2781 2.4029
-3.7243 4.1899 2.4029
-3.8253 4.0993 2.4029
-3.9240 4.0062 2.4029
-4.0205 3.9108 2.4029
-4.1147 3.8131 2.4029
-4.2066 3.7131 2.4029
-4.2960 3.6109 2.4029
-4.3830 3.5067 2.4029
-4.4674 3.4003 2.4029
-4.5493 3.2919 2.4029
-4.6286 3.1816 2.4029
-4.7052 3.0693 2.4029
-4.7791 2.9553 2.4029
-4.8503 2.8394 2.4029
-4.9187 2.7219 2.4029
-4.9842 2.6027 2.4029
-5.0469 2.4820 2.4029
-5.1067 2.3598 2.4029
-5.1635 2.2361 2.4029
-5.2173 2.1111 2.4029
-5.2681 1.9848 2.4029
-5.3159 1.8573 2.4029
-5.3606 1.7287 2.4029
-5.4022 1.5990 2.4029
-5.4407 1.4683 2.4029
-5.4761 1.3367 2.4029
-5.5082 1.2042 2.4029
-5.5372 1.0710 2.4029
-5.5629 0.9371 2.4029
-5.5854 0.8025 2.4029
-5.5999 0.6669 2.4009
-5.6009 0.5300 2.3945
-5.6019 0.3938 2.3894
-5.6028 0.2580 2.3858
-5.6038 0.1224 2.3837
-5.6047 -0.0131 2.3828
-5.6057 -0.1486 2.3834
-5.6067 -0.2843 2.3854
-5.6076 -0.4204 2.3888
-5.6086 -0.5570 2.3936
-5.6095 -0.6944 2.3998
-5.6000 -0.8310 2.4029
-5.5798 -0.9663 2.4029
-5.5563 -1.1012 2.4029
-5.5296 -1.2354 2.4029
-5.4997 -1.3690 2.4029
-5.4665 -1.5019 2.4029
-5.4301 -1.6339 2.4029
-5.3904 -1.7651 2.4029
-5.3477 -1.8952 2.4029
-5.3017 -2.0244 2.4029
-5.2527 -2.1524 2.4029
-5.2005 -2.2792 2.4029
-5.1453 -2.4048 2.4029
-5.0870 -2.5290 2.4029
-4.4432 -2.3444 2.1244
-4.1991 -2.3469 2.0337
-3.9747 -2.3492 1.9514
-3.7676 -2.3513 1.8766
-3.5755 -2.3533 1.8083
-3.3968 -2.3551 1.7457
-3.2298 -2.3568 1.6883
-3.0828 -2.3656 1.6404
-3.0838 -2.4870 1.6721
-3.0849 -2.6135 1.7591
-3.0861 -2.7451 1.7966
-3.0873 -2.8827 1.8369
-3.0886 -3.0267 1.8802
-3.0899 -3.1777 1.9268
-3.0913 -3.3366 1.9769
-3.0668 -3.4747 2.0139
-3.0177 -3.5902 2.0376
-3.0443 -3.8046 2.1166
-3.3515 -4.4023 2.4029
-3.2449 -4.4827 2.4029
-3.1363 -4.5604 2.4029
-3.0259 -4.6356 2.4029
-2.9136 -4.7080 2.4029
-2.7996 -4.7777 2.4029
-2.6839 -4.8445 2.4029
-2.5666 -4.9086 2.4029
-2.4478 -4.9698 2.4029
-2.3275 -5.0281 2.4029
-2.2058 -5.0834 2.4029
-2.0828 -5.1358 2.4029
-1.9585 -5.1851 2.4029
-1.8330 -5.2315 2.4029
-1.7065 -5.2747 2.4029
-1.5789 -5.3149 2.4029
-1.4504 -5.3519 2.4029
-1.3210 -5.3858 2.4029
-1.1907 -5.4165 2.4029
-1.0598 -5.4441 2.4029
-0.9282 -5.4684 2.4029
-0.7961 -5.4896 2.4029
-0.6635 -5.5075 2.4029
-0.5305 -5.5222 2.4029
-0.3972 -5.5336 2.4029
-0.2636 -5.5418 2.4029
-0.1298 -5.5467 2.4029
0.0040 -5.5483 2.4029
0.1378 -5.5467 2.4029
0.2716 -5.5418 2.4029
0.4052 -5.5337 2.4029
0.5385 -5.5223 2.4029
0.6716 -5.5076 2.4029
0.8042 -5.4897 2.4029
0.9364 -5.4686 2.4029
1.0680 -5.4443 2.4029
1.1990 -5.4167 2.4029
1.3292 -5.3860 2.4029
1.4587 -5.3521 2.4029
1.5873 -5.3151 2.4029
1.7149 -5.2749 2.4029
1.8415 -5.2316 2.4029
1.9670 -5.1853 2.4029
2.0914 -5.1359 2.4029
2.2145 -5.0836 2.4029
2.3362 -5.0282 2.4029
2.4071 -4.8697 2.3545
2.4649 -4.6977 2.2997
2.5772 -4.6364 2.2997
2.6880 -4.5723 2.2997
2.7972 -4.5056 2.2997
2.9047 -4.4362 2.2997
3.0105 -4.3643 2.2997
3.1144 -4.2898 2.2997
3.2166 -4.2128 2.2997
3.3168 -4.1333 2.2997
3.4150 -4.0514 2.2997
3.5112 -3.9672 2.2997
3.6053 -3.8807 2.2997
3.6972 -3.7919 2.2997
3.7870 -3.7009 2.2997
3.8745 -3.6078 2.2997
3.9597 -3.5126 2.2997
4.0426 -3.4154 2.2997
4.1230 -3.3162 2.2997
4.2010 -3.2150 2.2997
4.2765 -3.1121 2.2997
4.3495 -3.0073 2.2997
4.4198 -2.9009 2.2997
4.4876 -2.7927 2.2997
4.5527 -2.6830 2.2997
4.6151 -2.5717 2.2997
4.6748 -2.4590 2.2997
4.7317 -2.3449 2.2997
4.7858 -2.2295 2.2997
4.8371 -2.1128 2.2997
4.8855 -1.9949 2.2997
4.9310 -1.8759 2.2997
4.9737 -1.7558 2.2997
5.0134 -1.6348 2.2997
5.0501 -1.5129 2.2997
5.0635 -1.3846 2.2905
5.0857 -1.2595 2.2866
5.1129 -1.1359 2.2864
5.1466 -1.0136 2.2905
5.1799 -0.8908 2.2957
5.2076 -0.7666 2.2997
5.2232 -0.6404 2.2997
5.2358 -0.5139 2.2997
5.2453 -0.3871 2.2997
5.2517 -0.2603 2.2997
5.2550 -0.1333 2.2997
5.1005 -0.0061 2.2319
4.7659 0.1095 2.0866
4.7084 0.2221 2.0638
4.7099 0.3364 2.0679
4.7109 0.4511 2.0731
4.6894 0.5637 2.0696
4.7005 0.6806 2.0817
4.7287 0.8018 2.1027
4.7572 0.9255 2.1253
4.7866 1.0519 2.1497
4.9076 1.2035 2.2171
5.0574 1.3707 2.2997
5.0215 1.4921 2.2997
4.9827 1.6126 2.2997
4.9409 1.7322 2.2997
4.8964 1.8506 2.2997
4.8489 1.9680 2.2997
4.7987 2.0841 2.2997
4.7457 2.1990 2.2997
4.6900 2.3125 2.2997
4.6316 2.4246 2.2997
4.5705 2.5353 2.2997
4.5067 2.6444 2.2997
4.4404 2.7520 2.2997
4.3715 2.8579 2.2997
4.3001 2.9621 2.2997
4.2262 3.0645 2.2997
4.1499 3.1651 2.2997
4.0713 3.2639 2.2997
3.9903 3.3606 2.2997
3.9070 3.4554 2.2997
3.8214 3.5482 2.2997
3.7337 3.6388 2.2997
3.6438 3.7274 2.2997
3.5519 3.8137 2.2997
3.4579 3.8977 2.2997
3.3620 3.9795 2.2997
3.2641 4.0589 2.2997
2.9742 3.8874 2.1615
2.8296 3.8900 2.1246
2.6905 3.8934 2.0906
2.6887 4.0995 2.1661
2.7480 4.4195 2.2997
2.6398 4.4840 2.2997
2.5301 4.5459 2.2997
2.4747 4.7111 2.3526
2.4101 4.8709 2.4029
2.2912 4.9272 2.4029
2.1710 4.9806 2.4029
2.0496 5.0310 2.4029
1.9270 5.0786 2.4029
1.8033 5.1232 2.4029
1.6786 5.1648 2.4029
1.5530 5.2034 2.4029
1.4264 5.2390 2.4029
1.2991 5.2715 2.4029
1.1710 5.3010 2.4029
1.0423 5.3274 2.4029
0.9130 5.3507 2.4029
0.7831 5.3709 2.4029
0.6529 5.3880 2.4029
0.5222 5.4020 2.4029
0.3913 5.4128 2.4029
0.2601 5.4205 2.4029
0.1288 5.4250 2.4029
-0.0025 5.4265 2.4029
-0.1339 5.4247 2.4029
-0.2651 5.4198 2.4029
-0.3963 5.4118 2.4029
-0.5272 5.4006 2.4029
-0.6578 5.3864 2.4029
-0.7880 5.3689 2.4029
-0.9177 5.3484 2.4029
-1.0469 5.3248 2.4029
-1.1756 5.2981 2.4029
-1.3035 5.2683 2.4029
-1.4307 5.2354 2.4029
-1.5571 5.1996 2.4029
-1.6827 5.1607 2.4029
-1.8072 5.1188 2.4029
-1.9307 5.0739 2.4029
-2.0531 5.0261 2.4029
-2.1744 4.9753 2.4029
-2.2944 4.9217 2.4029
-2.4131 4.8652 2.4029
-2.5304 4.8059 2.4029
-2.6462 4.7437 2.4029
-2.7606 4.6788 2.4029
-2.8734 4.6112 2.4029
-2.9845 4.5409 2.4029
-3.0939 4.4679 2.4029
-3.2016 4.3924 2.4029
-3.3074 4.3142 2.4029
-3.4114 4.2335 2.4029
-3.5134 4.1504 2.4029
-3.6134 4.0648 2.4029
-3.7113 3.9768 2.4029
-3.8071 3.8865 2.4029
-3.9007 3.7939 2.4029
-3.9921 3.6991 2.4029
-4.0811 3.6021 2.4029
-4.1679 3.5030 2.4029
-4.2522 3.4018 2.4029
-4.3342 3.2986 2.4029
-4.4136 3.1934 2.4029
-4.4905 3.0863 2.4029
-4.5648 2.9774 2.4029
-4.6365 2.8668 2.4029
-4.7055 2.7544 2.4029
-4.7718 2.6403 2.4029
-4.8353 2.5247 2.4029
-4.8961 2.4076 2.4029
-4.9541 2.2890 2.4029
-5.0092 2.1690 2.4029
-5.0614 2.0477 2.4029
-5.1106 1.9252 2.4029
-5.1570 1.8015 2.4029
-5.2003 1.6767 2.4029
-5.2406 1.5509 2.4029
-5.2779 1.4241 2.4029
-5.3122 1.2964 2.4029
-5.3433 1.1679 2.4029
-5.3714 1.0386 2.4029
-5.3963 0.9087 2.4029
-5.4181 0.7782 2.4029
-5.4368 0.6472 2.4029
-5.4523 0.5157 2.4029
-5.4646 0.3839 2.4029
-5.4737 0.2517 2.4029
-5.4797 0.1194 2.4029
-5.4824 -0.0131 2.4029
-5.4820 -0.1456 2.4029
-5.4784 -0.2781 2.4029
-5.4715 -0.4105 2.4029
-5.4615 -0.5427 2.4029
-5.4482 -0.6747 2.4029
-5.4318 -0.8064 2.4029
-5.4122 -0.9376 2.4029
-5.3894 -1.0684 2.4029
-5.3634 -1.1986 2.4029
-5.3343 -1.3281 2.4029
-5.3021 -1.4570 2.4029
-5.2667 -1.5851 2.4029
-5.2283 -1.7123 2.4029
-5.1868 -1.8385 2.4029
-5.1422 -1.9637 2.4029
-5.0946 -2.0879 2.4029
-5.0439 -2.2109 2.4029
-4.9903 -2.3326 2.4029
-4.9338 -2.4531 2.4029
-4.8743 -2.5721 2.4029
-4.1982 -2.3466 2.0964
-3.9739 -2.3490 2.0117
-3.7668 -2.3511 1.9345
-3.5748 -2.3531 1.8641
-3.3961 -2.3549 1.7997
-3.2292 -2.3566 1.7405
-3.0828 -2.3658 1.6915
-3.0838 -2.4872 1.7241
-3.0850 -2.6137 1.8127
-3.0861 -2.7454 1.8514
-3.0873 -2.8829 1.8930
-3.0886 -3.0269 1.9376
-3.0899 -3.1780 1.9856
-3.0913 -3.3369 2.0372
-3.0666 -3.4748 2.0752
-3.0214 -3.5948 2.1023
-3.3538 -4.1917 2.4029
-3.2523 -4.2722 2.4029
-3.1488 -4.3502 2.4029
-3.0434 -4.4256 2.4029
-2.9362 -4.4985 2.4029
-2.8273 -4.5688 2.4029
-2.7166 -4.6364 2.4029
-2.6044 -4.7013 2.4029
-2.4905 -4.7634 2.4029
-2.3752 -4.8228 2.4029
-2.2585 -4.8793 2.4029
-2.1404 -4.9330 2.4029
-2.0210 -4.9838 2.4029
-1.9004 -5.0317 2.4029
-1.7787 -5.0766 2.4029
-1.6558 -5.1185 2.4029
-1.5320 -5.1575 2.4029
-1.4073 -5.1934 2.4029
-1.2817 -5.2263 2.4029
-1.1554 -5.2561 2.4029
-1.0283 -5.2828 2.4029
-0.9007 -5.3065 2.4029
-0.7725 -5.3270 2.4029
-0.6438 -5.3443 2.4029
-0.5147 -5.3586 2.4029
-0.3853 -5.3696 2.4029
-0.2557 -5.3776 2.4029
-0.1260 -5.3823 2.4029
0.0039 -5.3839 2.4029
0.1338 -5.3823 2.4029
0.2636 -5.3776 2.4029
0.3932 -5.3697 2.4029
0.5226 -5.3586 2.4029
0.6517 -5.3444 2.4029
0.7804 -5.3271 2.4029
0.9086 -5.3066 2.4029
1.0363 -5.2830 2.4029
1.1634 -5.2562 2.4029
1.2898 -5.2264 2.4029
1.4154 -5.1936 2.4029
1.5402 -5.1576 2.4029
1.6640 -5.1187 2.4029
1.7869 -5.0767 2.4029
1.9087 -5.0317 2.4029
2.0293 -4.9839 2.4029
2.1488 -4.9330 2.4029
2.2670 -4.8793 2.4029
2.3838 -4.8228 2.4029
2.4159 -4.6046 2.3228
2.5008 -4.4992 2.2997
2.6207 -4.4582 2.3106
2.7142 -4.3723 2.2997
2.8186 -4.3050 2.2997
2.9212 -4.2352 2.2997
3.0221 -4.1629 2.2997
3.1212 -4.0882 2.2997
3.2185 -4.0111 2.2997
3.3138 -3.9317 2.2997
3.4072 -3.8500 2.2997
3.4985 -3.7660 2.2997
3.5878 -3.6799 2.2997
3.6749 -3.5916 2.2997
3.7598 -3.5013 2.2997
3.8425 -3.4089 2.2997
3.9229 -3.3146 2.2997
4.0010 -3.2183 2.2997
4.0767 -3.1202 2.2997
4.1500 -3.0203 2.2997
4.2208 -2.9187 2.2997
4.2891 -2.8153 2.2997
4.3549 -2.7104 2.2997
4.4181 -2.6039 2.2997
4.4787 -2.4960 2.2997
4.5366 -2.3866 2.2997
4.5919 -2.2759 2.2997
4.6444 -2.1639 2.2997
4.6942 -2.0506 2.2997
4.7413 -1.9363 2.2997
4.7855 -1.8208 2.2997
4.8269 -1.7043 2.2997
4.8654 -1.5869 2.2997
4.9011 -1.4686 2.2997
4.9339 -1.3494 2.2997
4.9639 -1.2296 2.2997
4.9908 -1.1091 2.2997
5.0149 -0.9880 2.2997
5.0360 -0.8663 2.2997
5.0542 -0.7442 2.2997
5.0694 -0.6218 2.2997
5.0816 -0.4990 2.2997
5.0908 -0.3760 2.2997
5.0971 -0.2529 2.2997
5.1004 -0.1296 2.2997
5.0752 -0.0063 2.2882
4.7072 0.1079 2.1234
4.6873 0.2208 2.1167
4.6887 0.3346 2.1210
4.6897 0.4488 2.1263
4.6810 0.5624 2.1284
4.6896 0.6788 2.1398
4.7176 0.7997 2.1613
4.7511 0.9240 2.1868
4.7984 1.0542 2.2202
4.9213 1.2066 2.2905
4.9089 1.3301 2.2997
4.8741 1.4480 2.2997
4.8364 1.5650 2.2997
4.7960 1.6811 2.2997
4.7527 1.7961 2.2997
4.7067 1.9100 2.2997
4.6580 2.0227 2.2997
4.6066 2.1342 2.2997
4.5525 2.2444 2.2997
4.4958 2.3533 2.2997
4.4366 2.4607 2.2997
4.3747 2.5667 2.2997
4.3104 2.6711 2.2997
4.2435 2.7739 2.2997
4.1742 2.8751 2.2997
4.1025 2.9745 2.2997
4.0285 3.0722 2.2997
3.9522 3.1681 2.2997
3.8735 3.2620 2.2997
3.7927 3.3541 2.2997
3.7097 3.4441 2.2997
3.6245 3.5322 2.2997
3.5373 3.6181 2.2997
3.4481 3.7019 2.2997
3.3569 3.7835 2.2997
3.2637 3.8629 2.2997
3.1687 3.9400 2.2997
2.9723 3.8847 2.2251
2.8279 3.8873 2.1872
2.6882 3.8898 2.1517
2.6860 4.0951 2.2290
2.6822 4.3134 2.3121
2.5628 4.3528 2.2997
2.4800 4.4555 2.3219
2.4539 4.6711 2.4029
2.3398 4.7285 2.4029
2.2244 4.7831 2.4029
2.1077 4.8350 2.4029
1.9898 4.8840 2.4029
1.8708 4.9301 2.4029
1.7507 4.9734 2.4029
1.6297 5.0139 2.4029
1.5077 5.0513 2.4029
1.3849 5.0859 2.4029
1.2612 5.1175 2.4029
1.1369 5.1461 2.4029
1.0119 5.1718 2.4029
0.8864 5.1944 2.4029
0.7603 5.2140 2.4029
0.6338 5.2306 2.4029
0.5070 5.2442 2.4029
0.3799 5.2547 2.4029
0.2526 5.2622 2.4029
0.1251 5.2666 2.4029
-0.0024 5.2680 2.4029
-0.1300 5.2663 2.4029
-0.2574 5.2616 2.4029
-0.3847 5.2538 2.4029
-0.5118 5.2429 2.4029
-0.6385 5.2291 2.4029
-0.7650 5.2122 2.4029
-0.8909 5.1922 2.4029
-1.0164 5.1693 2.4029
-1.1413 5.1433 2.4029
-1.2655 5.1144 2.4029
-1.3890 5.0825 2.4029
-1.5117 5.0477 2.4029
-1.6336 5.0099 2.4029
-1.7545 4.9692 2.4029
-1.8744 4.9256 2.4029
-1.9932 4.8792 2.4029
-2.1109 4.8299 2.4029
-2.2274 4.7779 2.4029
-2.3426 4.7230 2.4029
-2.4565 4.6654 2.4029
-2.5690 4.6051 2.4029
-2.6800 4.5420 2.4029
-2.7895 4.4764 2.4029
-2.8974 4.4081 2.4029
-3.0036 4.3372 2.4029
-3.1081 4.2639 2.4029
-3.2109 4.1880 2.4029
-3.3118 4.1097 2.4029
-3.4108 4.0289 2.4029
-3.5078 3.9458 2.4029
-3.6029 3.8604 2.4029
-3.6958 3.7727 2.4029
-3.7867 3.6828 2.4029
-3.8754 3.5907 2.4029
-3.9619 3.4966 2.4029
-4.0460 3.4003 2.4029
-4.1279 3.3020 2.4029
-4.2074 3.2018 2.4029
-4.2845 3.0997 2.4029
-4.3591 2.9958 2.4029
-4.4312 2.8901 2.4029
-4.5008 2.7826 2.4029
-4.5678 2.6735 2.4029
-4.6321 2.5628 2.4029
-4.6938 2.4505 2.4029
-4.7527 2.3368 2.4029
-4.8090 2.2217 2.4029
-4.8624 2.1052 2.4029
-4.9131 1.9875 2.4029
-4.9609 1.8685 2.4029
-5.0058 1.7484 2.4029
-5.0478 1.6273 2.4029
-5.0870 1.5051 2.4029
-5.1231 1.3820 2.4029
-5.1563 1.2581 2.4029
-5.1865 1.1333 2.4029
-5.2137 1.0078 2.4029
-5.2379 0.8817 2.4029
-5.2591 0.7551 2.4029
-5.2771 0.6279 2.4029
-5.2921 0.5003 2.4029
-5.3041 0.3723 2.4029
-5.3129 0.2441 2.4029
-5.3186 0.1156 2.4029
-5.3213 -0.0130 2.4029
-5.3208 -0.1416 2.4029
-5.3172 -0.2702 2.4029
-5.3106 -0.3987 2.4029
-5.3008 -0.5271 2.4029
-5.2879 -0.6551 2.4029
-5.2719 -0.7829 2.4029
-5.2528 -0.9103 2.4029
-5.2307 -1.0372 2.4029
-5.2054 -1.1636 2.4029
-5.1772 -1.2893 2.4029
-5.1458 -1.4144 2.4029
-5.1115 -1.5386 2.4029
-5.0742 -1.6621 2.4029
-5.0338 -1.7846 2.4029
-4.9905 -1.9061 2.4029
-4.9443 -2.0266 2.4029
-4.8951 -2.1460 2.4029
-4.8431 -2.2641 2.4029
-4.7882 -2.3810 2.4029
-4.7304 -2.4965 2.4029
-4.6699 -2.6106 2.4029
-3.9730 -2.3487 2.0724
-3.7660 -2.3509 1.9930
-3.5741 -2.3528 1.9205
-3.3955 -2.3547 1.8541
-3.2286 -2.3564 1.7932
-3.0828 -2.3661 1.7430
-3.0838 -2.4874 1.7766
-3.0850 -2.6140 1.8669
-3.0861 -2.7456 1.9067
-3.0873 -2.8832 1.9495
-3.0886 -3.0272 1.9955
-3.0899 -3.1783 2.0449
-3.0913 -3.3372 2.0982
-3.0751 -3.4847 2.1432
-3.0387 -3.6157 2.1776
-3.2564 -4.0703 2.4029
-3.1578 -4.1484 2.4029
-3.0573 -4.2241 2.4029
-2.9550 -4.2973 2.4029
-2.8509 -4.3681 2.4029
-2.7451 -4.4363 2.4029
-2.6377 -4.5019 2.4029
-2.5287 -4.5649 2.4029
-2.4181 -4.6252 2.4029
-2.3061 -4.6828 2.4029
-2.1928 -4.7377 2.4029
-2.0781 -4.7898 2.4029
-1.9622 -4.8391 2.4029
-1.8451 -4.8856 2.4029
-1.7269 -4.9292 2.4029
-1.6077 -4.9699 2.4029
-1.4875 -5.0077 2.4029
-1.3664 -5.0426 2.4029
-1.2444 -5.0745 2.4029
-1.1218 -5.1035 2.4029
-0.9984 -5.1294 2.4029
-0.8745 -5.1523 2.4029
-0.7500 -5.1722 2.4029
-0.6250 -5.1891 2.4029
-0.4997 -5.2029 2.4029
-0.3741 -5.2136 2.4029
-0.2483 -5.2213 2.4029
-0.1223 -5.2259 2.4029
0.0038 -5.2275 2.4029
0.1299 -5.2260 2.4029
0.2559 -5.2214 2.4029
0.3818 -5.2137 2.4029
0.5074 -5.2029 2.4029
0.6327 -5.1891 2.4029
0.7577 -5.1723 2.4029
0.8822 -5.1524 2.4029
1.0062 -5.1295 2.4029
1.1296 -5.1035 2.4029
1.2523 -5.0746 2.4029
1.3742 -5.0427 2.4029
1.4954 -5.0078 2.4029
1.6156 -4.9700 2.4029
1.7349 -4.9293 2.4029
1.8532 -4.8856 2.4029
1.9703 -4.8391 2.4029
2.0863 -4.7898 2.4029
2.2010 -4.7377 2.4029
2.3144 -4.6827 2.4029
2.4091 -4.5919 2.3857
2.4281 -4.3686 2.2997
2.5325 -4.3083 2.2997
2.6353 -4.2454 2.2997
2.7366 -4.1801 2.2997
2.8363 -4.1123 2.2997
2.9343 -4.0422 2.2997
3.0305 -3.9696 2.2997
3.1250 -3.8948 2.2997
3.2176 -3.8177 2.2997
3.3082 -3.7384 2.2997
3.3969 -3.6569 2.2997
3.4836 -3.5733 2.2997
3.5682 -3.4876 2.2997
3.6506 -3.3999 2.2997
3.7310 -3.3102 2.2997
3.8090 -3.2186 2.2997
3.8849 -3.1252 2.2997
3.9584 -3.0299 2.2997
4.0296 -2.9329 2.2997
4.0984 -2.8343 2.2997
4.1647 -2.7339 2.2997
4.2286 -2.6321 2.2997
4.2900 -2.5287 2.2997
4.3489 -2.4239 2.2997
4.4052 -2.3177 2.2997
4.4588 -2.2102 2.2997
4.5099 -2.1014 2.2997
4.5583 -1.9915 2.2997
4.6039 -1.8804 2.2997
4.6469 -1.7683 2.2997
4.6871 -1.6552 2.2997
4.7246 -1.5412 2.2997
4.7593 -1.4263 2.2997
4.7912 -1.3107 2.2997
4.8203 -1.1943 2.2997
4.8465 -1.0773 2.2997
4.8699 -0.9597 2.2997
4.8904 -0.8415 2.2997
4.9081 -0.7230 2.2997
4.9229 -0.6041 2.2997
4.9348 -0.4849 2.2997
4.9438 -0.3654 2.2997
4.9499 -0.2458 2.2997
4.9531 -0.1261 2.2997
4.9534 -0.0064 2.2997
4.6643 0.1067 2.1666
4.6661 0.2196 2.1698
4.6674 0.3328 2.1741
4.6684 0.4465 2.1795
4.6689 0.5607 2.1860
4.6787 0.6770 2.1981
4.7168 0.7993 2.2251
4.7628 0.9260 2.2572
4.8103 1.0565 2.2918
4.7986 1.1762 2.2997
4.7676 1.2916 2.2997
4.7338 1.4061 2.2997
4.6972 1.5197 2.2997
4.6579 1.6324 2.2997
4.6160 1.7441 2.2997
4.5713 1.8547 2.2997
4.5240 1.9642 2.2997
4.4741 2.0726 2.2997
4.4216 2.1796 2.2997
4.3666 2.2854 2.2997
4.3090 2.3897 2.2997
4.2490 2.4927 2.2997
4.1865 2.5941 2.2997
4.1216 2.6940 2.2997
4.0543 2.7922 2.2997
3.9847 2.8888 2.2997
3.9129 2.9837 2.2997
3.8387 3.0769 2.2997
3.7624 3.1681 2.2997
3.6839 3.2576 2.2997
3.6032 3.3451 2.2997
3.5206 3.4306 2.2997
3.4359 3.5140 2.2997
3.3492 3.5955 2.2997
3.2606 3.6748 2.2997
3.1702 3.7519 2.2997
3.0779 3.8268 2.2997
2.9705 3.8820 2.2893
2.8262 3.8847 2.2503
2.6866 3.8872 2.2138
2.6833 4.0906 2.2924
2.5913 4.1670 2.2997
2.4894 4.2278 2.2997
2.4728 4.4422 2.3834
2.3836 4.5371 2.4029
2.2728 4.5928 2.4029
2.1607 4.6459 2.4029
2.0474 4.6963 2.4029
1.9329 4.7439 2.4029
1.8173 4.7887 2.4029
1.7007 4.8308 2.4029
1.5831 4.8701 2.4029
1.4646 4.9065 2.4029
1.3453 4.9401 2.4029
1.2252 4.9708 2.4029
1.1044 4.9986 2.4029
0.9830 5.0235 2.4029
0.8610 5.0455 2.4029
0.7386 5.0646 2.4029
0.6157 5.0807 2.4029
0.4925 5.0939 2.4029
0.3691 5.1041 2.4029
0.2454 5.1114 2.4029
0.1215 5.1157 2.4029
-0.0023 5.1170 2.4029
-0.1262 5.1154 2.4029
-0.2500 5.1108 2.4029
-0.3737 5.1032 2.4029
-0.4971 5.0927 2.4029
-0.6203 5.0792 2.4029
-0.7431 5.0628 2.4029
-0.8654 5.0434 2.4029
-0.9873 5.0212 2.4029
-1.1086 4.9959 2.4029
-1.2293 4.9678 2.4029
-1.3493 4.9369 2.4029
-1.4685 4.9030 2.4029
-1.5868 4.8663 2.4029
-1.7043 4.8268 2.4029
-1.8207 4.7844 2.4029
-1.9362 4.7393 2.4029
-2.0505 4.6915 2.4029
-2.1637 4.6409 2.4029
-2.2756 4.5876 2.4029
-2.3862 4.5316 2.4029
-2.4955 4.4730 2.4029
-2.6033 4.4117 2.4029
-2.7096 4.3479 2.4029
-2.8144 4.2816 2.4029
-2.9176 4.2128 2.4029
-3.0191 4.1415 2.4029
-3.1189 4.0678 2.4029
-3.2169 3.9917 2.4029
-3.3130 3.9132 2.4029
-3.4073 3.8325 2.4029
-3.4996 3.7495 2.4029
-3.5899 3.6643 2.4029
-3.6781 3.5770 2.4029
-3.7643 3.4875 2.4029
-3.8482 3.3960 2.4029
-3.9300 3.3025 2.4029
-4.0095 3.2071 2.4029
-4.0867 3.1097 2.4029
-4.1616 3.0105 2.4029
-4.2340 2.9095 2.4029
-4.3040 2.8068 2.4029
-4.3716 2.7024 2.4029
-4.4366 2.5964 2.4029
-4.4991 2.4889 2.4029
-4.5590 2.3799 2.4029
-4.6162 2.2694 2.4029
-4.6708 2.1576 2.4029
-4.7227 2.0444 2.4029
-4.7718 1.9301 2.4029
-4.8182 1.8145 2.4029
-4.8619 1.6979 2.4029
-4.9027 1.5802 2.4029
-4.9406 1.4615 2.4029
-4.9757 1.3420 2.4029
-5.0079 1.2216 2.4029
-5.0373 1.1004 2.4029
-5.0636 0.9786 2.4029
-5.0871 0.8561 2.4029
-5.1076 0.7330 2.4029
-5.1251 0.6095 2.4029
-5.1397 0.4856 2.4029
-5.1512 0.3613 2.4029
-5.1597 0.2367 2.4029
-5.1653 0.1120 2.4029
-5.1678 -0.0129 2.4029
-5.1673 -0.1378 2.4029
-5.1638 -0.2627 2.4029
-5.1573 -0.3875 2.4029
-5.1478 -0.5121 2.4029
-5.1352 -0.6365 2.4029
-5.1197 -0.7606 2.4029
-5.1011 -0.8843 2.4029
-5.0796 -1.0075 2.4029
-5.0550 -1.1302 2.4029
-5.0276 -1.2523 2.4029
-4.9971 -1.3738 2.4029
-4.9637 -1.4944 2.4029
-4.9274 -1.6143 2.4029
-4.8882 -1.7333 2.4029
-4.8461 -1.8513 2.4029
-4.8012 -1.9683 2.4029
-4.7534 -2.0841 2.4029
-4.7029 -2.1989 2.4029
-4.6495 -2.3123 2.4029
-4.5934 -2.4245 2.4029
-4.5346 -2.5353 2.4029
-3.9722 -2.3485 2.1338
-3.7652 -2.3506 2.0521
-3.5734 -2.3526 1.9774
-3.3948 -2.3545 1.9091
-3.2280 -2.3562 1.8464
-3.0828 -2.3663 1.7950
-3.0838 -2.4877 1.8297
-3.0850 -2.6142 1.9216
-3.0861 -2.7459 1.9626
-3.0873 -2.8834 2.0067
-3.0886 -3.0274 2.0540
-3.0900 -3.1786 2.1049
-3.1686 -3.4208 2.2137
-3.0980 -3.5110 2.2225
-3.2575 -3.8764 2.4029
-3.1636 -3.9545 2.4029
-3.0678 -4.0304 2.4029
-2.9701 -4.1039 2.4029
-2.8707 -4.1751 2.4029
-2.7696 -4.2438 2.4029
-2.6668 -4.3100 2.4029
-2.5624 -4.3738 2.4029
-2.4565 -4.4349 2.4029
-2.3491 -4.4935 2.4029
-2.2403 -4.5495 2.4029
-2.1302 -4.6028 2.4029
-2.0188 -4.6534 2.4029
-1.9062 -4.7013 2.4029
-1.7924 -4.7464 2.4029
-1.6776 -4.7888 2.4029
-1.5617 -4.8283 2.4029
-1.4450 -4.8650 2.4029
-1.3273 -4.8989 2.4029
-1.2089 -4.9299 2.4029
-1.0897 -4.9580 2.4029
-0.9699 -4.9832 2.4029
-0.8495 -5.0054 2.4029
-0.7285 -5.0248 2.4029
-0.6072 -5.0411 2.4029
-0.4854 -5.0545 2.4029
-0.3634 -5.0650 2.4029
-0.2412 -5.0724 2.4029
-0.1187 -5.0769 2.4029
0.0037 -5.0784 2.4029
0.1262 -5.0769 2.4029
0.2486 -5.0725 2.4029
0.3709 -5.0650 2.4029
0.4929 -5.0546 2.4029
0.6147 -5.0412 2.4029
0.7361 -5.0248 2.4029
0.8570 -5.0055 2.4029
0.9774 -4.9832 2.4029
1.0973 -4.9580 2.4029
1.2165 -4.9299 2.4029
1.3350 -4.8989 2.4029
1.4527 -4.8651 2.4029
1.5695 -4.8283 2.4029
1.6854 -4.7888 2.4029
1.8003 -4.7464 2.4029
1.9141 -4.7012 2.4029
2.0267 -4.6533 2.4029
2.1382 -4.6027 2.4029
2.2484 -4.5493 2.4029
2.3572 -4.4933 2.4029
2.4109 -4.3379 2.3505
2.4602 -4.1855 2.2997
2.5601 -4.1245 2.2997
2.6586 -4.0611 2.2997
2.7554 -3.9952 2.2997
2.8506 -3.9271 2.2997
2.9441 -3.8567 2.2997
3.0359 -3.7840 2.2997
3.1258 -3.7091 2.2997
3.2139 -3.6320 2.2997
3.3001 -3.5529 2.2997
3.3843 -3.4717 2.2997
3.4665 -3.3884 2.2997
3.5466 -3.3032 2.2997
3.6246 -3.2161 2.2997
3.7005 -3.1272 2.2997
3.7742 -3.0364 2.2997
3.8457 -2.9439 2.2997
3.9148 -2.8497 2.2997
3.9817 -2.7538 2.2997
4.0462 -2.6564 2.2997
4.1083 -2.5574 2.2997
4.1679 -2.4570 2.2997
4.2251 -2.3552 2.2997
4.2798 -2.2520 2.2997
4.3320 -2.1476 2.2997
4.3816 -2.0419 2.2997
4.4286 -1.9351 2.2997
4.4731 -1.8272 2.2997
4.5148 -1.7183 2.2997
4.5539 -1.6084 2.2997
4.5904 -1.4977 2.2997
4.6241 -1.3861 2.2997
4.6551 -1.2737 2.2997
4.6834 -1.1606 2.2997
4.7089 -1.0469 2.2997
4.7317 -0.9327 2.2997
4.7516 -0.8179 2.2997
4.7688 -0.7028 2.2997
4.7832 -0.5872 2.2997
4.7948 -0.4714 2.2997
4.8036 -0.3553 2.2997
4.8096 -0.2391 2.2997
4.8127 -0.1228 2.2997
4.8131 -0.0065 2.2997
4.6431 0.1059 2.2196
4.6448 0.2183 2.2229
4.6462 0.3311 2.2273
4.6471 0.4442 2.2327
4.6514 0.5584 2.2412
4.6836 0.6774 2.2646
4.7284 0.8010 2.2955
4.7151 0.9165 2.2997
4.6904 1.0299 2.2997
4.6629 1.1427 2.2997
4.6328 1.2548 2.2997
4.6000 1.3661 2.2997
4.5645 1.4765 2.2997
4.5263 1.5860 2.2997
4.4856 1.6946 2.2997
4.4422 1.8021 2.2997
4.3963 1.9085 2.2997
4.3478 2.0138 2.2997
4.2968 2.1178 2.2997
4.2434 2.2206 2.2997
4.1875 2.3220 2.2997
4.1291 2.4221 2.2997
4.0684 2.5206 2.2997
4.0054 2.6177 2.2997
3.9400 2.7132 2.2997
3.8724 2.8071 2.2997
3.8026 2.8994 2.2997
3.7305 2.9899 2.2997
3.6563 3.0786 2.2997
3.5801 3.1655 2.2997
3.5017 3.2505 2.2997
3.4214 3.3337 2.2997
3.3391 3.4148 2.2997
3.2549 3.4939 2.2997
3.1688 3.5710 2.2997
3.0809 3.6460 2.2997
2.9913 3.7188 2.2997
2.8999 3.7895 2.2997
2.8069 3.8579 2.2997
2.6850 3.8845 2.2765
2.6161 3.9880 2.2997
2.5185 4.0495 2.2997
2.4712 4.1968 2.3490
2.4230 4.3524 2.4029
2.3166 4.4092 2.4029
2.2089 4.4634 2.4029
2.1000 4.5150 2.4029
1.9898 4.5640 2.4029
1.8786 4.6103 2.4029
1.7662 4.6539 2.4029
1.6529 4.6948 2.4029
1.5386 4.7330 2.4029
1.4234 4.7684 2.4029
1.3075 4.8010 2.4029
1.1908 4.8309 2.4029
1.0734 4.8579 2.4029
0.9554 4.8821 2.4029
0.8369 4.9035 2.4029
-0.4831 4.9494 2.4029
0.7179 4.9221 2.4029
-0.6028 4.9363 2.4029
-0.7222 4.9203 2.4029
0.5985 4.9377 2.4029
-0.8411 4.9015 2.4029
0.4787 4.9506 2.4029
-0.9596 4.8798 2.4029
0.3587 4.9605 2.4029
-1.0775 4.8553 2.4029
0.2385 4.9676 2.4029
-1.1948 4.8280 2.4029
0.1182 4.9718 2.4029
-1.3113 4.7979 2.4029
-0.0022 4.9730 2.4029
-1.4272 4.7650 2.4029
-0.1226 4.9715 2.4029
-0.2430 4.9670 2.4029
-1.5422 4.7293 2.4029
-0.3632 4.9596 2.4029
-1.6564 4.6909 2.4029
-2.7353 4.1610 2.4029
-1.7696 4.6498 2.4029
-2.8355 4.0940 2.4029
-1.8818 4.6059 2.4029
-2.9342 4.0247 2.4029
-1.9929 4.5594 2.4029
-2.1028 4.5102 2.4029
-3.0312 3.9531 2.4029
-2.2116 4.4584 2.4029
-3.1264 3.8791 2.4029
-2.3191 4.4039 2.4029
-3.2198 3.8029 2.4029
-2.4253 4.3470 2.4029
-3.3114 3.7244 2.4029
-2.5301 4.2875 2.4029
-3.4011 3.6437 2.4029
-2.6334 4.2254 2.4029
-3.4889 3.5609 2.4029
-3.6583 3.3891 2.4029
-3.5746 3.4760 2.4029
-3.7399 3.3001 2.4029
-4.3722 2.4185 2.4029
-3.8193 3.2093 2.4029
-4.4304 2.3125 2.4029
-3.8966 3.1165 2.4029
-4.4860 2.2051 2.4029
-3.9716 3.0219 2.4029
-4.5390 2.0964 2.4029
-4.0443 2.9254 2.4029
-4.5894 1.9865 2.4029
-4.1147 2.8273 2.4029
-4.6372 1.8753 2.4029
-4.1827 2.7275 2.4029
-4.6822 1.7630 2.4029
-4.2484 2.6260 2.4029
-4.7246 1.6497 2.4029
-4.3115 2.5230 2.4029
-4.7642 1.5353 2.4029
-4.8352 1.3038 2.4029
-4.8011 1.4200 2.4029
-4.8664 1.1868 2.4029
-5.0191 0.1085 2.4029
-4.8949 1.0690 2.4029
-5.0215 -0.0128 2.4029
-4.9205 0.9506 2.4029
-5.0210 -0.1342 2.4029
-4.9433 0.8316 2.4029
-5.0176 -0.2555 2.4029
-4.9632 0.7120 2.4029
-5.0112 -0.3768 2.4029
-4.9802 0.5920 2.4029
-5.0019 -0.4979 2.4029
-4.9943 0.4716 2.4029
-4.9897 -0.6188 2.4029
-5.0055 0.3508 2.4029
-4.9745 -0.7393 2.4029
-5.0137 0.2298 2.4029
-4.9565 -0.8595 2.4029
-4.9117 -1.0985 2.4029
-4.9355 -0.9792 2.4029
-4.8849 -1.2171 2.4029
-4.8553 -1.3351 2.4029
-4.8228 -1.4523 2.4029
-4.7875 -1.5688 2.4029
-4.7494 -1.6843 2.4029
-4.7085 -1.7990 2.4029
-4.6648 -1.9126 2.4029
-4.6184 -2.0252 2.4029
-4.5692 -2.1367 2.4029
-4.5174 -2.2469 2.4029
-4.4629 -2.3559 2.4029
-4.4057 -2.4635 2.4029
-4.3459 -2.5697 2.4029
-3.7644 -2.3504 2.1117
-3.5727 -2.3524 2.0349
-3.3942 -2.3542 1.9646
-3.2274 -2.3560 1.9001
-3.0828 -2.3665 1.8476
-3.0839 -2.4879 1.8833
-3.0850 -2.6145 1.9769
-3.0861 -2.7461 2.0191
-3.0874 -2.8837 2.0645
-3.0886 -3.0277 2.1132
-3.4287 -3.5273 2.4029
-3.2257 -3.4829 2.3185
-3.2557 -3.6900 2.4029
-3.1663 -3.7681 2.4029
-3.0750 -3.8441 2.4029
-2.9818 -3.9178 2.4029
-2.8869 -3.9893 2.4029
-2.7903 -4.0584 2.4029
-2.6920 -4.1252 2.4029
-2.5920 -4.1895 2.4029
-2.4906 -4.2515 2.4029
-2.3876 -4.3109 2.4029
-2.2832 -4.3679 2.4029
-2.1775 -4.4222 2.4029
-2.0705 -4.4740 2.4029
-1.9622 -4.5232 2.4029
-1.8527 -4.5697 2.4029
-1.7421 -4.6136 2.4029
-1.6305 -4.6548 2.4029
-1.5179 -4.6932 2.4029
-1.4044 -4.7289 2.4029
-1.2901 -4.7618 2.4029
-1.1749 -4.7919 2.4029
-1.0591 -4.8192 2.4029
-0.9426 -4.8437 2.4029
-0.8256 -4.8653 2.4029
-0.7081 -4.8841 2.4029
-0.5901 -4.9000 2.4029
-0.4718 -4.9130 2.4029
-0.3532 -4.9231 2.4029
-0.2344 -4.9304 2.4029
-0.1154 -4.9347 2.4029
0.0036 -4.9362 2.4029
0.1227 -4.9347 2.4029
0.2417 -4.9304 2.4029
0.3605 -4.9231 2.4029
0.4791 -4.9130 2.4029
0.5974 -4.9000 2.4029
0.7154 -4.8841 2.4029
0.8330 -4.8653 2.4029
0.9500 -4.8437 2.4029
1.0665 -4.8192 2.4029
1.1824 -4.7919 2.4029
1.2976 -4.7617 2.4029
1.4119 -4.7288 2.4029
1.5255 -4.6931 2.4029
1.6381 -4.6547 2.4029
1.7498 -4.6135 2.4029
1.8604 -4.5696 2.4029
1.9699 -4.5231 2.4029
2.0782 -4.4738 2.4029
2.1853 -4.4220 2.4029
2.2911 -4.3676 2.4029
2.3956 -4.3106 2.4029
2.4185 -4.1149 2.3259
2.4884 -4.0091 2.2997
2.5841 -3.9475 2.2997
2.6782 -3.8835 2.2997
2.7707 -3.8173 2.2997
2.8616 -3.7488 2.2997
2.9508 -3.6782 2.2997
3.0382 -3.6054 2.2997
3.1239 -3.5305 2.2997
3.2076 -3.4536 2.2997
3.2895 -3.3747 2.2997
3.3694 -3.2938 2.2997
3.4473 -3.2110 2.2997
3.5232 -3.1263 2.2997
3.5970 -3.0399 2.2997
3.6686 -2.9517 2.2997
3.7381 -2.8617 2.2997
3.8053 -2.7702 2.2997
4.1070 -2.2896 2.2997
3.8703 -2.6770 2.2997
4.1602 -2.1893 2.2997
4.2110 -2.0878 2.2997
3.9330 -2.5823 2.2997
4.2592 -1.9851 2.2997
4.3049 -1.8813 2.2997
3.9934 -2.4862 2.2997
4.3481 -1.7765 2.2997
4.0514 -2.3886 2.2997
4.3888 -1.6706 2.2997
4.4268 -1.5638 2.2997
4.5252 -1.2384 2.2997
4.4622 -1.4561 2.2997
4.4951 -1.3476 2.2997
4.5527 -1.1285 2.2997
4.6787 -0.1197 2.2997
4.5776 -1.0180 2.2997
4.6790 -0.0066 2.2997
4.5997 -0.9069 2.2997
4.6311 0.1054 2.2772
4.6192 -0.7954 2.2997
4.6363 0.2177 2.2823
4.6416 0.3305 2.2888
4.6359 -0.6834 2.2997
4.6470 0.4440 2.2966
4.6499 -0.5711 2.2997
4.6399 0.5567 2.2997
4.6240 0.6685 2.2997
4.6612 -0.4585 2.2997
4.6053 0.7799 2.2997
4.6698 -0.3457 2.2997
4.5840 0.8907 2.2997
4.5600 1.0010 2.2997
4.6756 -0.2327 2.2997
4.5333 1.1107 2.2997
4.1776 2.0588 2.2997
4.5041 1.2196 2.2997
4.1257 2.1587 2.2997
4.4722 1.3278 2.2997
4.4377 1.4352 2.2997
4.0713 2.2574 2.2997
4.4006 1.5417 2.2997
4.0147 2.3546 2.2997
4.3610 1.6473 2.2997
3.9557 2.4505 2.2997
4.3189 1.7518 2.2997
4.2743 1.8553 2.2997
3.8944 2.5449 2.2997
4.2272 1.9576 2.2997
3.8309 2.6378 2.2997
3.5551 2.9931 2.2997
3.4810 3.0776 2.2997
3.7651 2.7291 2.2997
3.4048 3.1603 2.2997
3.3267 3.2411 2.2997
3.6972 2.8188 2.2997
3.2467 3.3200 2.2997
3.6272 2.9068 2.2997
3.1649 3.3970 2.2997
3.0812 3.4720 2.2997
2.7293 3.7510 2.2997
2.9957 3.5449 2.2997
2.9086 3.6157 2.2997
2.6373 3.8153 2.2997
2.8197 3.6844 2.2997
2.5438 3.8774 2.2997
1.8267 4.4826 2.4029
1.7175 4.5251 2.4029
2.4759 3.9807 2.3250
1.6073 4.5648 2.4029
1.4961 4.6020 2.4029
2.4581 4.1742 2.4029
1.3842 4.6364 2.4029
1.2714 4.6682 2.4029
2.3560 4.2319 2.4029
1.1579 4.6972 2.4029
1.0438 4.7235 2.4029
2.2526 4.2871 2.4029
0.9290 4.7471 2.4029
2.1479 4.3398 2.4029
0.8138 4.7679 2.4029
2.0420 4.3900 2.4029
0.6981 4.7859 2.4029
1.9349 4.4376 2.4029
0.5820 4.8012 2.4029
-0.4698 4.8125 2.4029
0.4655 4.8136 2.4029
-0.5862 4.7998 2.4029
0.3488 4.8233 2.4029
-0.7022 4.7843 2.4029
0.2319 4.8302 2.4029
0.1149 4.8343 2.4029
-0.8179 4.7660 2.4029
-0.0022 4.8355 2.4029
-0.9331 4.7449 2.4029
-0.1192 4.8340 2.4029
-1.0477 4.7211 2.4029
-0.2362 4.8296 2.4029
-0.3531 4.8225 2.4029
-1.1618 4.6945 2.4029
-1.2751 4.6652 2.4029
-1.6106 4.5611 2.4029
-1.3878 4.6332 2.4029
-1.7207 4.5211 2.4029
-1.4996 4.5985 2.4029
-1.8298 4.4784 2.4029
-1.9378 4.4332 2.4029
-2.6597 4.0457 2.4029
-2.0448 4.3854 2.4029
-2.1505 4.3350 2.4029
-2.7572 3.9806 2.4029
-2.2551 4.2820 2.4029
-2.8531 3.9132 2.4029
-2.3583 4.2266 2.4029
-2.4602 4.1687 2.4029
-2.9474 3.8436 2.4029
-3.5571 3.2951 2.4029
-2.5607 4.1084 2.4029
-3.0400 3.7716 2.4029
-4.2511 2.3512 2.4029
-3.6364 3.2086 2.4029
-3.1308 3.6975 2.4029
-4.3076 2.2481 2.4029
-3.7136 3.1202 2.4029
-3.2199 3.6211 2.4029
-4.3617 2.1437 2.4029
-4.4132 2.0381 2.4029
-3.7887 3.0300 2.4029
-3.3071 3.5427 2.4029
-4.4622 1.9311 2.4029
-3.8616 2.9379 2.4029
-3.3924 3.4622 2.4029
-4.5086 1.8231 2.4029
-4.5524 1.7139 2.4029
-3.9323 2.8442 2.4029
-3.4757 3.3796 2.4029
-4.5935 1.6036 2.4029
-4.6320 1.4924 2.4029
-4.7010 1.2673 2.4029
-4.6678 1.3803 2.4029
-4.7313 1.1536 2.4029
-4.8795 0.1053 2.4029
-4.7590 1.0391 2.4029
-4.8818 -0.0127 2.4029
-4.7839 0.9240 2.4029
-4.8813 -0.1307 2.4029
-4.8060 0.8082 2.4029
-4.8780 -0.2487 2.4029
-4.8717 -0.3666 2.4029
-4.8253 0.6920 2.4029
-4.8627 -0.4843 2.4029
-4.8418 0.5753 2.4029
-4.8508 -0.6018 2.4029
-4.8554 0.4582 2.4029
-4.8360 -0.7190 2.4029
-4.8663 0.3408 2.4029
-4.8184 -0.8358 2.4029
-4.7980 -0.9522 2.4029
-4.8743 0.2231 2.4029
-4.7748 -1.0681 2.4029
-4.3913 -2.1844 2.4029
-4.7488 -1.1834 2.4029
-4.3382 -2.2904 2.4029
-4.7199 -1.2981 2.4029
-4.2826 -2.3950 2.4029
-4.6884 -1.4121 2.4029
-4.2245 -2.4982 2.4029
-4.6540 -1.5253 2.4029
-4.1639 -2.6001 2.4029
-4.6170 -1.6376 2.4029
-3.5719 -2.3521 2.0930
-4.5771 -1.7491 2.4029
-3.3935 -2.3540 2.0207
-4.5347 -1.8595 2.4029
-3.2268 -2.3557 1.9543
-4.4895 -1.9690 2.4029
-3.0828 -2.3668 1.9008
-4.4417 -2.0773 2.4029
-3.0839 -2.4882 1.9375
-4.0008 2.7487 2.4029
-4.0669 2.6517 2.4029
-4.1307 2.5530 2.4029
-4.1921 2.4528 2.4029
-3.0850 -2.6147 2.0328
-3.0861 -2.7464 2.0762
-3.0874 -2.8840 2.1229
-3.4155 -3.3484 2.4029
-3.3343 -3.4305 2.4029
-3.2512 -3.5106 2.4029
-3.1661 -3.5887 2.4029
-3.0791 -3.6647 2.4029
-2.9903 -3.7385 2.4029
-2.8997 -3.8102 2.4029
-2.8074 -3.8797 2.4029
-2.7134 -3.9469 2.4029
-2.6178 -4.0118 2.4029
-2.5206 -4.0744 2.4029
-2.4220 -4.1346 2.4029
-2.3218 -4.1924 2.4029
-2.2203 -4.2478 2.4029
-2.1175 -4.3006 2.4029
-2.0134 -4.3510 2.4029
-1.9081 -4.3988 2.4029
-1.8016 -4.4440 2.4029
-1.6941 -4.4867 2.4029
-1.5855 -4.5267 2.4029
-1.4761 -4.5641 2.4029
-1.3657 -4.5987 2.4029
-1.2545 -4.6307 2.4029
-1.1425 -4.6600 2.4029
-1.0299 -4.6865 2.4029
-0.9166 -4.7103 2.4029
-0.8028 -4.7314 2.4029
-0.6885 -4.7496 2.4029
-0.5738 -4.7651 2.4029
-0.4588 -4.7777 2.4029
-0.3434 -4.7876 2.4029
-0.2279 -4.7946 2.4029
-0.1122 -4.7989 2.4029
0.0036 -4.8003 2.4029
0.1193 -4.7989 2.4029
0.2350 -4.7946 2.4029
0.3506 -4.7876 2.4029
0.4659 -4.7777 2.4029
0.5810 -4.7651 2.4029
0.6957 -4.7496 2.4029
0.8100 -4.7313 2.4029
0.9238 -4.7103 2.4029
1.0371 -4.6865 2.4029
1.1498 -4.6600 2.4029
1.2618 -4.6307 2.4029
1.3730 -4.5987 2.4029
1.4834 -4.5640 2.4029
1.5930 -4.5266 2.4029
1.7015 -4.4865 2.4029
1.8091 -4.4439 2.4029
1.9156 -4.3986 2.4029
2.0210 -4.3508 2.4029
2.1251 -4.3004 2.4029
2.2280 -4.2474 2.4029
2.3296 -4.1921 2.4029
2.4125 -4.1049 2.3859
2.4254 -3.9078 2.3049
2.5129 -3.8389 2.2997
2.6237 -3.8048 2.3167
2.6944 -3.7124 2.2997
2.7828 -3.6458 2.2997
2.8695 -3.5771 2.2997
2.9546 -3.5064 2.2997
3.0379 -3.4336 2.2997
3.1193 -3.3588 2.2997
3.1989 -3.2820 2.2997
3.2767 -3.2034 2.2997
3.3524 -3.1229 2.2997
3.4262 -3.0406 2.2997
3.4980 -2.9565 2.2997
3.5677 -2.8707 2.2997
3.6352 -2.7833 2.2997
3.7007 -2.6942 2.2997
3.7639 -2.6037 2.2997
3.8249 -2.5116 2.2997
3.8836 -2.4181 2.2997
3.9400 -2.3232 2.2997
3.9942 -2.2269 2.2997
4.0459 -2.1294 2.2997
4.0953 -2.0307 2.2997
4.1422 -1.9309 2.2997
4.1867 -1.8299 2.2997
4.2287 -1.7279 2.2997
4.2683 -1.6250 2.2997
4.3053 -1.5211 2.2997
4.3398 -1.4164 2.2997
