ply
format ascii 1.0
element vertex 2039
property float32 x
property float32 y
property float32 z
end_header
6.5452 1.2825 -0.3646
6.5556 1.4498 -0.3683
6.5662 1.6196 -0.3723
6.5913 1.7958 -0.3773
6.6201 1.9767 -0.3829
6.6496 2.1619 -0.3888
6.6799 2.3517 -0.3951
6.7138 2.5476 -0.4020
6.7659 2.7562 -0.4103
6.8176 2.9713 -0.4190
11.0901 5.1559 -0.6913
10.7047 5.2950 -0.6771
10.1913 5.3515 -0.6546
7.7860 4.3316 -0.5082
7.4207 4.3665 -0.4926
6.6538 4.1350 -0.4495
6.3951 4.1918 -0.4400
6.1767 4.2656 -0.4331
6.1013 4.4351 -0.4364
6.0152 4.5987 -0.4393
5.9283 4.7637 -0.4423
5.8406 4.9302 -0.4457
5.4745 4.8526 -0.4276
5.2816 4.9146 -0.4227
5.1905 5.0693 -0.4261
5.2010 5.3313 -0.4385
5.1979 5.5924 -0.4505
5.3274 6.0170 -0.4752
5.4161 6.4236 -0.4978
5.4626 6.8061 -0.5181
5.5168 7.2246 -0.5407
5.4713 7.5360 -0.5550
5.4298 7.8723 -0.5710
5.3860 8.2274 -0.5881
5.3568 8.6311 -0.6086
6.4171 10.9202 -0.7600
6.2169 11.1902 -0.7693
6.0775 11.5909 -0.7876
6.0516 12.2529 -0.8235
6.3284 13.6338 -0.9070
6.0467 13.8971 -0.9156
5.7982 14.2586 -0.9310
5.5987 14.7826 -0.9571
2.8343 8.0671 -0.5182
6.6081 20.3700 -1.2991
6.2661 21.0355 -1.3326
6.2652 23.0554 -1.4516
5.4562 22.1844 -1.3890
3.4742 15.7596 -0.9817
4.5920 23.5210 -1.4586
3.6596 21.4957 -1.3277
3.3959 23.3451 -1.4370
2.9169 24.1353 -1.4813
-5.4939 56.2715 -3.4413
-6.7779 55.5101 -3.4020
-8.2126 55.9760 -3.4397
-9.5536 55.7035 -3.4339
-5.7511 29.2668 -1.8109
-10.5083 47.3904 -2.9447
-11.6021 46.9250 -2.9297
-11.5281 42.2180 -2.6498
-10.5500 35.2583 -2.2260
-13.1113 40.2487 -2.5574
-13.8709 39.3261 -2.5163
-9.6322 25.3386 -1.6337
-15.4390 37.8341 -2.4593
-16.5592 37.9311 -2.4873
-17.4551 37.4849 -2.4813
-12.8449 25.9277 -1.7335
-16.0152 30.4532 -2.0580
-13.7173 24.6200 -1.6828
-14.0645 23.8673 -1.6511
-14.3196 23.0097 -1.6123
-13.6831 20.8462 -1.4805
-10.4742 15.1462 -1.0912
-14.9745 20.5725 -1.5046
-11.7607 15.3627 -1.1416
-11.1936 13.9119 -1.0513
-15.8593 18.7632 -1.4431
-16.6543 18.7643 -1.4703
-14.8915 15.9827 -1.2771
-9.1177 9.3235 -0.7605
-11.9696 11.6620 -0.9721
-11.4574 10.6354 -0.9070
-15.3125 13.5399 -1.1827
-17.2166 14.4974 -1.2988
-17.1910 13.7797 -1.2678
-15.6960 11.9699 -1.1327
-10.9488 7.9385 -0.7738
-11.2080 7.7202 -0.7764
-11.4714 7.4994 -0.7795
-11.7242 7.2664 -0.7821
-11.9317 7.0016 -0.7820
-12.1413 6.7356 -0.7824
-12.3534 6.4679 -0.7832
-12.4261 6.1280 -0.7757
-12.4588 5.7740 -0.7663
-12.4923 5.4268 -0.7575
-12.5268 5.0856 -0.7494
-12.5622 4.7497 -0.7419
-8.7781 3.0785 -0.5121
-8.9970 2.9131 -0.5188
-9.2246 2.7424 -0.5261
-9.4619 2.5658 -0.5340
-9.7096 2.3826 -0.5426
-9.8076 2.1568 -0.5430
-9.9056 1.9287 -0.5437
-10.0063 1.6984 -0.5449
-10.1101 1.4657 -0.5464
-10.1671 1.2239 -0.5457
-10.2096 0.9794 -0.5445
-10.2533 0.7340 -0.5436
-10.2984 0.4875 -0.5432
-10.3450 0.2394 -0.5431
-10.3060 -0.0106 -0.5389
-10.2146 -0.2574 -0.5322
-10.1173 -0.4997 -0.5256
-9.9722 -0.7345 -0.5169
-9.6149 -0.9422 -0.4975
-8.8279 -1.0810 -0.4562
-24.7016 -3.6325 -1.2758
-19.6714 -3.3802 -1.0160
-19.2494 -3.7887 -0.9949
-18.5924 -4.1283 -0.9621
-17.2057 -4.2590 -0.8920
-15.7741 -4.3117 -0.8198
-18.4630 -5.5294 -0.9626
-10.9768 -3.5786 -0.5745
-11.3964 -4.0224 -0.5991
-11.5021 -4.3750 -0.6078
-11.6135 -4.7416 -0.6172
-11.7309 -5.1236 -0.6276
-11.8550 -5.5226 -0.6388
-11.9218 -5.9083 -0.6476
-11.8433 -6.2302 -0.6490
-11.6993 -6.5201 -0.6473
-11.5563 -6.8113 -0.6460
-11.4139 -7.1044 -0.6452
-11.2720 -7.3998 -0.6449
-25.1290 -17.3795 -1.4565
-22.5968 -16.4491 -1.3280
-21.5581 -16.5042 -1.2858
-19.5789 -15.7535 -1.1864
-15.8885 -13.4273 -0.7481
-25.5525 -22.6749 -1.2236
-36.5455 -34.0431 -1.7818
-19.0777 -18.6523 -0.9482
-30.5166 -31.3133 -1.5480
-16.3855 -17.6468 -0.8494
-16.3664 -18.5032 -0.8682
-26.6834 -31.6775 -1.4506
-19.6286 -24.4788 -1.0952
-19.4411 -25.4828 -1.1151
-21.5695 -29.7356 -1.2739
-21.5659 -31.2943 -1.3139
-15.3904 -23.5299 -0.9691
-14.7204 -23.7381 -0.9600
-15.6234 -26.6089 -1.0576
-17.0264 -30.6720 -1.1992
-13.6046 -25.9670 -0.9995
-12.9305 -26.2012 -0.9939
-12.2418 -26.3939 -0.9874
-16.5308 -38.0215 -1.4040
-6.3107 -15.5305 -0.5665
-13.7142 -36.2365 -1.3069
-13.2152 -37.6406 -1.3433
-15.5703 -48.0304 -1.6974
-11.5892 -38.9314 -1.3635
-10.7014 -39.4065 -1.3688
-18.1292 -73.7595 -2.5431
-18.2200 -82.6990 -2.8322
-13.8791 -71.1330 -2.4217
-12.1062 -71.1510 -2.4097
-10.3470 -71.1689 -2.3996
-8.5993 -71.1866 -2.3913
-6.8609 -71.2042 -2.3847
-5.1266 -71.1788 -2.3785
-3.4156 -71.4892 -2.3853
-1.6866 -71.5067 -2.3840
0.0398 -68.9114 -2.2973
1.7391 -70.2949 -2.3450
3.0938 -63.2254 -2.1121
4.5276 -61.8664 -2.0711
3.9293 -40.2924 -1.3527
4.8572 -39.8234 -1.3417
5.7600 -39.2998 -1.3298
6.7037 -39.1259 -1.3306
7.6812 -39.1277 -1.3384
6.1500 -27.7623 -0.9559
6.6147 -26.7788 -0.9288
5.3713 -19.6893 -0.6884
5.7126 -19.1096 -0.6740
5.8646 -18.0199 -0.6417
3.5995 -10.2147 -0.3675
3.9609 -10.4294 -0.3794
4.3437 -10.6545 -0.3923
4.6913 -10.7561 -0.4011
5.0535 -10.8626 -0.4106
5.4318 -10.9745 -0.4208
5.8278 -11.0922 -0.4318
6.2433 -11.2164 -0.4437
6.6446 -11.2869 -0.4541
6.7150 -10.8007 -0.4424
6.8996 -10.5221 -0.4391
7.0956 -10.2709 -0.4372
7.2885 -10.0235 -0.4355
6.7558 -8.8340 -0.3922
6.7587 -8.4088 -0.3819
6.8120 -8.0679 -0.3752
7.0737 -7.9786 -0.3803
7.3408 -7.8875 -0.3859
7.6121 -7.7927 -0.3917
6.3048 -6.1499 -0.3180
6.0278 -5.6020 -0.2983
5.9169 -5.2384 -0.2877
5.8708 -4.9498 -0.2808
5.8499 -4.6951 -0.2755
5.8406 -4.4600 -0.2711
5.8484 -4.2463 -0.2678
5.7992 -4.0002 -0.2622
5.9487 -3.8947 -0.2659
6.1014 -3.7872 -0.2698
6.2229 -3.6574 -0.2724
6.3414 -3.5237 -0.2751
6.4613 -3.3887 -0.2780
6.5629 -3.2423 -0.2802
6.6554 -3.0903 -0.2822
6.7485 -2.9374 -0.2845
6.8424 -2.7837 -0.2869
6.9371 -2.6287 -0.2895
7.0407 -2.4751 -0.2927
5.9947 -1.9460 -0.2484
5.6731 -1.6912 -0.2344
5.6637 -1.5405 -0.2336
5.6545 -1.3921 -0.2329
5.6454 -1.2461 -0.2323
5.6364 -1.1020 -0.2319
5.6275 -0.9597 -0.2317
5.6188 -0.8190 -0.2315
5.6578 -0.6855 -0.2335
5.7508 -0.5562 -0.2379
5.8466 -0.4231 -0.2425
5.9454 -0.2861 -0.2475
6.0475 -0.1447 -0.2527
6.1532 0.0015 -0.2583
6.2308 0.1521 -0.2628
6.2865 0.3056 -0.2667
6.3435 0.4623 -0.2708
6.3949 0.6217 -0.2748
6.4454 0.7842 -0.2790
6.4971 0.9504 -0.2834
6.5168 1.1147 -0.2866
6.5268 1.2795 -0.2897
6.5371 1.4464 -0.2929
6.5475 1.6156 -0.2963
6.5728 1.7914 -0.3006
6.6013 1.9717 -0.3053
6.6305 2.1563 -0.3103
6.6605 2.3455 -0.3156
6.7053 2.5450 -0.3218
6.7571 2.7533 -0.3287
6.8086 2.9681 -0.3360
6.8619 3.1908 -0.3437
10.6282 5.2582 -0.5406
10.1232 5.3167 -0.5232
7.7399 4.3068 -0.4068
7.3122 4.3035 -0.3911
6.6332 4.1229 -0.3613
6.3758 4.1798 -0.3540
6.1731 4.2638 -0.3495
6.1126 4.4439 -0.3533
6.0271 4.6085 -0.3558
5.9401 4.7738 -0.3586
5.7843 4.8833 -0.3573
5.4133 4.7989 -0.3425
5.2666 4.9013 -0.3416
5.1756 5.0555 -0.3446
5.1720 5.3022 -0.3537
5.2060 5.6017 -0.3662
5.3483 6.0414 -0.3874
5.4298 6.4406 -0.4055
5.4468 6.7871 -0.4200
5.5201 7.2297 -0.4400
5.4784 7.5465 -0.4521
5.4370 7.8836 -0.4653
5.3933 8.2394 -0.4795
5.3470 8.6163 -0.4948
6.4021 10.8956 -0.6178
6.2040 11.1682 -0.6257
6.0780 11.5929 -0.6423
6.0342 12.2187 -0.6698
6.3339 13.6469 -0.7406
6.0520 13.9106 -0.7479
5.7931 14.2473 -0.7593
5.6172 14.8327 -0.7840
2.8339 8.0667 -0.4231
6.5340 20.1433 -1.0492
6.1862 20.7688 -1.0748
5.9338 21.8376 -1.1234
5.5264 22.4714 -1.1497
3.4735 15.7576 -0.8023
4.4888 22.9938 -1.1655
3.8962 22.8871 -1.1556
3.2842 22.5787 -1.1362
2.2909 23.7671 -1.1897
1.7484 24.2694 -1.2126
-5.6701 58.0843 -2.9035
-6.9907 57.2602 -2.8681
-8.3164 56.6907 -2.8468
-9.1475 53.3424 -2.6867
-5.7502 29.2656 -1.4793
-11.5358 52.0301 -2.6406
-10.1895 41.2164 -2.1013
-11.2294 41.1286 -2.1076
-10.5465 35.2505 -1.8165
-13.5476 41.5927 -2.1566
-13.7113 38.8776 -2.0294
-9.6296 25.3346 -1.3321
-15.3051 37.5101 -1.9879
-16.4229 37.6230 -2.0108
-14.4899 31.1206 -1.6784
-15.0230 30.3276 -1.6515
-12.9829 24.6900 -1.3585
-13.3068 23.8860 -1.3287
-13.1698 22.3516 -1.2579
-13.7743 22.1362 -1.2613
-10.0672 15.3392 -0.8855
-10.4714 15.1440 -0.8864
-14.5666 20.0146 -1.1887
-15.2339 19.9020 -1.2003
-15.7610 19.5907 -1.2009
-16.1241 19.0789 -1.1897
-11.5198 12.9810 -0.8242
-11.5332 12.3800 -0.8011
-11.5473 11.8095 -0.7797
-11.2282 10.9411 -0.7377
-16.0551 14.9054 -1.0276
-16.4329 14.5326 -1.0256
-16.7566 14.1121 -1.0208
-16.7941 13.4635 -0.9995
-16.8677 12.8654 -0.9816
-17.7006 12.8361 -1.0081
-10.9651 7.5542 -0.6117
-11.2211 7.3370 -0.6136
-11.4511 7.0984 -0.6143
-11.6529 6.8393 -0.6137
-11.8507 6.5757 -0.6131
-11.8856 6.2242 -0.6046
-11.9209 5.8800 -0.5965
-11.9565 5.5425 -0.5890
-11.9927 5.2110 -0.5820
-11.9441 4.8502 -0.5714
-11.8881 4.4960 -0.5609
-8.3898 2.9432 -0.3907
-8.5927 2.7831 -0.3952
-8.8031 2.6179 -0.4000
-9.0218 2.4473 -0.4053
-9.1585 2.2483 -0.4071
-9.2464 2.0343 -0.4068
-9.3362 1.8187 -0.4069
-9.4280 1.6012 -0.4072
-9.5222 1.3813 -0.4078
-9.6187 1.1588 -0.4086
-9.7180 0.9331 -0.4098
-9.8201 0.7039 -0.4113
-9.8996 0.4696 -0.4121
-9.9429 0.2310 -0.4116
-9.9874 -0.0093 -0.4113
-9.9711 -0.2503 -0.4088
-9.8841 -0.4873 -0.4036
-9.7452 -0.7169 -0.3966
-9.0193 -0.8830 -0.3660
-13.0009 -1.5908 -0.5264
-24.1454 -3.5484 -0.9761
-18.5629 -3.1880 -0.7496
-18.8699 -3.7122 -0.7617
-17.4388 -3.8706 -0.7040
-15.9763 -3.9532 -0.6455
-21.3699 -5.8392 -0.8647
-18.5707 -5.5599 -0.7530
-10.3449 -3.3716 -0.4206
-10.8706 -3.8358 -0.4435
-10.9663 -4.1702 -0.4492
-11.0624 -4.5156 -0.4553
-11.1333 -4.8615 -0.4607
-11.1527 -5.1943 -0.4644
-11.1741 -5.5366 -0.4685
-11.1977 -5.8894 -0.4731
-11.2235 -6.2538 -0.4783
-11.1307 -6.5593 -0.4788
-10.9926 -6.8411 -0.4777
-10.8548 -7.1247 -0.4769
-10.7170 -7.4108 -0.4765
-21.5604 -15.6923 -0.9710
-20.3085 -15.5453 -0.9273
-19.3847 -15.5951 -0.8983
-15.8860 -13.4234 -0.5172
-37.8612 -33.5931 -1.2515
-36.9829 -34.4461 -1.2425
-19.0725 -18.6448 -0.6520
-31.1704 -31.9803 -1.0857
-29.6092 -31.8846 -1.0522
-13.7909 -15.5897 -0.5007
-26.1135 -30.9974 -0.9700
-25.2730 -31.5145 -0.9620
-17.6592 -23.1446 -0.6899
-18.2128 -25.1054 -0.7316
-22.1032 -32.0706 -0.9145
-15.4784 -23.6620 -0.6610
-14.7929 -23.8527 -0.6534
-15.6227 -26.6050 -0.7153
-16.4374 -29.6081 -0.7820
-16.0071 -30.5497 -0.7935
-13.9575 -28.2796 -0.7230
-13.6263 -29.3762 -0.7398
-20.6881 -47.5792 -1.1816
-6.3109 -15.5296 -0.3806
-18.1171 -47.8658 -1.1588
-12.5975 -35.8781 -0.8587
-11.8950 -36.6900 -0.8689
-11.1661 -37.5071 -0.8796
-10.3266 -38.0232 -0.8838
-12.4445 -50.6269 -1.1673
-18.2199 -82.6926 -1.8930
-13.8800 -71.1330 -1.6179
-12.1071 -71.1510 -1.6093
-10.3646 -71.2853 -1.6046
-8.5998 -71.1866 -1.5961
-6.8612 -71.2042 -1.5914
-5.1267 -71.1788 -1.5871
-3.4211 -71.6058 -1.5941
-1.6865 -71.5067 -1.5907
0.0416 -71.5461 -1.5917
1.7733 -71.6585 -1.5955
3.5023 -71.5594 -1.5959
4.7646 -65.0951 -1.4553
3.9537 -40.5375 -0.9092
4.8151 -39.4732 -0.8889
5.6934 -38.8407 -0.8789
6.6500 -38.8083 -0.8832
7.0882 -36.1024 -0.8269
6.0039 -27.0996 -0.6252
4.7244 -19.1240 -0.4448
4.9217 -18.0392 -0.4233
6.8337 -22.8572 -0.5416
7.2534 -22.2845 -0.5337
3.5033 -9.9407 -0.2408
3.8520 -10.1414 -0.2487
4.2221 -10.3549 -0.2572
4.5615 -10.4574 -0.2634
4.9108 -10.5548 -0.2698
5.2751 -10.6568 -0.2768
5.6559 -10.7639 -0.2842
6.0548 -10.8765 -0.2922
6.4737 -10.9952 -0.3009
6.7381 -10.8366 -0.3024
6.9381 -10.5795 -0.3012
7.1348 -10.3265 -0.3003
7.3285 -10.0773 -0.2997
6.6740 -8.7260 -0.2656
6.6793 -8.3090 -0.2591
6.7512 -7.9950 -0.2558
6.9956 -7.8896 -0.2592
7.2441 -7.7826 -0.2628
7.4995 -7.6764 -0.2668
6.0300 -5.8811 -0.2107
5.9672 -5.5450 -0.2050
5.8497 -5.1780 -0.1978
5.8032 -4.8920 -0.1933
5.7877 -4.6445 -0.1902
5.7967 -4.4257 -0.1881
5.7951 -4.2069 -0.1859
5.7404 -3.9589 -0.1822
5.8403 -3.8230 -0.1836
5.9891 -3.7169 -0.1866
6.1411 -3.6087 -0.1898
6.2700 -3.4834 -0.1924
6.3881 -3.3496 -0.1948
6.4971 -3.2091 -0.1970
6.5885 -3.0585 -0.1988
6.6805 -2.9072 -0.2008
6.7732 -2.7548 -0.2028
6.8839 -2.6078 -0.2056
7.0219 -2.4679 -0.2093
6.0073 -1.9495 -0.1788
5.6739 -1.6909 -0.1688
5.6645 -1.5401 -0.1685
5.6552 -1.3918 -0.1683
5.6461 -1.2457 -0.1682
5.6371 -1.1016 -0.1682
5.6283 -0.9593 -0.1683
5.6180 -0.8184 -0.1685
5.6507 -0.6842 -0.1701
5.7106 -0.5518 -0.1726
5.7908 -0.4186 -0.1758
5.8878 -0.2828 -0.1797
5.9880 -0.1427 -0.1838
6.0916 0.0021 -0.1881
6.1955 0.1518 -0.1926
6.2506 0.3045 -0.1957
6.3069 0.4602 -0.1990
6.3574 0.6186 -0.2023
6.4072 0.7802 -0.2057
6.4581 0.9452 -0.2093
6.4986 1.1122 -0.2127
6.5086 1.2765 -0.2152
6.5187 1.4429 -0.2180
6.5290 1.6116 -0.2208
6.5544 1.7870 -0.2244
6.5826 1.9667 -0.2282
6.6115 2.1507 -0.2322
6.6468 2.3413 -0.2367
6.6969 2.5424 -0.2419
6.7484 2.7504 -0.2474
6.7996 2.9648 -0.2532
6.8527 3.1872 -0.2593
10.5492 5.2202 -0.4059
10.0344 5.2711 -0.3929
7.6944 4.2822 -0.3067
7.2053 4.2413 -0.2926
6.6128 4.1109 -0.2738
6.3536 4.1659 -0.2684
6.1695 4.2620 -0.2661
6.1090 4.4420 -0.2692
6.0390 4.6182 -0.2722
5.9519 4.7839 -0.2745
5.7280 4.8365 -0.2706
5.3893 4.7783 -0.2610
5.2424 4.8794 -0.2606
5.1609 5.0418 -0.2635
5.1433 5.2735 -0.2700
5.2140 5.6111 -0.2818
5.3663 6.0624 -0.2989
5.4265 6.4375 -0.3118
5.4137 6.7466 -0.3214
5.5246 7.2364 -0.3393
5.4854 7.5570 -0.3491
5.4442 7.8948 -0.3595
5.4007 8.2515 -0.3707
5.3546 8.6292 -0.3828
6.3871 10.8712 -0.4764
6.2069 11.1744 -0.4842
6.0785 11.5949 -0.4970
6.0169 12.1847 -0.5170
6.3394 13.6600 -0.5741
6.0573 13.9241 -0.5800
5.7879 14.2359 -0.5880
5.6358 14.8830 -0.6100
2.8336 8.0664 -0.3282
6.4820 19.9846 -0.8077
6.0843 20.4285 -0.8205
5.7779 21.2654 -0.8492
5.0997 20.7381 -0.8239
3.4729 15.7556 -0.6230
4.2750 21.9004 -0.8624
3.6339 21.3477 -0.8375
3.7024 25.4557 -0.9954
2.9997 24.8232 -0.9679
2.4568 25.4896 -0.9916
1.6850 23.3900 -0.9083
-5.4407 55.7421 -2.1645
-6.8590 56.1890 -2.1859
-8.1204 55.3609 -2.1587
-9.5237 55.5423 -2.1718
-5.7493 29.2644 -1.1481
-12.1751 54.9199 -2.1626
-11.9053 48.1623 -1.9046
-11.1441 40.8207 -1.6220
-10.5429 35.2426 -1.4077
-13.3815 41.0874 -1.6506
-14.7499 41.8272 -1.6909
-9.6270 25.3305 -1.0310
-18.4919 45.3253 -1.8585
-24.2648 55.5941 -2.2978
-25.4912 54.7547 -2.2824
-12.1384 24.5070 -1.0309
-16.7582 31.8733 -1.3538
-13.1240 23.5604 -1.0112
-13.8724 23.5467 -1.0217
-14.4182 23.1735 -1.0173
-9.6895 14.7655 -0.6563
-9.9916 14.4518 -0.6508
-10.2913 14.1420 -0.6457
-10.5891 13.8356 -0.6410
-10.7824 13.4041 -0.6307
-10.9000 12.8991 -0.6168
-10.9273 12.3149 -0.5991
-10.9542 11.7600 -0.5826
-10.9806 11.2315 -0.5671
-10.3868 10.1226 -0.5215
-16.7343 15.5381 -0.8176
-17.7026 15.6577 -0.8426
-14.9607 12.6015 -0.6943
-16.9229 13.5689 -0.7664
-17.2555 13.1633 -0.7633
-17.0182 12.3432 -0.7359
-10.7327 7.3953 -0.4541
-10.9817 7.1817 -0.4549
-11.1907 6.9382 -0.4542
-11.3413 6.6577 -0.4513
-11.3794 6.3154 -0.4443
-11.4175 5.9803 -0.4377
-11.3787 5.6138 -0.4286
-11.3280 5.2523 -0.4195
-11.2799 4.9024 -0.4109
-11.2343 4.5631 -0.4029
-11.1909 4.2334 -0.3953
-11.1498 3.9126 -0.3881
-8.2235 2.6643 -0.2823
-8.4188 2.5045 -0.2851
-8.5851 2.3297 -0.2870
-8.6651 2.1280 -0.2861
-8.7464 1.9251 -0.2855
-8.8291 1.7207 -0.2849
-8.9133 1.5146 -0.2846
-8.9993 1.3063 -0.2845
-9.0871 1.0956 -0.2845
-9.1770 0.8820 -0.2847
-9.2691 0.6653 -0.2852
-9.3635 0.4450 -0.2858
-9.4605 0.2207 -0.2866
-9.5604 -0.0081 -0.2876
-9.6549 -0.2415 -0.2887
-9.6575 -0.4753 -0.2871
-9.2201 -0.6774 -0.2726
-7.8916 -0.7719 -0.2323
-12.9994 -1.5894 -0.3811
-23.5672 -3.4613 -0.6884
-23.7163 -4.0709 -0.6908
-17.6802 -3.4765 -0.5138
-16.1848 -3.5907 -0.4695
-21.8476 -5.4040 -0.6330
-26.0669 -7.1202 -0.7549
-18.6946 -5.5952 -0.5415
-23.3265 -7.6003 -0.6762
-10.3531 -3.6522 -0.3005
-10.4752 -3.9824 -0.3047
-10.4834 -4.2782 -0.3058
-10.4928 -4.5808 -0.3072
-10.5034 -4.8909 -0.3088
-10.5152 -5.2091 -0.3107
-10.5283 -5.5363 -0.3129
-10.5429 -5.8734 -0.3154
-10.5589 -6.2213 -0.3182
-10.5765 -6.5810 -0.3214
-10.4677 -6.8696 -0.3210
-10.3335 -7.1445 -0.3201
-20.5508 -14.9553 -0.6436
-28.6182 -21.9028 -0.9070
-19.5776 -15.7480 -0.6286
-15.8835 -13.4194 -0.2866
-37.8662 -33.5931 -0.6904
-37.5045 -34.9275 -0.6918
-19.0673 -18.6374 -0.3562
-30.5725 -31.3630 -0.5793
-30.3069 -32.6320 -0.5833
-38.3481 -43.3449 -0.7506
-38.3910 -45.5661 -0.7655
-34.9224 -43.5423 -0.7104
-54.6701 -71.6443 -1.1367
-38.2944 -52.7813 -0.8153
-49.4194 -71.6975 -1.0793
-46.8181 -71.5643 -1.0512
-14.7649 -23.8051 -0.3415
-15.6219 -26.6012 -0.3732
-17.0252 -30.6640 -0.4211
-20.1078 -38.3723 -0.5165
-19.0699 -38.6344 -0.5101
-17.7683 -38.3023 -0.4966
-16.5180 -37.9853 -0.4842
-6.3111 -15.5288 -0.1948
-15.7789 -41.6848 -0.5151
-17.2471 -49.1160 -0.5985
-15.4351 -47.6054 -0.5727
-11.5883 -38.9224 -0.4627
-19.6021 -72.1708 -0.8486
-12.8539 -52.2887 -0.6088
-18.2198 -82.6863 -0.9543
-13.8810 -71.1330 -0.8146
-12.1079 -71.1510 -0.8093
-10.3554 -71.2179 -0.8054
-8.6003 -71.1866 -0.8012
-6.8615 -71.2042 -0.7985
-5.1269 -71.1788 -0.7960
-3.4206 -71.5933 -0.7993
-1.6863 -71.5068 -0.7979
0.0372 -63.4691 -0.7084
1.5787 -63.7765 -0.7128
3.1250 -63.8389 -0.7153
4.8852 -66.7333 -0.7502
3.9610 -40.6069 -0.4585
4.8233 -39.5351 -0.4488
5.6280 -38.3896 -0.4386
6.6924 -39.0512 -0.4495
5.5004 -28.0126 -0.3252
5.9117 -26.6803 -0.3127
6.5171 -26.3779 -0.3123
6.3618 -23.3148 -0.2793
6.7949 -22.7250 -0.2756
7.2402 -22.2416 -0.2734
7.7122 -21.8806 -0.2728
3.7490 -9.8691 -0.1250
4.1057 -10.0686 -0.1296
4.4388 -10.1749 -0.1333
4.7761 -10.2641 -0.1369
5.1274 -10.3572 -0.1409
5.4940 -10.4546 -0.1451
5.8775 -10.5568 -0.1497
6.2795 -10.6642 -0.1547
6.6883 -10.7553 -0.1597
6.9770 -10.6375 -0.1619
7.1745 -10.3827 -0.1621
6.5822 -9.0499 -0.1451
6.5931 -8.6192 -0.1421
6.6007 -8.2103 -0.1393
6.7233 -7.9609 -0.1392
6.8991 -7.7797 -0.1403
7.1433 -7.6733 -0.1429
6.0946 -6.2376 -0.1202
5.9728 -5.8245 -0.1162
5.8974 -5.4793 -0.1133
5.7839 -5.1191 -0.1099
5.7405 -4.8384 -0.1080
5.7438 -4.6085 -0.1071
5.7534 -4.3920 -0.1065
5.7427 -4.1682 -0.1055
5.6898 -3.9235 -0.1040
5.7359 -3.7540 -0.1043
5.8810 -3.6491 -0.1065
6.0291 -3.5422 -0.1088
6.1805 -3.4330 -0.1113
6.3166 -3.3115 -0.1135
6.4327 -3.1767 -0.1155
6.5230 -3.0275 -0.1171
6.6139 -2.8775 -0.1188
6.7312 -2.7371 -0.1210
6.8658 -2.6003 -0.1237
7.0033 -2.4606 -0.1264
6.0200 -1.9531 -0.1090
5.6747 -1.6906 -0.1031
5.6653 -1.5398 -0.1034
5.6560 -1.3914 -0.1037
5.6469 -1.2453 -0.1041
5.6379 -1.1012 -0.1045
5.6290 -0.9589 -0.1051
5.6155 -0.8175 -0.1055
5.6493 -0.6835 -0.1069
5.7091 -0.5511 -0.1089
5.7700 -0.4165 -0.1110
5.8319 -0.2796 -0.1132
5.9296 -0.1408 -0.1162
6.0312 0.0026 -0.1194
6.1364 0.1510 -0.1227
6.2151 0.3033 -0.1256
6.2707 0.4581 -0.1282
6.3203 0.6156 -0.1307
6.3694 0.7761 -0.1333
6.4196 0.9402 -0.1361
6.4710 1.1081 -0.1390
6.4905 1.2735 -0.1413
6.5004 1.4394 -0.1435
6.5105 1.6077 -0.1458
6.5362 1.7826 -0.1486
6.5641 1.9618 -0.1516
6.5927 2.1452 -0.1547
6.6386 2.3390 -0.1584
6.6885 2.5399 -0.1623
6.7396 2.7475 -0.1664
6.7906 2.9616 -0.1707
6.8435 3.1836 -0.1753
6.8984 3.4143 -0.1801
7.9698 4.1874 -0.2122
7.6494 4.2580 -0.2079
7.0895 4.1738 -0.1967
6.5925 4.0990 -0.1869
6.3316 4.1522 -0.1835
6.1660 4.2602 -0.1828
6.1055 4.4401 -0.1854
6.0441 4.6228 -0.1880
5.9637 4.7941 -0.1902
5.6729 4.7906 -0.1857
5.3742 4.7656 -0.1807
5.2113 4.8510 -0.1801
5.1424 5.0243 -0.1828
5.1150 5.2450 -0.1873
5.2219 5.6202 -0.1971
5.3585 6.0543 -0.2088
5.3947 6.4004 -0.2172
5.3810 6.7066 -0.2241
5.4825 7.1820 -0.2365
5.4925 7.5676 -0.2458
5.4514 7.9061 -0.2535
5.4080 8.2636 -0.2617
5.3621 8.6422 -0.2705
6.3722 10.8469 -0.3358
6.2097 11.1805 -0.3425
6.0803 11.5993 -0.3519
5.9996 12.1510 -0.3652
6.3466 13.6768 -0.4075
6.0627 13.9375 -0.4119
5.7828 14.2246 -0.4172
5.6545 14.9337 -0.4349
2.8332 8.0661 -0.2334
6.4270 19.8169 -0.5698
5.9895 20.1117 -0.5750
6.2029 22.8316 -0.6493
5.5642 22.6288 -0.6405
3.4722 15.7537 -0.4440
4.4621 22.8603 -0.6418
3.9631 23.2831 -0.6514
3.4752 23.8946 -0.6665
-5.3251 54.5648 -1.5106
-6.7051 54.9352 -1.5232
-7.9700 54.3428 -1.5097
-9.4268 54.9842 -1.5311
-5.7482 29.2622 -0.8171
-9.9132 44.7217 -1.2529
-10.2232 41.3621 -1.1630
-10.9887 40.2561 -1.1366
-10.5394 35.2348 -0.9994
-12.8582 39.4849 -1.1256
-15.2360 43.2106 -1.2386
-9.6244 25.3264 -0.7303
-19.4621 47.7087 -1.3847
-20.6749 47.3743 -1.3846
-12.1002 25.9939 -0.7655
-12.5896 25.4208 -0.7546
-15.9087 30.2610 -0.9061
-13.7743 24.7308 -0.7473
-14.1122 23.9565 -0.7311
-9.0436 14.5370 -0.4482
-9.3394 14.2335 -0.4438
-9.6323 13.9338 -0.4395
-9.8575 13.5475 -0.4327
-9.9901 13.0546 -0.4224
-10.1185 12.5804 -0.4128
-10.2432 12.1233 -0.4037
-10.3643 11.6820 -0.3951
-10.4308 11.1996 -0.3850
-10.3568 10.5948 -0.3706
-16.4773 16.0604 -0.5721
-16.1179 14.9679 -0.5436
-14.8611 13.1464 -0.4873
-15.8194 13.3268 -0.5048
-16.4239 13.1708 -0.5104
-16.8844 12.8822 -0.5114
-17.7969 12.9100 -0.5258
-18.2677 12.5893 -0.5268
-10.7517 7.0326 -0.3029
-10.8620 6.7356 -0.2991
-10.8381 6.3634 -0.2919
-10.7942 5.9917 -0.2846
-10.7526 5.6331 -0.2776
-10.7129 5.2864 -0.2711
-10.6751 4.9507 -0.2648
-10.6390 4.6249 -0.2589
-10.6044 4.3083 -0.2533
-10.5714 4.0001 -0.2480
-10.5398 3.6995 -0.2430
-7.8849 2.5554 -0.1787
-8.0668 2.4005 -0.1799
-8.1478 2.2118 -0.1788
-8.2224 2.0200 -0.1776
-8.2980 1.8272 -0.1766
-8.3745 1.6329 -0.1757
-8.4522 1.4370 -0.1748
-8.5312 1.2391 -0.1741
-8.6116 1.0390 -0.1734
-8.6934 0.8363 -0.1729
-40.2859 2.8953 -0.7915
-11.1775 0.5322 -0.2171
-10.8983 0.2552 -0.2093
-10.6068 -0.0080 -0.2015
-10.2598 -0.2557 -0.1930
-9.4306 -0.4632 -0.1756
-8.0669 -0.5919 -0.1489
-13.0290 -1.2732 -0.2383
-12.9978 -1.5880 -0.2358
-23.0164 -3.3783 -0.4144
-23.1565 -3.9727 -0.4140
-23.3001 -4.5794 -0.4138
-23.4475 -5.1998 -0.4139
-18.3960 -4.5486 -0.3229
-26.0646 -7.1171 -0.4553
-18.7378 -5.6064 -0.3259
-49.1855 -16.0211 -0.8522
-22.7689 -8.0299 -0.3933
-22.3458 -8.4932 -0.3850
-16.7961 -6.8527 -0.2889
-21.5246 -9.3948 -0.3698
-21.1249 -9.8347 -0.3627
-20.6575 -10.2315 -0.3548
-9.9349 -5.2233 -0.1708
-9.9405 -5.5368 -0.1712
-9.9468 -5.8596 -0.1718
-9.9539 -6.1925 -0.1725
-9.9618 -6.5365 -0.1734
-9.9707 -6.8926 -0.1745
-9.8455 -7.1637 -0.1733
-27.6654 -21.1705 -0.4906
-19.5768 -15.7452 -0.3500
-15.8810 -13.4155 -0.0562
-37.5274 -33.2881 -0.1283
-37.5453 -34.9610 -0.1240
-19.0621 -18.6300 -0.0607
-38.2583 -39.2428 -0.1176
-30.6454 -32.9926 -0.0907
-28.0196 -31.6670 -0.0798
-38.3216 -45.4785 -0.1050
-38.3452 -47.8045 -0.1009
-54.3657 -71.2377 -0.1372
-38.2982 -52.7809 -0.0926
-49.1441 -71.2906 -0.1137
-46.8228 -71.5642 -0.1035
-14.7975 -23.8554 -0.0312
-15.6212 -26.5973 -0.0313
-17.0246 -30.6600 -0.0325
-23.7359 -45.2918 -0.0429
-23.0245 -46.6421 -0.0394
-22.1642 -47.7739 -0.0358
-21.0451 -48.3917 -0.0320
-6.3113 -15.5279 -0.0090
-18.7531 -49.5377 -0.0252
-14.9068 -42.4479 -0.0187
-16.0313 -49.4403 -0.0188
-11.5879 -38.9179 -0.0126
-19.5141 -71.8413 -0.0198
-18.1291 -73.7420 -0.0171
-16.9873 -77.0871 -0.0149
-13.8249 -70.8406 -0.0114
-12.0589 -70.8585 -0.0094
-10.3064 -70.8763 -0.0078
-8.5654 -70.8939 -0.0066
-6.8336 -70.9115 -0.0057
-5.1271 -71.1788 -0.0052
-3.4016 -71.1963 -0.0050
-1.6792 -71.2138 -0.0052
0.0417 -70.6554 -0.0057
1.7035 -68.7981 -0.0063
3.3812 -69.0603 -0.0075
4.9375 -67.4378 -0.0088
3.9808 -40.8042 -0.0064
4.9513 -40.5795 -0.0077
5.7064 -38.9201 -0.0088
6.2371 -36.3895 -0.0098
5.4540 -27.7728 -0.0088
5.8925 -26.5908 -0.0098
6.5044 -26.3236 -0.0112
6.2596 -22.9378 -0.0112
6.7414 -22.5438 -0.0126
7.2294 -22.2061 -0.0141
7.6935 -21.8253 -0.0157
3.6513 -9.6111 -0.0078
3.9957 -9.7977 -0.0089
4.3225 -9.9074 -0.0100
4.6486 -9.9890 -0.0112
4.9877 -10.0740 -0.0125
5.3412 -10.1627 -0.0138
5.7103 -10.2554 -0.0154
6.0967 -10.3526 -0.0170
6.5021 -10.4546 -0.0188
6.9018 -10.5217 -0.0207
6.4679 -9.3590 -0.0200
6.5037 -8.9410 -0.0208
6.5142 -8.5150 -0.0216
6.5904 -8.1963 -0.0225
6.7196 -7.9555 -0.0237
6.8321 -7.7032 -0.0248
7.0453 -7.5670 -0.0264
5.9738 -6.1131 -0.0231
5.9167 -5.7690 -0.0235
5.8291 -5.4151 -0.0238
5.7197 -5.0615 -0.0240
5.6899 -4.7950 -0.0246
5.7005 -4.5731 -0.0253
5.7109 -4.3589 -0.0261
5.6914 -4.1302 -0.0267
5.6402 -3.8886 -0.0271
5.6351 -3.6874 -0.0278
5.7767 -3.5838 -0.0293
5.9211 -3.4781 -0.0308
6.0686 -3.3702 -0.0323
6.2194 -3.2599 -0.0340
6.3628 -3.1415 -0.0356
6.4589 -2.9970 -0.0370
6.5824 -2.8631 -0.0387
6.7138 -2.7293 -0.0404
6.8479 -2.5928 -0.0422
6.9848 -2.4534 -0.0441
6.0328 -1.9566 -0.0390
5.6754 -1.6903 -0.0375
5.6660 -1.5395 -0.0383
5.6568 -1.3911 -0.0392
5.6476 -1.2449 -0.0400
5.6386 -1.1008 -0.0409
5.6289 -0.9583 -0.0418
5.6129 -0.8166 -0.0426
5.6478 -0.6828 -0.0439
5.7076 -0.5504 -0.0454
5.7685 -0.4159 -0.0469
5.8304 -0.2790 -0.0485
5.8935 -0.1394 -0.0501
5.9720 0.0031 -0.0520
6.0752 0.1500 -0.0541
6.1800 0.3021 -0.0563
6.2349 0.4561 -0.0581
6.2836 0.6126 -0.0600
6.3321 0.7722 -0.0618
6.3816 0.9352 -0.0638
6.4322 1.1020 -0.0658
6.4724 1.2706 -0.0678
6.4822 1.4360 -0.0695
6.4922 1.6037 -0.0713
6.5180 1.7783 -0.0733
6.5456 1.9569 -0.0754
6.5823 2.1425 -0.0777
6.6304 2.3368 -0.0803
6.6801 2.5373 -0.0829
6.7309 2.7446 -0.0856
6.7817 2.9583 -0.0885
6.8343 3.1800 -0.0915
6.8890 3.4103 -0.0947
6.9459 3.6501 -0.0980
7.5458 4.2011 -0.1093
6.9774 4.1086 -0.1038
6.5692 4.0851 -0.1005
6.3097 4.1385 -0.0992
6.1624 4.2584 -0.0997
6.1019 4.4382 -0.1016
6.0405 4.6208 -0.1036
5.9176 4.7577 -0.1046
5.6257 4.7513 -0.1025
5.3593 4.7529 -0.1008
5.1805 4.8230 -0.1006
5.1118 4.9950 -0.1025
5.0974 5.2276 -0.1057
5.2140 5.6124 -0.1119
5.2983 5.9869 -0.1178
5.3631 6.3637 -0.1236
5.3488 6.6671 -0.1280
5.4288 7.1124 -0.1350
5.5120 7.5952 -0.1427
5.4588 7.9175 -0.1472
5.4154 8.2757 -0.1524
5.3696 8.6552 -0.1580
6.3574 10.8228 -0.1959
6.2125 11.1867 -0.2009
6.0831 11.6058 -0.2068
5.9825 12.1174 -0.2144
5.8390 12.5841 -0.2212
6.0751 13.9675 -0.2439
5.7808 14.2209 -0.2469
5.6733 14.9847 -0.2587
2.8329 8.0657 -0.1386
6.3810 19.6765 -0.3364
5.9419 19.9536 -0.3396
6.0347 22.2141 -0.3766
5.6291 22.8944 -0.3866
3.4715 15.7517 -0.2651
4.5143 23.1291 -0.3880
3.9784 23.3746 -0.3911
3.3993 23.3746 -0.3901
2.8291 23.4137 -0.3899
2.2437 23.2803 -0.3869
1.6546 22.9700 -0.3812
-7.7183 79.0975 -1.3087
-7.2234 59.1896 -0.9801
-8.2609 56.3326 -0.9338
-9.3595 54.5981 -0.9062
-5.7471 29.2601 -0.4865
-9.5697 43.1771 -0.7193
-10.5964 42.8766 -0.7159
-11.4156 41.8247 -0.7002
-10.5360 35.2271 -0.5915
-13.3972 41.1445 -0.6931
-14.4585 41.0100 -0.6934
-9.6218 25.3223 -0.4299
-11.5478 24.8099 -0.4272
-12.2928 24.8244 -0.4298
-12.9599 24.6547 -0.4294
-13.4588 24.1670 -0.4236
-14.0456 23.8462 -0.4209
-8.7266 14.0291 -0.2494
-8.9802 13.6878 -0.2452
-9.1256 13.2024 -0.2385
-9.2657 12.7357 -0.2321
-9.4010 12.2863 -0.2261
-9.5319 11.8525 -0.2203
-9.6588 11.4331 -0.2148
-9.7820 11.0270 -0.2095
-16.6116 17.8382 -0.3430
-16.9808 17.3734 -0.3383
-15.8934 15.4934 -0.3058
-15.3105 14.2201 -0.2848
-16.8861 14.9399 -0.3038
-17.7224 14.9320 -0.3086
-18.6077 14.9242 -0.3139
-18.1563 13.8548 -0.2968
-17.4645 12.6710 -0.2768
-17.8801 12.3242 -0.2750
-13.8795 9.0800 -0.2072
-18.5687 11.5167 -0.2692
-18.9169 11.1088 -0.2664
-19.2682 10.6976 -0.2637
-17.9479 9.4045 -0.2388
-16.3633 8.0764 -0.2118
-10.0936 4.6820 -0.1271
-10.0672 4.3774 -0.1234
-10.0417 4.0807 -0.1198
-10.0171 3.7914 -0.1163
-9.9933 3.5087 -0.1130
-9.9141 3.2140 -0.1092
-7.6835 2.2872 -0.0825
-14.2493 3.8695 -0.1490
-14.0315 3.4485 -0.1430
-13.7945 3.0388 -0.1370
-13.5678 2.6469 -0.1314
-13.3492 2.2708 -0.1260
-13.0634 1.8987 -0.1203
-12.7046 1.5341 -0.1140
-11.8459 1.1407 -0.1037
-40.0677 2.8833 -0.3420
-10.9530 0.5225 -0.0912
-10.6849 0.2512 -0.0867
-10.3596 -0.0068 -0.0820
-9.6514 -0.2396 -0.0745
-8.2511 -0.4045 -0.0621
-13.0283 -1.2719 -0.0932
-12.9963 -1.5867 -0.0907
-21.8421 -5.3986 -0.1340
-26.0623 -7.1141 -0.1558
-18.7684 -5.6137 -0.1093
-48.8581 -15.9098 -0.2771
-45.2329 -15.9481 -0.2497
-42.0587 -15.9816 -0.2260
-16.7943 -6.8504 -0.0878
-38.0369 -16.5982 -0.1935
-38.0458 -17.7084 -0.1882
-30.4546 -15.0808 -0.1464
-21.0594 -11.0699 -0.0984
-38.0741 -21.2033 -0.1728
-38.0840 -22.4313 -0.1679
-30.8324 -19.1783 -0.1319
-37.5469 -24.6326 -0.1558
-28.6952 -19.8335 -0.1155
-29.8221 -21.6956 -0.1163
-29.9759 -22.9353 -0.1132
-19.5761 -15.7424 -0.0716
-15.8786 -13.4116 0.1742
-37.5795 -33.3300 0.4282
-37.5452 -34.9565 0.4445
-19.0569 -18.6226 0.2345
-38.6566 -39.6466 0.4948
-38.5670 -41.5160 0.5138
-27.9000 -31.5282 0.3870
-38.3255 -45.4781 0.5541
-38.3451 -47.7992 0.5782
-54.5935 -71.5284 0.8594
-38.3685 -52.8722 0.6312
-49.3320 -71.5559 0.8490
-47.0180 -71.8552 0.8477
-14.7998 -23.8568 0.2799
-15.6205 -26.5935 0.3104
-17.0240 -30.6560 0.3561
-29.9766 -57.1946 0.6614
-35.5322 -71.9728 0.8287
-33.4040 -71.9944 0.8256
-22.1510 -50.9300 0.5817
-6.3115 -15.5271 0.1767
-27.2798 -72.0555 0.8172
-25.3135 -72.0755 0.8148
-23.3792 -72.0951 0.8126
-11.5875 -38.9134 0.4373
-19.5881 -72.1078 0.8082
-18.1290 -73.7362 0.8244
-16.9885 -77.0870 0.8599
-6.4871 -33.2385 0.3700
-12.1095 -71.1510 0.7904
-10.3496 -71.1688 0.7891
-8.6013 -71.1866 0.7880
-6.8597 -71.1784 0.7867
-5.1483 -71.4716 0.7889
-3.4156 -71.4892 0.7881
-1.6860 -71.5068 0.7874
0.0425 -71.5243 0.7869
1.7719 -71.5418 0.7865
3.5041 -71.5594 0.7862
2.4173 -33.0109 0.3625
4.1030 -42.0511 0.4616
4.9912 -40.9007 0.4489
5.7785 -39.4067 0.4325
6.2193 -36.2819 0.3982
5.4798 -27.9012 0.3063
5.8943 -26.5960 0.2921
6.5081 -26.3356 0.2894
2.7291 -9.9994 0.1100
2.9913 -10.0021 0.1101
7.2187 -22.1707 0.2443
7.3879 -20.9561 0.2312
6.4498 -16.9755 0.1875
3.8915 -9.5410 0.1056
4.2122 -9.6535 0.1070
4.5278 -9.7282 0.1080
4.8555 -9.8058 0.1091
5.1967 -9.8866 0.1103
5.5524 -9.9707 0.1115
5.9243 -10.0586 0.1128
6.3138 -10.1507 0.1142
6.7226 -10.2473 0.1157
6.3945 -9.2518 0.1048
6.4244 -8.8309 0.1004
6.4509 -8.4312 0.0963
6.5858 -8.1897 0.0940
6.7159 -7.9501 0.0917
6.8284 -7.6979 0.0892
6.9500 -7.4637 0.0870
5.9164 -6.0535 0.0710
5.8616 -5.7145 0.0674
5.7625 -5.3524 0.0636
5.6584 -5.0066 0.0599
5.6466 -4.7579 0.0574
5.6579 -4.5383 0.0552
5.6689 -4.3262 0.0532
5.6409 -4.0929 0.0508
5.5915 -3.8544 0.0484
5.5446 -3.6276 0.0461
5.6761 -3.5207 0.0453
5.8169 -3.4163 0.0445
5.9607 -3.3096 0.0438
6.1076 -3.2006 0.0431
6.2738 -3.0969 0.0424
6.4370 -2.9862 0.0417
6.5655 -2.8551 0.0408
6.6965 -2.7216 0.0398
6.8300 -2.5854 0.0389
6.9664 -2.4463 0.0379
6.0456 -1.9602 0.0314
5.6762 -1.6900 0.0281
5.6668 -1.5391 0.0267
5.6575 -1.3907 0.0254
5.6484 -1.2446 0.0241
5.6394 -1.1004 0.0228
5.6263 -0.9574 0.0215
5.6104 -0.8157 0.0202
5.6463 -0.6821 0.0192
5.7062 -0.5498 0.0182
5.7670 -0.4153 0.0172
5.8288 -0.2784 0.0162
5.8919 -0.1388 0.0152
5.9563 0.0036 0.0141
6.0221 0.1492 0.0131
6.1199 0.2998 0.0121
6.1996 0.4540 0.0111
6.2474 0.6096 0.0099
6.2952 0.7683 0.0088
6.3440 0.9303 0.0076
6.3939 1.0960 0.0065
6.4450 1.2658 0.0053
6.4642 1.4326 0.0040
6.4740 1.5998 0.0028
6.4999 1.7739 0.0015
6.5279 1.9522 0.0003
6.5743 2.1405 -0.0010
6.6222 2.3345 -0.0023
6.6717 2.5348 -0.0037
6.7223 2.7417 -0.0051
6.7728 2.9551 -0.0065
6.8252 3.1764 -0.0080
6.8796 3.4063 -0.0095
6.9321 3.6435 -0.0110
6.9874 3.8909 -0.0126
6.9377 4.0859 -0.0140
6.5576 4.0786 -0.0147
6.2941 4.1289 -0.0156
6.1560 4.2546 -0.0167
6.0937 4.4329 -0.0180
6.0306 4.6138 -0.0193
5.8896 4.7359 -0.0203
5.5954 4.7264 -0.0208
5.3365 4.7334 -0.0213
5.1574 4.8021 -0.0220
5.1015 4.9856 -0.0233
5.0988 5.2297 -0.0248
5.2160 5.6151 -0.0270
5.2394 5.9211 -0.0289
5.3228 6.3165 -0.0312
5.3169 6.6281 -0.0331
5.3715 7.0381 -0.0355
5.5342 7.6266 -0.0388
5.4813 7.9510 -0.0408
5.4257 8.2923 -0.0429
5.3771 8.6682 -0.0452
6.3426 10.7987 -0.0567
6.2154 11.1928 -0.0591
6.0859 11.6123 -0.0616
5.9655 12.0841 -0.0645
5.8220 12.5485 -0.0672
6.0930 14.0098 -0.0754
5.7912 14.2476 -0.0769
5.6846 15.0158 -0.0813
2.8325 8.0654 -0.0438
6.3541 19.5953 -0.1067
5.9106 19.8498 -0.1083
6.0879 22.4116 -0.1225
5.5415 22.5399 -0.1234
3.4708 15.7497 -0.0863
4.4894 23.0034 -0.1262
3.9038 22.9380 -0.1259
3.3479 23.0223 -0.1264
2.6515 21.9457 -0.1204
2.1938 22.7640 -0.1249
1.7466 24.2476 -0.1329
-5.3852 55.1961 -0.2986
-6.7781 55.5478 -0.2996
-8.1643 55.6811 -0.2992
-9.4460 55.1090 -0.2950
-5.7460 29.2579 -0.1560
-9.9057 44.6980 -0.2372
-10.2854 41.6230 -0.2198
-11.0456 40.4736 -0.2126
-10.5325 35.2194 -0.1840
-12.9495 39.7738 -0.2065
-15.1789 43.0578 -0.2220
-9.6191 25.3182 -0.1296
-26.2244 64.2998 -0.3267
-28.9102 66.2593 -0.3339
-15.6771 33.6853 -0.1682
-12.0410 24.3185 -0.1203
-12.6956 24.1545 -0.1183
-13.3471 23.9691 -0.1161
-8.1413 13.8237 -0.0662
-12.9293 20.7878 -0.0982
-13.6007 20.7328 -0.0967
-10.4601 15.1349 -0.0695
-14.8322 20.3893 -0.0922
-15.3833 20.1069 -0.0894
-15.3288 19.0630 -0.0832
-16.2691 19.2602 -0.0823
-16.5546 18.6639 -0.0781
-17.0566 18.3185 -0.0748
-15.6650 16.0292 -0.0637
-15.1347 14.7558 -0.0570
-13.8711 12.8850 -0.0482
-18.4783 16.3509 -0.0590
-18.6449 15.7116 -0.0545
-18.6650 14.9725 -0.0497
-18.1535 13.8548 -0.0437
-18.1631 13.1800 -0.0392
-63.2408 43.5971 -0.1214
-13.8765 9.0796 -0.0234
-26.7738 16.6086 -0.0390
-56.7859 29.7613 -0.0452
-16.3532 8.0731 -0.0096
-31.1358 14.4460 -0.0117
-53.5519 23.2907 -0.0090
-23.7843 9.6678 0.0008
-55.6869 21.0823 0.0131
-27.1034 9.5187 0.0118
-14.1812 4.5986 0.0090
-14.0740 4.1909 0.0117
-13.8679 3.7672 0.0142
-13.6358 3.3526 0.0166
-13.4139 2.9562 0.0189
-13.2013 2.5766 0.0212
-12.9972 2.2122 0.0234
-12.7432 1.8533 0.0254
-12.2556 1.4810 0.0268
-40.0971 3.8650 0.0954
-40.1179 2.8906 0.1033
-10.7374 0.5132 0.0297
-10.4615 0.2469 0.0310
-9.8828 -0.0056 0.0313
-8.4442 -0.2089 0.0284
-13.0276 -1.2707 0.0518
-12.9947 -1.5853 0.0544
-21.8394 -5.3959 0.1153
-26.0599 -7.1110 0.1435
-18.8148 -5.6259 0.1081
-50.9853 -16.5977 0.3051
-47.1971 -16.6361 0.2940
-42.4293 -16.1184 0.2750
-16.7925 -6.8480 0.1132
-38.0368 -16.5945 0.2664
-38.4292 -17.8831 0.2796
-38.4491 -19.0358 0.2906
-21.0574 -11.0667 0.1652
-38.0740 -21.1994 0.3101
-38.4801 -22.6606 0.3253
-30.8312 -19.1744 0.2704
-37.5373 -24.6224 0.3417
-36.9964 -25.5672 0.3495
-37.0101 -26.9210 0.3628
-37.0243 -28.3242 0.3767
-19.5754 -15.7396 0.2068
-15.8761 -13.4077 0.4045
-37.5848 -33.3303 0.9850
-37.5452 -34.9520 1.0130
-19.0517 -18.6152 0.5297
-38.6565 -39.6417 1.1085
-38.5715 -41.5160 1.1419
-27.7914 -31.4018 0.8503
-38.3278 -45.4757 1.2133
-38.3450 -47.7939 1.2573
-54.5993 -71.5283 1.8568
-38.3753 -52.8760 1.3554
-49.3371 -71.5559 1.8125
-47.0227 -71.8552 1.7996
-14.8039 -23.8610 0.5912
-15.6197 -26.5896 0.6522
-17.0234 -30.6520 0.7447
-37.7135 -71.9496 1.7325
-35.5355 -71.9728 1.7184
-26.9822 -58.1484 1.3773
-22.1493 -50.9217 1.1972
-6.3117 -15.5262 0.3625
-23.3663 -61.7135 1.4314
-25.3156 -72.0754 1.6616
-23.3811 -72.0951 1.6527
-11.5871 -38.9088 0.8873
-19.5896 -72.1078 1.6365
-18.1289 -73.7304 1.6659
-16.9898 -77.0870 1.7348
-6.4875 -33.2378 0.7453
-12.1103 -71.1510 1.5904
-5.1702 -35.5503 0.7924
-4.3059 -35.6351 0.7923
-3.6469 -37.8398 0.8396
-5.1485 -71.4716 1.5831
-3.4156 -71.4892 1.5814
-1.6858 -71.5068 1.5803
0.0428 -71.5243 1.5797
1.7723 -71.5418 1.5797
3.5048 -71.5594 1.5803
2.4174 -33.0075 0.7293
4.1157 -42.1758 0.9327
4.9759 -40.7704 0.9027
5.8081 -39.6041 0.8783
4.9559 -28.9082 0.6424
5.4451 -27.7209 0.6175
5.8819 -26.5368 0.5927
5.8018 -23.4749 0.5260
2.7303 -10.0029 0.2249
2.9927 -10.0056 0.2259
6.8286 -20.9702 0.4755
6.3437 -17.9922 0.4099
6.3470 -16.7030 0.3825
3.7925 -9.2973 0.2142
4.1074 -9.4123 0.2182
4.4130 -9.4807 0.2212
4.7301 -9.5515 0.2245
5.0597 -9.6250 0.2279
5.4031 -9.7014 0.2316
5.7613 -9.7809 0.2355
6.1360 -9.8638 0.2397
6.2764 -9.5661 0.2348
6.3228 -9.1469 0.2269
6.3470 -8.7235 0.2188
6.4464 -8.4243 0.2138
6.5813 -8.1830 0.2103
6.7122 -7.9447 0.2069
6.8246 -7.6927 0.2031
5.9776 -6.4186 0.1720
5.8600 -5.9950 0.1632
5.8076 -5.6610 0.1567
5.6973 -5.2912 0.1491
5.6355 -4.9856 0.1431
5.6039 -4.7213 0.1382
5.6160 -4.5039 0.1346
5.6276 -4.2939 0.1312
5.5913 -4.0563 0.1269
5.5436 -3.8207 0.1226
5.4982 -3.5966 0.1185
5.5789 -3.4598 0.1172
5.7279 -3.3634 0.1175
5.8873 -3.2683 0.1179
6.0512 -3.1704 0.1184
6.2199 -3.0696 0.1189
6.3955 -2.9663 0.1196
6.5488 -2.8472 0.1198
6.6792 -2.7139 0.1196
6.8122 -2.5780 0.1195
6.7114 -2.3561 0.1153
6.0585 -1.9638 0.1020
5.6770 -1.6897 0.0938
5.6675 -1.5388 0.0918
5.6583 -1.3904 0.0900
5.6491 -1.2442 0.0882
5.6399 -1.1000 0.0865
5.6238 -0.9564 0.0847
5.6079 -0.8148 0.0830
5.6449 -0.6814 0.0822
5.7047 -0.5491 0.0817
5.7654 -0.4146 0.0812
5.8273 -0.2777 0.0808
5.8904 -0.1382 0.0805
5.9547 0.0042 0.0801
6.0205 0.1497 0.0798
6.0878 0.2987 0.0796
6.1646 0.4520 0.0795
6.2116 0.6067 0.0790
6.2588 0.7644 0.0786
6.3069 0.9254 0.0782
6.3561 1.0901 0.0779
6.4064 1.2588 0.0776
6.4462 1.4292 0.0772
6.4558 1.5960 0.0765
6.4820 1.7697 0.0760
6.5200 1.9505 0.0757
6.5664 2.1385 0.0755
6.6141 2.3323 0.0754
6.6633 2.5323 0.0753
6.7136 2.7388 0.0753
6.7639 2.9519 0.0753
6.8160 3.1729 0.0754
6.8702 3.4024 0.0755
6.9109 3.6330 0.0756
6.9653 3.8793 0.0758
6.9270 4.0803 0.0751
6.5512 4.0753 0.0708
6.2886 4.1260 0.0678
6.1492 4.2505 0.0662
6.0837 4.4262 0.0654
6.0206 4.6068 0.0647
5.8619 4.7143 0.0631
5.5653 4.7016 0.0600
5.3123 4.7125 0.0575
5.1482 4.7941 0.0560
5.0947 4.9795 0.0557
5.0878 5.2191 0.0560
5.2179 5.6179 0.0579
5.1928 5.8690 0.0582
5.2821 6.2689 0.0599
5.2854 6.5896 0.0607
5.3154 6.9654 0.0620
5.5566 7.6582 0.0659
5.5040 7.9848 0.0665
5.4488 8.3284 0.0672
5.3906 8.6907 0.0680
6.3417 10.7982 0.0821
6.2182 11.1990 0.0828
6.0882 11.6178 0.0837
5.9617 12.0774 0.0848
5.8267 12.5598 0.0861
6.1067 14.0424 0.0941
5.8012 14.2736 0.0937
5.6881 15.0262 0.0967
2.8322 8.0651 0.0509
6.3308 19.5249 0.1211
5.8950 19.7993 0.1209
6.3631 23.4265 0.1409
5.2560 21.3802 0.1269
3.4701 15.7477 0.0924
4.3440 22.2599 0.1292
3.7202 21.8604 0.1258
3.0958 21.2898 0.1216
2.7052 22.3906 0.1270
2.1460 22.2694 0.1258
1.6903 23.4671 0.1321
1.2344 25.8359 0.1451
-6.9533 94.9768 0.5401
-5.2759 54.0822 0.3096
-6.6300 54.3403 0.3136
-10.3804 70.8035 0.4125
-11.3973 66.5005 0.3916
-5.7449 29.2558 0.1744
-11.7599 53.0709 0.3207
-10.5971 42.8891 0.2631
-11.4370 41.9122 0.2613
-10.5290 35.2117 0.2234
-13.4600 41.3465 0.2672
-14.4746 41.0645 0.2708
-9.6165 25.3140 0.1705
-22.5633 55.3290 0.3811
-23.5661 54.0171 0.3809
-14.9578 32.1434 0.2323
-15.6307 31.5719 0.2342
-16.1730 30.7741 0.2346
-37.6771 67.6695 0.5305
-16.3929 27.8377 0.2248
-15.2575 24.5339 0.2042
-13.3366 20.3325 0.1747
-10.4573 15.1327 0.1343
-14.5272 19.9724 0.1834
-15.1103 19.7526 0.1878
-15.6550 19.4711 0.1919
-16.0368 18.9876 0.1942
-17.1459 19.3330 0.2055
-16.8218 18.0687 0.1998
-14.9543 15.3041 0.1763
-13.9323 13.5854 0.1632
-17.8755 16.6070 0.2083
-18.0598 15.9829 0.2095
-18.2397 15.3724 0.2110
-18.0942 14.5168 0.2089
-17.8103 13.5949 0.2054
-17.5122 12.7097 0.2019
-63.2305 43.5973 0.7297
-13.8735 9.0791 0.1604
-26.9761 16.7371 0.3125
-56.7857 29.7672 0.6653
-16.3431 8.0698 0.1924
-31.1310 14.4469 0.3686
-53.5508 23.2956 0.6381
-23.7811 9.6688 0.2853
-55.6868 21.0878 0.6730
-27.1003 9.5203 0.3301
-13.9006 4.5090 0.1707
-13.7060 4.0826 0.1698
-13.4789 3.6629 0.1686
-13.2619 3.2619 0.1675
-13.0538 2.8781 0.1666
-12.8541 2.5100 0.1658
-12.6620 2.1563 0.1651
-12.4383 1.8101 0.1641
-40.5557 4.9046 0.5414
-40.5769 3.9149 0.5483
-40.1179 2.8943 0.5490
-10.5301 0.5043 0.1460
-10.1255 0.2399 0.1423
-8.6459 -0.0041 0.1232
-7.4302 -0.1831 0.1074
-80.9647 -5.9187 1.2049
-13.0268 -1.2694 0.1968
-12.9932 -1.5839 0.1994
-56.9132 -8.3380 0.8877
-91.9941 -20.3755 1.5089
-21.8367 -5.3932 0.3645
-26.0576 -7.1079 0.4428
-53.5764 -16.0151 0.9274
-50.9997 -16.5975 0.8995
-47.2095 -16.6360 0.8488
-42.4397 -16.1183 0.7782
-16.7907 -6.8457 0.3141
-38.0368 -16.5908 0.7263
-38.4291 -17.8793 0.7494
-38.4490 -19.0320 0.7660
-21.0555 -11.0636 0.4288
-38.0740 -21.1955 0.7930
-38.4800 -22.6566 0.8202
-30.8300 -19.1704 0.6728
-37.5294 -24.6132 0.8390
-36.9963 -25.5632 0.8479
-37.0101 -26.9169 0.8700
-37.0243 -28.3200 0.8933
-19.5746 -15.7368 0.4851
-15.8736 -13.4038 0.6347
-37.5900 -33.3305 1.5421
-37.5452 -34.9474 1.5817
-19.0465 -18.6078 0.8248
-38.2581 -39.2284 1.7046
-38.2781 -41.1953 1.7567
-26.6372 -30.0942 1.2606
-25.6169 -30.3908 1.2516
-25.2732 -31.4974 1.2764
-46.0109 -60.2706 2.4055
-38.4291 -52.9446 2.0827
-42.7500 -61.9960 2.4055
-41.1064 -62.8081 2.4055
-14.8081 -23.8653 0.9028
-15.6190 -26.5858 0.9941
-17.0228 -30.6480 1.1334
-34.2876 -65.4076 2.3939
-32.3069 -65.4277 2.3714
-26.9846 -58.1484 2.0882
-22.1477 -50.9133 1.8127
-6.3119 -15.5253 0.5483
-23.3684 -61.7136 2.1632
-23.2346 -66.1453 2.3024
-21.5932 -66.5767 2.3024
-11.5866 -38.9043 1.3373
-18.2975 -67.3465 2.3024
-16.6439 -67.6855 2.3024
-14.9868 -67.9938 2.3024
-6.4880 -33.2380 1.1209
-11.6631 -68.5190 2.3024
-5.0140 -34.4746 1.1548
-4.1688 -34.4987 1.1524
-3.6468 -37.8368 1.2611
-4.9812 -69.1472 2.3005
-3.0557 -63.9577 2.1249
-0.6879 -29.1828 0.9687
0.0176 -29.1902 0.9684
0.7235 -29.1977 0.9686
3.3956 -69.3167 2.3005
2.4222 -33.0684 1.0984
6.1300 -62.8084 2.0888
4.9756 -40.7624 1.3580
5.4902 -37.4316 1.2497
4.9029 -28.5956 0.9572
5.4929 -27.9614 0.9389
5.8562 -26.4179 0.8902
5.7736 -23.3580 0.7902
2.7306 -10.0029 0.3399
2.9930 -10.0056 0.3417
6.7594 -20.7555 0.7127
6.1852 -17.5409 0.6059
6.2607 -16.4740 0.5727
6.4607 -15.8367 0.5544
4.0077 -9.1827 0.3239
4.3040 -9.2453 0.3288
4.6110 -9.3100 0.3340
4.9298 -9.3768 0.3395
6.2650 -11.2477 0.4113
6.2084 -10.5386 0.3894
6.1540 -9.8916 0.3696
6.2048 -9.4558 0.3575
6.2526 -9.0443 0.3463
6.3041 -8.6635 0.3361
6.4418 -8.4174 0.3312
6.5767 -8.1763 0.3265
6.7084 -7.9393 0.3220
6.8209 -7.6875 0.3170
5.9251 -6.3614 0.2669
5.8046 -5.9376 0.2537
5.7402 -5.5946 0.2437
5.6350 -5.2325 0.2327
5.6127 -4.9648 0.2256
5.5619 -4.6852 0.2178
5.5746 -4.4701 0.2128
5.5868 -4.2622 0.2082
5.5426 -4.0203 0.2017
5.4965 -3.7876 0.1955
5.4526 -3.5662 0.1897
5.5278 -3.4275 0.1883
5.6812 -3.3353 0.1896
5.8386 -3.2406 0.1909
6.0004 -3.1432 0.1925
6.1669 -3.0428 0.1942
6.3392 -2.9396 0.1960
6.5218 -2.8348 0.1982
6.6621 -2.7063 0.1990
6.7946 -2.5706 0.1997
6.6716 -2.3414 0.1930
6.0714 -1.9674 0.1730
5.6777 -1.6893 0.1594
5.6683 -1.5385 0.1569
5.6590 -1.3900 0.1546
5.6499 -1.2438 0.1523
5.6374 -1.0990 0.1501
5.6213 -0.9555 0.1479
5.6054 -0.8139 0.1458
5.6434 -0.6807 0.1452
5.7032 -0.5484 0.1452
5.7639 -0.4140 0.1453
5.8257 -0.2771 0.1455
5.8888 -0.1377 0.1457
5.9531 0.0047 0.1461
6.0188 0.1503 0.1466
6.0861 0.2992 0.1471
6.1264 0.4498 0.1471
6.1708 0.6033 0.1473
6.2209 0.7603 0.1476
6.2702 0.9206 0.1480
6.3187 1.0843 0.1485
6.3682 1.2519 0.1491
6.4190 1.4238 0.1497
6.4379 1.5921 0.1498
6.4674 1.7663 0.1501
6.5123 1.9488 0.1509
6.5584 2.1365 0.1519
6.6059 2.3300 0.1529
6.6550 2.5297 0.1541
6.7050 2.7359 0.1555
6.7550 2.9487 0.1569
6.8070 3.1693 0.1585
6.8523 3.3942 0.1601
6.8897 3.6226 0.1616
6.9434 3.8678 0.1637
6.9163 4.0748 0.1639
6.5449 4.0721 0.1561
6.2845 4.1240 0.1510
6.1442 4.2478 0.1489
6.0768 4.4218 0.1486
6.0106 4.5999 0.1485
5.8322 4.6910 0.1458
5.5355 4.6771 0.1401
5.3003 4.7025 0.1359
5.1332 4.7808 0.1336
5.0878 4.9734 0.1345
5.0768 5.2084 0.1365
5.2199 5.6207 0.1430
5.1937 5.8708 0.1451
5.2420 6.2220 0.1496
5.2453 6.5404 0.1532
5.2605 6.8942 0.1574
5.5791 7.6901 0.1714
5.5270 8.0189 0.1747
5.4721 8.3648 0.1783
5.4079 8.7195 0.1820
6.3436 10.8025 0.2210
6.2185 11.2007 0.2248
6.0971 11.6358 0.2294
5.9714 12.0981 0.2345
5.8370 12.5832 0.2400
6.1172 14.0680 0.2643
5.8113 14.2997 0.2649
5.7780 15.2650 0.2791
2.8318 8.0647 0.1457
6.3158 19.4801 0.3478
5.8698 19.7160 0.3484
6.2481 23.0049 0.4026
5.6074 22.8115 0.3958
3.4694 15.7457 0.2711
4.4666 22.8897 0.3914
3.9938 23.4697 0.3989
3.4696 23.8626 0.4035
2.8871 23.8979 0.4024
2.4332 25.2506 0.4237
5.7978 80.4961 1.3475
-2.1663 44.2602 0.7415
-3.2280 44.0988 0.7408
-13.1608 76.7991 1.3159
-5.7438 29.2536 0.5048
-10.1654 45.8804 0.7981
-10.9401 44.2821 0.7771
-18.8799 69.1954 1.2263
-10.5256 35.2040 0.6305
-20.3451 62.5033 1.1325
-20.2583 57.4794 1.0544
-9.6139 25.3099 0.4705
-21.8431 53.5690 1.0101
-21.4916 49.2677 0.9432
-21.9493 47.1730 0.9176
-22.7514 45.9600 0.9093
-23.5475 44.8113 0.9026
-24.4832 43.9777 0.9026
-25.7705 43.7674 0.9163
-15.2535 24.5302 0.5243
-13.0824 19.9474 0.4357
-10.4545 15.1304 0.3381
-14.2195 19.5517 0.4474
-14.7938 19.3412 0.4538
-15.3765 19.1271 0.4605
-37.9145 44.8965 1.1105
-17.9625 20.2565 0.5154
-14.7681 15.8648 0.4156
-13.7527 14.0762 0.3802
-17.2852 16.8572 0.4700
-17.4749 16.2371 0.4680
-17.6597 15.6310 0.4663
-17.8399 15.0377 0.4650
-47.2017 37.8752 1.2158
-17.2044 13.1345 0.4383
-52.2594 37.9339 1.3184
-43.5072 30.0031 1.0879
-13.8704 9.0787 0.3441
-26.9701 16.7364 0.6643
-51.2802 30.1307 1.2552
-54.3294 30.1807 1.3226
-56.7855 29.7731 1.3760
-16.3330 8.0665 0.3942
-31.1261 14.4479 0.7490
-53.5497 23.3006 1.2854
-23.7779 9.6699 0.5698
-55.6868 21.0933 1.3331
-13.7284 4.8241 0.3285
-13.5450 4.3950 0.3242
-13.3232 3.9699 0.3192
-13.1110 3.5641 0.3146
-12.9077 3.1760 0.3104
-12.7125 2.8040 0.3065
-12.5246 2.4469 0.3030
-12.3435 2.1032 0.2998
-19.7898 2.8819 0.4827
-32.6452 3.9509 0.8003
-32.0607 3.0962 0.7903
-31.7207 2.2914 0.7867
-10.3198 0.4952 0.2576
-8.8563 0.2106 0.2227
-7.5860 -0.0029 0.1922
-40.2008 -0.9871 1.0267
-33.6420 -1.6402 0.8666
-75.7818 -5.5329 1.9701
-13.0261 -1.2682 0.3419
-12.9916 -1.5825 0.3445
-89.7516 -13.1408 2.4055
-88.7546 -15.1939 2.4055
-87.7246 -17.2092 2.4055
-86.6615 -19.1865 2.4055
-21.8340 -5.3905 0.6138
-26.0553 -7.1049 0.7422
-53.5803 -16.0112 1.5474
-51.0140 -16.5974 1.4945
-47.2219 -16.6359 1.4041
-42.4501 -16.1182 1.2817
-16.7889 -6.8433 0.5151
-38.0368 -16.5871 1.1863
-38.3148 -17.8223 1.2156
-38.0549 -18.8331 1.2289
-21.0536 -11.0605 0.6924
-38.0740 -21.1916 1.2761
-38.0839 -22.4194 1.3017
-30.8288 -19.1664 1.0752
-37.5353 -24.6132 1.3368
-28.3212 -19.5659 1.0307
-27.4410 -19.9545 1.0212
-37.0242 -28.3159 1.4101
-19.5739 -15.7340 0.7636
-15.8711 -13.3999 0.8651
-26.5849 -23.5694 1.4848
-27.2498 -25.3612 1.5610
-19.0413 -18.6004 1.1199
-25.7585 -26.4085 1.5570
-24.9970 -26.8989 1.5546
-24.2311 -27.3726 1.5523
-23.5884 -27.9812 1.5585
-23.0436 -28.7156 1.5723
-22.5823 -29.5778 1.5935
-22.3629 -30.8066 1.6343
-22.4559 -32.5622 1.7024
-29.5196 -45.0996 2.3255
-14.8122 -23.8697 1.2147
-15.6183 -26.5820 1.3361
-17.0222 -30.6440 1.5223
-24.8142 -47.3316 2.3255
-23.6184 -47.8274 2.3255
-22.4156 -48.2984 2.3255
-21.2061 -48.7446 2.3255
-6.3121 -15.5245 0.7343
-18.7687 -49.5621 2.3255
-17.5415 -49.9338 2.3255
-16.3091 -50.2804 2.3255
-11.5862 -38.8997 1.7877
-13.8300 -50.8992 2.3255
-12.5840 -51.1712 2.3255
-11.3342 -51.4187 2.3255
-6.4885 -33.2383 1.4968
-8.7367 -51.3236 2.3024
-5.0143 -34.4745 1.5414
-4.1691 -34.4986 1.5381
-3.6467 -37.8338 1.6828
-3.9064 -54.2260 2.4074
-2.5954 -54.3232 2.4084
-0.6879 -29.1829 1.2926
0.0177 -29.1904 1.2924
0.7237 -29.1978 1.2928
2.5464 -51.9732 2.3024
2.4226 -33.0687 1.4664
5.0607 -51.8456 2.3024
5.8527 -47.9422 2.1332
5.4709 -37.2954 1.6635
4.8604 -28.3443 1.2680
5.4558 -27.7694 1.2465
5.8299 -26.2964 1.1850
5.7667 -23.3273 1.0559
2.7310 -10.0029 0.4550
2.9933 -10.0056 0.4576
6.6916 -20.5450 0.9453
6.0323 -17.1054 0.7921
6.1841 -16.2706 0.7588
6.4087 -15.7075 0.7382
6.6718 -15.2853 0.7243
6.8641 -14.7432 0.7048
7.1784 -14.4921 0.6993
6.2119 -11.8140 0.5759
6.1969 -11.1242 0.5481
6.0717 -10.3053 0.5135
6.0825 -9.7755 0.4930
6.1347 -9.3479 0.4775
6.1775 -8.9346 0.4626
6.2997 -8.6563 0.4546
6.4373 -8.4105 0.4484
6.5722 -8.1696 0.4426
6.7043 -7.9334 0.4370
6.8171 -7.6823 0.4307
5.8735 -6.3051 0.3602
5.7503 -5.8812 0.3426
5.6740 -5.5293 0.3288
5.6117 -5.2102 0.3167
5.5847 -4.9393 0.3072
5.5205 -4.6496 0.2962
5.5338 -4.4367 0.2900
5.5414 -4.2269 0.2838
5.4947 -3.9849 0.2753
5.4502 -3.7551 0.2673
5.4304 -3.5510 0.2609
5.4268 -3.3643 0.2557
5.6352 -3.3077 0.2605
5.7907 -3.2134 0.2628
5.9504 -3.1164 0.2654
6.1148 -3.0165 0.2682
6.2842 -2.9134 0.2711
6.4638 -2.8089 0.2746
6.6450 -2.6987 0.2781
6.7770 -2.5633 0.2795
6.6323 -2.3270 0.2698
6.0844 -1.9710 0.2443
5.6785 -1.6890 0.2252
5.6691 -1.5381 0.2221
5.6598 -1.3897 0.2192
5.6506 -1.2435 0.2165
5.6348 -1.0979 0.2137
5.6188 -0.9545 0.2110
5.6029 -0.8131 0.2085
5.6420 -0.6800 0.2082
5.7017 -0.5478 0.2087
5.7624 -0.4134 0.2093
5.8242 -0.2765 0.2101
5.8872 -0.1371 0.2110
5.9515 0.0053 0.2121
6.0172 0.1508 0.2133
6.0755 0.2992 0.2143
6.0829 0.4472 0.2137
6.1251 0.5994 0.2144
6.1743 0.7552 0.2155
6.2246 0.9145 0.2167
6.2760 1.0775 0.2181
6.3286 1.2447 0.2197
6.3805 1.4158 0.2213
6.4203 1.5884 0.2227
6.4598 1.7648 0.2242
6.5045 1.9471 0.2261
6.5505 2.1346 0.2281
6.5978 2.3278 0.2303
6.6467 2.5272 0.2328
6.6964 2.7331 0.2355
6.7462 2.9455 0.2383
6.7960 3.1648 0.2414
6.8318 3.3847 0.2441
6.8688 3.6123 0.2472
6.9216 3.8564 0.2510
6.9057 4.0692 0.2526
6.5386 4.0688 0.2414
6.2804 4.1219 0.2343
6.1392 4.2450 0.2316
6.0718 4.4189 0.2318
6.0035 4.5951 0.2322
5.8106 4.6744 0.2279
5.5160 4.6613 0.2196
5.2883 4.6924 0.2140
5.1183 4.7675 0.2107
5.0809 4.9673 0.2131
5.0659 5.1979 0.2167
5.2219 5.6235 0.2281
5.1946 5.8725 0.2321
5.1918 6.1632 0.2375
5.2046 6.4903 0.2442
5.2067 6.8244 0.2510
5.6019 7.7223 0.2779
