ply
format ascii 1.0
element vertex 2089
property float32 x
property float32 y
property float32 z
end_header
-2.2254 89.8664 1.8514
-2.3929 32.6786 0.6748
-3.0719 31.4834 0.6512
-3.8428 31.4894 0.6528
-12.5401 85.5162 1.7772
-15.5468 90.6936 1.8904
-13.0520 66.4528 1.3898
-10.6863 48.2157 1.0122
-18.1480 73.4342 1.5481
-8.8520 32.4324 0.6869
-10.7436 35.9218 0.7646
-11.2020 34.4030 0.7364
-20.2314 57.3843 1.2356
-18.2429 48.0113 1.0404
-10.4890 25.7152 0.5611
-20.6953 47.4264 1.0426
-14.0719 30.2330 0.6699
-14.7314 29.7487 0.6647
-15.9426 30.3287 0.6838
-21.8389 39.2144 0.8926
-9.4662 16.0714 0.3695
-23.0566 37.0659 0.8613
-14.3888 21.9314 0.5154
-24.4303 35.3439 0.8406
-25.3685 34.8685 0.8399
-26.9605 35.2344 0.8601
-37.0149 46.0257 1.1394
-24.4978 28.9976 0.7286
-37.0318 41.7443 1.0654
-17.0109 18.2667 0.4739
-18.5968 19.0263 0.5023
-17.9238 17.4724 0.4698
-18.2280 16.9294 0.4641
-21.7462 19.2394 0.5384
-12.8241 10.8047 0.3089
-13.4012 10.7481 0.3144
-13.8737 10.5865 0.3172
-14.3527 10.4130 0.3201
-14.8475 10.2336 0.3232
-15.3547 10.0447 0.3265
-15.7776 9.7852 0.3278
-10.3066 6.0523 0.2094
-10.4179 5.7838 0.2072
-17.4858 9.1620 0.3404
-17.0286 8.4044 0.3248
-17.4000 8.0708 0.3253
-15.1507 6.5874 0.2778
-14.8751 6.0445 0.2676
-14.5700 5.5142 0.2573
-14.2819 5.0141 0.2477
-14.0093 4.5412 0.2388
-13.7507 4.0929 0.2304
-13.4740 3.6586 0.2221
-17.7415 4.3599 0.2878
-17.5997 3.8767 0.2810
-11.1960 2.1839 0.1761
-32.8717 5.5910 0.5094
-53.6904 7.8021 0.8202
-56.6625 6.8404 0.8537
-56.6743 5.4560 0.8425
-56.6859 4.0775 0.8317
-42.9389 2.0472 0.6222
-57.0262 1.3391 0.8163
-13.8377 -0.0095 0.1958
-14.0112 -0.3483 0.1960
-47.8266 -2.3463 0.6618
-16.2367 -1.1904 0.2224
-18.4977 -1.8065 0.2508
-40.5693 -4.9542 0.5449
-33.1767 -4.8677 0.4417
-19.6948 -3.3777 0.2600
-40.1365 -7.8862 0.5255
-40.1531 -8.9022 0.5218
-40.1698 -9.9300 0.5184
-20.9668 -5.7239 0.2688
-20.5521 -6.1481 0.2619
-13.9710 -4.5499 0.1771
-13.8849 -4.8960 0.1751
-13.7333 -5.2190 0.1725
-13.5649 -5.5337 0.1697
-13.3972 -5.8467 0.1671
-13.2299 -6.1584 0.1646
-13.0629 -6.4692 0.1623
-12.8960 -6.7794 0.1600
-12.7290 -7.0893 0.1579
-12.5557 -7.3958 0.1558
-12.3157 -7.6612 0.1530
-11.9408 -7.8343 0.1486
-16.6598 -11.5158 0.2080
-38.3286 -27.8862 0.4802
-37.9455 -29.0351 0.4776
-13.1221 -10.5530 0.1661
-10.3634 -8.7561 0.2824
-10.0138 -8.8842 0.2770
-9.6052 -8.9456 0.2699
-9.2116 -9.0044 0.2633
-8.8319 -9.0607 0.2571
-8.4650 -9.1148 0.2513
-8.1097 -9.1669 0.2459
-7.7653 -9.2170 0.2408
-7.4308 -9.2654 0.2360
-7.0888 -9.2903 0.2309
-38.0632 -52.4652 1.2743
-19.1236 -27.7459 0.6591
-53.0571 -81.1051 1.8863
-50.3104 -81.1191 1.8489
-32.7240 -55.7257 1.2459
-45.1896 -81.3953 1.7867
-23.1087 -44.1016 0.9514
-40.1870 -81.4209 1.7277
-37.7744 -81.4333 1.7012
-15.5947 -35.8641 0.7383
-20.6694 -50.8609 1.0326
-16.6892 -44.0924 0.8836
-28.6011 -81.4555 1.6126
-23.0578 -71.1207 1.3921
-21.1709 -71.1133 1.3775
-22.1379 -81.5133 1.5638
-6.1197 -24.8965 0.4734
-17.9644 -81.5347 1.5380
-16.8717 -86.4672 1.6194
-13.6969 -80.4981 1.4980
-11.7048 -80.5083 1.4898
-5.6910 -47.1121 0.8677
-4.5405 -47.1270 0.8645
-3.4795 -48.3182 0.8835
-3.8591 -80.7984 1.4739
-1.9044 -80.8084 1.4718
0.0486 -80.8184 1.4708
2.0020 -80.8284 1.4710
3.9582 -80.8384 1.4724
5.5925 -76.3803 1.3935
4.9286 -50.5194 0.9239
5.9574 -48.8254 0.8958
2.8276 -19.2863 0.3553
6.1180 -35.6969 0.6608
6.3072 -32.1191 0.5980
4.0806 -18.4151 0.3451
4.5770 -18.5243 0.3497
6.7567 -24.7614 0.4712
7.1999 -24.0787 0.4623
6.2216 -19.1120 0.3706
6.3363 -17.9766 0.3523
6.6282 -17.4482 0.3459
5.5801 -13.6838 0.2746
5.5084 -12.6266 0.2568
5.8119 -12.4898 0.2576
6.0979 -12.3174 0.2579
5.6953 -10.8376 0.2306
5.6254 -10.1039 0.2186
5.7462 -9.7584 0.2149
5.8808 -9.4567 0.2122
6.0111 -9.1647 0.2098
6.0995 -8.8269 0.2063
6.1921 -8.5135 0.2033
6.2867 -8.2185 0.2008
6.3759 -7.9306 0.1984
6.4415 -7.6271 0.1956
6.5086 -7.3393 0.1932
6.5753 -7.0632 0.1911
6.6400 -6.7957 0.1892
6.7021 -6.5357 0.1874
6.7609 -6.2816 0.1858
5.1330 -4.5430 0.1388
5.0713 -4.2744 0.1351
5.0663 -4.0649 0.1331
5.1261 -3.9131 0.1329
5.1761 -3.7569 0.1326
5.2116 -3.5937 0.1321
5.1785 -3.3892 0.1300
5.1913 -3.2212 0.1291
5.2335 -3.0748 0.1291
5.2365 -2.9087 0.1282
5.2385 -2.7463 0.1274
5.2384 -2.5869 0.1267
5.2366 -2.4304 0.1260
5.2756 -2.2953 0.1264
2.7885 -1.1339 0.0666
5.3530 -2.0274 0.1275
5.4077 -1.9000 0.1285
5.5862 -1.8123 0.1326
5.5601 -1.6565 0.1319
5.5346 -1.5043 0.1312
5.5097 -1.3554 0.1307
5.4853 -1.2097 0.1303
5.4614 -1.0667 0.1299
5.4380 -0.9264 0.1297
5.4149 -0.7883 0.1295
5.3923 -0.6524 0.1294
5.3647 -0.5179 0.1293
5.4005 -0.3899 0.1308
5.4836 -0.2629 0.1335
5.5690 -0.1322 0.1364
5.6570 0.0024 0.1394
5.7479 0.1414 0.1426
5.8418 0.2851 0.1460
5.9379 0.4338 0.1496
6.2279 0.6066 0.1583
6.5956 0.8037 0.1691
6.5361 0.9573 0.1692
6.4772 1.1091 0.1694
6.4188 1.2595 0.1697
6.3473 1.4055 0.1697
6.2997 1.5556 0.1704
6.2521 1.7051 0.1712
6.2044 1.8543 0.1721
6.1568 2.0034 0.1731
6.1092 2.1525 0.1742
6.0623 2.3021 0.1754
6.0278 2.4573 0.1771
5.9844 2.6099 0.1786
5.9407 2.7636 0.1803
5.8967 2.9185 0.1820
5.8523 3.0747 0.1838
5.8074 3.2326 0.1858
5.7632 3.3929 0.1879
5.8867 3.6600 0.1958
6.0428 3.9628 0.2051
6.4748 4.4735 0.2245
6.3236 4.5987 0.2241
6.1665 4.7163 0.2236
6.0114 4.8324 0.2231
5.8583 4.9471 0.2228
5.7151 5.0678 0.2229
5.6880 5.2947 0.2278
5.6599 5.5298 0.2329
5.6703 5.8144 0.2400
5.7395 6.1772 0.2502
6.5148 7.3606 0.2928
6.4327 7.6318 0.2984
6.6672 8.3095 0.3197
6.5738 8.6115 0.3263
6.4753 8.9214 0.3331
6.6224 9.6042 0.3537
6.6752 10.1995 0.3707
6.3536 10.2401 0.3677
6.0099 10.2299 0.3630
5.7874 10.4200 0.3658
3.3993 6.4846 0.2253
5.8669 11.8817 0.4088
6.3415 13.6653 0.4659
5.9065 13.5781 0.4590
5.4466 13.3970 0.4493
4.9263 13.0098 0.4331
4.4899 12.7820 0.4227
4.3412 13.3848 0.4398
4.1014 13.7710 0.4499
3.8308 14.0997 0.4583
3.5302 14.3557 0.4644
3.1886 14.4662 0.4660
2.8183 14.4377 0.4633
2.4528 14.4092 0.4609
2.1540 14.8091 0.4724
1.8180 15.0431 0.4787
1.3499 14.0035 0.4448
0.9966 13.8318 0.4388
3.4669 72.5407 2.2991
1.7888 75.8327 2.4023
-0.0444 75.8318 2.4023
-1.8768 75.7963 2.4023
-3.7080 75.7259 2.4023
-2.3928 32.6763 1.0381
-3.0721 31.4835 1.0020
-3.8430 31.4895 1.0046
-10.6459 72.5949 2.3223
-12.4046 72.3589 2.3223
-13.0484 66.4307 2.1401
-10.6857 48.2102 1.5597
-16.1202 65.2246 2.1201
-14.2460 52.1919 1.7053
-17.8273 59.6024 1.9586
-12.8763 39.5424 1.3075
-18.8439 53.4452 1.7792
-18.2420 48.0056 1.6098
-10.4885 25.7121 0.8690
-20.0912 46.0386 1.5691
-20.7536 44.5850 1.5332
-21.3746 43.1608 1.4985
-15.9418 30.3249 1.0636
-20.9268 37.5736 1.3321
-9.4657 16.0692 0.5763
-21.9742 35.3229 1.2821
-22.5926 34.4328 1.2659
-23.2583 33.6454 1.2538
-24.0307 33.0269 1.2484
-24.9763 32.6383 1.2524
-26.4176 32.8456 1.2805
-24.4963 28.9932 1.1494
-37.0318 41.7403 1.6840
-37.7050 40.4846 1.6639
-18.0063 18.4203 0.7720
-37.7240 36.7702 1.5729
-20.4116 18.9554 0.8286
-21.2168 18.7689 0.8393
-22.0495 18.5753 0.8508
-13.0893 10.4968 0.4931
-13.5490 10.3375 0.4988
-14.0116 10.1642 0.5044
-14.4887 9.9850 0.5105
-14.9817 9.7994 0.5170
-15.4919 9.6068 0.5240
-10.3039 6.0498 0.3419
-10.4172 5.7825 0.3392
-54.2304 28.4105 1.7346
-57.4149 28.3322 1.8049
-14.9601 6.9379 0.4625
-14.6884 6.3852 0.4469
-14.3901 5.8463 0.4311
-14.1086 5.3385 0.4164
-13.8421 4.8586 0.4028
-13.5892 4.4040 0.3900
-13.3486 3.9723 0.3781
-26.9930 7.3274 0.7550
-18.1986 4.4709 0.5029
-55.7731 12.2807 1.5237
-17.0667 3.3277 0.4612
-32.8672 5.5878 0.8789
-53.6880 7.7978 1.4216
-56.6622 6.8361 1.4864
-56.6741 5.4518 1.4736
-56.6861 4.0733 1.4618
-42.9355 2.0439 1.0986
-57.0262 1.3348 1.4486
-13.8362 -0.0106 0.3491
-14.0099 -0.3493 0.3513
-47.8261 -2.3499 1.1927
-16.2272 -1.1909 0.4026
-18.9774 -1.8548 0.4687
-40.5694 -4.9573 0.9980
-33.0040 -4.8449 0.8091
-19.6929 -3.3788 0.4814
-32.1708 -6.3235 0.7847
-31.7844 -7.0493 0.7739
-31.9881 -7.9100 0.7780
-20.9644 -5.7249 0.5097
-20.5487 -6.1487 0.4996
-13.7390 -4.4755 0.3343
-13.6197 -4.8036 0.3319
-13.4549 -5.1143 0.3285
-13.2907 -5.4229 0.3254
-13.1269 -5.7299 0.3225
-12.9635 -6.0355 0.3198
-12.8001 -6.3401 0.3173
-12.6367 -6.6441 0.3151
-12.4730 -6.9478 0.3130
-12.3089 -7.2515 0.3111
-12.1286 -7.5459 0.3090
-17.0518 -11.1892 0.4383
-16.6574 -11.5156 0.4324
-38.3287 -27.8899 1.0057
-37.9455 -29.0388 1.0073
-13.1197 -10.5524 0.3527
-12.9659 -10.9563 0.5416
-37.9596 -33.6816 1.6127
-28.5557 -26.5979 1.2353
-8.9806 -8.7796 0.3960
-8.6143 -8.8384 0.3877
-8.2598 -8.8949 0.3798
-7.9163 -8.9491 0.3725
-7.5828 -9.0014 0.3656
-7.2587 -9.0517 0.3592
-6.9266 -9.0785 0.3523
-38.0632 -52.4704 1.9932
-19.1204 -27.7439 1.0327
-24.8847 -38.0432 1.3888
-24.0937 -38.8517 1.3924
-23.6648 -40.3025 1.4193
-36.8520 -66.3839 2.2991
-23.1045 -44.0976 1.5033
-35.3028 -71.5318 2.4023
-33.6503 -72.5492 2.4023
-15.5918 -35.8608 1.1718
-20.6655 -50.8561 1.6411
-16.6858 -44.0874 1.4062
-26.3024 -74.9155 2.3635
-23.0560 -71.1213 2.2211
-21.1692 -71.1139 2.2002
-20.3559 -74.9586 2.2992
-6.1188 -24.8952 0.7576
-16.7634 -76.0905 2.2992
-14.9407 -76.5779 2.2992
-13.1024 -77.0113 2.2992
-11.2505 -77.3910 2.2992
-5.6904 -47.1123 1.3938
-4.5401 -47.1271 1.3894
-3.4791 -48.3193 1.4207
-3.7475 -78.4730 2.3026
-1.8492 -78.4827 2.2999
0.0192 -31.7313 0.9293
0.7861 -31.7360 0.9296
3.8443 -78.5118 2.3016
5.3754 -73.4180 2.1557
5.6332 -57.7437 1.6993
5.6830 -46.5787 1.3749
2.8275 -19.2863 0.5714
6.0856 -35.5099 1.0568
6.2625 -31.8935 0.9541
6.6203 -29.8782 0.8992
6.2881 -25.4514 0.7710
6.7157 -24.6127 0.7512
6.1465 -20.5572 0.6326
6.1111 -18.7739 0.5829
6.3302 -17.9605 0.5631
5.7046 -15.0181 0.4758
5.4882 -13.4595 0.4313
5.4322 -12.4529 0.4039
5.7692 -12.3990 0.4074
6.0532 -12.2281 0.4073
5.6973 -10.8421 0.3665
5.6193 -10.0937 0.3465
5.7440 -9.7555 0.3404
5.8786 -9.4539 0.3356
6.0045 -9.1554 0.3310
6.0411 -8.7432 0.3221
6.1393 -8.4417 0.3173
6.2340 -8.1505 0.3129
6.3256 -7.8686 0.3088
6.4180 -7.6000 0.3052
6.5002 -7.3305 0.3016
6.5669 -7.0548 0.2977
6.6316 -6.7878 0.2942
6.6937 -6.5281 0.2909
6.7525 -6.2744 0.2878
5.1132 -4.5259 0.2140
5.0605 -4.2658 0.2082
5.0616 -4.0616 0.2049
5.1214 -3.9100 0.2043
5.1768 -3.7579 0.2036
5.2128 -3.5949 0.2023
5.1797 -3.3904 0.1986
5.1660 -3.2059 0.1959
5.2054 -3.0587 0.1954
5.2079 -2.8933 0.1936
5.2103 -2.7320 0.1920
5.2126 -2.5746 0.1906
5.2167 -2.4216 0.1893
5.2557 -2.2870 0.1895
2.7883 -1.1340 0.1000
5.3366 -2.0216 0.1904
5.4232 -1.9059 0.1926
5.6046 -1.8187 0.1984
5.5781 -1.6623 0.1968
5.5523 -1.5095 0.1955
5.5272 -1.3602 0.1943
5.5025 -1.2139 0.1932
5.4784 -1.0705 0.1923
5.4547 -0.9296 0.1915
5.4315 -0.7911 0.1908
5.4064 -0.6545 0.1902
5.3747 -0.5192 0.1894
5.4021 -0.3904 0.1909
5.4851 -0.2634 0.1944
5.5706 -0.1327 0.1982
5.6587 0.0020 0.2022
5.7496 0.1410 0.2065
5.8436 0.2847 0.2110
5.9409 0.4336 0.2158
6.2960 0.6127 0.2302
6.5612 0.7990 0.2416
6.5021 0.9518 0.2412
6.4437 1.1029 0.2411
6.3887 1.2531 0.2411
6.3476 1.4051 0.2418
6.2997 1.5551 0.2424
6.2519 1.7046 0.2431
6.2043 1.8538 0.2440
6.1567 2.0028 0.2449
6.1090 2.1519 0.2461
6.0686 2.3040 0.2476
6.0347 2.4596 0.2496
5.9913 2.6124 0.2513
5.9475 2.7663 0.2532
5.9035 2.9213 0.2553
5.8591 3.0778 0.2575
5.8145 3.2361 0.2599
5.7703 3.3966 0.2624
5.8937 3.6639 0.2730
6.0504 3.9671 0.2856
6.4947 4.4866 0.3127
6.3356 4.6068 0.3114
6.1781 4.7246 0.3103
6.0227 4.8409 0.3093
5.8693 4.9557 0.3084
5.7172 5.0690 0.3078
5.6901 5.2960 0.3141
5.6620 5.5312 0.3208
5.7161 5.8606 0.3328
5.7875 6.2282 0.3466
6.6108 7.4683 0.4078
6.4999 7.7107 0.4134
6.6437 8.2794 0.4363
6.5484 8.5774 0.4447
6.4499 8.8855 0.4536
6.5489 9.4966 0.4777
6.6530 10.1648 0.5043
6.3364 10.2115 0.5000
5.9854 10.1873 0.4926
5.7697 10.3871 0.4965
3.3990 6.4836 0.3065
5.8539 11.8544 0.5546
6.2013 13.3620 0.6190
5.7440 13.2032 0.6061
5.1075 12.5619 0.5718
5.1881 13.7000 0.6187
4.8197 13.7198 0.6151
4.0832 12.5882 0.5605
3.9309 13.1975 0.5840
3.7388 13.7598 0.6054
3.4598 14.0682 0.6159
3.1340 14.2171 0.6195
2.7704 14.1907 0.6159
2.4105 14.1594 0.6123
2.0484 14.0816 0.6071
1.6809 13.9077 0.5981
1.3245 13.7385 0.5896
3.7698 52.3151 2.2416
2.6827 56.1252 2.4023
1.3249 56.1564 2.4023
-0.0327 56.1599 2.4023
-1.3899 56.1360 2.4023
-2.7462 56.0842 2.4023
-2.3927 32.6741 1.4016
-3.0722 31.4836 1.3531
-3.8432 31.4896 1.3566
-7.8044 53.2160 2.2992
-9.0923 53.0348 2.2992
-10.4812 53.3577 2.3223
-10.6851 48.2047 2.1074
-13.0648 52.8588 2.3223
-14.2452 52.1856 2.3054
-15.6181 52.2130 2.3205
-12.8755 39.5371 1.7688
-17.4129 49.3830 2.2250
-18.1395 47.7324 2.1673
-10.4880 25.7090 1.1770
-19.4934 44.6654 2.0631
-19.9918 42.9453 2.0025
-19.5683 39.5105 1.8610
-15.9411 30.3212 1.4436
-20.2336 36.3261 1.7493
-9.4651 16.0669 0.7831
-21.3053 34.2449 1.6906
-21.9062 33.3839 1.6705
-22.4831 32.5214 1.6506
-23.0269 31.6446 1.6305
-23.1334 30.2275 1.5823
-23.2556 28.9116 1.5389
-23.4145 27.7103 1.5011
-23.4439 26.4222 1.4580
-23.6933 25.4375 1.4312
-24.2589 24.8143 1.4250
-25.0233 24.3881 1.4310
-37.7329 35.0373 2.1029
-37.7414 33.3834 2.0520
-37.7495 31.7980 2.0042
-12.7915 10.2567 0.6638
-13.2390 10.0997 0.6721
-13.6860 9.9269 0.6802
-41.0679 28.2987 2.0002
-43.2923 28.3134 2.0678
-45.6902 28.3291 2.1418
-10.3012 6.0474 0.4743
-10.4165 5.7812 0.4714
-52.1785 27.3313 2.3223
-53.0148 26.1566 2.3223
-44.1969 20.4931 1.9068
-47.2299 20.5276 2.0081
-50.6321 20.5664 2.1230
-21.1840 8.0141 0.8765
-56.8476 19.9492 2.3223
-17.4258 5.6460 0.7033
-17.5558 5.2229 0.7004
-26.9912 7.3249 1.0652
-18.1971 4.4691 0.7107
-55.7731 12.2765 2.1572
-56.3709 10.9871 2.1603
-32.8627 5.5845 1.2486
-53.6856 7.7934 2.0233
-56.0604 6.7593 2.0969
-56.0725 5.3897 2.0828
-56.0842 4.0259 2.0699
-42.9321 2.0405 1.5753
-57.0262 1.3306 2.0813
-13.8346 -0.0116 0.5025
-14.0085 -0.3503 0.5067
-47.8255 -2.3534 1.7238
-16.2178 -1.1915 0.5827
-32.0131 -3.1312 1.1474
-31.6169 -3.8658 1.1311
-31.2551 -4.5905 1.1166
-19.6910 -3.3800 0.7030
-30.6779 -6.0324 1.0950
-30.4151 -6.7480 1.0861
-30.3532 -7.5081 1.0851
-20.9621 -5.7259 0.7506
-20.5453 -6.1493 0.7374
-13.5094 -4.4018 0.4863
-13.3481 -4.7089 0.4822
-13.1874 -5.0136 0.4785
-62.5459 -25.5252 2.2806
-58.5137 -25.5459 2.1457
-54.8992 -25.5644 2.0261
-52.7678 -26.1414 1.9613
-49.7404 -26.1569 1.8634
-46.9758 -26.1710 1.7751
-43.4860 -25.6228 1.6588
-41.1967 -25.6345 1.5877
-17.0442 -11.1858 0.6642
-16.6549 -11.5155 0.6569
-37.9412 -27.6115 1.5159
-37.9455 -29.0424 1.5372
-13.1173 -10.5518 0.5393
-12.9640 -10.9560 0.7299
-26.2765 -23.3179 1.5063
-25.8661 -24.0955 1.5113
-20.9664 -20.4993 1.2500
-25.0385 -25.6928 1.5250
-24.4765 -26.3613 1.5249
-24.0217 -27.1588 1.5328
-7.4086 -8.7954 0.4849
-7.0942 -8.8475 0.4769
-19.1849 -25.1477 1.3268
-24.3493 -33.5690 1.7353
-19.1172 -27.7419 1.4064
-23.1223 -35.3524 1.7593
-22.4884 -36.2665 1.7732
-21.9059 -37.3104 1.7939
-21.3070 -38.3852 1.8165
-20.7535 -39.6141 1.8466
-20.3638 -41.2657 1.8964
-20.1721 -43.4944 1.9722
-15.5890 -35.8575 1.6055
-20.6617 -50.8512 2.2500
-16.6824 -44.0824 1.9290
-18.8255 -53.6244 2.3223
-17.5500 -54.1417 2.3223
-16.2589 -54.6237 2.3223
-14.9536 -55.0703 2.3223
-6.1179 -24.8938 1.0420
-12.3041 -55.8545 2.3223
-10.9621 -56.1911 2.3223
-9.5146 -55.9286 2.2992
-8.1673 -56.1873 2.2992
-5.6898 -47.1124 1.9203
-4.5396 -47.1272 1.9147
-3.4431 -47.8253 1.9382
-2.8357 -59.3899 2.4023
-1.4007 -59.4603 2.4023
0.0193 -31.7303 1.2813
0.7861 -31.7350 1.2818
2.7850 -56.8782 2.2992
4.1579 -56.7907 2.2992
5.5276 -56.6643 2.2992
5.5976 -45.8816 1.8672
5.4242 -37.0011 1.5112
6.0498 -35.3030 1.4481
5.8870 -29.9827 1.2360
6.0051 -27.1038 1.1236
6.2345 -25.2362 1.0529
6.6849 -24.5014 1.0296
5.8646 -19.6158 0.8308
6.0385 -18.5520 0.7925
6.3234 -17.9426 0.7736
5.5950 -14.7305 0.6416
5.3753 -13.1834 0.5804
5.3581 -12.2838 0.5471
5.7042 -12.2602 0.5529
6.0092 -12.1401 0.5547
5.6992 -10.8466 0.5026
5.6132 -10.0835 0.4742
5.7418 -9.7525 0.4659
5.8764 -9.4511 0.4590
5.9334 -9.0478 0.4471
5.9892 -8.6687 0.4363
6.0874 -8.3711 0.4295
6.1822 -8.0835 0.4232
6.2723 -7.8031 0.4173
6.3673 -7.5407 0.4124
6.4679 -7.2949 0.4083
6.5585 -7.0465 0.4042
6.6233 -6.7799 0.3990
6.6852 -6.5205 0.3941
6.7364 -6.2601 0.3892
5.0934 -4.5090 0.2887
5.0498 -4.2572 0.2810
5.0569 -4.0584 0.2767
5.1167 -3.9069 0.2755
5.1756 -3.7574 0.2745
5.2139 -3.5962 0.2727
5.1808 -3.3916 0.2674
5.1491 -3.1959 0.2625
5.1768 -3.0424 0.2609
5.1797 -2.8780 0.2583
5.1824 -2.7178 0.2559
5.1850 -2.5614 0.2537
5.1970 -2.4129 0.2522
5.2444 -2.2825 0.2526
2.7880 -1.1341 0.1334
5.3445 -2.0250 0.2541
5.4604 -1.9194 0.2582
5.6231 -1.8252 0.2646
5.5963 -1.6681 0.2623
5.5702 -1.5148 0.2602
5.5448 -1.3649 0.2583
5.5199 -1.2181 0.2565
5.4955 -1.0742 0.2550
5.4716 -0.9329 0.2537
5.4482 -0.7940 0.2525
5.4167 -0.6561 0.2511
5.3848 -0.5206 0.2498
5.4036 -0.3909 0.2511
5.4867 -0.2639 0.2555
5.5722 -0.1331 0.2601
5.6604 0.0016 0.2651
5.7513 0.1406 0.2704
5.8454 0.2844 0.2760
5.9703 0.4353 0.2833
6.3688 0.6193 0.3039
6.5270 0.7944 0.3133
6.4738 0.9471 0.3128
6.4227 1.0988 0.3126
6.3720 1.2493 0.3126
6.3475 1.4046 0.3140
6.2996 1.5546 0.3144
6.2518 1.7041 0.3150
6.2041 1.8533 0.3158
6.1565 2.0023 0.3168
6.1089 2.1514 0.3180
6.0750 2.3059 0.3200
6.0416 2.4619 0.3223
5.9981 2.6149 0.3243
5.9544 2.7689 0.3264
5.9103 2.9242 0.3288
5.8658 3.0809 0.3313
5.8217 3.2395 0.3341
5.7774 3.4003 0.3372
5.9007 3.6677 0.3505
6.0579 3.9715 0.3664
6.2900 4.3446 0.3878
6.3477 4.6150 0.3991
6.1898 4.7330 0.3973
6.0340 4.8494 0.3958
5.8802 4.9644 0.3945
5.7282 5.0781 0.3934
5.6922 5.2974 0.4005
5.6941 5.5619 0.4110
5.7626 5.9077 0.4271
5.8391 6.2831 0.4449
6.7097 7.5792 0.5263
6.5983 7.8266 0.5333
6.6186 8.2472 0.5521
6.5232 8.5435 0.5624
6.4246 8.8498 0.5733
6.4770 9.3914 0.5992
6.6314 10.1307 0.6371
6.3181 10.1810 0.6316
5.9725 10.1644 0.6225
5.7499 10.3504 0.6262
3.3988 6.4825 0.3877
5.7927 11.7294 0.6940
5.8182 12.5353 0.7342
5.8422 13.4278 0.7791
5.4868 13.4935 0.7760
5.1185 13.5151 0.7709
4.7588 13.5450 0.7667
4.4434 13.6973 0.7699
3.5896 12.0506 0.6729
3.4736 12.7825 0.7096
3.3434 13.5939 0.7506
3.0812 13.9762 0.7680
2.7215 13.9391 0.7627
2.3616 13.8703 0.7561
2.0079 13.8021 0.7500
1.6494 13.6453 0.7394
1.3000 13.4831 0.7291
2.8951 40.1720 2.1687
2.1298 44.5509 2.4023
1.0520 44.5786 2.4023
-0.0258 44.5833 2.4023
-1.1034 44.5654 2.4023
-2.1802 44.5247 2.4023
-2.3926 32.6717 1.7653
-3.0724 31.4837 1.7044
-3.8434 31.4897 1.7090
-6.1951 42.2407 2.2992
-7.2168 42.0929 2.2992
-8.2357 41.9237 2.2992
-9.2511 41.7328 2.2992
-10.3660 41.9371 2.3223
-11.3839 41.7007 2.3223
-12.3973 41.4426 2.3223
-12.8746 39.5319 2.2303
-14.4091 40.8614 2.3223
-15.4067 40.5385 2.3223
-10.4875 25.7058 1.4852
-17.3761 39.8111 2.3213
-18.2672 39.2376 2.3104
-18.5510 37.4537 2.2284
-15.9404 30.3174 1.8239
-19.5846 35.1581 2.1401
-9.4646 16.0647 0.9901
-20.5828 33.0809 2.0659
-20.8275 31.7373 2.0097
-20.6336 29.8434 1.9177
-20.8384 28.6345 1.8687
-21.1273 27.6037 1.8311
-21.4166 26.6229 1.7966
-21.6652 25.6376 1.7616
-22.0025 24.7954 1.7364
-22.4039 24.0508 1.7183
-22.9316 23.4542 1.7113
-23.6218 23.0198 1.7171
-24.3862 22.6417 1.7286
-25.7142 22.7426 1.7792
-34.0890 28.7114 2.3047
-21.0212 16.8537 1.3900
-35.8781 27.3674 2.3223
-24.4343 17.7206 1.5496
-37.3441 25.7294 2.3223
-38.0528 24.8834 2.3223
-38.7445 24.0193 2.3223
-10.2985 6.0449 0.6067
-10.4157 5.7799 0.6036
-40.2957 21.1037 2.2985
-40.9090 20.1804 2.2985
-41.5035 19.2409 2.2985
-42.5152 18.4751 2.3223
-43.0761 17.4938 2.3223
-21.1827 8.0119 1.1279
-44.1363 15.4850 2.3223
-44.6345 14.4582 2.3223
-45.1110 13.4171 2.3223
-26.9894 7.3223 1.3756
-18.1955 4.4674 0.9187
-45.9289 10.1062 2.2985
-46.7896 9.1161 2.3223
-32.8582 5.5813 1.6184
-47.4865 6.8899 2.3223
-47.7979 5.7595 2.3223
-48.0841 4.6182 2.3223
-48.3446 3.4667 2.3223
-42.9288 2.0372 2.0522
-48.7866 1.1347 2.3223
-13.8331 -0.0126 0.6560
-14.0071 -0.3513 0.6622
-30.8300 -1.5194 1.4538
-16.2083 -1.1920 0.7628
-30.4190 -2.9776 1.4296
-30.2700 -3.7034 1.4214
-30.1469 -4.4301 1.4153
-19.6891 -3.3812 0.9247
-29.6060 -5.8239 1.3917
-29.4211 -6.5297 1.3852
-29.3947 -7.2733 1.3869
-20.9597 -5.7269 0.9917
-20.5419 -6.1499 0.9753
-19.7512 -6.4371 0.9416
-30.3716 -10.7168 1.4547
-30.7007 -11.6744 1.4785
-25.2033 -10.2877 1.2212
-24.7059 -10.7881 1.2052
-24.6045 -11.4594 1.2093
-24.9962 -12.3854 1.2387
-25.4319 -13.3760 1.2717
-25.7092 -14.3253 1.2982
-43.4795 -25.6228 2.2187
-41.1907 -25.6345 2.1260
-17.0366 -11.1824 0.8901
-16.6524 -11.5153 0.8815
-37.9412 -27.6151 2.0367
-29.0894 -22.2670 1.5850
-13.1149 -10.5511 0.7261
-12.9620 -10.9557 0.9184
-24.7499 -21.9657 1.7864
-24.3664 -22.7010 1.7936
-20.9632 -20.4985 1.5755
-23.5660 -24.1845 1.8104
-23.1796 -24.9672 1.8225
-22.7740 -25.7509 1.8351
-22.4204 -26.6201 1.8540
-22.0911 -27.5536 1.8774
-19.1817 -25.1461 1.6779
-21.8049 -30.0640 1.9665
-19.1139 -27.7398 1.7804
-21.7527 -33.2616 2.0966
-21.2127 -34.2125 2.1198
-20.7069 -35.2716 2.1501
-20.0989 -36.2122 2.1736
-19.4257 -37.0831 2.1935
-18.7481 -37.9950 2.2166
-18.0176 -38.8525 2.2373
-15.5862 -35.8542 2.0395
-16.5215 -40.6653 2.2867
-15.7624 -41.6550 2.3173
-14.8014 -42.1655 2.3223
-13.7943 -42.5591 2.3223
-12.7758 -42.9256 2.3223
-11.7469 -43.2647 2.3223
-6.1170 -24.8925 1.3266
-9.5648 -43.4234 2.2992
-5.9916 -30.7155 1.6170
-7.4675 -43.8998 2.2992
-6.4090 -44.0952 2.2992
-5.5846 -46.2463 2.4023
-4.4681 -46.3901 2.4023
-3.3476 -46.5032 2.4023
-2.2240 -46.5860 2.4023
-1.0984 -46.6379 2.4023
0.0194 -31.7292 1.6336
0.7861 -31.7339 1.6342
2.2375 -45.6965 2.3553
2.4782 -33.8489 1.7473
4.3350 -44.4402 2.2991
5.4061 -44.3134 2.2991
5.4052 -36.8733 1.9198
5.7466 -33.5353 1.7534
5.8683 -29.8891 1.5704
5.9518 -26.8647 1.4193
6.2088 -25.1337 1.3362
6.6501 -24.3754 1.3049
5.8180 -19.4611 1.0498
6.0222 -18.5031 1.0065
6.3164 -17.9239 0.9839
5.5388 -14.5837 0.8084
5.3269 -13.0657 0.7319
5.2858 -12.1190 0.6866
5.6266 -12.0943 0.6935
5.9657 -12.0532 0.7001
5.6961 -10.8415 0.6383
5.6071 -10.0734 0.6017
5.7396 -9.7495 0.5913
5.8338 -9.3834 0.5784
5.8639 -8.9426 0.5607
5.9380 -8.5954 0.5486
6.0364 -8.3016 0.5399
6.1309 -8.0171 0.5318
6.2177 -7.7359 0.5239
6.3173 -7.4822 0.5179
6.4178 -7.2390 0.5126
6.5158 -7.0013 0.5078
6.6115 -6.7686 0.5034
6.6723 -6.5086 0.4969
6.7166 -6.2424 0.4899
5.0739 -4.4921 0.3628
5.0312 -4.2420 0.3531
5.0523 -4.0551 0.3484
5.1120 -3.9037 0.3467
5.1708 -3.7545 0.3453
5.2151 -3.5975 0.3431
5.1820 -3.3928 0.3363
5.1502 -3.1970 0.3299
5.1485 -3.0261 0.3258
5.1517 -2.8629 0.3224
5.1601 -2.7065 0.3195
5.1736 -2.5562 0.3173
5.2020 -2.4156 0.3162
5.2522 -2.2863 0.3166
2.7878 -1.1343 0.1668
5.3524 -2.0284 0.3181
5.4982 -1.9331 0.3247
5.6417 -1.8316 0.3314
5.6146 -1.6740 0.3282
5.5882 -1.5202 0.3254
5.5625 -1.3697 0.3227
5.5374 -1.2224 0.3204
5.5127 -1.0780 0.3182
5.4887 -0.9362 0.3163
5.4595 -0.7960 0.3143
5.4269 -0.6578 0.3123
5.3949 -0.5220 0.3105
5.4051 -0.3914 0.3114
5.4883 -0.2643 0.3166
5.5739 -0.1336 0.3222
5.6620 0.0011 0.3281
5.7531 0.1402 0.3344
5.8472 0.2840 0.3411
6.0167 0.4382 0.3525
6.4434 0.6261 0.3794
6.5080 0.7915 0.3852
6.4567 0.9442 0.3845
6.4058 1.0954 0.3840
6.3553 1.2455 0.3837
6.3466 1.4039 0.3862
6.2994 1.5540 0.3865
6.2517 1.7035 0.3870
6.2040 1.8527 0.3878
6.1564 2.0018 0.3887
6.1093 2.1510 0.3900
6.0813 2.3078 0.3926
6.0485 2.4642 0.3952
6.0050 2.6174 0.3974
5.9612 2.7716 0.3998
5.9171 2.9271 0.4025
5.8726 3.0839 0.4054
5.8288 3.2430 0.4087
5.7845 3.4040 0.4122
5.9078 3.6716 0.4282
6.0655 3.9759 0.4475
6.1415 4.2415 0.4616
6.3598 4.6232 0.4873
6.2015 4.7413 0.4849
6.0454 4.8579 0.4827
5.8912 4.9731 0.4809
5.7388 5.0870 0.4793
5.6943 5.2988 0.4872
5.7392 5.6054 0.5034
5.8099 5.9555 0.5231
5.9165 6.3657 0.5474
6.8085 7.6900 0.6482
6.6923 7.9373 0.6563
6.5951 8.2171 0.6673
6.5003 8.5127 0.6794
6.4023 8.8183 0.6924
6.4449 9.3440 0.7224
6.6077 10.0936 0.7689
6.2926 10.1389 0.7617
5.9492 10.1239 0.7506
5.7200 10.2958 0.7539
3.3985 6.4814 0.4691
5.6124 11.3632 0.8133
6.0703 13.0774 0.9263
5.7659 13.2512 0.9296
5.4135 13.3122 0.9254
5.0507 13.3349 0.9192
5.3566 15.2453 1.0426
4.3867 13.5214 0.9180
4.0729 13.6718 0.9221
3.7449 13.7796 0.9237
3.0076 12.2271 0.8151
3.0256 13.7225 0.9103
2.6667 13.6573 0.9020
2.3145 13.5925 0.8943
1.9683 13.5279 0.8871
1.6190 13.3924 0.8758
1.2764 13.2367 0.8636
2.6584 36.8830 2.4023
1.7656 36.9267 2.4023
0.8722 36.9511 2.4023
-0.0213 36.9563 2.4023
-0.9146 36.9420 2.4023
-1.8073 36.9084 2.4023
-2.3531 32.1303 2.0943
-3.5897 36.7832 2.4023
-3.9139 32.0659 2.0995
-5.3653 36.5809 2.4023
-5.9817 34.8866 2.2992
-6.8256 34.7439 2.2992
-7.6666 34.5828 2.2992
-8.5044 34.4034 2.2992
-9.3384 34.2057 2.2992
-10.2707 34.3313 2.3223
-11.1047 34.0949 2.3223
-11.9340 33.8403 2.3223
-12.7583 33.5676 2.3223
-10.4870 25.7027 1.7938
-14.1423 32.3996 2.2823
-14.8349 31.8626 2.2670
-15.8593 32.0167 2.3022
-15.9396 30.3137 2.2045
-17.5015 31.4161 2.3122
-9.4640 16.0624 1.1973
-18.2188 29.2790 2.2119
-18.4899 28.1729 2.1588
-18.7478 27.1136 2.1089
-19.1138 26.2625 2.0752
-19.5212 25.5030 2.0489
-19.9562 24.8052 2.0280
-20.3849 24.1203 2.0086
-20.7683 23.4023 1.9868
-21.1911 22.7466 1.9708
-21.6965 22.1888 1.9640
-22.2572 21.6878 1.9633
-22.9321 21.2893 1.9733
-23.7295 20.9849 1.9940
-24.7126 20.8118 2.0299
-21.0196 16.8505 1.6893
-27.5823 21.0369 2.1710
-24.4310 17.7161 1.8848
-29.6769 20.4442 2.2461
-30.7410 20.0994 2.2843
-31.7471 19.6786 2.3181
-10.2959 6.0425 0.7393
-10.4150 5.7786 0.7359
-33.3734 17.4756 2.3223
-33.8642 16.7024 2.3223
-34.3385 15.9165 2.3223
-34.7960 15.1179 2.3223
-29.8270 12.1108 1.9658
-21.1813 8.0097 1.3795
-29.7803 10.4459 1.9177
-29.7962 9.6494 1.8984
-29.6262 8.8092 1.8687
-26.9876 7.3198 1.6863
-18.1940 4.4656 1.1268
-28.5905 6.2889 1.7562
-28.1916 5.4905 1.7184
-28.1570 4.7806 1.7042
-28.2259 4.0932 1.6974
-28.4143 3.4217 1.6986
-28.5229 2.7373 1.6960
-28.6249 2.0505 1.6940
-28.6369 1.3568 1.6876
-28.5561 0.6620 1.6767
-13.8316 -0.0137 0.8097
-14.0057 -0.3524 0.8178
-29.1254 -1.4376 1.6975
-16.1985 -1.1925 0.9428
-29.2368 -2.8641 1.7005
-29.1831 -3.5726 1.6971
-29.0356 -4.2690 1.6892
-19.6871 -3.3824 1.1465
-28.6138 -5.6310 1.6691
-28.3542 -6.2951 1.6577
-28.1197 -6.9600 1.6487
-20.9574 -5.7279 1.2330
-20.5385 -6.1505 1.2133
-19.7491 -6.4379 1.1723
-24.1947 -8.5392 1.4440
-23.5979 -8.9754 1.4169
-23.2446 -9.4901 1.4052
-23.0586 -10.0707 1.4044
-22.9750 -10.7024 1.4108
-22.9159 -11.3565 1.4198
-22.9969 -12.0973 1.4386
-23.0541 -12.8479 1.4573
-23.2482 -13.7024 1.4862
-23.6873 -14.7436 1.5325
-17.0291 -11.1790 1.1160
-16.6499 -11.5152 1.1063
-26.2745 -19.1261 1.7715
-25.9193 -19.8429 1.7749
-13.1125 -10.5505 0.9129
-12.9601 -10.9554 1.1070
-23.4079 -20.7771 2.0377
-23.1477 -21.5681 2.0558
-20.9601 -20.4977 1.9014
-22.3829 -22.9728 2.0763
-22.0275 -23.7288 2.0921
-21.6372 -24.4681 2.1068
-21.2398 -25.2211 2.1231
-20.9431 -26.1243 2.1523
-19.1786 -25.1445 2.0294
-20.1787 -27.8246 2.2022
-19.1107 -27.7378 2.1547
-19.4083 -29.6797 2.2651
-18.8500 -30.4047 2.2816
-18.2554 -31.0986 2.2966
-17.6094 -31.7297 2.3080
-16.9462 -32.3527 2.3198
-16.1983 -32.8305 2.3223
-15.4193 -33.2526 2.3223
-14.6286 -33.6544 2.3223
-13.8268 -34.0356 2.3223
-5.0473 -13.3397 0.9007
-4.7316 -13.4805 0.9013
-4.4117 -13.6126 0.9019
-4.0878 -13.7357 0.9025
-3.7601 -13.8498 0.9030
-3.4289 -13.9547 0.9035
-3.1203 -14.1672 0.9114
-7.0105 -35.9422 2.2992
-6.1439 -36.1220 2.2992
-5.5087 -37.9054 2.4023
-4.5938 -38.0448 2.4023
-3.6750 -38.1598 2.4023
-2.7531 -38.2502 2.4023
-1.8290 -38.3159 2.4023
-0.7475 -31.7469 1.9883
0.0195 -31.7282 1.9863
0.7851 -31.6923 1.9845
1.8768 -38.3312 2.4023
2.6116 -35.6717 2.2391
2.5248 -25.8835 1.6282
4.4460 -36.4458 2.2991
5.3238 -36.3193 2.2991
5.5976 -32.6679 2.0765
5.8496 -29.7959 1.9031
5.8986 -26.6262 1.7099
6.1832 -25.0318 1.6174
5.5520 -20.3517 1.3240
5.7720 -19.3086 1.2656
6.0149 -18.4822 1.2215
6.3093 -17.9051 1.1939
5.4837 -14.4397 0.9721
5.2794 -12.9501 0.8809
5.2154 -11.9585 0.8225
5.5510 -11.9326 0.8306
5.8923 -11.9058 0.8392
5.6895 -10.8299 0.7737
5.6010 -10.0633 0.7292
5.7295 -9.7331 0.7159
5.7639 -9.2718 0.6929
5.7959 -8.8396 0.6717
5.8877 -8.5233 0.6592
5.9861 -8.2332 0.6486
6.0772 -7.9475 0.6384
6.1651 -7.6711 0.6290
6.2681 -7.4246 0.6219
6.3684 -7.1839 0.6155
6.4662 -6.9486 0.6095
6.5553 -6.7118 0.6034
6.6524 -6.4898 0.5988
6.6969 -6.2247 0.5901
5.0550 -4.4759 0.4366
5.0144 -4.2284 0.4249
5.0402 -4.0458 0.4195
5.0995 -3.8947 0.4172
5.1580 -3.7456 0.4153
5.2088 -3.5936 0.4131
5.1761 -3.3895 0.4047
5.1448 -3.1941 0.3969
5.1352 -3.0187 0.3913
5.1492 -2.8619 0.3878
5.1629 -2.7084 0.3846
5.1764 -2.5580 0.3817
5.2097 -2.4196 0.3805
5.2600 -2.2902 0.3809
2.7876 -1.1344 0.2003
5.3603 -2.0318 0.3823
5.5366 -1.9470 0.3923
5.6605 -1.8382 0.3987
5.6331 -1.6800 0.3947
5.6064 -1.5255 0.3911
5.5804 -1.3745 0.3877
5.5550 -1.2267 0.3847
5.5301 -1.0818 0.3819
5.5034 -0.9392 0.3793
5.4700 -0.7980 0.3764
5.4372 -0.6594 0.3739
5.4051 -0.5234 0.3715
5.4067 -0.3919 0.3718
5.4899 -0.2648 0.3778
5.5755 -0.1340 0.3843
5.6637 0.0007 0.3912
5.7548 0.1398 0.3986
5.8667 0.2845 0.4076
6.0640 0.4412 0.4229
6.5198 0.6330 0.4567
6.4908 0.7890 0.4570
6.4397 0.9412 0.4559
6.3890 1.0921 0.4551
6.3507 1.2442 0.4554
6.3443 1.4029 0.4583
6.2993 1.5535 0.4587
6.2515 1.7030 0.4591
6.2039 1.8522 0.4598
6.1562 2.0012 0.4608
6.1157 2.1528 0.4625
6.0877 2.3098 0.4655
6.0554 2.4665 0.4685
6.0119 2.6199 0.4709
5.9681 2.7743 0.4735
5.9240 2.9300 0.4765
5.8798 3.0872 0.4798
5.8360 3.2465 0.4835
5.7917 3.4077 0.4875
5.9149 3.6754 0.5062
6.0730 3.9803 0.5288
6.1242 4.2289 0.5431
6.3720 4.6314 0.5759
6.2133 4.7498 0.5728
6.0568 4.8665 0.5701
5.9023 4.9818 0.5678
5.7496 5.0959 0.5657
5.7172 5.3194 0.5760
5.7850 5.6495 0.5974
5.8580 6.0042 0.6208
6.9132 7.4372 0.7527
6.7995 7.6790 0.7615
6.6834 7.9259 0.7709
6.5848 8.2034 0.7833
6.4900 8.4983 0.7974
6.3919 8.8031 0.8124
6.4606 9.3658 0.8508
6.5539 10.0104 0.8958
6.2672 10.0970 0.8909
5.9162 10.0668 0.8764
5.6905 10.2416 0.8804
3.3983 6.4804 0.5505
5.7437 11.6280 0.9767
5.9653 12.8500 1.0680
5.6813 13.0557 1.0744
5.3421 13.1354 1.0710
5.8348 15.4038 1.2452
5.3564 15.2435 1.2224
5.7310 17.6635 1.4061
4.0214 13.4976 1.0672
3.6846 13.5567 1.0652
3.3232 13.5092 1.0555
2.9652 13.4476 1.0454
2.6141 13.3863 1.0360
2.2692 13.3251 1.0272
1.9301 13.2641 1.0191
1.5897 13.1483 1.0073
2.9007 30.0793 2.2991
2.2696 31.4856 2.4023
1.5075 31.5241 2.4023
0.7448 31.5459 2.4023
-0.0181 31.5509 2.4023
-0.7808 31.5391 2.4023
-1.5430 31.5105 2.4023
-2.3044 31.4651 2.4023
-3.0647 31.4029 2.4023
-3.8235 31.3241 2.4023
-4.5805 31.2284 2.4023
-5.3355 31.1161 2.4023
-5.8267 29.6575 2.2992
-6.5443 29.5182 2.2992
-7.2589 29.3631 2.2992
-7.9702 29.1921 2.2992
-8.6779 29.0054 2.2992
-9.3818 28.8031 2.2992
-10.1827 28.8721 2.3223
-10.8847 28.6361 2.3223
-10.4864 25.6996 2.1027
-12.2740 28.1174 2.3223
-12.9606 27.8348 2.3223
-13.6412 27.5368 2.3223
-14.3158 27.2235 2.3223
-14.9840 26.8949 2.3223
-9.4634 16.0602 1.4047
-16.2996 26.1926 2.3223
-16.7870 25.5762 2.3005
-17.2745 24.9807 2.2812
-17.7073 24.3278 2.2574
-18.1894 23.7610 2.2422
-18.6477 23.1767 2.2261
-19.0942 22.5909 2.2106
-19.5236 21.9976 2.1951
-19.9363 21.3976 2.1797
-20.3972 20.8579 2.1712
-20.8876 20.3511 2.1671
-21.3393 19.8086 2.1603
-21.8400 19.3119 2.1597
-22.2511 18.7368 2.1515
-21.0180 16.8473 1.9890
-22.9381 17.4927 2.1265
-23.2799 16.8793 2.1161
-23.5922 16.2505 2.1044
-23.9093 15.6305 2.0946
-24.2436 15.0255 2.0876
-10.2932 6.0400 0.8719
-10.4142 5.7774 0.8684
-25.0345 13.1069 2.0566
-25.1691 12.4118 2.0384
-25.2873 11.7190 2.0204
-25.5111 11.0818 2.0122
-25.8216 10.4824 2.0120
-21.1800 8.0075 1.6314
-26.3506 9.2409 2.0076
-26.5710 8.6029 2.0037
-26.6957 7.9358 1.9938
-26.7724 7.2593 1.9815
-18.1925 4.4638 1.3352
-26.5208 5.8316 1.9312
-26.4759 5.1543 1.9140
-26.4425 4.4875 1.8989
-26.4037 3.8270 1.8847
-26.3705 3.1736 1.8720
-26.3466 2.5265 1.8611
-26.2791 1.8805 1.8483
-26.1433 1.2367 1.8319
-26.0313 0.6015 1.8182
-13.8301 -0.0147 0.9635
-14.0044 -0.3534 0.9736
-25.9357 -1.2821 1.8005
-16.1878 -1.1929 1.1228
-26.3339 -2.5817 1.8260
-27.1497 -3.3258 1.8832
-27.4810 -4.0425 1.9078
-19.6852 -3.3835 1.3686
-27.0544 -5.3262 1.8849
-26.6522 -5.9193 1.8619
-26.2279 -6.4938 1.8383
-20.9550 -5.7289 1.4746
-20.5351 -6.1511 1.4516
-19.7470 -6.4388 1.4032
-22.6080 -7.9811 1.6160
-22.2610 -8.4687 1.6016
-22.0096 -8.9877 1.5950
-21.7145 -9.4855 1.5862
-21.6206 -10.0733 1.5930
-21.5657 -10.6893 1.6039
-21.4635 -11.2925 1.6125
-21.3954 -11.9254 1.6250
-21.3349 -12.5766 1.6394
-21.2832 -13.2492 1.6559
-17.0215 -11.1756 1.3421
-16.6475 -11.5150 1.3313
-22.3755 -16.2901 1.8165
-22.9810 -17.5958 1.8957
-13.1101 -10.5499 1.0999
-12.9582 -10.9551 1.2959
-21.1635 -18.7872 2.1576
-21.1786 -19.7356 2.2034
-20.9245 -20.4652 2.2242
-20.5996 -21.1449 2.2397
-20.1930 -21.7549 2.2485
-19.7863 -22.3773 2.2593
-19.4045 -23.0441 2.2753
-19.0093 -23.7145 2.2921
-18.5619 -24.3384 2.3051
-18.1121 -24.9775 2.3203
-17.5422 -25.4637 2.3223
-16.9439 -25.9135 2.3223
-16.3336 -26.3483 2.3223
-15.7114 -26.7675 2.3223
-15.0780 -27.1710 2.3223
-14.4336 -27.5583 2.3223
-13.7786 -27.9290 2.3223
-5.0269 -10.8418 0.8902
-4.7715 -10.9783 0.8908
-4.5122 -11.1080 0.8914
-4.2490 -11.2307 0.8920
-3.9822 -11.3462 0.8925
-3.7120 -11.4545 0.8930
-3.4386 -11.5554 0.8934
-3.1622 -11.6488 0.8939
-3.1095 -12.6562 0.9645
-3.1203 -14.1687 1.0730
-5.9541 -30.5290 2.2992
-5.4516 -32.0546 2.4023
-4.6779 -32.1911 2.4023
-3.9006 -32.3073 2.4023
-3.1202 -32.4030 2.4023
-2.3374 -32.4781 2.4023
-1.5527 -32.5327 2.4023
-0.7667 -32.5664 2.4023
0.0201 -32.5795 2.4023
0.7890 -31.8437 2.3486
1.5934 -32.5434 2.4023
2.3130 -31.5953 2.3359
2.6873 -27.5513 2.0413
2.5857 -21.1968 1.5749
4.5201 -30.8379 2.2991
5.2622 -30.7120 2.2991
5.8396 -29.7468 2.2374
5.8463 -26.3917 1.9958
6.0873 -24.6452 1.8750
5.7157 -20.9532 1.6050
5.7190 -19.1326 1.4764
6.0077 -18.4612 1.4362
6.3077 -17.9017 1.4050
5.4192 -14.2706 1.1307
5.2326 -12.8363 1.0275
5.1617 -11.8363 0.9579
5.4891 -11.8006 0.9663
5.8217 -11.7639 0.9753
5.6737 -10.8005 0.9074
5.5960 -10.0550 0.8567
5.6593 -9.6147 0.8314
5.6956 -9.1627 0.8048
5.7359 -8.7489 0.7813
5.8381 -8.4523 0.7680
5.9340 -8.1621 0.7554
6.0242 -7.8789 0.7433
6.1167 -7.6116 0.7328
6.2195 -7.3678 0.7245
6.3197 -7.1296 0.7169
6.4173 -6.8967 0.7098
6.4640 -6.6189 0.6981
6.5867 -6.4264 0.6954
6.6772 -6.2071 0.6899
5.0428 -4.4656 0.5106
5.0027 -4.2189 0.4968
5.0153 -4.0263 0.4890
5.0745 -3.8761 0.4863
5.1329 -3.7278 0.4840
5.1799 -3.5741 0.4809
5.1596 -3.3791 0.4721
5.1287 -3.1846 0.4629
5.1337 -3.0183 0.4575
5.1520 -2.8639 0.4536
5.1658 -2.7103 0.4498
5.1792 -2.5598 0.4462
5.2180 -2.4239 0.4452
5.2678 -2.2940 0.4455
2.7874 -1.1345 0.2338
5.3922 -2.0443 0.4488
5.5756 -1.9612 0.4609
5.6794 -1.8448 0.4666
5.6517 -1.6859 0.4617
5.6247 -1.5309 0.4573
5.5984 -1.3794 0.4532
5.5727 -1.2311 0.4495
5.5476 -1.0857 0.4461
5.5142 -0.9414 0.4424
5.4805 -0.7999 0.4389
5.4476 -0.6611 0.4357
5.4153 -0.5248 0.4329
5.4082 -0.3925 0.4323
5.4915 -0.2653 0.4392
5.5771 -0.1345 0.4466
5.6654 0.0003 0.4544
5.7565 0.1394 0.4628
5.9116 0.2862 0.4767
6.1120 0.4442 0.4946
6.5249 0.6330 0.5302
6.4736 0.7864 0.5284
6.4228 0.9382 0.5270
6.3723 1.0887 0.5260
6.3483 1.2432 0.5274
6.3419 1.4019 0.5305
6.2992 1.5530 0.5310
6.2514 1.7025 0.5313
6.2037 1.8517 0.5320
6.1561 2.0007 0.5329
6.1221 2.1545 0.5353
6.0941 2.3117 0.5386
6.0624 2.4688 0.5420
6.0188 2.6224 0.5446
5.9750 2.7770 0.5475
5.9308 2.9328 0.5508
5.8871 3.0905 0.5545
5.8433 3.2500 0.5586
5.7989 3.4114 0.5631
5.9220 3.6793 0.5845
6.0563 3.9688 0.6081
6.1070 4.2165 0.6243
6.3836 4.6393 0.6649
6.2248 4.7580 0.6612
6.0682 4.8751 0.6580
5.9135 4.9906 0.6551
5.7604 5.1049 0.6526
5.7618 5.3603 0.6682
5.8325 5.6952 0.6932
5.9087 6.0555 0.7205
6.9042 7.4267 0.8647
6.7905 7.6681 0.8746
6.6744 7.9145 0.8852
6.5744 8.1897 0.8991
6.4796 8.4839 0.9151
6.3900 8.7996 0.9333
6.4763 9.3877 0.9800
6.5009 9.9285 1.0209
6.2435 10.0578 1.0195
5.8883 10.0184 1.0018
5.6714 10.2064 1.0076
3.3980 6.4793 0.6320
6.1214 12.3915 1.1950
5.8538 12.6086 1.2030
5.5824 12.8273 1.2117
6.1483 15.1163 1.4146
5.8534 15.4514 1.4334
5.3563 15.2417 1.4025
5.7129 17.6063 1.6080
5.4289 18.2201 1.6527
3.6148 13.2985 1.1987
3.2575 13.2407 1.1867
2.9071 13.1830 1.1755
2.5633 13.1254 1.1650
2.2255 13.0677 1.1552
1.8933 13.0099 1.1462
1.5613 12.9126 1.1343
2.6098 27.0596 2.3715
1.9797 27.4602 2.4023
1.3150 27.4947 2.4023
0.6497 27.5143 2.4023
-0.0157 27.5191 2.4023
-0.6810 27.5090 2.4023
-1.3458 27.4841 2.4023
-2.0100 27.4444 2.4023
-2.6732 27.3899 2.4023
-3.3350 27.3206 2.4023
-3.9952 27.2365 2.4023
-4.6536 27.1377 2.4023
-5.3097 27.0243 2.4023
-5.7074 25.7420 2.2992
-6.3303 25.6054 2.2992
-6.9503 25.4548 2.2992
-5.9401 19.8531 1.8049
-8.1801 25.1121 2.2992
-8.7895 24.9202 2.2992
-9.3947 24.7144 2.2992
-10.0960 24.7411 2.3223
-10.6983 24.5059 2.3223
-11.2955 24.2571 2.3223
-11.8875 23.9947 2.3223
-12.4739 23.7189 2.3223
-13.0545 23.4298 2.3223
-9.4629 16.0579 1.6125
-14.1970 22.8120 2.3223
-14.7584 22.4834 2.3223
-15.3128 22.1420 2.3223
-15.8599 21.7878 2.3223
-16.3966 21.4172 2.3219
-16.9209 21.0286 2.3209
-17.4291 20.6190 2.3189
-17.8890 20.1540 2.3118
-18.3394 19.6818 2.3050
-18.7108 19.1315 2.2900
-19.0255 18.5349 2.2700
-19.3138 17.9265 2.2491
-19.5808 17.3123 2.2277
-19.8607 16.7220 2.2098
-20.1765 16.1708 2.1976
-20.5277 15.6526 2.1908
-20.8515 15.1167 2.1824
-21.1526 14.5681 2.1731
-21.4674 14.0323 2.1666
-21.7798 13.4966 2.1611
-10.2905 6.0376 1.0047
-10.4135 5.7761 1.0011
-22.7134 11.8898 2.1517
-23.0464 11.3631 2.1529
-23.3980 10.8415 2.1569
-23.6368 10.2657 2.1516
-23.8430 9.6773 2.1446
-21.1786 8.0053 1.8836
-24.4410 8.5693 2.1508
-24.7001 7.9952 2.1520
-24.9040 7.4013 2.1495
-24.9745 6.7699 2.1368
-18.1910 4.4621 1.5438
-25.1072 5.5188 2.1148
-25.0910 4.8828 2.0988
-25.0432 4.2481 2.0815
-25.0250 3.6253 2.0681
-25.0323 3.0107 2.0580
-24.9781 2.3934 2.0441
-24.8373 1.7754 2.0244
-24.7719 1.1700 2.0122
-24.5718 0.5660 1.9902
-13.8286 -0.0157 1.1175
-14.0030 -0.3544 1.1296
-24.2164 -1.1989 1.9514
-16.1770 -1.1933 1.3028
-24.3531 -2.3894 1.9614
-24.5292 -3.0066 1.9768
-24.7576 -3.6438 1.9976
-19.6833 -3.3847 1.5911
-24.8218 -4.8886 2.0113
-24.5998 -5.4654 1.9993
-23.9841 -5.9401 1.9564
-20.9527 -5.7299 1.7164
-20.5317 -6.1517 1.6902
-19.7448 -6.4397 1.6345
-21.4487 -7.5735 1.7866
-21.1657 -8.0538 1.7752
-20.9171 -8.5432 1.7676
-20.7044 -9.0460 1.7641
-20.5517 -9.5771 1.7669
-20.4407 -10.1334 1.7744
-20.2868 -10.6752 1.7795
-20.1200 -11.2163 1.7847
-19.9962 -11.7893 1.7951
-19.8653 -12.3683 1.8063
-17.0139 -11.1722 1.5682
-16.6450 -11.5149 1.5566
-19.7933 -14.4120 1.8796
-19.2245 -14.7214 1.8556
-13.1077 -10.5492 1.2872
-12.9563 -10.9548 1.4850
-18.5329 -16.4539 2.1660
-17.1918 -16.0223 2.0509
-18.3082 -17.9083 2.2319
-18.0766 -18.5571 2.2545
-17.8073 -19.1868 2.2750
-17.4921 -19.7848 2.2920
-17.0794 -20.2850 2.2985
-16.6589 -20.7845 2.3059
-16.1791 -21.2162 2.3069
-15.7721 -21.7527 2.3204
-15.2729 -22.1719 2.3223
-14.7496 -22.5597 2.3223
-14.2160 -22.9345 2.3223
-13.6724 -23.2957 2.3223
-13.1191 -23.6433 2.3223
-12.5566 -23.9767 2.3223
-11.9852 -24.2958 2.3223
-5.0189 -10.8255 1.0220
-4.7057 -10.8278 1.0103
-4.3988 -10.8300 0.9995
-4.0978 -10.8322 0.9895
-3.8022 -10.8343 0.9803
-3.5114 -10.8365 0.9718
-3.2250 -10.8385 0.9641
-3.1008 -11.4234 1.0086
-3.1096 -12.6575 1.1099
-3.1204 -14.1701 1.2350
-5.4051 -27.7167 2.4023
-4.7362 -27.8510 2.4023
-4.0638 -27.9681 2.4023
-3.3884 -28.0676 2.4023
-2.7103 -28.1495 2.4023
-2.0302 -28.2137 2.4023
-1.3486 -28.2602 2.4023
-0.6658 -28.2889 2.4023
0.0175 -28.2998 2.4023
0.7010 -28.2928 2.4023
1.3841 -28.2680 2.4023
2.0663 -28.2255 2.4023
2.6290 -26.9546 2.2991
2.5688 -21.0593 1.8012
2.8031 -19.1249 1.6414
4.5711 -26.6798 2.2991
5.2127 -26.5546 2.2991
5.8506 -26.4128 2.2991
5.9383 -24.0434 2.1054
5.7473 -21.0704 1.8575
5.7406 -19.2061 1.7056
6.0124 -18.4770 1.6541
6.3110 -17.9123 1.6176
5.3332 -14.0451 1.2804
5.1337 -12.5945 1.1598
5.1110 -11.7208 1.0911
5.4347 -11.6846 1.1005
5.7635 -11.6472 1.1106
5.6573 -10.7701 1.0405
5.5794 -10.0261 0.9822
5.5907 -9.4988 0.9443
5.6288 -9.0559 0.9144
5.6871 -8.6751 0.8904
5.7879 -8.3802 0.8751
5.8817 -8.0910 0.8603
5.9721 -7.8115 0.8466
6.0690 -7.5530 0.8352
6.1717 -7.3117 0.8257
6.2716 -7.0761 0.8169
6.3287 -6.8022 0.8037
6.3956 -6.5496 0.7929
6.5184 -6.3604 0.7898
6.6396 -6.1728 0.7872
5.0306 -4.4553 0.5843
4.9910 -4.2095 0.5685
4.9921 -4.0082 0.5582
5.0497 -3.8576 0.5549
5.1079 -3.7102 0.5521
5.1505 -3.5543 0.5480
5.1432 -3.3688 0.5392
5.1127 -3.1751 0.5287
5.1249 -3.0135 0.5230
5.1549 -2.8659 0.5197
5.1686 -2.7122 0.5152
5.1820 -2.5616 0.5110
5.2265 -2.4282 0.5103
5.2757 -2.2978 0.5104
2.7871 -1.1347 0.2673
5.4262 -2.0576 0.5164
5.6152 -1.9755 0.5306
5.6985 -1.8514 0.5350
5.6704 -1.6920 0.5293
5.6431 -1.5364 0.5241
5.6166 -1.3843 0.5192
5.5906 -1.2355 0.5148
5.5595 -1.0884 0.5103
5.5249 -0.9437 0.5058
5.4911 -0.8019 0.5017
5.4580 -0.6628 0.4979
5.4256 -0.5262 0.4945
5.4098 -0.3930 0.4930
5.4931 -0.2658 0.5007
5.5788 -0.1350 0.5090
5.6671 -0.0001 0.5178
5.7673 0.1393 0.5281
5.9573 0.2880 0.5470
6.1609 0.4473 0.5675
6.5076 0.6309 0.6017
6.4565 0.7838 0.5997
6.4059 0.9352 0.5979
6.3556 1.0854 0.5966
6.3460 1.2423 0.5994
6.3396 1.4009 0.6028
6.2990 1.5525 0.6034
6.2513 1.7019 0.6036
6.2036 1.8511 0.6042
6.1563 2.0003 0.6052
6.1285 2.1563 0.6084
6.1006 2.3136 0.6120
6.0693 2.4712 0.6157
6.0257 2.6249 0.6186
5.9819 2.7797 0.6218
5.9377 2.9358 0.6254
5.8943 3.0938 0.6295
5.8505 3.2535 0.6341
5.8062 3.4152 0.6390
5.9292 3.6832 0.6632
6.0397 3.9574 0.6871
6.0898 4.2040 0.7052
6.3908 4.6439 0.7539
6.2318 4.7627 0.7496
6.0750 4.8799 0.7457
5.9201 4.9957 0.7423
5.7670 5.1102 0.7394
5.8124 5.4068 0.7628
5.8856 5.7464 0.7914
5.9646 6.1121 0.8227
6.8951 7.4162 0.9767
6.7815 7.6571 0.9877
6.6655 7.9031 0.9995
6.5641 8.1760 1.0148
6.4693 8.4695 1.0327
6.3980 8.8097 1.0561
6.4929 9.4108 1.1102
6.4763 9.8899 1.1490
6.2223 10.0228 1.1478
5.8693 9.9851 1.1279
5.6570 10.1796 1.1351
3.3978 6.4782 0.7136
6.9056 13.9778 1.5222
6.7077 14.4466 1.5564
6.4732 14.8728 1.5862
6.1839 15.2024 1.6061
5.9294 15.6506 1.6389
5.3561 15.2399 1.5829
5.7033 17.5752 1.8117
5.3535 17.9655 1.8391
5.5895 20.5616 2.0915
5.2982 21.5340 2.1778
4.9459 22.4264 2.2563
2.5145 12.8740 1.2893
2.1835 12.8195 1.2787
1.8578 12.7649 1.2688
1.5339 12.6848 1.2571
2.3437 24.2978 2.4023
1.7551 24.3422 2.4023
1.1658 24.3732 2.4023
0.5761 24.3911 2.4023
-0.0138 24.3956 2.4023
-0.6036 24.3868 2.4023
-1.1931 24.3648 2.4023
-1.7819 24.3295 2.4023
-2.3699 24.2809 2.4023
-2.9566 24.2192 2.4023
-3.5418 24.1442 2.4023
-4.1254 24.0560 2.4023
-4.7069 23.9547 2.4023
-5.2861 23.8404 2.4023
-5.6113 22.6953 2.2992
-6.1605 22.5609 2.2992
-5.9376 19.8433 2.0355
-7.2499 22.2549 2.2992
-7.7895 22.0834 2.2992
-8.3253 21.8996 2.2992
-8.8572 21.7038 2.2992
-9.3849 21.4958 2.2992
-10.0075 21.4895 2.3223
-10.5311 21.2553 2.3223
-11.0496 21.0091 2.3223
-11.5629 20.7510 2.3223
-9.4623 16.0557 1.8205
-12.5723 20.1997 2.3223
-13.0680 19.9066 2.3223
-13.5574 19.6021 2.3223
-14.0402 19.2862 2.3223
-14.5161 18.9592 2.3223
-14.9850 18.6210 2.3223
-15.4465 18.2718 2.3223
-15.9005 17.9119 2.3223
-16.3465 17.5413 2.3223
-16.7237 17.0980 2.3139
-17.0888 16.6465 2.3054
-17.4258 16.1723 2.2947
-17.7150 15.6610 2.2795
-18.0188 15.1695 2.2679
-18.3346 14.6929 2.2594
-18.6437 14.2144 2.2516
-18.9318 13.7232 2.2426
-19.2100 13.2286 2.2340
-19.4837 12.7339 2.2263
-19.7779 12.2544 2.2223
-10.2878 6.0351 1.1376
-10.4128 5.7748 1.1340
-20.7421 10.8562 2.2264
-21.0673 10.3856 2.2303
-21.4090 9.9182 2.2370
-21.7449 9.4423 2.2441
-22.0750 8.9579 2.2516
-21.1773 8.0032 2.1363
-22.6027 7.9230 2.2565
-22.7937 7.3763 2.2534
-22.9669 6.8238 2.2499
-23.0891 6.2570 2.2426
-18.1895 4.4603 1.7528
-23.2669 5.1126 2.2258
-23.3222 4.5368 2.2161
-23.3331 3.9563 2.2036
-23.3239 3.3771 2.1906
-23.2658 2.7965 2.1744
-23.2126 2.2225 2.1600
-23.1192 1.6509 2.1432
-23.0275 1.0859 2.1278
-22.9409 0.5267 2.1143
-13.8271 -0.0168 1.2717
-14.0016 -0.3554 1.2859
-22.6992 -1.1255 2.0828
-16.1663 -1.1938 1.4829
-22.6614 -2.2251 2.0793
-22.7243 -2.7871 2.0869
-22.7979 -3.3571 2.0967
-19.6814 -3.3859 1.8138
-22.7012 -4.4727 2.0977
-22.4457 -4.9886 2.0809
-22.1478 -5.4871 2.0613
-20.9503 -5.7309 1.9587
-20.5283 -6.1524 1.9291
-19.7427 -6.4406 1.8661
-20.4167 -7.2108 1.9423
-20.1858 -7.6826 1.9340
-19.9676 -8.1571 1.9281
-19.7532 -8.6321 1.9237
-19.5537 -9.1136 1.9218
-19.3287 -9.5837 1.9187
-19.1408 -10.0738 1.9204
-18.9085 -10.5425 1.9189
-18.7532 -11.0581 1.9265
-18.5796 -11.5695 1.9337
-17.0063 -11.1688 1.7946
-16.6425 -11.5147 1.7822
-18.3909 -13.3927 2.0004
-18.3653 -14.0653 2.0308
-13.1053 -10.5486 1.4747
-12.9544 -10.9545 1.6745
-16.8260 -14.9402 2.2181
-16.6748 -15.5422 2.2441
-16.4283 -16.0712 2.2597
-16.1065 -16.5365 2.2669
-15.7929 -17.0181 2.2772
-15.5409 -17.5797 2.2987
-15.2068 -18.0628 2.3105
-14.8300 -18.5045 2.3179
-14.4221 -18.9140 2.3223
-13.9759 -19.2773 2.3223
-13.5203 -19.6295 2.3223
-13.0554 -19.9703 2.3223
-12.5815 -20.2995 2.3223
-12.0989 -20.6167 2.3223
-11.6080 -20.9218 2.3223
-11.1090 -21.2145 2.3223
-10.6023 -21.4945 2.3223
-5.0182 -10.8249 1.1552
-4.7050 -10.8272 1.1421
-4.3982 -10.8295 1.1300
-4.0973 -10.8317 1.1188
-3.8016 -10.8338 1.1085
-3.5109 -10.8359 1.0990
-3.2245 -10.8380 1.0904
-3.1008 -11.4246 1.1409
-3.1096 -12.6587 1.2557
-3.1204 -14.1716 1.3972
-4.7772 -24.4992 2.4023
-4.1858 -24.6168 2.4023
-3.5914 -24.7191 2.4023
-2.9943 -24.8061 2.4023
-2.3950 -24.8777 2.4023
-1.7940 -24.9337 2.4023
-1.1916 -24.9742 2.4023
-0.5883 -24.9991 2.4023
0.0156 -25.0084 2.4023
0.6195 -25.0021 2.4023
1.2231 -24.9802 2.4023
1.8259 -24.9426 2.4023
2.3531 -24.1266 2.3287
2.7327 -22.4036 2.1684
2.6269 -17.9235 1.7407
4.0395 -23.5783 2.2991
4.6066 -23.4685 2.2991
5.1705 -23.3440 2.2991
5.7309 -23.2050 2.2991
6.2489 -22.9108 2.2850
5.7893 -19.3703 1.9461
6.0460 -18.5815 1.8818
6.3010 -17.8851 1.8270
5.2912 -13.9357 1.4369
5.0507 -12.3918 1.2907
5.0611 -11.6073 1.2220
5.3813 -11.5706 1.2323
5.6372 -11.3930 1.2283
5.6409 -10.7398 1.1731
5.5574 -9.9873 1.1061
5.5450 -9.4221 1.0588
5.5634 -8.9515 1.0216
5.6386 -8.6020 0.9978
5.7364 -8.3064 0.9801
5.8303 -8.0210 0.9637
5.9208 -7.7451 0.9483
6.0220 -7.4951 0.9362
6.1244 -7.2564 0.9255
6.1917 -6.9866 0.9109
6.2411 -6.7087 0.8950
6.3295 -6.4825 0.8859
6.4514 -6.2956 0.8825
6.5716 -6.1102 0.8795
5.0141 -4.4411 0.6573
4.9793 -4.2001 0.6400
4.9826 -4.0010 0.6286
5.0251 -3.8392 0.6229
5.0832 -3.6926 0.6196
5.1214 -3.5347 0.6145
5.1268 -3.3585 0.6061
5.0968 -3.1656 0.5941
5.1161 -3.0088 0.5885
5.1577 -2.8679 0.5860
5.1714 -2.7141 0.5807
5.1889 -2.5654 0.5764
5.2350 -2.4326 0.5757
5.2836 -2.3017 0.5756
2.7869 -1.1348 0.3010
5.4606 -2.0712 0.5850
5.6554 -1.9901 0.6015
5.7177 -1.8581 0.6041
5.6894 -1.6981 0.5975
5.6618 -1.5419 0.5914
5.6349 -1.3893 0.5858
5.6060 -1.2393 0.5805
5.5705 -1.0910 0.5748
5.5357 -0.9459 0.5696
5.5018 -0.8038 0.5648
5.4685 -0.6645 0.5605
5.4359 -0.5276 0.5566
5.4113 -0.3935 0.5538
5.4947 -0.2663 0.5624
5.5804 -0.1354 0.5716
5.6688 -0.0006 0.5814
5.8108 0.1399 0.5971
6.0038 0.2898 0.6185
6.2108 0.4504 0.6417
6.4903 0.6287 0.6731
6.4395 0.7813 0.6706
6.3890 0.9323 0.6686
6.3500 1.0839 0.6681
6.3437 1.2413 0.6715
6.3372 1.3999 0.6752
6.2989 1.5519 0.6760
6.2511 1.7014 0.6761
6.2035 1.8506 0.6766
6.1628 2.0019 0.6783
6.1350 2.1581 0.6818
6.1070 2.3156 0.6858
6.0764 2.4735 0.6899
6.0327 2.6275 0.6929
5.9888 2.7825 0.6964
5.9450 2.9389 0.7004
5.9016 3.0971 0.7049
5.8578 3.2570 0.7099
5.8135 3.4189 0.7153
5.9364 3.6872 0.7422
6.0231 3.9459 0.7657
6.0727 4.1917 0.7857
6.3981 4.6485 0.8432
6.2388 4.7674 0.8383
6.0818 4.8847 0.8338
5.9267 5.0006 0.8299
5.7734 5.1152 0.8265
5.8640 5.4542 0.8592
5.9398 5.7987 0.8916
6.0216 6.1699 0.9270
6.8783 7.3973 1.0873
6.7726 7.6462 1.1007
6.6566 7.8917 1.1137
6.5538 8.1624 1.1304
6.4590 8.4551 1.1501
6.4060 8.8199 1.1794
6.5108 9.4358 1.2415
6.4655 9.8726 1.2792
6.1963 9.9800 1.2745
5.8509 9.9529 1.2536
5.6431 10.1536 1.2624
3.3975 6.4772 0.7955
6.9257 14.0172 1.7016
6.7276 14.4882 1.7398
6.5081 14.9515 1.7772
6.2200 15.2898 1.8002
6.0260 15.9043 1.8560
5.3560 15.2381 1.7636
5.6931 17.5419 2.0149
5.3150 17.8346 2.0342
5.3391 19.6386 2.2256
5.0210 20.4056 2.2991
4.5243 20.5127 2.2991
4.0255 20.6084 2.2991
3.5248 20.6928 2.2991
3.0225 20.7657 2.2991
2.5805 21.3377 2.3554
2.1044 21.8148 2.4023
1.5760 21.8551 2.4023
1.0469 21.8834 2.4023
0.5174 21.8997 2.4023
-0.0123 21.9039 2.4023
-0.5420 21.8962 2.4023
-1.0712 21.8764 2.4023
-1.6000 21.8447 2.4023
-2.1279 21.8010 2.4023
-2.6547 21.7453 2.4023
-3.1801 21.6776 2.4023
-3.7040 21.5980 2.4023
-4.2261 21.5066 2.4023
-4.7460 21.4033 2.4023
-5.2637 21.2882 2.4023
