ply
format ascii 1.0
element vertex 2050
property float32 x
property float32 y
property float32 z
end_header
-14.7145 41.7377 -1.8545
-22.9731 60.4628 -2.7096
-17.3804 42.6124 -1.9273
-12.5968 28.8689 -1.3186
-12.9968 27.9247 -1.2890
-12.9035 26.0590 -1.2165
-10.0845 19.1856 -0.9065
-13.4874 24.2199 -1.1590
-13.2698 22.5304 -1.0928
-14.5625 23.4123 -1.1519
-15.4643 23.5724 -1.1774
-11.5442 16.7026 -0.8476
-11.5771 15.9138 -0.8213
-11.1379 14.5573 -0.7647
-15.2570 18.9727 -1.0153
-15.9103 18.8344 -1.0278
-16.3473 18.4293 -1.0266
-10.8149 11.6144 -0.6611
-11.1073 11.3649 -0.6617
-11.4012 11.1152 -0.6628
-11.6385 10.8105 -0.6610
-11.8751 10.5073 -0.6595
-11.9888 10.1021 -0.6519
-8.5644 6.8696 -0.4563
-8.7744 6.6962 -0.4586
-8.9876 6.5213 -0.4612
-9.2042 6.3447 -0.4641
-9.3793 6.1365 -0.4652
-9.4766 5.8782 -0.4626
-9.5743 5.6230 -0.4605
-9.6723 5.3705 -0.4586
-9.7708 5.1204 -0.4571
-9.8701 4.8721 -0.4560
-9.9580 4.6197 -0.4546
-10.0006 4.3489 -0.4514
-10.0434 4.0819 -0.4486
-10.0867 3.8182 -0.4461
-9.9898 3.5080 -0.4378
-9.8247 3.1855 -0.4269
-29.4863 8.7791 -1.2713
-45.9743 12.4870 -1.9679
-47.3589 11.6419 -2.0138
-21.3673 4.7082 -0.9032
-12.9801 2.5328 -0.5457
-13.0601 2.2223 -0.5465
-22.4817 3.2687 -0.9369
-16.7666 2.0254 -0.6962
-16.7514 1.6139 -0.6936
-20.8694 1.5027 -0.8621
-10.3485 0.4942 -0.4267
-10.6624 0.2512 -0.4392
-10.8995 -0.0067 -0.4487
-10.9689 -0.2719 -0.4515
-11.0402 -0.5408 -0.4547
-11.1136 -0.8140 -0.4583
-11.1387 -1.0870 -0.4602
-11.1497 -1.3608 -0.4617
-11.1622 -1.6369 -0.4636
-11.1761 -1.9159 -0.4659
-11.1917 -2.1981 -0.4685
-11.2088 -2.4842 -0.4715
-11.0957 -2.7420 -0.4693
-10.9687 -2.9936 -0.4667
-10.8437 -3.2430 -0.4645
-10.7208 -3.4906 -0.4626
-39.5721 -13.9506 -1.7213
-30.6478 -11.6444 -1.3447
-24.4290 -9.9636 -1.0819
-24.0885 -10.5105 -1.0776
-23.7523 -11.0545 -1.0740
-23.1394 -11.4574 -1.0584
-22.3017 -11.7219 -1.0326
-21.4759 -11.9590 -1.0073
-15.9289 -9.3813 -0.7574
-19.2865 -11.9957 -0.9305
-36.8864 -24.1977 -1.8071
-39.0016 -26.9554 -1.9418
-37.0115 -26.9244 -1.8744
-14.9779 -11.4593 -0.7723
-16.1471 -12.9842 -0.8484
-14.3114 -12.0889 -0.5592
-15.4191 -13.6765 -0.6152
-29.6921 -27.6469 -1.2108
-27.2135 -26.5952 -1.1356
-26.5563 -27.2383 -1.1352
-18.3065 -19.7076 -0.8027
-18.7915 -21.2366 -0.8462
-18.6265 -22.1041 -0.8626
-15.7823 -19.6746 -0.7527
-15.1639 -19.8688 -0.7459
-14.7716 -20.3566 -0.7506
-15.7307 -22.8187 -0.8271
-17.0596 -26.0728 -0.9299
-16.7007 -26.9224 -0.9456
-14.3084 -24.3610 -0.8433
-14.0523 -25.3061 -0.8641
-17.5938 -33.5701 -1.1316
-16.7825 -33.9956 -1.1320
-17.3752 -37.4499 -1.2329
-16.5807 -38.1242 -1.2417
-13.1631 -32.3840 -1.0442
-12.6303 -33.3624 -1.0658
-11.9915 -34.1448 -1.0814
-11.1983 -34.5336 -1.0850
-10.3736 -34.8380 -1.0866
-18.4631 -67.9681 -2.1059
-18.5066 -75.2732 -2.3182
-14.8216 -67.2548 -2.0601
-13.1510 -67.3828 -2.0542
-11.4547 -67.3030 -2.0433
-9.7911 -67.3268 -2.0368
-8.1507 -67.4544 -2.0347
-6.4935 -67.3740 -2.0275
-4.8734 -67.6473 -2.0322
-3.2367 -67.7314 -2.0324
-1.5969 -67.6942 -2.0302
0.0371 -63.9728 -1.9187
1.5689 -63.3856 -1.9023
2.8040 -57.2828 -1.7213
4.1748 -57.0270 -1.7167
3.6522 -37.4388 -1.1298
4.3644 -35.7712 -1.0827
5.1282 -34.9778 -1.0626
6.0265 -35.1627 -1.0727
6.8857 -35.0639 -1.0749
7.1342 -32.1944 -0.9923
5.8823 -23.8063 -0.7383
6.2534 -22.9154 -0.7154
4.6974 -15.7086 -0.4940
4.8726 -14.9671 -0.4745
4.9965 -14.1745 -0.4532
7.0852 -18.6497 -0.6019
7.4558 -18.2820 -0.5960
7.8681 -18.0338 -0.5942
8.2684 -17.7671 -0.5921
9.0446 -18.2678 -0.6162
9.2199 -17.5425 -0.5993
9.0833 -16.3129 -0.5649
3.6515 -6.2004 -0.2178
3.9772 -6.3948 -0.2281
4.3015 -6.5574 -0.2376
4.5910 -6.6431 -0.2448
4.8987 -6.7344 -0.2526
5.2268 -6.8321 -0.2610
5.5778 -6.9369 -0.2702
5.9548 -7.0498 -0.2803
6.3611 -7.1719 -0.2913
6.6446 -7.1365 -0.2965
6.7892 -6.9473 -0.2955
6.9349 -6.7615 -0.2948
7.0798 -6.5767 -0.2943
7.2241 -6.3926 -0.2939
7.3678 -6.2089 -0.2937
6.8990 -5.5343 -0.2698
6.6335 -5.0628 -0.2546
6.6374 -4.8165 -0.2504
6.6412 -4.5785 -0.2464
6.6451 -4.3481 -0.2427
6.7461 -4.1849 -0.2427
6.9672 -4.0923 -0.2472
7.1968 -3.9965 -0.2520
7.4359 -3.8972 -0.2571
7.7297 -3.8160 -0.2641
8.1129 -3.7642 -0.2741
6.6092 -2.8745 -0.2210
6.2773 -2.5516 -0.2079
6.0585 -2.2937 -0.1989
6.0069 -2.1097 -0.1955
5.9779 -1.9385 -0.1931
5.9467 -1.7708 -0.1907
5.8933 -1.6009 -0.1878
5.8415 -1.4362 -0.1851
5.8004 -1.2783 -0.1828
5.7822 -1.1285 -0.1814
5.7741 -0.9828 -0.1805
5.7703 -0.8392 -0.1797
5.7773 -0.6981 -0.1795
5.7843 -0.5575 -0.1793
5.7796 -0.4164 -0.1788
5.7495 -0.2748 -0.1777
5.7198 -0.1349 -0.1767
5.8777 0.0034 -0.1816
6.0924 0.1508 -0.1884
6.2685 0.3068 -0.1941
6.4162 0.4697 -0.1990
6.5341 0.6374 -0.2032
6.6420 0.8104 -0.2071
6.7544 0.9903 -0.2114
6.8907 1.1810 -0.2166
7.1043 1.3951 -0.2243
6.6981 1.4843 -0.2126
6.4962 1.6052 -0.2075
6.2707 1.7112 -0.2016
6.0575 1.8114 -0.1961
5.8556 1.9064 -0.1911
5.6797 2.0021 -0.1869
5.6708 2.1544 -0.1883
5.6618 2.3091 -0.1899
5.6527 2.4663 -0.1916
5.6433 2.6263 -0.1934
5.6338 2.7894 -0.1953
5.6241 2.9560 -0.1975
5.6852 3.1657 -0.2023
5.9048 3.4775 -0.2131
6.1635 3.8334 -0.2257
6.2916 4.1272 -0.2340
6.3911 4.4170 -0.2416
6.4861 4.7183 -0.2495
6.5270 4.9936 -0.2557
6.5447 5.2627 -0.2613
6.5770 5.5556 -0.2679
6.6296 5.8803 -0.2758
6.6968 6.2354 -0.2848
6.7991 6.6446 -0.2959
7.8394 8.0407 -0.3495
7.5088 8.0835 -0.3434
7.0906 8.0131 -0.3330
6.6556 7.8982 -0.3215
6.3843 7.9589 -0.3176
6.1803 8.0980 -0.3171
6.0734 8.3698 -0.3219
5.9428 8.6206 -0.3259
5.6409 8.6214 -0.3206
5.3291 8.5909 -0.3146
5.1957 8.8461 -0.3192
5.2398 9.4363 -0.3358
5.4698 10.4371 -0.3666
5.5364 11.2152 -0.3891
5.4691 11.7883 -0.4042
5.3963 12.4082 -0.4208
6.1832 15.2125 -0.5106
6.0635 16.0170 -0.5325
6.1951 17.6409 -0.5812
5.8486 18.0371 -0.5893
5.6623 19.0170 -0.6165
6.4421 23.7167 -0.7635
2.9163 11.8628 -0.3794
5.8983 26.7666 -0.8511
5.2298 26.7992 -0.8477
4.6351 27.2371 -0.8575
3.5973 24.7397 -0.7757
2.7516 28.5567 -0.8897
2.1053 29.2333 -0.9087
-4.4137 60.2671 -1.8699
-5.7810 59.2440 -1.8413
-7.1669 58.7269 -1.8294
-8.6895 59.2567 -1.8512
-10.0732 58.7631 -1.8421
-10.3271 52.5804 -1.6550
-11.4284 51.5653 -1.6306
-11.1065 44.9429 -1.4287
-11.8855 43.5485 -1.3925
-13.2885 44.4326 -1.4301
-9.4991 29.1746 -0.9457
-15.4382 43.7914 -1.4306
-21.9505 57.7727 -1.9032
-12.4180 30.4463 -1.0122
-13.1304 30.0924 -1.0102
-12.5223 26.9055 -0.9127
-13.4489 27.1608 -0.9317
-9.7059 18.4656 -0.6410
-10.0750 18.0924 -0.6360
-10.4396 17.7254 -0.6315
-10.6944 17.1939 -0.6213
-10.8343 16.5151 -0.6057
-10.8865 15.7512 -0.5869
-10.8890 14.9682 -0.5671
-15.4133 20.1454 -0.7767
-16.4073 20.4035 -0.8013
-17.2977 20.4770 -0.8200
-16.1972 18.2603 -0.7463
-17.1419 18.4094 -0.7687
-10.8820 11.1346 -0.4756
-11.1452 10.8658 -0.4752
-11.3612 10.5531 -0.4732
-11.4164 10.1016 -0.4649
-11.4651 9.6610 -0.4570
-8.2513 6.6186 -0.3223
-8.4520 6.4502 -0.3238
-8.6554 6.2803 -0.3255
-8.7809 6.0531 -0.3244
-8.8757 5.8071 -0.3225
-8.9703 5.5642 -0.3208
-9.0648 5.3238 -0.3193
-9.1593 5.0858 -0.3181
-9.2541 4.8497 -0.3170
-9.3491 4.6150 -0.3162
-9.4447 4.3816 -0.3156
-9.5408 4.1491 -0.3152
-9.6377 3.9171 -0.3151
-9.7093 3.6754 -0.3142
-9.7073 3.4088 -0.3113
-20.7824 6.7386 -0.6607
-27.7741 8.2695 -0.8759
-28.8874 7.8463 -0.9044
-58.3290 14.3391 -1.8139
-22.8469 5.0343 -0.7062
-12.9786 2.5326 -0.3990
-13.0575 2.2219 -0.3994
-21.8551 3.1777 -0.6657
-16.7640 2.0252 -0.5088
-16.7494 1.6138 -0.5068
-23.1074 1.6640 -0.6974
-23.4129 1.1182 -0.7054
-10.3458 0.2438 -0.3113
-10.4871 -0.0064 -0.3153
-10.5290 -0.2609 -0.3166
-10.5346 -0.5160 -0.3169
-10.5411 -0.7720 -0.3174
-10.5486 -1.0293 -0.3182
-10.5570 -1.2884 -0.3192
-10.5663 -1.5495 -0.3204
-10.5766 -1.8130 -0.3218
-10.5880 -2.0795 -0.3235
-10.6004 -2.3493 -0.3254
-10.6139 -2.6229 -0.3276
-10.5688 -2.8844 -0.3282
-10.4502 -3.1253 -0.3266
-10.3331 -3.3643 -0.3253
-38.8622 -13.7002 -1.2333
-23.8715 -9.0697 -0.7641
-23.5426 -9.6019 -0.7606
-22.9882 -10.0304 -0.7501
-22.3278 -10.3915 -0.7364
-21.6927 -10.7411 -0.7236
-21.0807 -11.0802 -0.7118
-26.9664 -15.0163 -0.9223
-15.9267 -9.3800 -0.5522
-19.2844 -11.9944 -0.6784
-28.7463 -18.8576 -1.0268
-36.6112 -25.3033 -1.3290
-36.6305 -26.6471 -1.3525
-19.1437 -14.6464 -0.7196
-37.6727 -30.2932 -1.4431
-36.6927 -30.9945 -0.9011
-31.7758 -28.1846 -0.7968
-30.3067 -28.2190 -0.7767
-26.7327 -26.1253 -0.7010
-25.9684 -26.6352 -0.6976
-25.1957 -27.1241 -0.6942
-39.0391 -44.1188 -1.1047
-56.7488 -67.3440 -1.6514
-17.5718 -21.9056 -0.5266
-23.3173 -30.5521 -0.7207
-21.5453 -29.6914 -0.6880
-15.7267 -22.8128 -0.5197
-16.0655 -24.5535 -0.5504
-21.3715 -34.4521 -0.7605
-20.4034 -34.7383 -0.7558
-17.1423 -30.8707 -0.6626
-13.3529 -25.4783 -0.5398
-17.4481 -35.3440 -0.7399
-15.9706 -34.4225 -0.7124
-16.3635 -37.6250 -0.7705
-17.2278 -42.3842 -0.8594
-17.3574 -45.8490 -0.9211
-11.3141 -32.2161 -0.6417
-10.6790 -32.9324 -0.6509
-10.0142 -33.6312 -0.6599
-18.4629 -67.9681 -1.3250
-18.5066 -75.2743 -1.4588
-14.8213 -67.2548 -1.2965
-13.1532 -67.3954 -1.2932
-11.4544 -67.3030 -1.2863
-9.7908 -67.3268 -1.2824
-8.1519 -67.4669 -1.2815
-6.4932 -67.3740 -1.2770
-4.8731 -67.6473 -1.2802
-3.2391 -67.7873 -1.2816
-1.5966 -67.6942 -1.2794
0.0359 -61.2997 -1.1588
1.5302 -61.8110 -1.1694
3.0131 -61.5466 -1.1661
4.2398 -57.9109 -1.0995
3.5970 -36.8706 -0.7019
4.4747 -36.6731 -0.7004
5.2106 -35.5386 -0.6813
6.0482 -35.2878 -0.6796
6.9207 -35.2412 -0.6821
7.0864 -31.9780 -0.6225
5.7549 -23.2902 -0.4562
6.1785 -22.6404 -0.4466
6.7873 -22.6970 -0.4511
7.4020 -22.7358 -0.4556
6.7045 -19.0193 -0.3846
7.0451 -18.5439 -0.3786
7.4412 -18.2457 -0.3763
7.8470 -17.9852 -0.3750
8.2426 -17.7114 -0.3736
8.3338 -16.8318 -0.3595
6.8426 -13.0190 -0.2817
7.1367 -12.8168 -0.2812
3.5228 -5.9818 -0.1332
3.8307 -6.1592 -0.1392
4.1618 -6.3444 -0.1458
4.4376 -6.4211 -0.1501
4.7301 -6.5025 -0.1547
5.0412 -6.5894 -0.1598
5.3731 -6.6822 -0.1652
5.7285 -6.7818 -0.1712
6.1103 -6.8891 -0.1777
6.5223 -7.0050 -0.1849
6.7981 -6.9563 -0.1880
6.9714 -6.7970 -0.1884
7.1170 -6.6111 -0.1881
7.2619 -6.4260 -0.1879
7.4064 -6.2413 -0.1879
6.5635 -5.2651 -0.1633
6.5713 -5.0153 -0.1606
6.5762 -4.7721 -0.1580
6.5810 -4.5369 -0.1555
6.6194 -4.3312 -0.1540
6.7066 -4.1604 -0.1538
6.8523 -4.0247 -0.1550
7.0758 -3.9292 -0.1580
7.3081 -3.8301 -0.1612
7.5736 -3.7389 -0.1651
7.8925 -3.6618 -0.1702
6.4191 -2.7918 -0.1371
6.1125 -2.4846 -0.1293
5.9978 -2.2707 -0.1258
5.9687 -2.0962 -0.1241
5.9403 -1.9263 -0.1226
5.9054 -1.7585 -0.1211
5.8529 -1.5899 -0.1193
5.8021 -1.4265 -0.1176
5.7528 -1.2678 -0.1160
5.7353 -1.1194 -0.1152
5.7277 -0.9748 -0.1146
5.7347 -0.8340 -0.1144
5.7417 -0.6938 -0.1142
5.7487 -0.5540 -0.1141
5.7434 -0.4137 -0.1139
5.7137 -0.2730 -0.1132
5.6844 -0.1341 -0.1126
5.7069 0.0033 -0.1131
5.9090 0.1463 -0.1172
6.1265 0.2999 -0.1217
6.3153 0.4624 -0.1257
6.4528 0.6295 -0.1287
6.5577 0.8001 -0.1312
6.6669 0.9775 -0.1339
6.8614 1.1760 -0.1384
7.0731 1.3890 -0.1434
6.6849 1.4814 -0.1363
6.4996 1.6060 -0.1333
6.2739 1.7121 -0.1296
6.0606 1.8124 -0.1261
5.8585 1.9073 -0.1229
5.6805 2.0024 -0.1202
5.6716 2.1548 -0.1211
5.6626 2.3094 -0.1221
5.6535 2.4666 -0.1232
5.6441 2.6267 -0.1244
5.6346 2.7899 -0.1257
5.6220 2.9549 -0.1270
5.6825 3.1642 -0.1301
5.7967 3.4139 -0.1346
6.0330 3.7523 -0.1421
6.2363 4.0909 -0.1492
6.3352 4.3784 -0.1541
6.4275 4.6756 -0.1591
6.5036 4.9757 -0.1640
6.5208 5.2434 -0.1676
6.5513 5.5338 -0.1718
6.6029 5.8566 -0.1768
6.6838 6.2233 -0.1830
6.7854 6.6312 -0.1901
6.8912 7.0681 -0.1978
7.4468 8.0167 -0.2192
7.0306 7.9454 -0.2126
6.6402 7.8799 -0.2065
6.3674 7.9378 -0.2039
6.1764 8.0928 -0.2040
6.0810 8.3803 -0.2075
5.9233 8.5923 -0.2091
5.6068 8.5692 -0.2051
5.3081 8.5571 -0.2017
5.1796 8.8187 -0.2048
5.2735 9.4970 -0.2175
5.4265 10.3543 -0.2341
5.5464 11.2354 -0.2508
5.4784 11.8082 -0.2605
5.4058 12.4300 -0.2712
6.1867 15.2210 -0.3287
6.0442 15.9661 -0.3415
6.2012 17.6580 -0.3742
5.8434 18.0206 -0.3787
5.6845 19.0914 -0.3981
6.3892 23.5218 -0.4869
2.9162 11.8621 -0.2440
5.8046 26.3411 -0.5385
4.9150 25.1855 -0.5121
4.3918 25.8067 -0.5222
3.9394 27.0915 -0.5459
3.3222 27.4983 -0.5521
2.6442 27.4400 -0.5492
1.9553 27.1488 -0.5421
-4.5090 61.5726 -1.2258
-5.9465 60.9427 -1.2151
-7.3354 60.1102 -1.2010
-8.3156 56.7090 -1.1360
-9.6808 56.4759 -1.1351
-9.3631 47.6732 -0.9618
-11.9423 53.8855 -1.0920
-11.3682 46.0028 -0.9370
-12.3172 45.1314 -0.9244
-13.5630 45.3516 -0.9347
-9.4975 29.1705 -0.6054
-15.4356 43.7849 -0.9155
-22.0529 58.0431 -1.2236
-14.5992 35.7948 -0.7613
-15.1219 34.6570 -0.7441
-13.3359 28.6541 -0.6215
-8.9915 18.1592 -0.3982
-9.3549 17.7981 -0.3948
-9.6296 17.2928 -0.3884
-9.8174 16.6692 -0.3793
-9.9976 16.0739 -0.3709
-10.1710 15.5043 -0.3630
-10.3000 14.9029 -0.3544
-16.3729 22.5066 -0.5441
-16.9692 22.1793 -0.5455
-15.4382 19.1986 -0.4808
-15.9613 18.8954 -0.4824
-15.0339 16.9492 -0.4415
-15.7987 16.9671 -0.4514
-10.6658 10.9135 -0.2969
-10.8132 10.5423 -0.2936
-10.7632 9.9977 -0.2854
-10.7151 9.4812 -0.2777
-10.6702 8.9912 -0.2706
-7.9605 6.3854 -0.1978
-8.1450 6.2160 -0.1984
-8.2386 5.9780 -0.1969
-8.3314 5.7433 -0.1956
-8.4237 5.5115 -0.1945
-8.5156 5.2822 -0.1934
-8.6070 5.0551 -0.1925
-8.6983 4.8299 -0.1917
-8.7895 4.6063 -0.1911
-8.8807 4.3839 -0.1906
-13.8438 6.4226 -0.2934
-13.4101 5.8319 -0.2809
-12.5615 5.1056 -0.2603
-10.9424 4.1423 -0.2244
-10.3191 3.6238 -0.2096
-20.7763 6.7367 -0.4183
-56.4799 16.8168 -1.1278
-57.3294 15.5720 -1.1361
-40.1821 9.8783 -0.7907
-22.2805 4.9097 -0.4357
-12.9772 2.5324 -0.2523
-13.0548 2.2216 -0.2525
-40.2715 5.8557 -0.7755
-16.7615 2.0250 -0.3215
-16.7475 1.6137 -0.3202
-40.3284 2.9044 -0.7689
-22.9249 1.0950 -0.4362
-23.0620 0.5435 -0.4381
-23.2010 -0.0140 -0.4404
-18.1629 -0.4500 -0.3446
-23.4861 -1.1502 -0.4458
-21.8686 -1.6015 -0.4154
-10.0182 -0.9775 -0.1906
-10.0244 -1.2233 -0.1911
-10.0312 -1.4709 -0.1918
-10.0385 -1.7208 -0.1925
-10.0465 -1.9731 -0.1934
-10.0551 -2.2284 -0.1945
-10.0643 -2.4870 -0.1957
-10.0742 -2.7494 -0.1970
-10.0844 -3.0158 -0.1985
-9.9728 -3.2470 -0.1977
-32.0461 -11.2971 -0.6402
-38.2025 -14.5144 -0.7696
-38.2284 -15.5915 -0.7772
-31.1143 -13.5758 -0.6388
-28.4550 -13.2430 -0.5904
-28.4105 -14.0672 -0.5962
-28.9869 -15.2355 -0.6156
-28.9881 -16.1420 -0.6236
-15.9246 -9.3787 -0.3472
-19.2823 -11.9930 -0.4265
-27.1483 -17.8093 -0.6097
-36.7494 -25.3986 -0.8387
-37.6333 -27.3765 -0.8736
-19.1416 -14.6447 -0.4523
-37.6727 -30.2932 -0.9071
-36.9996 -31.2536 -0.3719
-32.1467 -28.5135 -0.3298
-30.9386 -28.8074 -0.3244
-28.2456 -27.6038 -0.3030
-38.4328 -39.4197 -0.4223
-38.4607 -41.4044 -0.4334
-38.4902 -43.4984 -0.4454
-56.7488 -67.3440 -0.6753
-38.5275 -48.0296 -0.4722
-15.1756 -19.8842 -0.1918
-48.9986 -67.5247 -0.6399
-15.7226 -22.8070 -0.2125
-20.8858 -31.9206 -0.2927
-23.0374 -37.1378 -0.3354
-24.3965 -41.5369 -0.3699
-17.1224 -30.8350 -0.2709
-17.5342 -33.4566 -0.2902
-16.3486 -33.1170 -0.2839
-20.8784 -45.0008 -0.3816
-19.3204 -44.4242 -0.3728
-15.5734 -38.3142 -0.3185
-17.1025 -45.1761 -0.3722
-12.7438 -36.2873 -0.2965
-14.4321 -44.5067 -0.3610
-20.3012 -68.1791 -0.5493
-18.4627 -67.9681 -0.5443
-18.5066 -75.2754 -0.5996
-14.8211 -67.2548 -0.5332
-13.1303 -67.2790 -0.5312
-11.4542 -67.3030 -0.5296
-9.7906 -67.3268 -0.5283
-8.1376 -67.3505 -0.5274
-6.4929 -67.3740 -0.5268
-4.8728 -67.6473 -0.5284
-3.2319 -67.6419 -0.5283
-1.5956 -67.6649 -0.5286
0.0347 -58.8687 -0.4604
1.6396 -66.2166 -0.5187
3.0792 -62.8903 -0.4937
4.5830 -62.5933 -0.4928
5.5613 -57.0030 -0.4503
4.4433 -36.4146 -0.2889
5.1915 -35.4070 -0.2822
6.0182 -35.1114 -0.2813
6.3960 -32.5684 -0.2625
5.3173 -23.9943 -0.1947
5.6758 -22.9694 -0.1877
6.1524 -22.5442 -0.1857
6.7466 -22.5605 -0.1874
6.2796 -19.2880 -0.1617
6.6610 -18.8956 -0.1600
7.0372 -18.5226 -0.1585
7.4299 -18.2176 -0.1577
7.8225 -17.9288 -0.1570
7.9605 -17.1050 -0.1517
6.5934 -13.3165 -0.1197
6.6635 -12.6781 -0.1156
6.9504 -12.4820 -0.1155
7.1074 -12.0683 -0.1135
3.6947 -5.9405 -0.0568
4.0132 -6.1177 -0.0595
4.2942 -6.2135 -0.0615
4.5728 -6.2862 -0.0634
4.8684 -6.3634 -0.0655
5.1830 -6.4457 -0.0677
5.5189 -6.5336 -0.0702
5.8787 -6.6279 -0.0728
6.2657 -6.7294 -0.0757
6.6835 -6.8390 -0.0789
6.9535 -6.7795 -0.0803
7.1545 -6.6459 -0.0809
7.3002 -6.4597 -0.0809
6.4810 -5.4614 -0.0704
6.5042 -5.2175 -0.0694
6.5103 -4.9687 -0.0683
6.5162 -4.7284 -0.0673
6.5219 -4.4961 -0.0663
6.6149 -4.3282 -0.0663
6.7030 -4.1581 -0.0663
6.7818 -3.9833 -0.0662
6.9589 -3.8643 -0.0671
7.1850 -3.7656 -0.0685
7.4368 -3.6713 -0.0702
7.7133 -3.5787 -0.0721
6.2396 -2.7137 -0.0578
5.9886 -2.4342 -0.0550
5.9594 -2.2561 -0.0543
5.9309 -2.0829 -0.0537
5.9032 -1.9142 -0.0531
5.8646 -1.7463 -0.0524
5.8131 -1.5791 -0.0517
5.7633 -1.4169 -0.0510
5.7148 -1.2594 -0.0504
5.6892 -1.1103 -0.0500
5.6925 -0.9688 -0.0499
5.6996 -0.8288 -0.0498
5.7066 -0.6895 -0.0498
5.7136 -0.5506 -0.0498
5.7076 -0.4111 -0.0497
5.6784 -0.2713 -0.0495
5.6495 -0.1332 -0.0492
5.6210 0.0033 -0.0491
5.7365 0.1420 -0.0501
5.9411 0.2909 -0.0520
6.1614 0.4511 -0.0541
6.3631 0.6208 -0.0561
6.4756 0.7902 -0.0573
6.6365 0.9731 -0.0590
6.8325 1.1711 -0.0610
7.0422 1.3830 -0.0633
6.6717 1.4785 -0.0603
6.4871 1.6030 -0.0590
6.2772 1.7131 -0.0575
6.0636 1.8133 -0.0560
5.8613 1.9083 -0.0546
5.6813 2.0027 -0.0534
5.6724 2.1551 -0.0538
5.6634 2.3098 -0.0543
5.6543 2.4670 -0.0548
5.6449 2.6271 -0.0554
5.6355 2.7903 -0.0560
5.6195 2.9536 -0.0565
5.6798 3.1627 -0.0579
5.7938 3.4122 -0.0600
5.9160 3.6795 -0.0622
6.1714 4.0484 -0.0659
6.2802 4.3404 -0.0682
6.3700 4.6338 -0.0704
6.4657 4.9467 -0.0728
6.4970 5.2243 -0.0745
6.5257 5.5123 -0.0764
6.5764 5.8331 -0.0787
6.6708 6.2113 -0.0816
6.7717 6.6178 -0.0848
6.8767 7.0533 -0.0882
7.3857 7.9510 -0.0972
6.9716 7.8787 -0.0942
6.6231 7.8597 -0.0920
6.3506 7.9169 -0.0909
6.1725 8.0877 -0.0911
6.0766 8.3742 -0.0926
5.8866 8.5391 -0.0928
5.5840 8.5343 -0.0913
5.2972 8.5394 -0.0899
5.1438 8.7578 -0.0908
5.2529 9.4598 -0.0968
5.3838 10.2728 -0.1037
5.5740 11.2911 -0.1125
5.4884 11.8296 -0.1165
5.4154 12.4520 -0.1212
6.1902 15.2295 -0.1467
6.0251 15.9155 -0.1517
6.2197 17.7107 -0.1673
5.8451 18.0259 -0.1688
5.7069 19.1663 -0.1780
6.3555 23.3974 -0.2156
2.9161 11.8613 -0.1086
5.8384 26.4939 -0.2409
5.2409 26.8547 -0.2428
4.5521 26.7480 -0.2405
3.9290 27.0195 -0.2418
3.2614 26.9947 -0.2406
2.5868 26.8442 -0.2384
1.9157 26.5978 -0.2355
-4.3206 59.0035 -0.5189
-5.8223 59.6733 -0.5252
-7.3028 59.8456 -0.5275
-8.7290 59.5308 -0.5257
-10.1181 59.0289 -0.5226
-9.0224 45.9401 -0.4079
-10.1205 45.6663 -0.4070
-11.0792 44.8345 -0.4013
-11.8964 43.5903 -0.3920
-13.2250 44.2222 -0.3999
-9.4960 29.1663 -0.2653
-15.4330 43.7784 -0.4009
-22.6087 59.5073 -0.5489
-11.5897 28.4166 -0.2642
-12.3710 28.3528 -0.2659
-8.3170 17.8707 -0.1692
-8.6119 17.3928 -0.1663
-8.8183 16.7775 -0.1621
-9.0157 16.1905 -0.1582
-14.5118 24.6403 -0.2438
-15.1332 24.3310 -0.2438
-15.6214 23.8130 -0.2419
-15.5237 22.4612 -0.2315
-16.5371 22.7327 -0.2380
-16.2403 21.2270 -0.2258
-15.7200 19.5493 -0.2116
-15.4637 18.3065 -0.2018
-16.3439 18.4262 -0.2070
-17.1511 18.4198 -0.2111
-18.8473 19.2853 -0.2258
-18.1214 17.6676 -0.2115
-13.9002 12.9118 -0.1583
-17.9294 15.8649 -0.1993
-18.3107 15.4297 -0.1990
-7.6512 6.1374 -0.0814
-9.9317 7.5797 -0.1034
-9.9101 7.1910 -0.1012
-18.1200 12.4914 -0.1815
-17.9205 11.7253 -0.1763
-14.3783 8.4448 -0.1368
-14.2395 7.9069 -0.1334
-13.9814 7.3273 -0.1290
-13.6527 6.7397 -0.1242
-13.3465 6.1920 -0.1198
-12.9316 5.6239 -0.1146
-11.0621 4.4962 -0.0969
-10.5744 4.0031 -0.0916
-19.8181 6.9598 -0.1698
-20.7701 6.7349 -0.1762
-56.0952 16.7026 -0.4714
-56.5808 15.3690 -0.4714
-39.9732 9.8272 -0.3304
-39.9990 8.8143 -0.3282
-12.9757 2.5322 -0.1057
-13.0522 2.2212 -0.1057
-40.0705 5.8267 -0.3228
-16.7590 2.0248 -0.1343
-16.7455 1.6136 -0.1337
-40.1273 2.8902 -0.3192
-22.4295 1.0715 -0.1779
-95.5251 2.2519 -0.7557
-21.8662 -1.6012 -0.1724
-26.0873 -3.1834 -0.2061
-16.8226 -2.8835 -0.1335
-60.2924 -11.8411 -0.4799
-53.3527 -11.8239 -0.4263
-48.1577 -11.9003 -0.3865
-43.8383 -11.9640 -0.3536
-40.1860 -12.0178 -0.3261
-21.1667 -6.8914 -0.1729
-38.0646 -13.4187 -0.3131
-30.7260 -11.6737 -0.2547
-30.3413 -12.3746 -0.2537
-29.9593 -13.0718 -0.2528
-38.1262 -17.7438 -0.3250
-30.7925 -15.2465 -0.2653
-38.1590 -20.0563 -0.3326
-27.9949 -15.5888 -0.2471
-15.9225 -9.3774 -0.1424
-19.2802 -11.9916 -0.1748
-30.3011 -19.8774 -0.2789
-37.1534 -25.6778 -0.3474
-37.6333 -27.3764 -0.3577
-19.1394 -14.6431 -0.1852
-37.6727 -30.2931 -0.3713
-38.3731 -32.4137 0.1710
-38.3966 -34.0571 0.1748
-38.4212 -35.7745 0.1789
-28.1636 -27.5236 0.1343
-38.4740 -39.4620 0.1880
-38.5025 -41.4494 0.1930
-38.5325 -43.5462 0.1984
-56.8478 -67.4614 0.3011
-38.5281 -48.0304 0.2101
-23.4626 -30.7427 0.1320
-48.8233 -67.2833 0.2836
-15.7186 -22.8012 0.0944
-44.2303 -67.5991 0.2753
-23.0330 -37.1307 0.1488
-39.7417 -67.6634 0.2671
-17.1192 -30.8292 0.1199
-22.5423 -43.0127 0.1650
-21.7470 -44.0525 0.1668
-21.8999 -47.2029 0.1764
-19.6371 -45.1527 0.1667
-18.4254 -45.3312 0.1655
-17.1675 -45.3482 0.1637
-12.7420 -36.2827 0.1296
-22.0231 -67.9172 0.2403
-20.2306 -67.9428 0.2381
-18.4625 -67.9682 0.2362
-17.9950 -73.1952 0.2522
-14.7565 -66.9627 0.2290
-13.0730 -66.9868 0.2274
-11.4042 -67.0107 0.2260
-9.7478 -67.0344 0.2246
-8.1020 -67.0580 0.2234
-6.4645 -67.0814 0.2223
-4.8515 -67.3546 0.2222
-3.2190 -67.3780 0.2213
-1.5891 -67.4013 0.2205
0.0392 -65.9507 0.2151
1.6704 -67.4480 0.2193
3.1823 -64.9893 0.2109
2.1385 -29.2048 0.0946
3.7000 -37.9223 0.1226
4.4746 -36.6690 0.1185
5.1336 -35.0111 0.1131
5.6779 -33.1252 0.1070
6.3545 -32.3560 0.1046
5.3404 -24.0979 0.0780
5.6771 -22.9741 0.0745
6.1553 -22.5545 0.0733
5.8655 -19.6137 0.0639
6.2091 -19.0709 0.0624
6.6131 -18.7594 0.0616
7.0307 -18.5051 0.0610
7.4192 -18.1911 0.0603
7.5199 -17.2348 0.0574
6.6052 -14.1926 0.0476
6.4937 -13.1149 0.0443
6.5691 -12.4984 0.0425
6.7439 -12.1110 0.0415
6.9606 -11.8188 0.0409
3.5681 -5.7368 0.0201
3.8695 -5.8987 0.0208
4.1599 -6.0189 0.0215
4.4257 -6.0838 0.0220
4.7071 -6.1525 0.0225
5.0059 -6.2253 0.0231
5.3241 -6.3029 0.0237
5.6641 -6.3858 0.0244
6.0286 -6.4746 0.0252
6.4209 -6.5701 0.0260
6.8447 -6.6734 0.0269
7.1085 -6.6031 0.0272
6.3973 -5.6607 0.0238
6.4230 -5.4125 0.0233
6.4433 -5.1685 0.0228
6.4504 -4.9229 0.0222
6.4573 -4.6856 0.0217
6.5162 -4.4921 0.0214
6.6103 -4.3251 0.0213
6.6994 -4.1558 0.0211
6.7781 -3.9811 0.0209
6.8564 -3.8073 0.0208
7.0661 -3.7032 0.0210
7.3049 -3.6061 0.0213
6.5060 -3.0185 0.0186
6.0700 -2.6399 0.0171
5.9499 -2.4184 0.0165
5.9214 -2.2417 0.0162
5.8936 -2.0698 0.0159
5.8666 -1.9023 0.0156
5.8244 -1.7343 0.0153
5.7739 -1.5684 0.0149
5.7249 -1.4075 0.0146
5.6774 -1.2511 0.0144
5.6506 -1.1028 0.0141
5.6578 -0.9629 0.0140
5.6648 -0.8237 0.0139
5.6719 -0.6853 0.0138
5.6789 -0.5473 0.0137
5.6724 -0.4086 0.0136
5.6435 -0.2696 0.0134
5.6150 -0.1324 0.0133
5.5868 0.0033 0.0132
5.5737 0.1380 0.0131
5.7665 0.2824 0.0135
5.9736 0.4374 0.0139
6.1969 0.6046 0.0144
6.4273 0.7843 0.0149
6.6095 0.9691 0.0153
6.8037 1.1662 0.0157
7.0115 1.3770 0.0162
6.6586 1.4756 0.0154
6.4746 1.5999 0.0150
6.2804 1.7140 0.0146
6.0667 1.8143 0.0141
5.8642 1.9092 0.0137
5.6821 2.0030 0.0134
5.6732 2.1554 0.0134
5.6642 2.3101 0.0135
5.6551 2.4674 0.0135
5.6458 2.6275 0.0136
5.6345 2.7898 0.0137
5.6169 2.9522 0.0138
5.6771 3.1612 0.0141
5.7909 3.4105 0.0145
5.9130 3.6777 0.0150
6.0443 3.9650 0.0156
6.2262 4.3031 0.0163
6.3135 4.5927 0.0168
6.4064 4.9014 0.0173
6.4734 5.2054 0.0178
6.5004 5.4909 0.0182
6.5633 5.8215 0.0187
6.6579 6.1993 0.0194
6.7581 6.6045 0.0201
6.8623 7.0385 0.0209
6.9592 7.4918 0.0218
6.9596 7.8652 0.0223
6.6172 7.8527 0.0218
6.3422 7.9064 0.0216
6.1630 8.0753 0.0216
6.0651 8.3584 0.0220
5.8664 8.5098 0.0220
5.5613 8.4995 0.0217
5.2809 8.5132 0.0214
5.1346 8.7421 0.0217
5.2542 9.4621 0.0232
5.3330 10.1759 0.0246
5.4504 11.0409 0.0264
5.5167 11.8907 0.0282
5.4253 12.4747 0.0293
6.1937 15.2380 0.0355
6.0108 15.8776 0.0368
6.2390 17.7654 0.0409
5.8560 18.0591 0.0413
6.9146 23.2222 0.0529
6.3379 23.3323 0.0529
2.9159 11.8606 0.0268
5.5841 25.3396 0.0571
5.0980 26.1224 0.0588
4.4782 26.3134 0.0592
3.7740 25.9532 0.0583
3.0454 25.2055 0.0567
2.5304 26.2578 0.0591
1.8778 26.0688 0.0588
1.4263 29.8524 0.0675
-5.6954 58.3757 0.1362
-7.1586 58.6660 0.1379
-10.4199 71.0650 0.1684
-12.2757 71.6186 0.1712
-9.2831 47.2689 0.1141
-12.5164 56.4791 0.1377
-10.9487 44.3074 0.1092
-11.9061 43.6270 0.1088
-13.6146 45.5260 0.1149
-9.4944 29.1622 0.0746
-15.4304 43.7718 0.1135
-21.6530 56.9928 0.1499
-14.8535 36.4197 0.0972
-12.1095 27.7539 0.0753
-12.8348 27.5784 0.0760
-16.0353 32.3858 0.0909
-12.8194 24.3903 0.0697
-13.5503 24.3343 0.0708
-14.2156 24.1376 0.0716
-14.8671 23.9036 0.0724
-15.4797 23.5974 0.0730
-15.9710 23.1088 0.0731
-16.3595 22.4889 0.0728
-16.8682 22.0480 0.0731
-14.2643 17.7392 0.0603
-17.3753 20.5699 0.0717
-18.0910 20.3962 0.0730
-18.3134 19.6684 0.0724
-18.4061 18.8341 0.0713
-18.0495 17.5977 0.0687
-13.8984 12.9103 0.0520
-47.3369 41.8870 0.1742
-49.7525 41.9251 0.1803
-52.3154 41.9655 0.1869
-62.3816 47.6094 0.2199
-64.4760 46.7863 0.2244
-19.4587 12.0707 0.0656
-14.0358 8.2438 0.0469
-13.7839 7.6540 0.0456
-13.4626 7.0555 0.0442
-13.1634 6.4982 0.0429
-12.8827 5.9770 0.0417
-56.1923 24.4384 0.1810
-10.6980 4.3483 0.0343
-56.8183 21.5099 0.1813
-19.8142 6.9586 0.0630
-20.7641 6.7331 0.0658
-55.9856 16.6703 0.1768
-56.9268 15.4634 0.1794
-33.4908 8.2338 0.1054
-40.0478 8.8253 0.1259
-12.9743 2.5320 0.0408
-13.0496 2.2208 0.0410
-40.1242 5.8348 0.1261
-16.7565 2.0246 0.0527
-16.7435 1.6136 0.0527
-40.1993 2.8956 0.1269
-33.6137 1.6060 0.1064
-95.6494 2.2554 0.3036
-21.8637 -1.6009 0.0706
-26.0844 -3.1829 0.0852
-16.8208 -2.8831 0.0557
-60.4587 -11.8734 0.2016
-53.9951 -11.9660 0.1815
-50.8954 -12.5766 0.1725
-44.3526 -12.1041 0.1517
-40.6524 -12.1571 0.1404
-21.1644 -6.8906 0.0738
-38.1080 -13.4338 0.1343
-38.5112 -14.6314 0.1373
-38.1339 -15.5527 0.1375
-38.1473 -16.6443 0.1393
-38.5575 -17.9444 0.1426
-30.7858 -15.2431 0.1154
-38.1893 -20.0721 0.1452
-37.0954 -20.6562 0.1431
-15.9204 -9.3761 0.0624
-19.2781 -11.9903 0.0768
-29.6664 -19.4610 0.1201
-37.1534 -25.6777 0.1531
-37.6338 -27.3767 0.1580
-19.1373 -14.6414 0.0819
-37.6728 -30.2931 0.1644
-38.3731 -32.4136 0.7277
-38.3966 -34.0570 0.7436
-38.8208 -36.1465 0.7686
-28.1041 -27.4655 0.5695
-38.4740 -39.4619 0.7988
-38.5448 -41.4949 0.8209
-38.5325 -43.5462 0.8428
-56.8478 -67.4614 1.2788
-54.1459 -67.5001 1.2543
-23.4597 -30.7389 0.5605
-49.0152 -67.5478 1.2096
-15.7146 -22.7954 0.4013
-44.4201 -67.8894 1.1756
-23.0285 -37.1236 0.6330
-39.8972 -67.9284 1.1412
-17.1170 -30.8255 0.5107
-35.6460 -68.0161 1.1119
-26.7729 -54.2337 0.8756
-21.8946 -47.1917 0.7529
-23.6130 -54.2951 0.8566
-22.1851 -54.5815 0.8522
-25.8018 -68.1561 1.0537
-12.7403 -36.2780 0.5557
-22.1175 -68.2088 1.0360
-20.3096 -68.2089 1.0278
-18.5415 -68.2600 1.0211
-17.9947 -73.1952 1.0876
-6.5033 -29.5115 0.4358
-13.1298 -67.2790 0.9881
-11.4537 -67.3030 0.9835
-9.7901 -67.3268 0.9796
-8.1281 -67.2769 0.9752
-6.4924 -67.3740 0.9734
-4.8723 -67.6473 0.9748
-3.2327 -67.6708 0.9731
-1.5957 -67.6942 0.9719
0.0406 -67.7177 0.9713
1.6764 -67.6770 0.9703
3.3185 -67.7646 0.9718
2.1389 -29.2082 0.4192
3.7295 -38.2229 0.5492
4.5371 -37.1801 0.5352
5.2444 -35.7653 0.5161
5.6538 -32.9833 0.4774
6.3487 -32.3257 0.4696
5.3638 -24.2025 0.3531
5.6701 -22.9453 0.3363
6.1583 -22.5649 0.3325
5.8424 -19.5360 0.2896
6.1977 -19.0356 0.2841
6.6076 -18.7434 0.2818
6.6754 -17.5698 0.2662
7.0583 -17.3060 0.2645
2.7055 -6.2005 0.0956
2.8870 -6.2031 0.0966
6.4053 -12.9361 0.2036
6.4930 -12.3534 0.1967
6.6650 -11.9691 0.1929
6.8675 -11.6605 0.1903
7.0781 -11.3801 0.1883
3.7358 -5.6948 0.0956
4.0336 -5.8362 0.0995
4.2877 -5.8941 0.1021
4.5561 -5.9551 0.1049
4.8405 -6.0196 0.1080
5.1426 -6.0880 0.1113
5.4645 -6.1607 0.1148
5.8088 -6.2384 0.1187
6.1781 -6.3216 0.1230
6.5758 -6.4111 0.1276
7.0059 -6.5077 0.1328
6.3396 -5.6096 0.1174
6.3661 -5.3644 0.1153
6.3835 -5.1205 0.1132
6.3916 -4.8780 0.1111
6.4173 -4.6565 0.1095
6.5117 -4.4889 0.1091
6.6058 -4.3221 0.1087
6.6958 -4.1534 0.1084
6.7745 -3.9789 0.1080
6.8528 -3.8052 0.1076
6.9510 -3.6428 0.1076
7.1776 -3.5432 0.1097
6.3198 -2.9320 0.0953
5.9709 -2.5967 0.0890
5.9117 -2.4028 0.0871
5.8839 -2.2274 0.0858
5.8568 -2.0568 0.0846
5.8304 -1.8905 0.0834
5.7847 -1.7224 0.0821
5.7352 -1.5578 0.0807
5.6871 -1.3981 0.0795
5.6421 -1.2433 0.0783
5.6195 -1.0967 0.0775
5.6234 -0.9570 0.0772
5.6305 -0.8187 0.0769
5.6376 -0.6811 0.0767
5.6446 -0.5439 0.0765
5.6375 -0.4060 0.0762
5.6091 -0.2679 0.0756
5.5809 -0.1315 0.0751
5.5531 0.0033 0.0746
5.5255 0.1369 0.0742
5.6019 0.2743 0.0752
5.7969 0.4245 0.0779
6.0509 0.5904 0.0814
6.3617 0.7763 0.0858
6.5827 0.9652 0.0890
6.7753 1.1614 0.0918
6.9811 1.3711 0.0950
6.6456 1.4728 0.0908
6.4622 1.5969 0.0887
6.2837 1.7149 0.0868
6.0698 1.8152 0.0844
5.8671 1.9102 0.0821
5.6829 2.0033 0.0801
5.6740 2.1557 0.0807
5.6650 2.3105 0.0813
5.6559 2.4678 0.0819
5.6466 2.6279 0.0826
5.6320 2.7886 0.0834
5.6144 2.9509 0.0841
5.6743 3.1597 0.0861
5.7881 3.4088 0.0890
5.9100 3.6758 0.0922
6.0410 3.9629 0.0956
6.1720 4.2656 0.0993
6.2579 4.5523 0.1024
6.3483 4.8569 0.1057
6.4447 5.1823 0.1093
6.4753 5.4697 0.1120
6.5511 5.8107 0.1157
6.6451 6.1873 0.1200
6.7445 6.5913 0.1246
6.8480 7.0238 0.1296
6.9273 7.4575 0.1345
6.9546 7.8595 0.1386
6.6129 7.8476 0.1356
6.3389 7.9023 0.1338
6.1571 8.0675 0.1341
6.0537 8.3426 0.1362
5.8450 8.4786 0.1361
5.5387 8.4651 0.1337
5.2715 8.4981 0.1322
5.1264 8.7281 0.1338
5.2555 9.4644 0.1431
5.2757 10.0665 0.1503
5.3302 10.7972 0.1593
5.5454 11.9524 0.1744
5.4477 12.5261 0.1808
6.1943 15.2394 0.2178
6.0221 15.9073 0.2253
6.2508 17.7988 0.2500
5.8668 18.0925 0.2522
6.8984 23.1673 0.3206
6.3179 23.2587 0.3198
2.9158 11.8598 0.1621
5.8928 26.7401 0.3637
5.1592 26.4353 0.3580
4.5588 26.7862 0.3613
3.5574 24.4630 0.3290
3.3459 27.6922 0.3714
3.1000 32.1660 0.4306
6.0783 84.3813 1.1280
-2.4263 49.5588 0.6640
-3.6304 49.5845 0.6659
-8.9879 45.7671 0.6273
-10.0826 45.4980 0.6274
-18.3626 74.3123 1.0315
-12.7901 46.8673 0.6553
-13.1886 44.1026 0.6215
-9.4929 29.1580 0.4144
-15.4278 43.7653 0.6277
-21.9461 57.7652 0.8367
-14.2824 35.0201 0.5126
-22.4766 51.5157 0.7626
-23.5724 50.6514 0.7588
-24.7542 49.9959 0.7585
-15.0002 28.5400 0.4388
-13.2838 23.8560 0.3720
-13.9197 23.6357 0.3741
-14.5617 23.4129 0.3765
-15.2105 23.1873 0.3791
-15.7376 22.7713 0.3788
-16.7549 23.0327 0.3902
-14.1539 18.5005 0.3195
-17.1608 21.3417 0.3760
-17.4304 20.6354 0.3713
-17.6605 19.9111 0.3662
-17.8837 19.2071 0.3615
-17.6379 18.0483 0.3480
-17.2989 16.8661 0.3336
-13.8967 12.9089 0.2622
-47.3362 41.8870 0.8746
-50.2264 42.3251 0.9099
-52.3146 41.9655 0.9301
-55.0284 41.9981 0.9611
-57.8174 41.9551 0.9929
-60.7920 41.9093 1.0275
-63.9758 41.8603 1.0650
-13.8322 8.5805 0.2270
-13.5866 7.9801 0.2200
-13.2730 7.3704 0.2122
-12.9809 6.8032 0.2051
-12.7080 6.2735 0.1985
-12.4359 5.7698 0.1922
-56.1923 24.4388 0.8601
-10.3067 4.1893 0.1563
-56.8183 21.5104 0.8546
-19.8104 6.9574 0.2957
-20.7579 6.7312 0.3076
-56.5845 16.8491 0.8330
-56.9266 15.4637 0.8332
-33.2471 8.1741 0.4840
-40.5260 8.9310 0.5873
-12.9728 2.5318 0.1872
-13.0469 2.2205 0.1876
-40.1242 5.8350 0.5754
-16.7539 2.0243 0.2397
-16.7416 1.6135 0.2391
-40.1993 2.8958 0.5736
-53.9080 2.5759 0.7687
-95.5286 2.2530 1.3622
-56.0767 -2.7453 0.8023
-21.8613 -1.6006 0.3135
-61.2949 -5.9799 0.8815
-26.0816 -3.1824 0.3764
-16.8189 -2.8827 0.2448
-60.4600 -11.8734 0.8844
-53.9962 -11.9660 0.7944
-50.8963 -12.5766 0.7535
-44.3532 -12.1041 0.6612
-40.6529 -12.1571 0.6106
-21.1620 -6.8897 0.3205
-38.1080 -13.4336 0.5821
-38.5112 -14.6313 0.5938
-38.1339 -15.5525 0.5939
-38.1473 -16.6441 0.6005
-38.5575 -17.9443 0.6139
-30.7790 -15.2396 0.4960
-38.1893 -20.0720 0.6233
-37.0956 -20.6562 0.6137
-15.9183 -9.3748 0.2671
-19.2760 -11.9889 0.3283
-37.1346 -24.3600 0.6426
-37.1534 -25.6776 0.6536
-37.6338 -27.3766 0.6737
-19.1352 -14.6398 0.3489
-37.6728 -30.2930 0.7002
-38.3731 -32.4136 1.2845
-38.3966 -34.0569 1.3126
-38.4212 -35.7744 1.3427
-27.9828 -27.3469 1.0008
-38.4740 -39.4619 1.4098
-38.5025 -41.4493 1.4472
-38.5325 -43.5462 1.4875
-56.8478 -67.4614 2.2568
-54.1459 -67.5001 2.2136
-23.4567 -30.7350 0.9890
-49.0151 -67.5478 2.1348
-15.7105 -22.7896 0.7080
-44.4201 -67.8894 2.0750
-16.9812 -27.3750 0.8239
-39.8971 -67.9284 2.0145
-17.1149 -30.8217 0.9014
-35.6459 -68.0161 1.9632
-26.7728 -54.2337 1.5461
-21.8893 -47.1804 1.3293
-23.6129 -54.2951 1.5130
-22.1822 -54.5745 1.5051
-25.8016 -68.1560 1.8616
-12.7386 -36.2733 0.9819
-22.1173 -68.2088 1.8309
-20.3094 -68.2089 1.8168
-18.5413 -68.2600 1.8052
-17.9945 -73.1952 1.9231
-14.8204 -67.2548 1.7567
-13.1296 -67.2790 1.7480
-5.2052 -30.5870 0.7909
-4.4662 -30.7151 0.7910
-3.7241 -30.8255 0.7910
-6.4921 -67.3740 1.7238
-4.8720 -67.6473 1.7266
-3.2323 -67.6708 1.7241
-1.5954 -67.6942 1.7226
0.0409 -67.7177 1.7220
1.6767 -67.6767 1.7208
3.3188 -67.7646 1.7239
4.7371 -64.6859 1.6473
5.6294 -57.6923 1.4716
4.5028 -36.8969 0.9432
5.3465 -36.4600 0.9347
5.6280 -32.8316 0.8445
4.9113 -25.0063 0.6458
5.3532 -24.1543 0.6266
5.6495 -22.8613 0.5962
6.1220 -22.4314 0.5883
5.8205 -19.4623 0.5137
6.1864 -19.0005 0.5051
6.1692 -17.4996 0.4688
6.5549 -17.2523 0.4660
2.5367 -6.2196 0.1695
2.7070 -6.2040 0.1707
2.8886 -6.2066 0.1726
6.3192 -12.7621 0.3588
6.4397 -12.2518 0.3485
6.6138 -11.8768 0.3421
6.7817 -11.5147 0.3361
6.9971 -11.2496 0.3330
7.2265 -11.0157 0.3309
3.9062 -5.6518 0.1725
4.1580 -5.7157 0.1774
4.4145 -5.7699 0.1822
4.6856 -5.8269 0.1874
4.9730 -5.8871 0.1930
5.2785 -5.9510 0.1991
5.6044 -6.0188 0.2057
5.9529 -6.0911 0.2129
6.3272 -6.1686 0.2208
6.2548 -5.8099 0.2132
6.2830 -5.5594 0.2093
6.3101 -5.3171 0.2058
6.3249 -5.0734 0.2021
6.3339 -4.8338 0.1985
6.4129 -4.6533 0.1972
6.5073 -4.4858 0.1966
6.6013 -4.3191 0.1961
6.6922 -4.1511 0.1957
6.7708 -3.9767 0.1950
6.8491 -3.8031 0.1944
6.9270 -3.6302 0.1939
7.0565 -3.4834 0.1950
6.1439 -2.8504 0.1678
5.9433 -2.5847 0.1604
5.8740 -2.3874 0.1569
5.8469 -2.2134 0.1546
5.8205 -2.0440 0.1524
5.7947 -1.8789 0.1504
5.7456 -1.7107 0.1480
5.6970 -1.5474 0.1456
5.6498 -1.3889 0.1434
5.6257 -1.2397 0.1419
5.6018 -1.0931 0.1405
5.5895 -0.9512 0.1395
5.5966 -0.8138 0.1391
5.6037 -0.6770 0.1388
5.6108 -0.5406 0.1385
5.6031 -0.4035 0.1380
5.5750 -0.2663 0.1370
5.5473 -0.1307 0.1361
5.5198 0.0033 0.1354
5.4925 0.1361 0.1347
5.4655 0.2677 0.1341
5.6785 0.4159 0.1394
5.9489 0.5805 0.1463
6.2476 0.7624 0.1540
6.5561 0.9614 0.1621
6.7470 1.1565 0.1673
6.9510 1.3652 0.1731
6.6326 1.4699 0.1659
6.4499 1.5939 0.1622
6.2749 1.7125 0.1588
6.0728 1.8161 0.1547
5.8700 1.9112 0.1506
5.6836 2.0036 0.1469
5.6748 2.1561 0.1480
5.6658 2.3108 0.1491
5.6567 2.4681 0.1504
5.6468 2.6280 0.1517
5.6295 2.7874 0.1530
5.6118 2.9496 0.1543
5.6716 3.1582 0.1580
5.7852 3.4072 0.1634
5.9069 3.6739 0.1692
6.0378 3.9608 0.1756
6.1125 4.2246 0.1807
6.1921 4.5044 0.1862
6.2874 4.8104 0.1925
6.3847 5.1340 0.1991
6.4519 5.4499 0.2053
6.5389 5.7999 0.2124
6.6322 6.1754 0.2202
6.7310 6.5781 0.2287
6.8267 7.0020 0.2376
6.8965 7.4244 0.2462
6.9460 7.8498 0.2547
6.6086 7.8425 0.2492
6.3363 7.8990 0.2460
6.1516 8.0604 0.2464
6.0469 8.3332 0.2502
5.8319 8.4596 0.2497
5.5213 8.4384 0.2450
5.2622 8.4830 0.2426
5.1126 8.7046 0.2454
5.2568 9.4667 0.2632
5.2003 9.9225 0.2723
5.2420 10.6186 0.2879
5.5744 12.0148 0.3221
5.4639 12.5633 0.3332
6.1984 15.2495 0.4005
6.0335 15.9372 0.4146
6.2623 17.8315 0.4600
5.8777 18.1260 0.4639
6.5537 22.0095 0.5592
6.3005 23.1940 0.5854
2.9156 11.8591 0.2975
5.6770 25.7606 0.6428
5.2138 26.7145 0.6635
4.5850 26.9396 0.6663
3.8672 26.5928 0.6555
3.2883 27.2147 0.6689
2.6160 27.1437 0.6656
1.9395 26.9230 0.6591
4.4954 94.0760 2.3007
2.3196 98.3439 2.4039
-0.0573 98.3319 2.4039
-2.4324 98.2605 2.4039
-2.4261 49.5590 1.2141
-3.6301 49.5847 1.2170
-9.2137 94.4466 2.3239
-11.4879 94.1535 2.3239
-13.5443 92.3805 2.2887
-15.1578 88.4390 2.2005
-16.2400 82.6976 2.0678
-16.5279 74.5848 1.8754
-17.8463 72.2249 1.8272
-12.7878 46.8600 1.1936
-18.6900 62.5007 1.6039
-9.4913 29.1538 0.7542
-15.4252 43.7588 1.1420
-20.2599 53.3280 1.4049
-20.5981 50.5069 1.3440
-21.3375 48.9057 1.3155
-22.1750 47.6494 1.2965
-23.0957 46.6470 1.2847
-14.9947 28.5300 0.7960
-13.0141 23.3720 0.6610
-13.6358 23.1540 0.6644
-36.5222 58.7226 1.7109
-36.5611 55.7355 1.6501
-20.8146 30.1179 0.9068
-37.2923 51.2660 1.5712
-37.3277 48.7914 1.5235
-37.3610 46.4640 1.4795
-37.3925 44.2685 1.4389
-17.2499 19.4484 0.6459
-17.4736 18.7669 0.6375
-20.9956 21.4844 0.7473
-18.1147 17.6618 0.6298
-13.8949 12.9075 0.4724
-47.3356 41.8870 1.5753
-49.7510 41.9251 1.6225
-42.3513 33.9737 1.3549
-44.5737 34.0194 1.4001
-46.9481 34.0683 1.4493
-49.4935 34.1208 1.5029
-52.2327 34.1772 1.5615
-13.3889 8.3057 0.3944
-13.0831 7.6845 0.3800
-12.7984 7.1071 0.3669
-12.5324 6.5682 0.3548
-12.2828 6.0638 0.3437
-55.5823 25.7886 1.5384
-56.1923 24.4393 1.5394
-55.6249 22.6104 1.5094
-56.8182 21.5108 1.5281
-19.8065 6.9562 0.5283
-20.7518 6.7294 0.5493
-56.5845 16.8495 1.4875
-56.9266 15.4642 1.4871
-32.2328 7.9249 0.8372
-31.4679 6.9350 0.8132
-12.9714 2.5316 0.3337
-13.0443 2.2201 0.3343
-32.2152 4.6851 0.8229
-16.7514 2.0241 0.4267
-16.7396 1.6134 0.4255
-40.1993 2.8960 1.0204
-53.0247 2.5340 1.3446
-90.7626 2.1411 2.3007
-71.0449 -0.0413 1.8012
-71.0876 -1.7596 1.8037
-80.6473 -3.9478 2.0490
-21.8588 -1.6003 0.5564
-80.7580 -7.8783 2.0609
-26.0787 -3.1819 0.6676
-70.5671 -10.3462 1.8130
-16.8170 -2.8823 0.4339
-60.4614 -11.8734 1.5675
-53.9973 -11.9660 1.4075
-50.8972 -12.5765 1.3348
-44.3539 -12.1041 1.1709
-40.6535 -12.1571 1.0810
-21.1597 -6.8889 0.5671
-38.1080 -13.4335 1.0301
-38.5112 -14.6311 1.0505
-38.1339 -15.5524 1.0505
-38.1473 -16.6440 1.0619
-38.5575 -17.9441 1.0854
-30.7723 -15.2362 0.8766
-38.1893 -20.0718 1.1016
-37.0958 -20.6562 1.0844
-15.9162 -9.3736 0.4719
-19.2738 -11.9875 0.5799
-37.1346 -24.3599 1.1349
-37.1534 -25.6775 1.1543
-37.6338 -27.3765 1.1896
-19.1331 -14.6381 0.6159
-37.6728 -30.2929 1.2361
-38.3731 -32.4135 1.8417
-38.3966 -34.0568 1.8819
-28.0147 -26.0847 1.4036
-25.8655 -25.2777 1.3262
-25.1257 -25.7708 1.3199
-24.6958 -26.5859 1.3307
-24.7452 -27.9649 1.3694
-40.3943 -47.9360 2.2989
-39.2300 -48.9054 2.2993
-23.4538 -30.7312 1.4177
-36.8457 -50.7772 2.3007
-15.7065 -22.7837 1.0148
-34.3522 -52.5023 2.3007
-16.9692 -27.3557 1.1804
-33.2056 -56.5356 2.4039
-17.1128 -30.8180 1.2923
-30.4402 -58.0834 2.4039
-26.7727 -54.2337 2.2170
-21.8840 -47.1692 1.9058
-23.5791 -54.2177 2.1667
-22.1792 -54.5675 2.1583
-23.2306 -61.3651 2.4039
-12.7368 -36.2687 1.4081
-19.9847 -61.6326 2.3731
-18.3601 -61.6626 2.3561
-16.7570 -61.6917 2.3406
-15.1732 -61.7199 2.3266
-13.6088 -61.7579 2.3146
-5.6519 -28.9621 1.0798
-4.9328 -28.9870 1.0757
-4.2184 -29.0117 1.0723
-3.6731 -30.4047 1.1199
-6.0361 -62.6442 2.3008
-4.5217 -62.7871 2.3008
-3.0039 -62.8941 2.3008
-0.6686 -28.3739 1.0368
0.0173 -28.3838 1.0366
0.7036 -28.3938 1.0370
3.1013 -63.3176 2.3139
4.6318 -63.2428 2.3139
5.7615 -59.0426 2.1641
4.5653 -37.4083 1.3743
5.4505 -37.1677 1.3695
5.5475 -32.3612 1.1966
4.8619 -24.7539 0.9191
5.3663 -24.2128 0.9032
5.6248 -22.7608 0.8536
6.0528 -22.1775 0.8367
5.7973 -19.3843 0.7361
6.1865 -19.0005 0.7267
6.0592 -17.1872 0.6626
6.4775 -17.0482 0.6628
2.5280 -6.1980 0.2432
2.7071 -6.2040 0.2458
2.8887 -6.2066 0.2485
3.0729 -6.2058 0.2513
6.3897 -12.1563 0.4981
6.5632 -11.7859 0.4891
6.7388 -11.4418 0.4812
6.9330 -11.1464 0.4755
7.1628 -10.9185 0.4729
3.7746 -5.4612 0.2403
4.0359 -5.5478 0.2482
4.2813 -5.5957 0.2548
4.5403 -5.6461 0.2619
4.8142 -5.6990 0.2696
5.1047 -5.7549 0.2779
5.4137 -5.8140 0.2868
5.7435 -5.8767 0.2966
6.1684 -6.0137 0.3108
6.1984 -5.7575 0.3051
6.2273 -5.5100 0.2997
6.2551 -5.2707 0.2947
6.2672 -5.0271 0.2893
6.3136 -4.8182 0.2859
6.4085 -4.6500 0.2849
6.5028 -4.4826 0.2841
6.5967 -4.3160 0.2834
6.6886 -4.1488 0.2829
6.7672 -3.9745 0.2819
6.8454 -3.8010 0.2811
6.9233 -3.6282 0.2805
7.0009 -3.4559 0.2801
5.9928 -2.7802 0.2369
5.9161 -2.5728 0.2312
5.8427 -2.3747 0.2260
5.8103 -2.1995 0.2225
5.7845 -2.0313 0.2195
5.7561 -1.8664 0.2165
5.7070 -1.6992 0.2130
5.6593 -1.5371 0.2097
5.6214 -1.3819 0.2069
5.6094 -1.2360 0.2052
5.5841 -1.0897 0.2032
5.5559 -0.9454 0.2012
5.5631 -0.8089 0.2006
5.5702 -0.6729 0.2002
5.5773 -0.5374 0.1998
5.5690 -0.4010 0.1991
5.5414 -0.2646 0.1977
5.5140 -0.1299 0.1965
5.4868 0.0034 0.1954
5.4599 0.1353 0.1944
5.4426 0.2666 0.1939
5.5887 0.4093 0.1994
5.8502 0.5709 0.2091
6.1386 0.7492 0.2199
6.4692 0.9487 0.2324
6.7190 1.1518 0.2423
6.9211 1.3593 0.2506
6.6196 1.4671 0.2408
6.4375 1.5908 0.2355
6.2632 1.7094 0.2305
6.0759 1.8171 0.2251
5.8729 1.9121 0.2192
5.6844 2.0039 0.2138
5.6756 2.1564 0.2153
5.6666 2.3112 0.2170
5.6575 2.4685 0.2188
5.6442 2.6269 0.2207
5.6269 2.7861 0.2225
5.6093 2.9483 0.2245
5.6689 3.1567 0.2299
5.7824 3.4055 0.2377
5.9039 3.6721 0.2463
6.0346 3.9587 0.2556
6.0585 4.1872 0.2608
6.1210 4.4528 0.2680
6.2129 4.7534 0.2769
6.3110 5.0748 0.2867
6.4211 5.4240 0.2975
6.5268 5.7891 0.3088
6.6195 6.1635 0.3201
6.7175 6.5649 0.3324
6.7975 6.9721 0.3446
6.8660 7.3915 0.3570
6.9205 7.8209 0.3696
6.6048 7.8380 0.3627
6.3336 7.8957 0.3582
6.1462 8.0533 0.3585
6.0312 8.3116 0.3634
5.8293 8.4559 0.3635
5.5055 8.4142 0.3559
5.2517 8.4661 0.3526
5.0935 8.6720 0.3560
5.2581 9.4690 0.3834
5.1875 9.8982 0.3956
5.3468 10.8307 0.4276
5.5977 12.0650 0.4710
5.4802 12.6007 0.4866
6.2104 15.2788 0.5842
6.0449 15.9672 0.6048
6.2736 17.8634 0.6708
5.8884 18.1586 0.6764
6.5289 21.9259 0.8108
6.2829 23.1292 0.8496
2.9155 11.8584 0.4329
5.7981 26.3096 0.9553
5.5263 28.3154 1.0232
4.5222 26.5705 0.9562
3.8973 26.7987 0.9609
3.2284 26.7178 0.9552
2.5625 26.5868 0.9482
1.9032 26.4172 0.9405
3.2307 67.6027 2.4039
1.5958 67.6426 2.4039
-0.0391 67.6428 2.4039
-1.6731 67.6025 2.4039
-2.4258 49.5592 1.7644
-3.6299 49.5848 1.7685
-6.2783 64.3594 2.3008
-7.8290 64.1685 2.3008
-9.4683 64.5817 2.3239
-11.0224 64.3130 2.3239
-12.5690 64.0061 2.3239
-14.1070 63.6617 2.3239
-15.6358 63.2803 2.3239
-12.7855 46.8527 1.7321
-17.8802 59.7939 2.2267
-9.4898 29.1496 1.0941
-15.4226 43.7523 1.6564
-19.1532 50.4159 1.9263
-19.8575 48.6919 1.8790
-20.6284 47.2812 1.8440
-21.4066 45.9991 1.8143
-21.7457 43.9211 1.7533
-14.9921 28.5255 1.1533
-22.1313 39.7463 1.6287
-21.1821 35.9683 1.4951
-23.2683 37.4128 1.5787
-24.1545 36.8229 1.5786
-20.8119 30.1145 1.3128
-37.2922 51.2668 2.2744
-37.3277 48.7921 2.2049
-37.3610 46.4646 2.1409
-37.3925 44.2691 2.0816
-37.4222 42.1924 2.0268
-38.8754 41.7534 2.0511
-20.9927 21.4818 1.0803
-18.1125 17.6599 0.9103
-13.8932 12.9060 0.6826
-47.3349 41.8869 2.2764
-49.3213 41.5635 2.3239
-42.3507 33.9737 1.9571
-44.5730 34.0194 2.0221
-46.9473 34.0683 2.0927
-49.4927 34.1207 2.1697
-52.2319 34.1771 2.2539
-54.6679 33.9133 2.3239
-31.1125 18.2746 1.3040
-23.8146 13.2247 0.9848
-53.4293 28.0030 2.1819
-19.7149 9.7330 0.7956
-54.9735 25.5066 2.1938
-55.5508 24.1608 2.1938
-55.6249 22.6108 2.1754
-56.8182 21.5112 2.2020
-19.8027 6.9550 0.7610
-20.7457 6.7276 0.7911
-31.1191 9.2667 1.1782
-30.8404 8.3780 1.1601
-30.5717 7.5167 1.1433
-30.2726 6.6718 1.1262
-12.9699 2.5314 0.4803
-13.0417 2.2197 0.4810
-30.8527 4.4871 1.1339
-16.7489 2.0239 0.6138
-16.7376 1.6133 0.6120
-32.2554 2.3239 1.1774
-52.8545 2.5262 1.9272
-63.7680 1.5046 2.3239
-63.7645 -0.0367 2.3239
-63.7247 -1.5770 2.3239
-63.6480 -3.1153 2.3239
-21.8563 -1.6000 0.7995
-62.1885 -6.0664 2.2801
-26.0758 -3.1814 0.9589
-62.9751 -9.2328 2.3239
-16.8152 -2.8819 0.6231
-60.4627 -11.8734 2.2510
-53.9983 -11.9660 2.0211
-50.8980 -12.5765 1.9163
-44.3546 -12.1041 1.6809
-40.6541 -12.1571 1.5517
-21.1574 -6.8880 0.8139
-38.1080 -13.4333 1.4783
-38.1208 -14.4827 1.4922
-38.1339 -15.5522 1.5073
-38.1473 -16.6438 1.5236
-38.1610 -17.7595 1.5411
-28.2016 -13.9633 1.1524
-27.3758 -14.3883 1.1327
-26.7204 -14.8788 1.1203
-15.9141 -9.3723 0.6767
-19.2717 -11.9861 0.8316
-37.1345 -24.3598 1.6275
-37.1534 -25.6774 1.6553
-37.6338 -27.3764 1.7058
-19.1310 -14.6364 0.8830
-37.6728 -30.2929 1.7723
-25.6145 -21.6363 1.6016
-25.0396 -22.2095 1.5988
-24.4618 -22.7766 1.5967
-23.8882 -23.3453 1.5957
-23.3885 -23.9890 1.6006
-22.9191 -24.6731 1.6088
-22.5465 -25.4802 1.6255
-22.3277 -26.4964 1.6554
-22.1936 -27.6673 1.6945
-22.4249 -29.3830 1.7659
-28.5694 -39.3716 2.3239
-15.7025 -22.7779 1.3217
-26.6355 -40.7085 2.3239
-16.9572 -27.3364 1.5366
-24.6398 -41.9517 2.3239
-17.1106 -30.8142 1.6835
-22.5871 -43.0989 2.3239
-21.5405 -43.6351 2.3239
-20.4815 -44.1466 2.3239
-19.4104 -44.6325 2.3239
-18.3281 -45.0929 2.3239
-17.2349 -45.5276 2.3239
-12.7351 -36.2640 1.8346
-15.0187 -46.3179 2.3239
-13.8968 -46.6730 2.3239
-12.7666 -47.0016 2.3239
-11.6288 -47.3032 2.3239
-10.3797 -47.1047 2.3008
-5.6518 -28.9621 1.4074
-4.9327 -28.9869 1.4021
-4.2183 -29.0116 1.3978
-3.6732 -30.4061 1.4600
-4.8403 -50.2361 2.4054
-3.6270 -50.3668 2.4063
-2.4099 -50.4620 2.4069
-0.6682 -28.3633 1.3514
0.0174 -28.3733 1.3512
0.7035 -28.3833 1.3518
2.3649 -48.2768 2.3008
3.5315 -48.2165 2.3008
4.6967 -48.1282 2.3008
5.4082 -44.3123 2.1235
5.3933 -36.7763 1.7677
5.5088 -32.1345 1.5501
4.8204 -24.5423 1.1889
5.3303 -24.0495 1.1706
5.5996 -22.6581 1.1089
6.0295 -22.0913 1.0876
5.7766 -19.3145 0.9573
6.1150 -18.7805 0.9376
5.9726 -16.9410 0.8525
6.4115 -16.8742 0.8564
2.5294 -6.2015 0.3177
2.7071 -6.2040 0.3210
2.8887 -6.2066 0.3245
3.0747 -6.2093 0.3283
6.3403 -12.0622 0.6455
6.5200 -11.7082 0.6346
6.7138 -11.3991 0.6263
6.8621 -11.0323 0.6149
7.1029 -10.8269 0.6126
7.3287 -10.6033 0.6096
3.9206 -5.3893 0.3151
4.1559 -5.4317 0.3233
4.4035 -5.4760 0.3321
4.6650 -5.5224 0.3415
6.2217 -7.0140 0.4428
6.0895 -6.5396 0.4218
6.2682 -6.4135 0.4232
6.1122 -5.9588 0.4027
6.1430 -5.7059 0.3954
6.1725 -5.4615 0.3886
6.1992 -5.2236 0.3821
6.2137 -4.9841 0.3753
6.3092 -4.8148 0.3738
6.4040 -4.6467 0.3725
6.4983 -4.4795 0.3715
6.5922 -4.3130 0.3707
6.6849 -4.1465 0.3700
6.7635 -3.9722 0.3688
6.8417 -3.7989 0.3679
6.9196 -3.6262 0.3671
6.2208 -3.0707 0.3259
5.9648 -2.7672 0.3088
5.8890 -2.5609 0.3015
5.8166 -2.3640 0.2947
5.7741 -2.1857 0.2897
5.7490 -2.0188 0.2858
5.7170 -1.8536 0.2818
5.6688 -1.6878 0.2772
5.6220 -1.5270 0.2730
5.6050 -1.3778 0.2704
5.5932 -1.2324 0.2682
5.5665 -1.0862 0.2655
5.5322 -0.9414 0.2626
5.5300 -0.8040 0.2615
5.5371 -0.6689 0.2609
5.5441 -0.5341 0.2605
5.5354 -0.3986 0.2595
5.5081 -0.2630 0.2577
5.4811 -0.1291 0.2562
5.4543 0.0034 0.2548
5.4276 0.1345 0.2536
5.4246 0.2657 0.2536
5.3935 0.3950 0.2524
5.7547 0.5616 0.2698
6.0332 0.7363 0.2836
6.3456 0.9306 0.2992
6.6911 1.1470 0.3166
6.8915 1.3536 0.3275
6.6067 1.4642 0.3155
6.4253 1.5878 0.3085
6.2515 1.7062 0.3020
6.0790 1.8180 0.2956
5.8758 1.9131 0.2879
5.6852 2.0042 0.2808
5.6764 2.1567 0.2828
5.6674 2.3115 0.2850
5.6583 2.4689 0.2874
5.6417 2.6257 0.2897
5.6244 2.7849 0.2921
5.6067 2.9470 0.2947
5.6662 3.1553 0.3018
5.7795 3.4038 0.3120
5.9009 3.6702 0.3233
5.9980 3.9348 0.3337
6.0053 4.1505 0.3395
6.0516 4.4023 0.3480
6.1400 4.6976 0.3595
6.2344 5.0132 0.3720
6.3306 5.3475 0.3853
6.4803 5.7479 0.4027
6.6068 6.1517 0.4197
6.7041 6.5518 0.4358
6.7685 6.9424 0.4507
6.8356 7.3588 0.4669
6.9011 7.7991 0.4841
6.6005 7.8328 0.4762
6.3306 7.8919 0.4703
6.1333 8.0363 0.4700
6.0114 8.2843 0.4758
5.8267 8.4522 0.4773
5.4897 8.3901 0.4662
5.2299 8.4309 0.4613
5.0770 8.6440 0.4661
5.1457 9.2666 0.4929
5.1671 9.8591 0.5176
5.7159 11.5785 0.6005
5.6139 12.0999 0.6204
5.4966 12.6384 0.6411
6.2224 15.3083 0.7687
6.0569 15.9988 0.7959
6.2802 17.8822 0.8819
6.0280 18.5890 0.9094
6.5427 21.9722 1.0670
6.2668 23.0695 1.1127
2.9154 11.8576 0.5685
6.2303 28.2703 1.3479
5.5258 28.3122 1.3433
5.7740 33.9247 1.6028
5.1296 35.2715 1.6604
3.1631 26.1762 1.2285
2.5110 26.0518 1.2197
1.8680 25.9279 1.2116
2.4617 51.5064 2.4039
1.2161 51.5401 2.4039
-0.0296 51.5435 2.4039
-1.2747 51.5164 2.4039
-2.5186 51.4591 2.4039
-3.6735 50.1834 2.3483
-4.9581 50.8292 2.3840
-5.9676 48.9138 2.3008
-7.1459 48.7432 2.3008
-8.3196 48.5441 2.3008
-9.5829 48.8012 2.3239
-10.7564 48.5426 2.3239
-11.9231 48.2556 2.3239
-12.7833 46.8454 2.2709
-13.9047 46.5003 2.2704
-9.4882 29.1454 1.4342
-15.4200 43.7457 2.1710
-17.6278 46.4016 2.3239
-18.1429 44.4882 2.2501
-18.3573 42.0764 2.1505
-18.7086 40.2022 2.0779
-19.2878 38.9574 2.0376
-14.9903 28.5224 1.5108
-20.5050 36.8261 1.9770
-21.1386 35.8950 1.9544
-21.9157 35.2385 1.9476
-22.8047 34.7657 1.9520
-20.8092 30.1110 1.7189
-25.0811 34.4802 2.0030
-26.9529 35.2314 2.0845
-28.9043 35.9478 2.1683
