ply
format ascii 1.0
element vertex 2068
property float32 x
property float32 y
property float32 z
end_header
-18.8764 -58.2089 -0.8608
-15.4397 -51.8492 -0.7632
-14.1006 -51.9066 -0.7609
-12.7610 -51.9021 -0.7579
-11.4505 -51.9571 -0.7561
-10.1399 -51.9538 -0.7537
-8.8514 -52.0071 -0.7525
-7.5628 -52.0047 -0.7507
-6.2514 -51.7376 -0.7453
-5.0408 -52.3046 -0.7522
-3.7729 -52.3765 -0.7523
-2.5014 -52.3548 -0.7512
-1.2362 -52.4264 -0.7518
0.0263 -44.2807 -0.6348
1.0979 -44.3303 -0.6355
2.1733 -44.3811 -0.6365
3.2537 -44.4331 -0.6377
2.4905 -25.5243 -0.3667
5.1044 -41.8276 -0.6018
3.3462 -22.8195 -0.3289
3.6938 -21.5485 -0.3112
4.1177 -20.9654 -0.3035
4.7139 -21.2695 -0.3088
4.9698 -20.1105 -0.2929
5.4842 -20.0941 -0.2937
5.9105 -19.7625 -0.2900
6.4564 -19.8292 -0.2922
6.1127 -17.3386 -0.2568
6.4564 -16.9924 -0.2529
6.8143 -16.7068 -0.2501
7.1679 -16.4270 -0.2473
7.5316 -16.1820 -0.2452
7.9137 -15.9816 -0.2439
5.8722 -11.1717 -0.1717
5.9361 -10.6596 -0.1651
5.1851 -8.8035 -0.1375
5.2470 -8.4355 -0.1330
5.3055 -8.0871 -0.1287
5.4346 -7.8629 -0.1264
5.5725 -7.6598 -0.1244
5.7081 -7.4603 -0.1226
5.8450 -7.2683 -0.1208
6.1307 -7.2572 -0.1222
6.4274 -7.2458 -0.1236
6.7586 -7.2581 -0.1256
7.1293 -7.2944 -0.1281
7.4330 -7.2463 -0.1293
7.5902 -7.0500 -0.1280
7.7015 -6.8142 -0.1259
7.8113 -6.5818 -0.1239
6.9501 -5.5746 -0.1071
6.2447 -4.7654 -0.0935
5.8872 -4.2715 -0.0857
5.9873 -4.1271 -0.0848
6.0876 -3.9827 -0.0840
6.1697 -3.8268 -0.0829
6.3436 -3.7254 -0.0831
6.5140 -3.6167 -0.0832
6.6099 -3.4637 -0.0824
6.7571 -3.3353 -0.0822
6.9603 -3.2288 -0.0827
7.1234 -3.0976 -0.0826
7.2907 -2.9629 -0.0827
7.4632 -2.8249 -0.0827
7.6461 -2.6848 -0.0829
7.6253 -2.4722 -0.0809
7.4662 -2.2227 -0.0775
7.5314 -2.0453 -0.0766
7.7428 -1.9031 -0.0771
7.8779 -1.7356 -0.0769
8.0053 -1.5619 -0.0765
8.1129 -1.3803 -0.0761
8.2152 -1.1942 -0.0755
8.3179 -1.0045 -0.0750
8.4205 -0.8110 -0.0745
8.5024 -0.6120 -0.0738
8.5220 -0.4067 -0.0727
8.5444 -0.2010 -0.0716
8.3678 0.0054 -0.0689
8.1332 0.2018 -0.0658
8.1212 0.3981 -0.0646
7.9956 0.5859 -0.0625
7.8042 0.7618 -0.0600
7.5236 0.9184 -0.0569
6.7699 0.9930 -0.0504
6.6052 1.1325 -0.0484
6.5800 1.2926 -0.0475
6.5548 1.4530 -0.0466
6.5295 1.6138 -0.0457
6.5042 1.7754 -0.0449
6.4787 1.9378 -0.0440
6.4807 2.1103 -0.0435
6.5034 2.2929 -0.0430
6.5267 2.4800 -0.0426
6.5506 2.6720 -0.0422
6.7444 2.9430 -0.0429
6.7977 3.1640 -0.0428
7.0359 3.4841 -0.0437
7.3021 3.8383 -0.0449
7.7824 4.3339 -0.0473
8.3435 4.9143 -0.0502
9.5855 5.9623 -0.0571
9.1911 6.0298 -0.0543
8.7979 6.0809 -0.0516
8.2257 5.9842 -0.0478
7.8803 6.0294 -0.0455
7.5530 6.0738 -0.0434
7.2265 6.1046 -0.0413
6.9078 6.1274 -0.0393
6.6449 6.1875 -0.0377
6.4912 6.3441 -0.0367
6.4834 6.6502 -0.0366
6.4680 6.9634 -0.0365
6.3789 7.2093 -0.0361
6.3788 7.5702 -0.0362
6.4626 8.0569 -0.0368
7.2133 9.4519 -0.0413
6.9552 9.5854 -0.0401
6.6532 9.6515 -0.0388
6.4362 9.8371 -0.0379
6.4723 10.4343 -0.0387
7.1298 12.1395 -0.0433
6.7939 12.2354 -0.0421
6.4696 12.3450 -0.0410
6.2070 12.5740 -0.0403
5.9705 12.8693 -0.0399
5.8682 13.4936 -0.0406
5.7055 14.0376 -0.0409
5.6806 15.0059 -0.0425
6.0157 17.1301 -0.0472
5.6855 17.5342 -0.0471
6.8870 23.1301 -0.0607
6.3057 23.2146 -0.0596
5.8551 23.8164 -0.0599
5.2566 23.8543 -0.0589
6.0948 31.2309 -0.0759
5.8396 34.3140 -0.0821
5.9937 41.2186 -0.0974
5.0722 41.9823 -0.0982
4.0356 41.8783 -0.0971
2.9512 40.9729 -0.0944
1.9885 41.6230 -0.0955
-4.5234 92.3859 -0.2127
-5.4424 74.3303 -0.1722
-7.2842 74.6618 -0.1744
-11.5809 94.9106 -0.2239
-9.3370 63.6812 -0.1521
-10.2678 59.9056 -0.1452
-11.8492 60.3370 -0.1486
-13.0915 59.0760 -0.1481
-8.1130 32.8329 -0.0840
-11.8764 43.5195 -0.1138
-10.2762 34.3638 -0.0920
-13.0325 40.0305 -0.1098
-14.0654 39.9009 -0.1124
-15.0050 39.4958 -0.1145
-15.8486 38.8609 -0.1160
-15.6308 35.8258 -0.1103
-15.5559 33.4263 -0.1063
-13.9746 28.2249 -0.0929
-18.5267 35.2504 -0.1201
-17.4922 31.4145 -0.1110
-16.1336 27.3955 -0.1005
-20.5533 33.0472 -0.1261
-22.1481 33.7641 -0.1340
-19.0369 27.5459 -0.1139
-12.9635 17.8213 -0.0769
-18.6156 24.3330 -0.1096
-19.4688 24.2127 -0.1140
-19.6325 23.2431 -0.1145
-19.7195 22.2332 -0.1147
-20.6450 22.1736 -0.1199
-16.7020 17.0912 -0.0970
-30.0836 29.3321 -0.1750
-56.1251 49.6660 -0.3283
-56.1709 47.3364 -0.3299
-53.2952 42.7541 -0.3146
-18.3850 14.0321 -0.1092
-16.9750 12.3185 -0.1015
-53.4139 36.8248 -0.3217
-39.9002 26.1087 -0.2423
-21.9389 13.6102 -0.1344
-39.9880 23.4886 -0.2472
-40.0287 22.2294 -0.2499
-40.0631 20.9984 -0.2527
-40.0954 19.7954 -0.2556
-26.0531 12.0887 -0.1680
-41.0996 17.8763 -0.2681
-44.0867 17.9216 -0.2911
-15.9657 6.0449 -0.1068
-16.1875 5.6856 -0.1097
-55.9929 18.1591 -0.3844
-60.9033 18.1374 -0.4238
-67.2078 18.2591 -0.4743
-95.3992 23.4584 -0.6829
-95.4470 21.0381 -0.6933
-95.4944 18.6411 -0.7041
-19.2868 3.2833 -0.1444
-30.9126 4.4967 -0.2350
-30.6322 3.7025 -0.2366
-30.2124 2.9130 -0.2372
-38.1184 2.7475 -0.3042
-19.3495 0.9254 -0.1570
-19.2745 0.4554 -0.1591
-28.7333 -0.0156 -0.2412
-27.4293 -0.6779 -0.2343
-26.7883 -1.3103 -0.2330
-30.2200 -2.2112 -0.2676
-30.3994 -2.9643 -0.2742
-30.4936 -3.7193 -0.2802
-30.4001 -4.4558 -0.2847
-19.1301 -3.2780 -0.1826
-24.9103 -4.8908 -0.2425
-37.2485 -8.2527 -0.3698
-37.2674 -9.2069 -0.3775
-37.2865 -10.1736 -0.3855
-15.2300 -4.5536 -0.1608
-37.9440 -12.3514 -0.4091
-37.9764 -13.3852 -0.4184
-37.8223 -14.3675 -0.4259
-32.0141 -13.0548 -0.3686
-28.4502 -12.4115 -0.3350
-15.8342 -7.3681 -0.1908
-38.5435 -19.0818 -0.4755
-38.5664 -20.2678 -0.4873
-38.5900 -21.4859 -0.4996
-38.6142 -22.7388 -0.5125
-38.6391 -24.0295 -0.5260
-17.3416 -11.3748 -0.2423
-17.0606 -11.7898 -0.2448
-21.6057 -15.7154 -0.3185
-21.2989 -16.2936 -0.3227
-20.9902 -16.8768 -0.3272
-27.0761 -22.8713 -0.0417
-38.7989 -34.4141 -0.0667
-16.8163 -15.6579 -0.0320
-52.8262 -51.6262 -0.1106
-21.5174 -22.0700 -0.0493
-17.7544 -19.1133 -0.0443
-23.7774 -26.8714 -0.0644
-23.2704 -27.6151 -0.0682
-22.7366 -28.3443 -0.0719
-14.8626 -19.4743 -0.0506
-15.0422 -20.7297 -0.0551
-15.2389 -22.1054 -0.0600
-18.8485 -28.8071 -0.0797
-12.1658 -19.6121 -0.0552
-17.8540 -30.3979 -0.0869
-16.8548 -30.3532 -0.0880
-15.0640 -28.7434 -0.0844
-14.2338 -28.8333 -0.0857
-24.4641 -52.7295 -0.1585
-22.9454 -52.7595 -0.1602
-21.4567 -52.7889 -0.1618
-19.9954 -52.8178 -0.1633
-18.7831 -53.4843 -0.1666
-18.7330 -57.7705 -0.1812
-15.3519 -51.5579 -0.1627
-14.0121 -51.5844 -0.1637
-12.6884 -51.6105 -0.1646
-11.3791 -51.6363 -0.1654
-10.0823 -51.6619 -0.1661
-8.7964 -51.6873 -0.1668
-7.5198 -51.7125 -0.1673
-6.2510 -51.7376 -0.1677
-5.0405 -52.3046 -0.1699
-3.7693 -52.3297 -0.1701
-2.5013 -52.3548 -0.1703
-1.2350 -52.3798 -0.1704
0.0304 -51.3286 -0.1669
1.2367 -49.9380 -0.1623
2.5684 -52.4549 -0.1702
3.5194 -48.0648 -0.1557
2.4901 -25.5221 -0.0825
5.0383 -41.2896 -0.1330
3.3436 -22.8033 -0.0732
3.7100 -21.6447 -0.0692
4.1495 -21.1289 -0.0673
4.7297 -21.3420 -0.0676
4.9097 -19.8687 -0.0626
5.4654 -20.0266 -0.0627
5.9253 -19.8136 -0.0616
5.7303 -17.6004 -0.0543
6.0826 -17.2546 -0.0528
6.4263 -16.9146 -0.0512
6.8035 -16.6815 -0.0500
7.1559 -16.4006 -0.0486
7.5077 -16.1319 -0.0473
7.9375 -16.0310 -0.0464
5.7348 -10.9111 -0.0311
5.8198 -10.4516 -0.0293
5.1979 -8.8259 -0.0244
5.2595 -8.4564 -0.0229
5.2958 -8.0730 -0.0215
5.4353 -7.8645 -0.0204
5.5732 -7.6614 -0.0195
5.7088 -7.4619 -0.0185
5.8477 -7.2723 -0.0175
6.1336 -7.2614 -0.0169
6.4305 -7.2500 -0.0163
6.7395 -7.2381 -0.0157
7.0671 -7.2315 -0.0150
7.3351 -7.1516 -0.0141
7.4471 -6.9177 -0.0129
7.5563 -6.6864 -0.0117
7.6580 -6.4533 -0.0105
6.8582 -5.5014 -0.0082
5.8434 -4.4597 -0.0060
5.8371 -4.2356 -0.0051
5.9275 -4.0863 -0.0042
6.0177 -3.9374 -0.0033
6.1251 -3.7996 -0.0024
6.3072 -3.7045 -0.0015
6.4746 -3.5953 -0.0006
6.5765 -3.4467 0.0003
6.7569 -3.3357 0.0013
6.9485 -3.2239 0.0024
7.1112 -3.0928 0.0034
7.2781 -2.9583 0.0045
7.4518 -2.8211 0.0057
7.6226 -2.6770 0.0069
7.4910 -2.4292 0.0078
7.3289 -2.1823 0.0086
7.4237 -2.0166 0.0098
7.6298 -1.8759 0.0111
7.8126 -1.7218 0.0124
7.9383 -1.5493 0.0137
8.0442 -1.3691 0.0150
8.1451 -1.1845 0.0163
8.2461 -0.9964 0.0177
8.3252 -0.8024 0.0190
8.4053 -0.6056 0.0204
8.4158 -0.4022 0.0216
8.4012 -0.1982 0.0228
8.2494 0.0048 0.0235
8.0204 0.1985 0.0240
7.9557 0.3894 0.0250
7.7665 0.5686 0.0256
7.1944 0.7018 0.0248
6.7959 0.8292 0.0245
6.6034 0.9681 0.0248
6.5545 1.1234 0.0257
6.5307 1.2825 0.0267
6.5056 1.4416 0.0276
6.4805 1.6013 0.0286
6.4552 1.7615 0.0296
6.4297 1.9227 0.0307
6.4265 2.0922 0.0318
6.4484 2.2730 0.0331
6.4708 2.4583 0.0345
6.4937 2.6483 0.0359
6.5173 2.8435 0.0373
6.6163 3.0790 0.0393
6.8432 3.3881 0.0421
7.0922 3.7275 0.0452
7.4783 4.1640 0.0494
8.0054 4.7145 0.0547
8.4518 5.2565 0.0599
9.2366 6.0589 0.0678
8.8403 6.1095 0.0673
8.1825 5.9520 0.0645
7.8386 5.9968 0.0641
7.5140 6.0418 0.0637
7.1875 6.0710 0.0632
6.8714 6.0945 0.0627
6.6428 6.1849 0.0629
6.4886 6.3409 0.0638
6.4807 6.6468 0.0663
6.4397 6.9323 0.0685
6.3506 7.1767 0.0703
6.3068 7.4841 0.0727
6.3859 7.9606 0.0767
6.3607 8.3341 0.0798
6.8289 9.4106 0.0894
6.5336 9.4772 0.0895
6.3325 9.6778 0.0908
6.3763 10.2787 0.0959
7.0993 12.0868 0.1122
6.7584 12.1706 0.1124
6.4160 12.2418 0.1125
6.1553 12.4682 0.1141
5.9243 12.7687 0.1164
5.8117 13.3628 0.1213
5.6540 13.9098 0.1258
5.6178 14.8390 0.1338
5.4670 15.5668 0.1399
5.6877 17.5397 0.1572
2.7090 9.0978 0.0813
6.3029 23.2027 0.2069
5.8387 23.7482 0.2113
5.2421 23.7873 0.2112
6.1014 31.2627 0.2770
6.5616 38.5542 0.3411
6.1131 42.0374 0.3714
4.9961 41.3499 0.3649
4.1179 42.7291 0.3766
3.1918 44.3106 0.3902
-1.8519 74.7785 0.6575
-4.5235 92.3807 0.8123
-8.7563 89.7436 0.7896
-11.5805 94.8999 0.8355
-9.0076 61.4296 0.5413
-10.4631 61.0408 0.5384
-17.8576 90.9259 0.8030
-13.2413 59.7474 0.5283
-14.4909 58.6396 0.5194
-13.9044 50.9473 0.4520
-10.2757 34.3598 0.3055
-12.8061 39.3324 0.3505
-13.7769 39.0797 0.3491
-14.7287 38.7657 0.3472
-15.6041 38.2585 0.3437
-16.7559 38.4016 0.3460
-17.1089 36.7608 0.3324
-13.9739 28.2213 0.2561
-17.6485 33.5767 0.3059
-29.7047 53.3429 0.4881
-16.1301 27.3873 0.2517
-37.5271 60.3341 0.5572
-37.5639 57.2601 0.5316
-18.6665 27.0077 0.2521
-12.9615 17.8169 0.1673
-44.2181 57.7938 0.5461
-46.1925 57.4431 0.5465
-24.3573 28.8343 0.2763
-19.7177 22.2292 0.2146
-20.6439 22.1703 0.2158
-16.7004 17.0880 0.1678
-64.1603 62.5513 0.6198
-56.9296 47.9707 0.4906
-53.5212 42.9307 0.4444
-55.4193 42.2936 0.4434
-16.9740 12.3164 0.1309
-53.4217 36.8259 0.3973
-39.9401 26.1316 0.2864
-21.9376 13.6077 0.1517
-40.0197 23.5041 0.2669
-40.0588 22.2430 0.2577
-33.3572 17.4810 0.2069
-40.1341 19.8115 0.2401
-26.0490 12.0848 0.1502
-41.1647 17.9016 0.2289
-44.1925 17.9614 0.2368
-15.9639 6.0431 0.0824
-16.1863 5.6841 0.0805
-56.1223 18.1971 0.2685
-63.5009 18.9066 0.2923
-67.8494 18.4288 0.3003
-89.7298 22.0581 0.3816
-91.0899 20.0714 0.3720
-95.5065 18.6370 0.3741
-19.2852 3.2817 0.0724
-38.1626 2.7481 0.1195
-19.3451 0.9239 0.0577
-19.2726 0.4541 0.0546
-27.6843 -0.0169 0.0744
-28.7307 -0.7119 0.0730
-38.2443 -1.8732 0.0917
-29.6640 -2.1725 0.0669
-29.7532 -2.9033 0.0629
-29.8417 -3.6418 0.0589
-29.8803 -4.3817 0.0549
-37.2115 -6.3788 0.0632
-23.4365 -4.6030 0.0366
-37.2486 -8.2553 0.0530
-37.2674 -9.2095 0.0479
-37.2865 -10.1762 0.0428
-15.1137 -4.5199 0.0153
-37.7837 -12.3019 0.0329
-38.4024 -13.5380 0.0282
-37.8225 -14.3702 0.0225
-37.8441 -15.4349 0.0172
-28.2752 -12.3372 0.0089
-15.8323 -7.3684 0.0027
-38.5862 -19.1058 0.0011
-38.6097 -20.2935 -0.0045
-38.6338 -21.5133 -0.0102
-38.6585 -22.7679 -0.0160
-38.6841 -24.0604 -0.0218
-17.3348 -11.3717 -0.0125
-17.0579 -11.7893 -0.0149
-38.7659 -28.2005 -0.0402
-65.9303 -50.4418 -0.0791
-33.3658 -26.8301 -0.0457
-27.0682 -22.8669 0.3509
-57.6703 -51.1579 0.7551
-16.8138 -15.6572 0.2226
-53.1152 -51.9135 0.7119
-21.5012 -22.0554 0.2921
-17.7515 -19.1119 0.2448
-23.2740 -26.3048 0.3262
-22.7746 -27.0291 0.3250
-22.2681 -27.7626 0.3240
-21.7476 -28.4979 0.3232
-38.0652 -52.4620 0.5788
-36.1887 -52.4990 0.5641
-19.3814 -29.6238 0.3104
-12.1636 -19.6100 0.2006
-17.4319 -29.6815 0.2966
-16.4676 -29.6581 0.2899
-16.4285 -31.3494 0.3001
-14.2314 -28.8304 0.2706
-24.4623 -52.7296 0.4856
-22.9438 -52.7596 0.4773
-21.4552 -52.7890 0.4696
-19.9940 -52.8178 0.4626
-18.7831 -53.4882 0.4616
-18.7317 -57.7706 0.4918
-15.4376 -51.8492 0.4358
-14.0904 -51.8758 0.4310
-12.7593 -51.9021 0.4267
-11.4426 -51.9281 0.4229
-10.1386 -51.9539 0.4195
-8.8456 -51.9794 0.4166
-7.5619 -52.0047 0.4141
-6.2860 -52.0299 0.4121
-5.0402 -52.3046 0.4124
-3.7691 -52.3297 0.4113
-2.5012 -52.3548 0.4105
-1.2350 -52.3798 0.4102
0.0310 -52.4048 0.4103
1.2982 -52.4298 0.4108
2.5682 -52.4549 0.4117
3.5894 -49.0248 0.3859
2.4897 -25.5199 0.2017
5.1540 -42.2409 0.3355
2.0377 -13.8980 0.1110
3.7264 -21.7417 0.1749
4.2091 -21.4340 0.1738
4.6968 -21.1951 0.1734
5.0503 -20.4390 0.1689
5.4176 -19.8529 0.1659
5.9875 -20.0229 0.1694
5.6966 -17.4982 0.1500
6.0528 -17.1713 0.1493
6.4261 -16.9153 0.1493
6.7927 -16.6563 0.1494
7.1459 -16.3790 0.1495
7.4880 -16.0908 0.1495
7.9742 -16.1064 0.1526
5.6176 -10.6889 0.1033
5.7079 -10.2515 0.1012
5.2108 -8.8485 0.0894
5.2722 -8.4774 0.0877
5.2718 -8.0370 0.0852
5.4306 -7.8584 0.0854
5.5740 -7.6631 0.0856
5.7095 -7.4634 0.0857
5.8505 -7.2764 0.0860
6.1366 -7.2655 0.0885
6.4337 -7.2542 0.0911
6.7428 -7.2424 0.0940
7.0651 -7.2302 0.0971
7.1727 -6.9939 0.0972
7.2768 -6.7602 0.0975
7.3791 -6.5303 0.0978
7.4797 -6.3037 0.0981
5.9633 -4.7840 0.0776
5.7496 -4.3886 0.0742
5.8205 -4.2241 0.0746
5.9107 -4.0752 0.0754
6.0007 -3.9268 0.0762
6.1051 -3.7877 0.0772
6.2712 -3.6839 0.0791
6.4358 -3.5743 0.0810
6.5567 -3.4368 0.0824
6.7566 -3.3360 0.0848
6.9368 -3.2189 0.0871
7.0991 -3.0880 0.0892
7.2655 -2.9537 0.0914
7.4405 -2.8174 0.0938
7.5080 -2.6373 0.0950
7.3518 -2.3845 0.0933
7.1966 -2.1434 0.0917
7.3190 -1.9887 0.0937
7.5199 -1.8494 0.0967
7.7295 -1.7040 0.1000
7.8723 -1.5370 0.1025
7.9766 -1.3582 0.1046
8.0760 -1.1750 0.1066
8.1631 -0.9869 0.1086
8.2319 -0.7940 0.1105
8.3105 -0.5993 0.1125
8.3123 -0.3978 0.1136
8.2981 -0.1963 0.1145
8.1343 0.0042 0.1133
7.9107 0.1953 0.1114
7.6701 0.3749 0.1092
7.1689 0.5243 0.1033
6.8856 0.6712 0.1004
6.6606 0.8122 0.0983
6.5405 0.9585 0.0978
6.4878 1.1115 0.0984
6.4821 1.2725 0.0997
6.4572 1.4304 0.1007
6.4321 1.5889 0.1018
6.4069 1.7479 0.1030
6.3815 1.9078 0.1042
6.3731 2.0744 0.1058
6.3942 2.2535 0.1080
6.4158 2.4369 0.1102
6.4378 2.6250 0.1126
6.4604 2.8182 0.1151
6.5238 3.0355 0.1185
6.6607 3.2973 0.1233
6.8940 3.6228 0.1302
7.1941 4.0053 0.1387
7.6848 4.5251 0.1514
8.1857 5.0904 0.1648
9.2825 6.0883 0.1912
8.8292 6.1011 0.1861
8.1397 5.9203 0.1758
7.7973 5.9646 0.1726
7.4753 6.0101 0.1697
7.1489 6.0378 0.1666
6.8682 6.0911 0.1644
6.6407 6.1824 0.1635
6.4860 6.3377 0.1643
6.4780 6.6434 0.1691
6.4116 6.9014 0.1726
6.3226 7.1444 0.1757
6.2365 7.3999 0.1791
6.3110 7.8665 0.1876
6.3175 8.2767 0.1946
6.2258 8.5787 0.1990
6.4182 9.3091 0.2132
6.2320 9.5236 0.2155
6.2831 10.1277 0.2266
7.0691 12.0344 0.2664
6.7233 12.1064 0.2653
6.3633 12.1403 0.2635
6.1044 12.3643 0.2660
5.8969 12.7088 0.2711
5.7530 13.2267 0.2800
5.6076 13.7948 0.2898
5.5118 14.5579 0.3038
5.4129 15.4115 0.3196
2.9489 9.0930 0.1874
2.7092 9.0978 0.1865
6.3008 23.1935 0.4732
5.8369 23.7393 0.4821
5.2300 23.7306 0.4800
6.1172 31.3418 0.6317
6.5453 38.4560 0.7726
5.7505 39.5415 0.7922
5.9610 49.3336 0.9861
4.0733 42.2640 0.8431
3.0375 42.1661 0.8399
2.0011 41.8825 0.8333
-1.8521 74.7788 1.4866
-2.4059 49.1303 0.9772
-3.3462 45.6936 0.9097
-4.4613 45.7205 0.9115
-11.5800 94.8893 1.8950
-13.0802 89.1978 1.7852
-15.7212 91.7089 1.8402
-17.3180 88.1716 1.7746
-18.0202 81.3048 1.6420
-18.8547 76.2929 1.5468
-20.0145 73.3298 1.4932
-10.2752 34.3558 0.7029
-20.9864 64.4524 1.3256
-22.1380 62.7921 1.2988
-23.4178 61.6308 1.2827
-20.9790 51.4331 1.0777
-27.3087 62.5821 1.3207
-35.6933 76.6860 1.6309
-13.9732 28.2178 0.6051
-24.3608 46.3435 1.0025
-29.7028 53.3352 1.1646
-16.1265 27.3790 0.6038
-37.3631 60.0656 1.3388
-37.5670 57.2601 1.2906
-33.8730 49.0053 1.1178
-12.9594 17.8125 0.4114
-43.9252 57.4060 1.3436
-46.1966 57.4432 1.3635
-24.3412 28.8126 0.6941
-19.7159 22.2251 0.5439
-20.6428 22.1670 0.5515
-16.6989 17.0848 0.4325
-51.0379 49.7532 1.2830
-53.6419 49.8210 1.3100
-56.3926 49.8926 1.3391
-56.9298 47.9659 1.3156
-53.5263 42.9302 1.2048
-55.4193 42.2890 1.2160
-16.9730 12.3142 0.3633
-53.4201 36.8204 1.1163
-39.9402 26.1284 0.8154
-21.9363 13.6051 0.4378
-40.4922 23.7784 0.7905
-40.0589 22.2400 0.7655
-33.4031 17.5026 0.6252
-40.1342 19.8085 0.7361
-26.0448 12.0809 0.4684
-41.1719 17.9018 0.7265
-44.8772 18.2365 0.7773
-15.9622 6.0413 0.2715
-16.1852 5.6825 0.2706
-56.1353 18.1973 0.9226
-63.5169 18.9069 1.0268
-67.8681 18.4291 1.0798
-89.7299 22.0519 1.4056
-55.9805 12.3313 0.8639
-64.5900 12.5996 0.9823
-19.2836 3.2801 0.2892
-61.0423 8.8712 0.9030
-38.1626 2.7456 0.5435
-19.3408 0.9224 0.2722
-19.2708 0.4527 0.2682
-30.7766 -0.0208 0.4237
-38.2280 -0.9498 0.5209
-38.2443 -1.8757 0.5161
-38.6556 -2.8336 0.5167
-38.2773 -3.7377 0.5072
-38.2939 -4.6759 0.5032
-37.1933 -5.4565 0.4849
-37.2116 -6.3813 0.4816
-37.2300 -7.3146 0.4785
-37.2486 -8.2578 0.4758
-37.2675 -9.2121 0.4733
-37.2866 -10.1788 0.4711
-15.0871 -4.5130 0.1897
-37.7838 -12.3046 0.4733
-38.4024 -13.5407 0.4794
-37.8225 -14.3729 0.4709
-37.8441 -15.4376 0.4701
-28.1453 -12.2826 0.3491
-15.8304 -7.3687 0.1962
-38.9844 -19.3059 0.4832
-39.0081 -20.5058 0.4838
-39.0325 -21.7382 0.4848
-38.6586 -22.7709 0.4812
-38.6841 -24.0635 0.4830
-17.3279 -11.3685 0.2172
-17.0552 -11.7888 0.2148
-38.7659 -28.2037 0.4911
-62.6140 -47.9098 0.7985
-33.3576 -26.8263 0.4287
-27.0641 -22.8658 0.7436
-57.6366 -51.1330 1.6087
-16.8114 -15.6564 0.4772
-53.1103 -51.9136 1.5350
-21.4851 -22.0410 0.6331
-17.7486 -19.1106 0.5338
-37.4758 -42.3596 1.1522
-35.6898 -42.3606 1.1232
-34.5008 -43.0171 1.1132
-39.9825 -52.3972 1.3247
-38.0622 -52.4620 1.2972
-36.1858 -52.4991 1.2708
-34.3684 -52.5350 1.2462
-12.1614 -19.6080 0.4563
-30.8917 -52.6036 1.2019
-29.2241 -52.6365 1.1819
-16.4251 -31.3451 0.6923
-6.9844 -14.1503 0.3077
-6.5680 -14.1585 0.3034
-17.6470 -40.5824 0.8576
-16.6208 -40.8971 0.8531
-19.9830 -52.7923 1.0880
-18.7832 -53.4920 1.0900
-18.7305 -57.7706 1.1649
-15.4366 -51.8493 1.0354
-14.0895 -51.8759 1.0268
-12.7585 -51.9021 1.0191
-11.4419 -51.9281 1.0122
-10.1380 -51.9539 1.0062
-8.8450 -51.9794 1.0010
-7.5577 -51.9790 0.9961
-6.2856 -52.0299 0.9929
-5.0399 -52.3046 0.9948
-3.7689 -52.3297 0.9928
-2.5011 -52.3548 0.9914
-1.2349 -52.3798 0.9909
0.0310 -52.4048 0.9911
1.2969 -52.3813 0.9912
2.5656 -52.4060 0.9929
3.6038 -49.2253 0.9345
2.4893 -25.5178 0.4858
5.1917 -42.5530 0.8131
2.0380 -13.9014 0.2668
2.3836 -13.9083 0.2683
4.2578 -21.6832 0.4208
4.7557 -21.4626 0.4193
5.0744 -20.5380 0.4042
5.5021 -20.1639 0.4002
5.3771 -17.9830 0.3601
5.6741 -17.4303 0.3526
6.0335 -17.1179 0.3500
6.4259 -16.9160 0.3498
6.7820 -16.6313 0.3482
7.1360 -16.3575 0.3471
7.4777 -16.0698 0.3458
5.4128 -10.9337 0.2388
5.5086 -10.4824 0.2326
5.6003 -10.0589 0.2269
5.2237 -8.8711 0.2037
5.2849 -8.4985 0.1988
5.2479 -8.0013 0.1908
5.4125 -7.8328 0.1907
5.5747 -7.6647 0.1906
5.7102 -7.4650 0.1899
5.8532 -7.2805 0.1896
6.1395 -7.2697 0.1940
6.4369 -7.2584 0.1987
6.7462 -7.2467 0.2038
6.9004 -7.0623 0.2042
7.0056 -6.8316 0.2034
7.1087 -6.6047 0.2028
7.2099 -6.3812 0.2022
6.8361 -5.7618 0.1888
5.7984 -4.6523 0.1578
5.7248 -4.3701 0.1537
5.8040 -4.2126 0.1539
5.8940 -4.0642 0.1545
5.9837 -3.9162 0.1552
6.0941 -3.7813 0.1566
6.2356 -3.6634 0.1588
6.3974 -3.5534 0.1616
6.5564 -3.4372 0.1644
6.7564 -3.3364 0.1684
6.9251 -3.2140 0.1716
7.0869 -3.0832 0.1747
7.2540 -2.9496 0.1781
7.4291 -2.8136 0.1818
7.3751 -2.5912 0.1799
7.2177 -2.3415 0.1757
7.0689 -2.1059 0.1718
7.2172 -1.9615 0.1753
7.4132 -1.8236 0.1800
7.6174 -1.6798 0.1850
7.8075 -1.5249 0.1898
7.9102 -1.3474 0.1926
8.0179 -1.1671 0.1957
8.1027 -0.9802 0.1983
8.1477 -0.7864 0.2001
8.2177 -0.5931 0.2026
8.2113 -0.3935 0.2033
8.1975 -0.1945 0.2040
8.0224 0.0036 0.2007
7.5815 0.1866 0.1908
7.2672 0.3548 0.1841
6.9771 0.5098 0.1781
6.7184 0.6545 0.1728
6.5968 0.8040 0.1711
6.4788 0.9490 0.1695
6.4223 1.0999 0.1696
6.4293 1.2617 0.1715
6.4094 1.4194 0.1728
6.3845 1.5767 0.1740
6.3593 1.7345 0.1753
6.3340 1.8932 0.1768
6.3207 2.0568 0.1786
6.3410 2.2343 0.1816
6.3617 2.4159 0.1847
6.3828 2.6022 0.1881
6.4078 2.7948 0.1917
6.4615 3.0061 0.1963
6.5706 3.2522 0.2029
6.7066 3.5238 0.2107
6.9468 3.8671 0.2221
7.3809 4.3456 0.2404
7.9091 4.9177 0.2625
8.2889 5.4360 0.2806
7.8667 5.4354 0.2718
7.8090 5.6791 0.2756
7.7499 5.9277 0.2796
7.4371 5.9787 0.2746
7.1107 6.0049 0.2689
6.8660 6.0886 0.2661
6.6387 6.1799 0.2640
6.4833 6.3346 0.2648
6.4705 6.6352 0.2716
6.3838 6.8709 0.2758
6.2948 7.1124 0.2802
6.2035 7.3602 0.2849
6.2377 7.7746 0.2959
6.2748 8.2201 0.3080
6.1830 8.5191 0.3144
6.3067 9.1467 0.3327
6.1347 9.3741 0.3364
6.1877 9.9732 0.3533
6.8770 11.7064 0.4097
6.6886 12.0430 0.4167
6.3304 12.0768 0.4133
6.0543 12.2620 0.4154
5.8698 12.6495 0.4245
5.6983 13.1001 0.4357
5.5734 13.7097 0.4522
5.4597 14.4195 0.4719
5.3608 15.2622 0.4958
2.9490 9.0930 0.2934
2.7094 9.0978 0.2918
2.4730 9.1024 0.2903
5.8235 23.6833 0.7514
5.2213 23.6897 0.7482
6.1340 31.4258 0.9884
6.5259 38.3400 1.2015
6.3437 43.6179 1.3626
5.9438 49.1885 1.5326
5.3982 56.0085 1.7413
2.9753 41.3012 1.2818
1.9640 41.1024 1.2741
1.8288 77.5634 2.4025
-0.0462 77.5858 2.4025
-1.9215 77.5713 2.4025
-2.4059 49.1267 1.5225
-3.3466 45.6952 1.4178
-4.4618 45.7222 1.4209
-9.1022 74.5800 2.3225
-10.9095 74.3896 2.3225
-12.7144 74.1636 2.3225
-12.2792 62.5131 1.9646
-16.3150 73.6058 2.3225
-17.5286 70.9219 2.2480
-18.1843 66.6196 2.1223
-10.2748 34.3518 1.1004
-20.1803 61.9721 1.9973
-20.2810 57.5208 1.8661
-20.8923 54.9800 1.7965
-20.9751 51.4197 1.6932
-22.6664 51.9398 1.7245
-23.9538 51.4602 1.7238
-13.9725 28.2142 0.9541
-24.3583 46.3352 1.5828
-29.7008 53.3275 1.8413
-16.1229 27.3708 0.9559
-37.1469 59.7132 2.1107
-37.5701 57.2602 2.0500
-33.8713 48.9989 1.7781
-12.9573 17.8082 0.6555
-43.9205 57.3949 2.1448
-46.2007 57.4433 2.1809
-24.3250 28.7909 1.1115
-19.7140 22.2210 0.8732
-20.6416 22.1638 0.8872
-16.6973 17.0816 0.6973
-51.0430 49.7533 2.0734
-53.6474 49.8211 2.1218
-56.3985 49.8927 2.1741
-56.5531 47.6435 2.1268
-31.6462 25.3788 1.1621
-30.8557 23.5425 1.1073
-16.9720 12.3121 0.5957
-30.5549 21.0578 1.0499
-30.9814 20.2652 1.0429
-21.9350 13.6026 0.7239
-32.0617 18.8252 1.0381
-32.7915 18.2028 1.0424
-33.4492 17.5242 1.0447
-40.1343 19.8056 1.2323
-26.0406 12.0771 0.7866
-41.1792 17.9019 1.2244
-44.8772 18.2332 1.3143
-15.9604 6.0395 0.4607
-16.1840 5.6809 0.4607
-56.1482 18.1976 1.5771
-63.5329 18.9072 1.7619
-67.8868 18.4295 1.8599
-70.9981 17.4435 1.9227
-71.0387 15.6435 1.9026
-64.5975 12.5966 1.7120
-19.2820 3.2785 0.5060
-91.2311 13.2524 2.3716
-71.0962 8.5790 1.8319
-94.0203 9.0461 2.4025
-38.1627 2.7430 0.9676
-19.3364 0.9209 0.4868
-19.2690 0.4514 0.4818
-30.7739 -0.0229 0.7648
-38.2280 -0.9524 0.9448
-38.2521 -1.8787 0.9407
-38.6556 -2.8362 0.9464
-38.2773 -3.7402 0.9335
-38.2939 -4.6785 0.9308
-37.1933 -5.4591 0.9016
-37.2116 -6.3838 0.9001
-37.2300 -7.3172 0.8991
-37.2487 -8.2604 0.8987
-37.2675 -9.2146 0.8989
-37.2840 -10.1807 0.8996
-15.0716 -4.5094 0.3639
-37.7838 -12.3072 0.9138
-38.4025 -13.5435 0.9308
-37.8226 -14.3756 0.9194
-37.8442 -15.4403 0.9232
-28.0468 -12.2416 0.6871
-15.8284 -7.3690 0.3897
-38.9845 -19.3088 0.9654
-39.0082 -20.5088 0.9723
-39.0325 -21.7412 0.9801
-38.6587 -22.7739 0.9786
-38.6842 -24.0666 0.9880
-17.3211 -11.3654 0.4468
-17.0525 -11.7883 0.4446
-38.7660 -28.2069 1.0225
-62.6000 -47.9043 1.6721
-33.3493 -26.8225 0.9030
-27.0599 -22.8647 1.1364
-53.8039 -47.7376 2.2994
-16.8089 -15.6557 0.7319
-52.8590 -51.6729 2.3475
-21.4690 -22.0265 0.9737
-17.7527 -19.1166 0.8233
-37.4724 -42.3595 1.7793
-35.6866 -42.3605 1.7374
-34.5009 -43.0209 1.7247
-39.9793 -52.3973 2.0555
-38.0591 -52.4621 2.0159
-36.1830 -52.4991 1.9778
-34.3657 -52.5350 1.9423
-12.1592 -19.6059 0.7120
-30.8894 -52.6037 1.8783
-29.2220 -52.6366 1.8494
-16.4216 -31.3407 1.0845
-6.9839 -14.1503 0.4827
-6.5675 -14.1586 0.4764
-16.9623 -39.0105 1.2961
-15.8632 -39.0356 1.2815
-14.7841 -39.0602 1.2681
-13.7232 -39.0845 1.2557
-13.1318 -40.5052 1.2889
-15.4356 -51.8493 1.6353
-14.0885 -51.8759 1.6229
-12.7577 -51.9022 1.6117
-11.4412 -51.9281 1.6018
-10.1374 -51.9539 1.5931
-8.8445 -51.9794 1.5856
-7.5572 -51.9790 1.5785
-6.2852 -52.0300 1.5741
-5.0396 -52.3046 1.5775
-3.7687 -52.3297 1.5745
-2.5010 -52.3548 1.5726
-1.2349 -52.3798 1.5719
0.0309 -52.4048 1.5722
1.2968 -52.3814 1.5722
2.5654 -52.4058 1.5747
3.6404 -49.7290 1.4970
2.4889 -25.5156 0.7700
5.1364 -42.1032 1.2748
2.0379 -13.9014 0.4226
2.3834 -13.9082 0.4248
4.3168 -21.9852 0.6750
4.6860 -21.1497 0.6534
5.0418 -20.4078 0.6348
5.5223 -20.2393 0.6343
5.3496 -17.8925 0.5654
5.6615 -17.3929 0.5546
6.0357 -17.1253 0.5515
6.4161 -16.8914 0.5497
6.7713 -16.6063 0.5466
7.1261 -16.3360 0.5442
7.4674 -16.0489 0.5416
5.2188 -10.5426 0.3607
5.3329 -10.1488 0.3523
5.4443 -9.7796 0.3448
5.2367 -8.8939 0.3187
5.2600 -8.4592 0.3083
5.2243 -7.9660 0.2956
5.3945 -7.8074 0.2953
5.5689 -7.6574 0.2954
5.7110 -7.4666 0.2941
5.8560 -7.2846 0.2933
6.1425 -7.2738 0.2997
6.4400 -7.2627 0.3065
6.6372 -7.1303 0.3085
6.7418 -6.9006 0.3065
6.8460 -6.6766 0.3048
6.9480 -6.4561 0.3034
7.0619 -6.2509 0.3027
5.9191 -4.9894 0.2493
5.7280 -4.5963 0.2374
5.7069 -4.3569 0.2329
5.7876 -4.2012 0.2328
5.8774 -4.0532 0.2333
5.9658 -3.9049 0.2338
6.0830 -3.7749 0.2357
6.2193 -3.6543 0.2384
6.3632 -3.5349 0.2415
6.5562 -3.4375 0.2465
6.7557 -3.3366 0.2519
6.9134 -3.2091 0.2558
7.0749 -3.0785 0.2600
6.2941 -2.5597 0.2299
6.4427 -2.4405 0.2340
7.2389 -2.5438 0.2617
7.0882 -2.3000 0.2552
6.9456 -2.0697 0.2492
7.1182 -1.9351 0.2547
7.3094 -1.7986 0.2610
7.5084 -1.6563 0.2677
7.7175 -1.5078 0.2749
7.8538 -1.3383 0.2796
7.9606 -1.1593 0.2835
8.0432 -0.9735 0.2867
8.0877 -0.7811 0.2887
8.1245 -0.5870 0.2906
8.1059 -0.3890 0.2907
8.0944 -0.1926 0.2912
7.9134 0.0030 0.2857
7.3677 0.1809 0.2672
7.0704 0.3447 0.2577
6.7952 0.4961 0.2490
6.6536 0.6477 0.2453
6.5342 0.7959 0.2425
6.4183 0.9397 0.2399
6.3582 1.0884 0.2395
6.3647 1.2486 0.2417
6.3623 1.4086 0.2438
6.3375 1.5646 0.2451
6.3124 1.7213 0.2466
6.2871 1.8788 0.2482
6.2690 2.0396 0.2503
6.2886 2.2154 0.2541
6.3085 2.3953 0.2581
6.3288 2.5797 0.2623
6.3571 2.7722 0.2671
6.4004 2.9772 0.2728
6.5067 3.2201 0.2815
6.6191 3.4773 0.2909
6.7540 3.7592 0.3017
7.1000 4.1797 0.3226
7.6124 4.7327 0.3521
7.8374 5.1392 0.3693
7.7806 5.3753 0.3738
7.7227 5.6157 0.3785
7.6605 5.8587 0.3834
7.3967 5.9456 0.3784
7.0967 5.9925 0.3714
6.8639 6.0860 0.3678
6.6366 6.1774 0.3645
6.4807 6.3314 0.3652
6.4429 6.6063 0.3729
6.3562 6.8406 0.3782
6.2673 7.0806 0.3839
6.1760 7.3269 0.3900
6.1662 7.6847 0.4018
6.2326 8.1642 0.4198
6.1407 8.4601 0.4282
6.0453 8.7669 0.4371
6.0403 9.2291 0.4536
6.0881 9.8117 0.4757
6.7571 11.5016 0.5506
6.6541 11.9801 0.5666
6.2982 12.0144 0.5617
6.0064 12.1640 0.5626
5.8429 12.5907 0.5765
5.6716 13.0378 0.5914
5.5396 13.6255 0.6126
5.4322 14.3457 0.6397
5.3097 15.1158 0.6689
2.9492 9.0930 0.3995
2.7096 9.0978 0.3971
2.4731 9.1024 0.3950
5.7799 23.5048 1.0144
5.1918 23.5546 1.0116
6.1283 31.3948 1.3424
6.4918 38.1368 1.6244
6.4263 44.1830 1.8757
5.9906 49.5722 2.0986
5.2471 54.4371 2.2993
3.9288 54.5345 2.2993
2.7264 57.0569 2.4025
1.3464 57.1018 2.4025
-0.0340 57.1180 2.4025
-1.4147 57.1057 2.4025
-2.3995 48.9912 2.0626
-3.3469 45.6968 1.9263
-4.4623 45.7238 1.9307
-6.6318 54.3345 2.2994
-7.9471 54.1857 2.2994
-9.3529 54.5521 2.3225
-10.6760 54.3469 2.3225
-11.9954 54.1140 2.3225
-13.3110 53.8535 2.3225
-14.6221 53.5654 2.3225
-10.2743 34.3477 1.4981
-16.9588 52.0754 2.2860
-18.0111 51.0792 2.2581
-18.9939 49.9804 2.2264
-19.9719 48.9566 2.1988
-20.9366 47.9723 2.1736
-21.8702 46.9804 2.1488
-13.9718 28.2106 1.3033
-23.5667 44.8260 2.0932
-24.5117 44.0072 2.0784
-16.1193 27.3625 1.3080
-29.6999 47.7383 2.3113
-31.0552 47.3271 2.3225
-27.6271 39.9625 1.9893
-12.9552 17.8038 0.8997
-27.8291 36.3638 1.8670
-27.1914 33.8053 1.7649
-24.3090 28.7693 1.5286
-19.7122 22.2169 1.2026
-20.6405 22.1605 1.2232
-16.6958 17.0784 0.9622
-29.5810 28.8308 1.6598
-29.6735 27.5544 1.6228
-29.7502 26.3157 1.5874
-29.6673 24.9908 1.5460
-29.3308 23.5194 1.4941
-29.0984 22.1992 1.4503
-16.9710 12.3099 0.8283
-24.9978 17.2259 1.1957
-25.5175 16.6892 1.1972
-21.9337 13.6000 1.0101
-30.8398 18.1054 1.3952
-31.3188 17.3829 1.3929
-32.0411 16.7840 1.4019
-33.3824 16.4712 1.4379
-26.0364 12.0732 1.1048
-41.1865 17.9020 1.7228
-44.2173 17.9619 1.8244
-15.9586 6.0376 0.6499
-16.1829 5.6794 0.6509
-56.1612 18.1979 2.2323
-59.0890 17.5806 2.3225
-59.7195 16.2081 2.3225
-60.3214 14.8162 2.3225
-56.5077 12.4397 2.1552
-61.4357 11.9759 2.3225
-19.2804 3.2769 0.7229
-61.5964 8.9434 2.2916
-62.8751 7.5827 2.3225
-63.2904 6.0852 2.3225
-38.1627 2.7405 1.3920
-19.3320 0.9194 0.7013
-19.2671 0.4501 0.6956
-28.5344 -0.0231 1.0257
-27.8482 -0.6956 0.9973
-38.2444 -1.8809 1.3652
-38.2609 -2.8098 1.3623
-38.2773 -3.7428 1.3601
-38.2939 -4.6810 1.3587
-37.1934 -5.4616 1.3185
-37.2117 -6.3863 1.3189
-37.2301 -7.3197 1.3200
-37.2487 -8.2629 1.3219
-37.2676 -9.2172 1.3246
-37.2752 -10.1808 1.3278
-15.0657 -4.5087 0.5382
-37.7839 -12.3099 1.3545
-38.4025 -13.5462 1.3824
-37.8226 -14.3783 1.3682
-37.8442 -15.4431 1.3765
-27.9167 -12.1869 1.0218
-15.8265 -7.3692 0.5833
-38.5864 -19.1145 1.4332
-38.6098 -20.3022 1.4462
-38.6339 -21.5221 1.4605
-38.6587 -22.7769 1.4762
-38.6843 -24.0696 1.4933
-17.3142 -11.3623 0.6763
-17.0498 -11.7878 0.6744
-38.7660 -28.2101 1.5542
-59.0646 -45.2038 2.4025
-33.3411 -26.8187 1.3773
-27.0558 -22.8635 1.5293
-39.9352 -35.4361 2.2993
-16.8065 -15.6549 0.9867
-38.3647 -37.5073 2.2993
-21.4609 -22.0202 1.3146
-17.7616 -19.1279 1.1134
-37.4033 -42.2850 2.4025
-36.4512 -43.2718 2.4025
-35.2985 -44.0192 2.3908
-34.4640 -45.1726 2.4025
-33.3512 -45.9763 2.3968
-31.7072 -46.0087 2.3533
-30.1202 -46.0485 2.3130
-12.1569 -19.6039 0.9679
-27.7963 -47.3399 2.2994
-26.6896 -48.0787 2.2994
-16.4181 -31.3364 1.4769
-6.9834 -14.1503 0.6578
-6.5670 -14.1586 0.6496
-16.9611 -39.0105 1.7681
-15.8621 -39.0356 1.7490
-14.7831 -39.0603 1.7315
-13.7223 -39.0845 1.7154
-13.1296 -40.5013 1.7612
-15.4346 -51.8493 2.2355
-14.0876 -51.8759 2.2193
-12.7568 -51.9022 2.2048
-11.4405 -51.9282 2.1918
-10.1367 -51.9539 2.1805
-8.8440 -51.9794 2.1706
-7.5567 -51.9791 2.1613
-6.2848 -52.0300 2.1555
-5.0394 -52.3046 2.1605
-3.7685 -52.3298 2.1566
-1.1279 -23.6130 0.9716
-0.5569 -23.6230 0.9711
0.0139 -23.6330 0.9712
1.2967 -52.3815 2.1535
2.5651 -52.4056 2.1568
3.9590 -54.0848 2.2299
2.4885 -25.5134 1.0544
5.3398 -43.7732 1.8146
2.0377 -13.9014 0.5785
2.3827 -13.9048 0.5812
4.3518 -22.1653 0.9312
4.6740 -21.0970 0.8915
5.2287 -21.1656 0.9002
5.6250 -20.6172 0.8833
5.3251 -17.8118 0.7691
5.6523 -17.3661 0.7564
6.0379 -17.1327 0.7533
6.4059 -16.8658 0.7490
6.7621 -16.5850 0.7446
7.1162 -16.3146 0.7410
5.0665 -10.8899 0.5008
5.0234 -10.1488 0.4729
5.1492 -9.7999 0.4630
5.3264 -9.5685 0.4588
5.2498 -8.9168 0.4343
5.2353 -8.4202 0.4169
5.2018 -7.9323 0.3996
5.3766 -7.7822 0.3993
5.5504 -7.6327 0.3992
5.7117 -7.4682 0.3985
5.8588 -7.2887 0.3972
6.1455 -7.2780 0.4055
6.3804 -7.1961 0.4104
6.4858 -6.9683 0.4071
6.5903 -6.7461 0.4043
6.6934 -6.5284 0.4018
6.8222 -6.3398 0.4012
6.9225 -6.1280 0.3993
5.7815 -4.8740 0.3275
5.6592 -4.5415 0.3150
5.6891 -4.3438 0.3116
5.7713 -4.1898 0.3113
5.8608 -4.0422 0.3116
5.9480 -3.8937 0.3120
6.0720 -3.7685 0.3146
6.2079 -3.6482 0.3179
6.3628 -3.5352 0.3222
6.5560 -3.4379 0.3287
6.7445 -3.3316 0.3350
6.9018 -3.2042 0.3399
7.0628 -3.0738 0.3451
6.2515 -2.5429 0.3032
6.3075 -2.3897 0.3040
6.4686 -2.2736 0.3100
6.6349 -2.1534 0.3163
6.8067 -2.0288 0.3231
7.0289 -1.9113 0.3324
7.2172 -1.7764 0.3402
7.4133 -1.6358 0.3485
7.6178 -1.4888 0.3575
7.7985 -1.3294 0.3655
7.9041 -1.1516 0.3702
7.9844 -0.9669 0.3739
8.0284 -0.7760 0.3761
8.0184 -0.5798 0.3761
7.9620 -0.3826 0.3740
7.9510 -0.1897 0.3744
7.4702 0.0023 0.3527
7.1655 0.1754 0.3394
6.8838 0.3351 0.3274
6.7110 0.4895 0.3206
6.5901 0.6411 0.3164
6.4728 0.7880 0.3126
6.3588 0.9306 0.3090
6.2952 1.0772 0.3080
6.3013 1.2357 0.3106
6.3074 1.3960 0.3134
6.2912 1.5528 0.3153
6.2662 1.7083 0.3169
6.2410 1.8645 0.3187
6.2181 2.0226 0.3209
6.2370 2.1968 0.3254
6.2561 2.3750 0.3302
6.2756 2.5575 0.3353
6.3071 2.7499 0.3414
6.3419 2.9495 0.3479
6.4439 3.1886 0.3586
6.5534 3.4423 0.3702
6.6695 3.7117 0.3827
6.8625 4.0393 0.4002
7.3648 4.5781 0.4369
7.7532 5.0834 0.4682
7.6964 5.3165 0.4736
7.6382 5.5537 0.4792
7.5685 5.7877 0.4846
7.3565 5.9127 0.4811
7.0944 5.9900 0.4744
6.8617 6.0835 0.4695
6.6345 6.1748 0.4650
6.4781 6.3282 0.4656
6.4155 6.5775 0.4733
6.3288 6.8105 0.4798
6.2400 7.0491 0.4868
6.1487 7.2939 0.4942
6.0961 7.5968 0.5054
6.1564 8.0637 0.5273
6.0809 8.3770 0.5389
5.9891 8.6846 0.5501
5.9543 9.0970 0.5678
5.9936 9.6588 0.5946
6.6497 11.3178 0.6876
6.5789 11.8437 0.7106
6.2662 11.9526 0.7087
5.9796 12.1089 0.7101
5.8159 12.5316 0.7273
5.6434 12.9722 0.7455
5.5061 13.5423 0.7712
5.4049 14.2726 0.8059
5.2596 14.9719 0.8387
2.9494 9.0930 0.5057
2.7098 9.0978 0.5026
2.4733 9.1024 0.4997
5.7582 23.4149 1.2783
5.1706 23.4569 1.2741
6.0168 30.8215 1.6667
6.4657 37.9813 2.0457
6.2307 42.8355 2.2993
5.1918 42.9595 2.2993
4.1508 43.0612 2.2993
3.1322 43.4739 2.3170
2.1569 45.1375 2.4025
1.0652 45.1737 2.4025
-0.0270 45.1864 2.4025
-1.1193 45.1758 2.4025
-2.2112 45.1419 2.4025
-3.3023 45.0843 2.4025
-4.3923 45.0035 2.4025
-5.2455 42.9728 2.2994
-6.2851 42.8507 2.2994
-7.3225 42.7061 2.2994
-8.3571 42.5394 2.2994
-9.4827 42.7756 2.3225
-10.5209 42.5622 2.3225
-11.5550 42.3263 2.3225
-10.2739 34.3437 1.8961
-13.6094 41.7873 2.3225
-14.6290 41.4846 2.3225
-15.6132 41.0814 2.3181
-16.5408 40.5431 2.3072
-17.4393 39.9558 2.2946
-18.3326 39.3782 2.2835
-13.9711 28.2070 1.6528
-20.0658 38.1639 2.2610
-21.0057 37.7096 2.2604
-16.1158 27.3543 1.6602
-22.7019 36.4871 2.2439
-23.3894 35.6417 2.2226
-24.0098 34.7272 2.1976
-12.9531 17.7994 1.1440
-13.5270 17.6739 1.1546
-24.6003 30.5812 2.0325
-24.2928 28.7476 1.9455
-19.7103 22.2128 1.5322
-20.6394 22.1572 1.5593
-16.6943 17.0752 1.2273
-26.2539 25.5856 1.8802
-27.2201 25.2737 1.9011
-22.5407 19.9365 1.5368
-22.4539 18.9125 1.4960
-22.5898 18.1120 1.4722
-22.7520 17.3556 1.4517
-16.9700 12.3078 1.0610
-23.2650 16.0299 1.4265
-23.6112 15.4405 1.4210
-21.9324 13.5975 1.2966
-24.3961 14.3205 1.4178
-24.8681 13.8006 1.4218
-25.3748 13.2901 1.4282
-26.1784 12.9147 1.4517
-26.0322 12.0693 1.4232
-28.1000 12.2118 1.5155
-29.2458 11.8781 1.5571
-15.9568 6.0358 0.8392
-16.1818 5.6778 0.8412
-45.1693 14.6330 2.3225
-45.6404 13.5761 2.3225
-46.0881 12.5053 2.3225
-46.5125 11.4212 2.3225
-46.9128 10.3243 2.3225
-47.2887 9.2149 2.3225
-19.2788 3.2753 0.9399
-28.0978 4.0777 1.3605
-27.8264 3.3540 1.3390
-27.4819 2.6405 1.3150
-26.8047 1.9231 1.2760
-19.3277 0.9179 0.9160
-19.2653 0.4487 0.9094
-25.9254 -0.0227 1.2197
-25.9523 -0.6500 1.2175
-26.2552 -1.2930 1.2290
-26.7447 -1.9658 1.2499
-38.2774 -3.7454 1.7870
-38.2940 -4.6836 1.7870
-37.1934 -5.4641 1.7358
-37.2117 -6.3889 1.7379
-37.2301 -7.3222 1.7411
-37.2488 -8.2655 1.7454
-37.2676 -9.2198 1.7508
-37.2664 -10.1810 1.7563
-15.0598 -4.5080 0.7125
-37.7839 -12.3125 1.7956
-38.4026 -13.5489 1.8344
-37.8227 -14.3810 1.8173
-25.9964 -10.6102 1.2572
-25.7118 -11.2262 1.2525
-15.8246 -7.3695 0.7770
-25.8821 -12.8231 1.2819
-38.6099 -20.3052 1.9304
-38.6340 -21.5251 1.9514
-38.6588 -22.7800 1.9742
-38.6843 -24.0727 1.9990
-17.3073 -11.3592 0.9058
-17.0470 -11.7873 0.9043
-38.7661 -28.2134 2.0864
-42.0386 -32.1769 2.2975
-33.3328 -26.8149 1.8517
-27.0517 -22.8624 1.9226
-32.0665 -28.4567 2.3225
-16.8040 -15.6541 1.2417
-30.7743 -30.0894 2.3225
-21.4571 -22.0183 1.6559
-17.7757 -19.1448 1.4045
-28.6726 -32.4177 2.3225
-27.9300 -33.1590 2.3225
-27.1670 -33.8816 2.3225
-26.1202 -34.2390 2.2993
-25.3261 -34.9160 2.2993
-24.5132 -35.5727 2.2993
-23.6822 -36.2088 2.2993
-12.1547 -19.6018 1.2239
-21.9694 -37.4189 2.2994
-21.0874 -37.9895 2.2994
-16.4146 -31.3320 1.8695
-14.2215 -28.8188 1.6965
-19.1706 -41.3348 2.4025
-16.9759 -39.0474 2.2426
-17.1885 -42.3029 2.4025
-14.7821 -39.0603 2.1953
-13.7214 -39.0845 2.1754
-14.1190 -43.5561 2.4025
-13.0730 -43.9192 2.4025
-12.0206 -44.2675 2.4032
-10.9567 -44.5810 2.4036
-9.8823 -44.8587 2.4036
-8.7994 -45.1027 2.4033
-7.7098 -45.3164 2.4029
-6.6145 -45.5004 2.4025
-5.4516 -45.1349 2.3748
-4.2849 -44.4769 2.3334
-3.1707 -44.0308 2.3049
-1.1279 -23.6132 1.2341
-0.5569 -23.6232 1.2335
0.0139 -23.6331 1.2337
1.0908 -44.0677 2.3013
2.1529 -43.9870 2.2994
3.2324 -44.1628 2.3125
2.4881 -25.5112 1.3390
5.3376 -43.7588 2.3036
5.8085 -39.6287 2.0939
5.0236 -29.3191 1.5558
4.2886 -21.8449 1.1650
4.8681 -21.9744 1.1785
5.1664 -20.9151 1.1288
5.5885 -20.4849 1.1134
5.3186 -17.7913 0.9745
5.6123 -17.2443 0.9525
5.9507 -16.8866 0.9413
6.1610 -16.2222 0.9132
6.2386 -15.3023 0.8705
6.4364 -14.7574 0.8491
4.7296 -10.1664 0.5920
4.8599 -9.8191 0.5792
5.0388 -9.5905 0.5735
5.2134 -9.3662 0.5682
5.2472 -8.9131 0.5490
5.2109 -8.3815 0.5246
5.1846 -7.9067 0.5033
5.3588 -7.7570 0.5027
5.5321 -7.6081 0.5024
5.7047 -7.4597 0.5024
5.8616 -7.2928 0.5014
6.1295 -7.2597 0.5100
6.2365 -7.0345 0.5056
6.3410 -6.8133 0.5015
6.4452 -6.5982 0.4979
6.5880 -6.4263 0.4977
6.7504 -6.2737 0.4994
6.7158 -5.9456 0.4870
5.7085 -4.8129 0.4063
5.6125 -4.5046 0.3924
5.6714 -4.3308 0.3899
5.7550 -4.1785 0.3894
5.8439 -4.0310 0.3896
5.9302 -3.8826 0.3899
6.0610 -3.7622 0.3933
6.1966 -3.6420 0.3971
6.3626 -3.5356 0.4031
6.5557 -3.4383 0.4109
6.7333 -3.3265 0.4179
6.8902 -3.1993 0.4237
6.2358 -2.7143 0.3802
6.2095 -2.5262 0.3757
6.1777 -2.3410 0.3711
6.3333 -2.2265 0.3781
6.4938 -2.1081 0.3854
6.6594 -1.9853 0.3933
6.9445 -1.8889 0.4083
7.1288 -1.7552 0.4176
7.3206 -1.6158 0.4275
7.5204 -1.4703 0.4380
7.7440 -1.3206 0.4502
7.8482 -1.1440 0.4557
7.9264 -0.9605 0.4599
7.9700 -0.7708 0.4624
7.9150 -0.5729 0.4594
7.8229 -0.3765 0.4545
7.8125 -0.1869 0.4547
7.2623 0.0018 0.4235
6.9739 0.1703 0.4079
6.7689 0.3291 0.3972
6.6464 0.4843 0.3916
6.5277 0.6346 0.3863
6.4124 0.7802 0.3814
6.3003 0.9216 0.3769
6.2335 1.0662 0.3753
6.2392 1.2231 0.3782
6.2448 1.3817 0.3813
6.2455 1.5410 0.3845
6.2206 1.6954 0.3862
6.1954 1.8505 0.3882
6.1699 2.0065 0.3905
6.1862 2.1784 0.3956
6.2045 2.3549 0.4012
6.2251 2.5365 0.4073
6.2578 2.7280 0.4146
6.2915 2.9256 0.4223
6.3823 3.1576 0.4343
6.4889 3.4080 0.4480
6.6018 3.6735 0.4627
6.7338 3.9630 0.4795
7.1325 4.4332 0.5165
7.6708 5.0288 0.5652
7.6138 5.2588 0.5713
7.5555 5.4929 0.5778
7.4785 5.7183 0.5835
7.3308 5.8914 0.5840
7.0922 5.9874 0.5774
6.8595 6.0810 0.5712
6.6324 6.1723 0.5655
6.4728 6.3225 0.5658
6.3883 6.5490 0.5730
6.3017 6.7807 0.5807
6.2128 7.0179 0.5888
6.1216 7.2611 0.5975
6.0225 7.5044 0.6063
6.0164 7.8796 0.6255
5.9843 8.2433 0.6436
5.8922 8.5435 0.6566
5.8976 9.0097 0.6821
5.9340 9.5620 0.7137
6.6612 11.3365 0.8349
6.5745 11.8349 0.8606
6.2265 11.8758 0.8533
5.9506 12.0493 0.8560
5.7861 12.4665 0.8763
5.6139 12.9032 0.8980
5.4791 13.4749 0.9291
5.3779 14.2002 0.9707
5.2363 14.9046 1.0106
2.9496 9.0930 0.6120
2.7099 9.0978 0.6081
5.7058 20.9976 1.3947
5.7278 23.2896 1.5381
5.1574 23.3955 1.5372
5.8898 30.1692 1.9732
6.0091 35.2970 2.2993
5.1524 35.4205 2.2993
4.2935 35.5250 2.2993
3.4328 35.6108 2.2993
2.6860 37.2797 2.4025
1.7839 37.3299 2.4025
0.8810 37.3602 2.4025
-0.0223 37.3707 2.4025
-0.9257 37.3615 2.4025
-1.8288 37.3324 2.4025
-2.7312 37.2836 2.4025
-3.6325 37.2151 2.4025
-4.5322 37.1267 2.4025
-5.2760 35.9680 2.3343
-6.0544 35.3079 2.2994
-6.9092 35.1668 2.2994
-7.7611 35.0069 2.2994
-8.6098 34.8282 2.2994
-9.5497 34.9785 2.3225
-10.2734 34.3397 2.2944
-11.2445 34.5233 2.3225
-12.0849 34.2675 2.3225
-12.9202 33.9931 2.3225
-13.7500 33.7001 2.3225
-14.5740 33.3885 2.3225
-15.3917 33.0587 2.3225
-13.9704 28.2034 2.0025
-17.0070 32.3438 2.3225
-17.7428 31.8495 2.3146
-16.0869 27.3031 2.0095
-19.0541 30.6219 2.2842
-19.5904 29.8502 2.2584
-20.0563 29.0066 2.2277
-12.9510 17.7950 1.3884
-13.5246 17.6692 1.4017
-21.4065 26.6087 2.1482
-21.9167 25.9335 2.1326
-19.7085 22.2087 1.8621
-20.6382 22.1539 1.8957
-16.6927 17.0720 1.4925
-20.6123 20.0857 1.7960
-20.6191 19.1428 1.7528
-20.7643 18.3635 1.7238
-20.8966 17.5989 1.6959
-21.0521 16.8773 1.6719
-21.2433 16.2030 1.6524
-16.9690 12.3057 1.2939
-21.7827 15.0068 1.6296
-22.1956 14.5130 1.6305
-21.9311 13.5949 1.5833
-23.0620 13.5356 1.6374
-23.4857 13.0316 1.6412
-23.9183 12.5254 1.6463
-24.4061 12.0385 1.6558
-24.9791 11.5792 1.6716
-25.5796 11.1147 1.6895
-26.5808 10.7938 1.7340
-15.9550 6.0340 1.0287
-16.1806 5.6763 1.0317
-27.4965 8.9058 1.7350
-27.2690 8.1094 1.7038
-26.8304 7.2782 1.6610
-26.2109 6.4343 1.6087
-25.8962 5.6973 1.5767
-25.7249 5.0111 1.5547
-19.2772 3.2738 1.1571
-25.4863 3.6970 1.5203
-25.3954 3.0592 1.5063
-25.1254 2.4124 1.4827
-24.8619 1.7820 1.4605
-19.3233 0.9164 1.1307
-19.2635 0.4474 1.1234
-24.7138 -0.0233 1.4373
-24.7790 -0.6223 1.4379
-24.9406 -1.2299 1.4450
-25.1775 -1.8523 1.4572
-25.6942 -2.5159 1.4864
-25.9120 -3.1709 1.4992
-26.0568 -3.8298 1.5087
-26.4444 -4.5420 1.5332
-26.7250 -5.2580 1.5525
-26.7606 -5.9400 1.5585
-26.5464 -6.5692 1.5510
-26.5886 -7.2657 1.5594
-15.0590 -4.5088 0.8871
-25.1809 -8.2074 1.4909
-24.6623 -8.7029 1.4687
-24.3352 -9.2545 1.4585
-24.0244 -9.8071 1.4502
-23.8447 -10.4127 1.4506
-15.8227 -7.3698 0.9708
-23.7443 -11.7657 1.4704
-24.0292 -12.6389 1.5030
-24.5216 -13.6642 1.5505
-35.5853 -20.9717 2.2762
-35.1473 -21.8744 2.2762
-17.3005 -11.3560 1.1353
-17.0443 -11.7867 1.1344
-34.2028 -24.8951 2.3107
-32.6276 -24.9762 2.2397
-32.0587 -25.7925 2.2381
-27.0476 -22.8613 2.3162
-26.6036 -23.6112 2.3225
-16.8016 -15.6533 1.4969
-25.5147 -24.9492 2.3225
-21.4533 -22.0164 1.9975
-17.7827 -19.1542 1.6958
-23.7497 -26.8542 2.3225
-23.1277 -27.4600 2.3225
-22.4893 -28.0502 2.3225
-21.8351 -28.6245 2.3225
-21.1655 -29.1824 2.3225
-20.4807 -29.7233 2.3225
-19.7813 -30.2469 2.3225
-12.1525 -19.5998 1.4802
-18.3404 -31.2402 2.3225
-17.5998 -31.7090 2.3225
-16.4111 -31.3276 2.2625
-14.2190 -28.8159 2.0536
-15.3039 -32.9999 2.3225
-14.5155 -33.3904 2.3225
-13.7165 -33.7602 2.3225
-12.9075 -34.1094 2.3225
-12.0890 -34.4372 2.3225
-11.1497 -34.3983 2.2994
-10.3223 -34.6803 2.2994
-9.4873 -34.9404 2.2994
-8.6453 -35.1785 2.2994
-7.7969 -35.3946 2.2994
-7.2564 -37.1962 2.4033
-6.3597 -37.3834 2.4039
-5.4579 -37.5470 2.4044
-4.5518 -37.6871 2.4050
-3.6418 -37.8033 2.4056
-2.7274 -37.8773 2.4050
-1.1278 -23.6134 1.4970
-0.5569 -23.6233 1.4962
0.0139 -23.6333 1.4965
0.9266 -37.4401 2.3716
1.7747 -36.2644 2.2994
2.6497 -36.2048 2.2994
2.4876 -25.5090 1.6238
4.3929 -36.0162 2.2994
5.6467 -38.5273 2.4686
5.0130 -29.2590 1.8827
5.6578 -28.8216 1.8636
4.9100 -22.1654 1.4412
5.3075 -21.4879 1.4058
5.8807 -21.5578 1.4202
5.3064 -17.7520 1.1783
5.4893 -16.8678 1.1289
5.8888 -16.7122 1.1286
5.9031 -15.5443 1.0599
6.0929 -14.9460 1.0297
4.7808 -10.9622 0.7637
4.5854 -9.8572 0.6949
4.7701 -9.6385 0.6881
4.9509 -9.4240 0.6819
5.1280 -9.2135 0.6761
5.2370 -8.8966 0.6627
5.1866 -8.3432 0.6314
5.1674 -7.8811 0.6065
5.3411 -7.7321 0.6056
5.5139 -7.5837 0.6050
5.6859 -7.4358 0.6048
5.8644 -7.2969 0.6057
5.9928 -7.0984 0.6020
6.0988 -6.8798 0.5967
6.2029 -6.6656 0.5918
6.3589 -6.5106 0.5924
6.5195 -6.3600 0.5939
6.6801 -6.2089 0.5956
5.9656 -5.2820 0.5213
5.6372 -4.7533 0.4832
5.5950 -4.4910 0.4710
5.6538 -4.3179 0.4678
5.7388 -4.1672 0.4672
5.8264 -4.0195 0.4672
5.9167 -3.8742 0.4676
6.0500 -3.7559 0.4718
6.1939 -3.6409 0.4769
6.3653 -3.5375 0.4843
6.5555 -3.4387 0.4932
6.7221 -3.3215 0.5006
6.8786 -3.1945 0.5073
6.1971 -2.6979 0.4531
6.1679 -2.5098 0.4473
6.1182 -2.3189 0.4404
6.2035 -2.1813 0.4435
6.3584 -2.0646 0.4518
6.5181 -1.9437 0.4606
6.8621 -1.8669 0.4826
7.0425 -1.7344 0.4932
7.2301 -1.5964 0.5046
7.4254 -1.4523 0.5167
7.6700 -1.3086 0.5325
7.7931 -1.1365 0.5401
7.8692 -0.9541 0.5448
7.9073 -0.7653 0.5471
7.8141 -0.5661 0.5407
7.7230 -0.3722 0.5348
7.6785 -0.1842 0.5323
7.0654 0.0013 0.4907
6.8274 0.1662 0.4753
6.7033 0.3254 0.4680
6.5830 0.4793 0.4613
6.4664 0.6282 0.4550
6.3531 0.7726 0.4491
6.2428 0.9127 0.4437
6.1728 1.0554 0.4413
6.1782 1.2107 0.4445
6.1833 1.3677 0.4481
6.1883 1.5265 0.4519
6.1755 1.6827 0.4547
6.1504 1.8366 0.4569
6.1250 1.9915 0.4593
6.1361 2.1604 0.4648
6.1538 2.3352 0.4712
6.1775 2.5167 0.4784
6.2093 2.7064 0.4867
6.2419 2.9021 0.4956
6.3218 3.1272 0.5087
6.4256 3.3742 0.5244
6.5354 3.6361 0.5413
6.7045 3.9453 0.5640
6.8879 4.2806 0.5890
7.4327 4.8721 0.6466
7.5329 5.2023 0.6671
7.4745 5.4334 0.6745
7.3906 5.6504 0.6801
7.3029 5.8684 0.6860
7.0925 5.9871 0.6807
6.8594 6.0803 0.6732
6.6319 6.1712 0.6663
6.4397 6.2896 0.6630
6.3502 6.5094 0.6708
6.2586 6.7337 0.6790
6.1647 6.9629 0.6878
6.0684 7.1974 0.6971
5.9694 7.4376 0.7071
5.8824 7.7035 0.7195
5.8826 8.1025 0.7441
5.7983 8.4066 0.7598
5.8141 8.8814 0.7906
5.8754 9.4668 0.8307
6.6727 11.3553 0.9829
6.5303 11.7544 1.0045
6.1850 11.7959 0.9959
5.9401 12.0272 1.0038
5.7566 12.4020 1.0240
5.5845 12.8349 1.0491
5.4623 13.4325 1.0877
5.3510 14.1284 1.1340
5.2178 14.8510 1.1823
5.0937 15.7016 1.2406
2.7101 9.0978 0.7138
5.3091 19.5367 1.5231
5.7041 23.1919 1.7976
5.1402 23.3157 1.7978
5.8032 29.7234 2.2813
5.1214 30.0808 2.2993
4.3915 30.1875 2.2993
3.6596 30.2778 2.2993
2.9261 30.3518 2.2993
2.2895 31.7751 2.4025
1.5206 31.8183 2.4025
0.7509 31.8444 2.4025
-0.0191 31.8533 2.4025
-0.7891 31.8452 2.4025
-1.5589 31.8199 2.4025
-2.3280 31.7775 2.4025
-3.0962 31.7180 2.4025
-3.8629 31.6414 2.4025
-4.6280 31.5478 2.4025
-5.3650 31.2852 2.3909
-5.8878 29.9659 2.2994
-6.6133 29.8275 2.2994
-7.3358 29.6727 2.2994
-8.0551 29.5020 2.2994
-8.7709 29.3151 2.2994
-9.5779 29.4044 2.3225
-10.2926 29.1832 2.3225
-11.0027 28.9460 2.3225
-11.7079 28.6928 2.3225
-12.4078 28.4237 2.3225
-13.1021 28.1388 2.3225
-13.7905 27.8381 2.3225
-14.4726 27.5217 2.3225
-15.1481 27.1898 2.3225
-15.8032 26.8194 2.3205
-16.4354 26.4112 2.3165
-17.0348 25.9540 2.3094
-17.6127 25.4704 2.3010
-12.9489 17.7907 1.6331
-13.5222 17.6645 1.6491
-18.7465 23.3002 2.2141
-18.7843 22.2250 2.1517
-18.7325 21.1070 2.0840
-18.7176 20.0903 2.0249
-16.6912 17.0688 1.7581
-18.8493 18.3659 1.9353
-19.0119 17.6489 1.9049
-19.2080 16.9854 1.8800
-19.4156 16.3500 1.8582
-19.6626 15.7617 1.8420
-19.9129 15.1866 1.8276
-16.9680 12.3035 1.5271
-20.5349 14.1455 1.8138
-20.9568 13.7013 1.8182
-21.3869 13.2559 1.8240
-21.8544 12.8251 1.8337
-22.3058 12.3752 1.8427
-22.7383 11.9058 1.8507
-23.1753 11.4297 1.8599
-23.6236 10.9491 1.8706
-24.0672 10.4557 1.8817
-24.4331 9.9199 1.8874
-15.9532 6.0322 1.2184
-16.1795 5.6747 1.2225
-25.0251 8.1035 1.8718
-24.8573 7.3905 1.8417
-24.6723 6.6910 1.8119
-24.5554 6.0262 1.7885
-24.4544 5.3784 1.7676
-24.2429 4.7208 1.7400
-19.2756 3.2722 1.3745
-24.0186 3.4825 1.7028
-23.8234 2.8683 1.6800
-23.6612 2.2702 1.6608
-23.5744 1.6881 1.6479
-19.3189 0.9149 1.3456
-19.2616 0.4461 1.3377
-23.5544 -0.0238 1.6320
-23.6196 -0.5948 1.6335
-23.7889 -1.1747 1.6432
-23.9922 -1.7667 1.6563
-24.3729 -2.3881 1.6825
-24.6242 -3.0150 1.7007
-24.7227 -3.6353 1.7095
-24.7778 -4.2574 1.7163
-24.7775 -4.8765 1.7203
-24.6929 -5.4827 1.7195
-24.4450 -6.0509 1.7084
-24.0273 -6.5675 1.6863
-15.0618 -4.5106 1.0622
-23.5365 -7.6731 1.6690
-23.2482 -8.2056 1.6587
-22.9790 -8.7404 1.6508
-22.7892 -9.3045 1.6495
-22.5807 -9.8624 1.6478
-15.8208 -7.3700 1.1649
-22.4118 -11.1071 1.6662
-22.3036 -11.7330 1.6755
-22.3594 -12.4611 1.6985
-22.4825 -13.2514 1.7284
-22.6870 -14.1213 1.7665
-17.2936 -11.3529 1.3650
-17.0416 -11.7863 1.3647
-28.5606 -20.7906 2.3225
-28.0813 -21.4984 2.3210
-27.6197 -22.2235 2.3225
-21.7431 -18.3798 2.1792
-22.2163 -19.7193 2.2704
-16.7991 -15.6526 1.7525
-21.7846 -21.3039 2.3224
-21.2932 -21.8541 2.3225
-17.7677 -19.1397 1.9852
-20.2651 -22.9161 2.3225
-19.7301 -23.4280 2.3225
-19.1816 -23.9266 2.3225
-18.6199 -24.4115 2.3225
-18.0452 -24.8823 2.3225
-17.4581 -25.3387 2.3225
-16.8589 -25.7803 2.3225
-12.1503 -19.5977 1.7368
-15.6254 -26.6177 2.3225
-14.9921 -27.0128 2.3225
-14.3482 -27.3917 2.3225
-13.6942 -27.7542 2.3225
-13.0305 -28.0999 2.3225
-12.3576 -28.4285 2.3225
-11.6759 -28.7397 2.3225
-10.9859 -29.0334 2.3225
-10.1858 -29.0177 2.2994
-9.4877 -29.2729 2.2994
-8.7828 -29.5099 2.2994
-8.0716 -29.7287 2.2994
-7.3547 -29.9289 2.2994
-6.6324 -30.1104 2.2994
