ply
format ascii 1.0
element vertex 1994
property float32 x
property float32 y
property float32 z
end_header
0.0454 -71.2590 -12.6352
1.7734 -71.4720 -12.6764
3.3732 -27.6292 -4.9344
3.5138 -71.6864 -12.7253
4.1469 -28.2686 -5.0647
4.7813 -65.2488 -11.5992
4.8732 -28.4183 -5.1109
5.5823 -28.4134 -5.1325
7.5170 -21.3171 -4.0048
6.3009 -28.4215 -5.1596
7.9281 -20.8609 -3.9536
7.9663 -19.5269 -3.7359
7.1592 -28.9616 -5.2872
8.4112 -19.2721 -3.7246
8.0183 -29.3711 -5.3954
8.3087 -17.8477 -3.4869
2.9015 -9.6993 -1.7940
8.9456 -18.0618 -3.5696
6.9520 -21.3461 -3.9778
3.3270 -6.3281 -1.2660
3.4293 -6.1567 -1.2479
3.6236 -6.1511 -1.2640
4.0277 -6.1380 -1.2996
3.8230 -6.1449 -1.2812
3.9508 -5.7149 -1.2297
5.1354 -4.7688 -1.2391
5.3044 -4.6922 -1.2520
4.4091 -6.0594 -1.3262
5.3873 -4.5383 -1.2452
4.5732 -5.9758 -1.3316
5.7608 -4.6196 -1.3052
2.3898 -2.9711 -0.6747
5.4218 -4.1365 -1.2052
5.5869 -4.0527 -1.2196
5.0336 -5.9573 -1.3798
5.8085 -4.0028 -1.2463
4.6738 -5.2678 -1.2458
6.5714 -4.2981 -1.3871
6.6497 -4.1234 -1.3821
5.0477 -5.4196 -1.3100
6.5162 -3.8258 -1.3345
4.5014 -4.6047 -1.1389
6.7922 -3.7701 -1.3718
4.8317 -4.7093 -1.1931
6.6583 -3.4881 -1.3272
7.9302 -3.9131 -1.5611
12.5447 -3.4052 -2.2922
8.1131 -3.7624 -1.5786
12.5881 -3.0924 -2.2855
12.6811 -5.5125 -2.4404
12.6043 -5.1206 -2.4008
12.6633 -2.7883 -2.2859
12.5770 -4.7588 -2.3726
12.5230 -4.3955 -2.3414
7.4490 -1.4524 -1.3378
12.4746 -4.0427 -2.3131
7.3513 -1.2498 -1.3142
12.5050 -3.7211 -2.3011
7.3718 -1.0707 -1.3127
13.6163 -0.3187 -2.3985
7.4127 -0.8943 -1.3156
13.6218 0.0104 -2.3985
7.5655 -0.7277 -1.3390
7.7224 -0.5549 -1.3638
32.1095 0.8006 -5.6547
7.9352 -0.3777 -1.3992
36.9895 1.8173 -6.5190
23.0236 1.6897 -4.0632
44.3454 9.8348 -7.9884
34.2649 3.3487 -6.0587
34.8428 8.6156 -6.3115
27.7890 3.3955 -4.9261
38.0391 10.3874 -6.9331
34.4381 5.0552 -6.1238
44.4649 13.3046 -8.1595
35.1852 6.0367 -6.2800
9.1873 2.9926 -1.6985
8.6741 3.0592 -1.6166
34.1394 6.7102 -6.1197
8.4272 3.2031 -1.5844
7.7189 3.8232 -1.5132
8.2465 3.3646 -1.5651
7.5502 3.9696 -1.4983
8.0694 3.5221 -1.5470
7.3849 4.1134 -1.4846
7.8917 3.6740 -1.5293
7.1951 4.2387 -1.4665
6.7163 5.6744 -1.5431
7.0684 4.3975 -1.4618
6.6363 5.8874 -1.5568
6.9429 4.5556 -1.4580
6.5550 6.1046 -1.5718
6.8368 4.7262 -1.4591
6.4583 6.3127 -1.5846
6.7740 4.9289 -1.4706
6.5609 6.7305 -1.6490
6.8192 5.2184 -1.5072
6.7951 5.4652 -1.5305
14.0849 15.1655 -3.6310
14.0419 15.8716 -3.7175
26.9949 37.2067 -8.0619
13.9181 16.5193 -3.7890
25.6723 37.2449 -7.9330
13.3848 16.6884 -3.7523
12.5917 19.2469 -4.0334
7.1568 11.5387 -2.3810
7.0743 12.0459 -2.4496
9.7161 17.4992 -3.5096
9.2789 17.7068 -3.5051
8.8340 17.8966 -3.4993
8.3706 18.0434 -3.4873
7.3764 18.1491 -3.4346
7.9112 18.1921 -3.4780
7.1128 18.7896 -3.5222
4.0042 27.5326 -4.8776
3.3321 27.5738 -4.8693
6.8744 19.5758 -3.6374
4.2877 59.5021 -10.4593
6.7439 20.7983 -3.8331
6.8909 23.1431 -4.2332
6.3853 23.5072 -4.2703
-9.9268 67.7321 -12.0063
5.9561 24.2265 -4.3736
-10.1450 59.2119 -10.5369
-11.6180 59.1809 -10.5789
5.4318 24.6484 -4.4248
-10.8268 48.8726 -8.7810
4.9381 25.3018 -4.5194
-12.1621 49.2350 -8.8969
4.6361 27.2390 -4.8440
-11.4029 41.7968 -7.6009
-13.9575 39.6057 -7.3690
-13.7507 42.2482 -7.7959
-12.4443 32.7641 -6.1507
-17.2037 26.2326 -5.5099
-15.0542 21.7883 -4.6520
-14.4034 19.8053 -4.3021
-13.0342 31.9682 -6.0591
-14.9143 19.4994 -4.3132
-15.4349 19.2004 -4.3288
-15.5515 18.4159 -4.2359
-15.6601 17.6606 -4.1485
-13.9096 31.8887 -6.1065
-15.2821 16.4175 -3.9426
-17.8058 18.2252 -4.4792
-14.3972 30.9443 -5.9911
-15.6422 31.6008 -6.1901
-18.1288 17.6802 -4.4522
-16.0244 30.4967 -6.0485
-17.1786 15.9621 -4.1234
-17.0891 30.6979 -6.1691
-18.3790 16.2680 -4.3165
-15.6612 26.5995 -5.4205
-18.1132 15.2683 -4.1666
-16.3773 26.3389 -5.4470
-11.5437 6.4126 -2.3250
-17.7983 14.2817 -4.0142
-11.9974 6.2902 -2.3854
-12.4792 6.1631 -2.4512
-14.0549 10.7302 -3.1109
-12.8941 5.9849 -2.5039
-14.1831 10.2953 -3.0837
-13.2603 5.7696 -2.5475
-13.5499 5.5102 -2.5772
-14.0170 9.6663 -2.9963
-13.8498 5.2459 -2.6097
-14.1611 4.9759 -2.6453
-14.3951 9.4221 -3.0279
-14.0545 4.5601 -2.6044
-13.9483 4.1559 -2.5657
-14.9768 9.2938 -3.1026
-14.6237 3.9750 -2.6719
-14.9007 8.7552 -3.0425
-14.7041 3.6177 -2.6702
-10.6251 0.2523 -1.8764
-14.7607 3.2555 -2.6658
-14.8194 2.8948 -2.6633
-10.4012 -0.0044 -1.8366
-14.8629 2.5321 -2.6597
-12.0230 -0.2957 -2.1239
-13.3459 -0.6512 -2.3600
-15.1411 2.2044 -2.6996
-13.6542 -0.9975 -2.4184
-15.4307 1.8670 -2.7427
-13.8673 -1.3507 -2.4616
-15.7329 1.5189 -2.7895
-14.0659 -1.7140 -2.5038
-14.9162 1.0770 -2.6397
-10.4755 0.5023 -1.8514
-15.7596 -2.3082 -2.8147
-14.6932 -2.5161 -2.6347
-15.7723 -3.4928 -2.8559
-15.5090 -3.0433 -2.7937
-16.6840 -4.1200 -3.0385
-16.9041 -4.6105 -3.0983
-20.4550 -10.1247 -4.0396
-17.8930 -5.3480 -3.3027
-20.3742 -10.7053 -4.0739
-17.8611 -5.8122 -3.3222
-17.0669 -9.5007 -3.4579
-11.7909 -4.1546 -2.2114
-11.5802 -4.3978 -2.1914
-17.9775 -10.5847 -3.6935
-18.1364 -11.2771 -3.7814
-19.3938 -7.9065 -3.7056
-19.2690 -12.6372 -4.0805
-12.5562 -5.4764 -2.4240
-19.8237 -13.6973 -4.2672
-12.4745 -5.8035 -2.4348
-19.0415 -13.8485 -4.1700
-19.8660 -15.1955 -4.4301
-18.5176 -14.8870 -4.2088
-19.2967 -16.2968 -4.1864
-19.3240 -17.1369 -4.2813
-15.7867 -14.6967 -3.5756
-13.8935 -13.5755 -3.2204
-13.3657 -13.7067 -3.1742
-14.2962 -15.3880 -3.4828
-14.4314 -16.3067 -3.6109
-15.2883 -69.3778 -11.7886
-13.5803 -69.5895 -11.7652
-6.1399 -36.0805 -6.0730
-5.2453 -36.0753 -6.0490
-8.4826 -70.2206 -11.7364
-6.7855 -70.4304 -11.7403
-2.6144 -36.3102 -6.0402
-1.7333 -36.3051 -6.0305
-0.8545 -36.3000 -6.0243
0.0230 -36.2949 -6.0215
0.9003 -36.2899 -6.0223
1.7784 -36.2848 -6.0266
2.4717 -33.7318 -5.6106
6.2956 -64.4900 -10.7482
8.2446 -67.5319 -11.2846
4.7442 -32.3416 -5.4216
4.6197 -26.9409 -4.5333
5.3130 -27.0434 -4.5706
6.3381 -28.5899 -4.8561
6.8918 -27.8805 -4.7622
7.6472 -28.0121 -4.8145
2.9011 -9.6980 -1.6783
7.0407 -21.6188 -3.7692
7.6136 -21.5913 -3.7951
7.8519 -20.6610 -3.6636
7.8061 -19.1346 -3.4251
8.2425 -18.8860 -3.4150
8.3641 -17.9671 -3.2841
9.0854 -18.3443 -3.3919
3.3441 -6.3607 -1.1906
3.4544 -6.2019 -1.1760
3.6505 -6.1968 -1.1913
3.8517 -6.1912 -1.2077
4.0584 -6.1850 -1.2251
4.0537 -5.8638 -1.1804
4.5332 -6.2301 -1.2757
4.5930 -6.0018 -1.2512
2.3896 -2.9709 -0.6311
4.5778 -5.4180 -1.1740
4.6876 -5.2834 -1.1689
5.0049 -5.3736 -1.2151
4.4134 -4.5147 -1.0446
4.7328 -4.6130 -1.0933
5.0847 -4.7218 -1.1478
5.3102 -4.6974 -1.1725
5.2770 -4.4455 -1.1410
5.6761 -4.5517 -1.2030
5.6160 -4.2847 -1.1678
5.3290 -3.8657 -1.0882
5.7820 -3.9847 -1.1606
6.5474 -4.2825 -1.2929
6.5939 -4.0889 -1.2820
6.8989 -4.0506 -1.3217
6.7574 -3.7509 -1.2766
6.6253 -3.4709 -1.2353
7.8928 -3.8948 -1.4534
8.0053 -3.7125 -1.4570
8.2605 -3.5909 -1.4870
12.1930 -4.9537 -2.1723
12.1548 -4.5992 -2.1448
12.1204 -4.2543 -2.1196
12.1158 -3.9265 -2.1013
12.1426 -3.6134 -2.0899
12.1718 -3.3041 -2.0803
12.2026 -2.9979 -2.0722
7.3823 -1.6256 -1.2464
7.2616 -1.4159 -1.2197
7.2815 -1.2380 -1.2175
7.3020 -1.0606 -1.2161
7.3561 -0.8875 -1.2210
7.5077 -0.7223 -1.2427
7.6658 -0.5509 -1.2661
7.8756 -0.3750 -1.2987
13.3363 -0.3123 -2.1970
13.6584 0.0103 -2.2492
14.0657 0.3505 -2.3166
14.8243 0.7282 -2.4434
16.3928 1.2029 -2.7055
37.9832 3.7117 -6.2810
27.7850 3.3947 -4.6062
40.5451 5.9513 -6.7425
41.9194 7.1916 -6.9969
34.3024 6.7419 -5.7503
34.2031 7.5851 -5.7619
33.4284 8.2655 -5.6626
44.3576 12.1123 -7.5604
17.4897 5.2330 -3.0013
9.1196 2.9705 -1.5766
8.6133 3.0377 -1.5011
8.3979 3.1919 -1.4764
8.2181 3.3530 -1.4585
8.0373 3.5080 -1.4408
7.8606 3.6595 -1.4244
7.6890 3.8083 -1.4094
7.5212 3.9543 -1.3956
7.3334 4.0847 -1.3786
7.1508 4.2125 -1.3628
7.0250 4.3704 -1.3584
6.9003 4.5276 -1.3549
6.7764 4.6844 -1.3523
6.7146 4.8856 -1.3630
6.7579 5.1714 -1.3967
6.7590 5.4361 -1.4235
6.6930 5.6546 -1.4378
6.6131 5.8667 -1.4506
6.5318 6.0830 -1.4644
6.4228 6.2779 -1.4735
6.3122 6.4753 -1.4834
6.6229 7.1309 -1.5964
13.2805 15.0108 -3.2874
13.2883 15.7716 -3.3824
13.2553 16.5268 -3.4745
12.5647 16.4655 -3.3965
11.7749 16.2290 -3.2879
12.7108 18.4405 -3.6724
28.7128 43.8882 -8.5992
7.1560 11.5372 -2.2259
7.0686 12.0361 -2.2884
9.5772 17.2489 -3.2345
9.0841 17.3349 -3.2084
8.6871 17.5988 -3.2173
8.2318 17.7442 -3.2065
7.7223 17.7575 -3.1742
7.2195 17.7631 -3.1430
6.7281 17.7734 -3.1151
6.7480 19.2157 -3.3383
6.5878 20.3170 -3.5009
6.3153 21.2099 -3.6273
6.4414 23.7136 -4.0277
6.0356 24.5500 -4.1438
5.3305 24.1883 -4.0598
4.9409 25.3163 -4.2279
4.5243 26.5823 -4.4198
4.0060 27.5455 -4.5626
3.3336 27.5868 -4.5548
4.2802 59.3991 -9.7622
-11.2291 92.0690 -15.2091
-10.0495 68.5677 -11.3643
-10.0198 58.4796 -9.7302
-11.4770 58.4612 -9.7710
-10.8404 48.9331 -8.2205
-11.7918 47.7349 -8.0653
-25.2752 92.6433 -15.7527
-27.8356 93.1076 -15.9426
-14.1246 43.3964 -7.4875
-11.7325 33.2911 -5.7917
-12.2434 32.2346 -5.6582
-12.7841 31.3539 -5.5567
-13.7066 31.4227 -5.6264
-14.5913 31.3607 -5.6773
-15.1328 30.5710 -5.5995
-16.1297 30.6964 -5.6928
-16.6995 29.9974 -5.6369
-16.1818 27.4834 -5.2370
-16.5940 26.6869 -5.1607
-14.2929 21.7938 -4.2805
-14.3945 20.8331 -4.1594
-20.0645 27.5892 -5.6040
-16.3933 21.4328 -4.4332
-14.4372 17.9590 -3.7862
-14.6228 17.3159 -3.7245
-16.6295 18.7535 -4.1195
-17.1989 18.4763 -4.1492
-17.5055 17.9175 -4.1180
-16.9166 16.4977 -3.8850
-16.1104 14.9693 -3.6162
-16.8957 14.9548 -3.7108
-17.5420 14.7865 -3.7736
-14.3503 11.5148 -3.0267
-15.0337 11.4772 -3.1118
-14.2780 10.3639 -2.9031
-14.0192 9.6677 -2.8026
-12.9170 8.4544 -2.5410
-13.7307 8.5204 -2.6601
-14.0985 8.2836 -2.6922
-11.1871 6.2144 -2.1072
-11.6175 6.0909 -2.1603
-12.0736 5.9626 -2.2180
-12.4343 5.7713 -2.2583
-12.7853 5.5628 -2.2973
-13.1528 5.3486 -2.3397
-13.4795 5.1055 -2.3756
-13.7775 4.8410 -2.4071
-13.6167 4.4178 -2.3600
-14.2380 4.2420 -2.4496
-14.3600 3.9032 -2.4540
-14.4437 3.5535 -2.4533
-14.4997 3.1978 -2.4493
-14.5577 2.8435 -2.4471
-14.6178 2.4902 -2.4468
-14.8367 2.1599 -2.4743
-15.1157 1.8287 -2.5131
-15.4063 1.4872 -2.5551
-15.2498 1.1009 -2.5243
-15.0530 0.7216 -2.4885
-14.8640 0.3528 -2.4555
-14.5301 -0.0063 -2.4000
-14.1495 -0.3482 -2.3382
-12.0145 -0.5864 -1.9874
-13.3369 -0.9745 -2.2097
-13.5836 -1.3232 -2.2556
-13.7733 -1.6785 -2.2934
-15.1276 -2.2158 -2.5275
-15.5036 -2.6550 -2.6006
-14.8804 -2.9201 -2.5075
-15.6329 -3.4621 -2.6480
-16.1991 -4.0004 -2.7598
-16.4034 -4.4741 -2.8126
-16.6201 -4.9677 -2.8699
-16.8502 -5.4835 -2.9320
-11.7882 -4.1538 -2.0683
-11.5789 -4.3974 -2.0499
-16.9493 -6.9101 -3.0298
-12.5545 -5.4758 -2.2674
-12.4725 -5.8027 -2.2776
-17.5022 -8.6633 -3.2337
-15.8100 -8.3072 -2.9576
-19.6352 -10.9306 -3.7219
-19.4640 -11.4601 -3.7413
-16.9492 -10.5391 -3.3063
-18.8114 -12.3372 -3.7270
-20.6329 -14.2567 -4.1553
-19.9905 -14.5389 -4.0959
-19.2119 -14.6954 -4.0084
-18.6997 -15.0336 -3.9765
-19.3626 -16.3527 -3.9127
-16.2395 -14.4017 -3.3513
-15.1137 -14.0703 -3.1885
-13.8561 -13.5391 -2.9916
-13.3639 -13.7050 -2.9562
-14.1577 -15.2391 -3.2126
-14.0758 -15.9051 -3.2806
-14.0458 -16.6660 -3.3667
-14.6863 -36.1300 -6.0280
-13.6763 -36.1241 -5.9703
-12.6849 -36.1184 -5.9170
-11.5353 -35.5727 -5.7803
-10.5960 -35.5849 -5.7390
-9.6691 -35.5955 -5.7014
-8.7534 -35.6048 -5.6673
-7.8477 -35.6126 -5.6367
-6.9510 -35.6190 -5.6095
-6.0622 -35.6241 -5.5855
-5.2453 -36.0753 -5.6346
-4.3301 -35.8449 -5.5806
-3.4536 -35.8460 -5.5660
-2.5810 -35.8459 -5.5545
-1.7114 -35.8445 -5.5461
-0.8438 -35.8417 -5.5407
0.0226 -35.8377 -5.5384
0.8889 -35.8324 -5.5390
1.7558 -35.8259 -5.5427
2.6244 -35.8180 -5.5494
3.4956 -35.8088 -5.5592
4.4278 -36.2695 -5.6453
4.6751 -31.8712 -4.9766
4.9444 -28.8356 -4.5196
5.5027 -28.0094 -4.4094
6.0374 -27.2339 -4.3087
6.3931 -25.8637 -4.1149
8.1221 -29.7525 -4.7631
2.9007 -9.6967 -1.5630
9.4976 -29.1636 -4.7361
7.7123 -21.8717 -3.5808
8.3010 -21.8431 -3.6076
7.6528 -18.7591 -3.1276
8.0811 -18.5164 -3.1185
8.4200 -18.0877 -3.0794
8.9359 -18.0429 -3.1073
3.3612 -6.3935 -1.1146
3.4798 -6.2476 -1.1034
3.6777 -6.2431 -1.1179
3.8808 -6.2380 -1.1333
4.0895 -6.2325 -1.1498
4.1617 -6.0201 -1.1287
4.4720 -6.1459 -1.1721
4.1884 -5.4731 -1.0626
2.3894 -2.9708 -0.5878
4.6233 -5.4720 -1.1043
4.7014 -5.2991 -1.0918
4.9467 -5.3113 -1.1185
4.3290 -4.4285 -0.9542
4.6382 -4.5208 -0.9979
4.9781 -4.6229 -1.0465
5.3540 -4.7363 -1.1010
5.1715 -4.3567 -1.0414
5.5566 -4.4560 -1.0967
5.5468 -4.2321 -1.0741
5.7396 -4.1637 -1.0915
6.4453 -4.4419 -1.2048
6.5674 -4.2957 -1.2076
6.9673 -4.3205 -1.2614
6.8626 -4.0294 -1.2243
6.7230 -3.7319 -1.1827
7.0674 -3.7026 -1.2271
7.8558 -3.8766 -1.3471
7.9437 -3.6840 -1.3463
8.2209 -3.5738 -1.3780
11.8595 -4.8183 -1.9675
11.8279 -4.4757 -1.9434
11.8101 -4.1455 -1.9232
11.8223 -3.8316 -1.9092
11.8501 -3.5265 -1.8991
11.8721 -3.2229 -1.8893
7.3286 -1.8005 -1.1588
7.1582 -1.5763 -1.1253
7.1666 -1.3975 -1.1208
7.2134 -1.2265 -1.1230
7.2337 -1.0508 -1.1217
7.3005 -0.8809 -1.1282
7.4510 -0.7169 -1.1483
7.6103 -0.5470 -1.1703
7.8184 -0.3724 -1.2004
12.9039 -0.3023 -1.9792
13.1067 0.0097 -2.0094
13.3854 0.3334 -2.0524
13.7799 0.6767 -2.1145
14.2166 1.0430 -2.1844
15.3163 1.4965 -2.3579
16.7536 2.0468 -2.5856
18.6359 2.7352 -2.8851
41.2632 7.0786 -6.4117
36.3884 7.1515 -5.6786
43.2490 9.5907 -6.7825
43.7140 10.8083 -6.8934
43.7775 11.9535 -6.9460
17.5072 5.2381 -2.7967
9.0392 2.9442 -1.4547
8.5535 3.0165 -1.3877
8.3688 3.1807 -1.3696
8.1856 3.3396 -1.3523
8.0056 3.4941 -1.3359
7.8299 3.6451 -1.3208
7.6594 3.7935 -1.3069
7.4740 3.9294 -1.2910
7.2814 4.0556 -1.2741
7.1071 4.1867 -1.2608
6.9822 4.3437 -1.2567
6.8558 4.4984 -1.2531
6.7125 4.6402 -1.2469
6.6574 4.8439 -1.2579
6.6979 5.1254 -1.2884
6.7067 5.3940 -1.3147
6.6699 5.6351 -1.3337
6.5901 5.8463 -1.3454
6.4970 6.0504 -1.3558
6.3878 6.2437 -1.3640
6.2776 6.4398 -1.3731
6.4708 6.9671 -1.4517
14.6433 16.5510 -3.3737
12.4892 14.8230 -2.9588
13.9365 17.3759 -3.4000
14.6297 19.1715 -3.6808
44.1227 60.8128 -11.4669
14.2868 20.7266 -3.8418
11.3970 17.4205 -3.1768
7.1551 11.5358 -2.0714
7.0629 12.0264 -2.1282
9.4426 17.0065 -2.9681
8.9973 17.1691 -2.9575
8.4802 17.1796 -2.9231
7.9710 17.1819 -2.8897
7.4749 17.1885 -2.8596
6.9904 17.1993 -2.8324
6.5165 17.2142 -2.8080
6.0518 17.2331 -2.7864
6.3336 19.5327 -3.1325
4.0079 27.5584 -4.2484
6.1679 20.7150 -3.2972
3.3351 27.5997 -4.2412
6.0205 22.1642 -3.5037
4.2738 59.3125 -9.0725
6.1170 24.8810 -3.9086
5.3296 24.1845 -3.7779
4.9307 25.2642 -3.9268
4.3081 25.3123 -3.9170
-11.3016 32.0679 -5.1926
-11.3155 92.7739 -14.2639
-8.8013 60.0492 -9.2631
-12.0118 31.6242 -5.1668
-8.4550 49.3461 -7.6418
-9.7260 49.5407 -7.7066
-12.3924 30.3928 -5.0135
-10.9126 49.2577 -7.7019
-13.4615 30.8602 -5.1433
-11.9730 48.4676 -7.6219
-14.3748 30.8948 -5.2059
-15.7190 31.7548 -5.4138
-11.2900 21.4856 -3.7089
-25.3601 92.9525 -14.7108
-11.9564 21.4771 -3.7566
-12.4709 21.1803 -3.7567
-13.1484 43.9792 -7.0090
-12.9987 20.9045 -3.7629
-13.5368 20.6404 -3.7736
-13.8995 42.7038 -6.8579
-17.7001 16.4461 -3.6985
-18.4937 26.7652 -4.9742
-14.9952 20.6184 -3.8985
-17.6758 15.6450 -3.6139
-17.6533 14.8800 -3.5352
-16.3855 21.4221 -4.1247
-14.3487 11.5132 -2.8173
-16.7779 20.8703 -4.0958
-15.1567 11.5708 -2.9206
-16.7635 19.8504 -3.9745
-14.3424 10.4105 -2.7148
-14.2133 9.8013 -2.6452
-16.7467 18.8852 -3.8617
-14.3998 9.4248 -2.6371
-14.3175 8.8843 -2.5823
-16.7109 17.9517 -3.7528
-13.1165 7.7065 -2.3318
-13.2625 7.3670 -2.3258
-16.5491 16.9383 -3.6240
-11.2621 5.9044 -1.9497
-11.6895 5.7728 -1.9993
-12.0077 5.5732 -2.0304
-12.3394 5.3686 -2.0642
-17.5434 17.1087 -3.7506
-12.6859 5.1586 -2.1011
-14.1066 3.8341 -2.2446
-13.0489 4.9422 -2.1411
-14.1933 3.4917 -2.2446
-12.6035 4.4283 -2.0502
-13.0748 4.2419 -2.1099
-14.2488 3.1422 -2.2411
-13.5835 4.0469 -2.1759
-14.3060 2.7942 -2.2392
-14.3122 0.3396 -2.2016
-13.9381 -0.0062 -2.1438
-14.9309 2.1735 -2.3186
-13.8449 -0.3408 -2.1305
-15.3284 -0.7483 -2.3612
-14.8143 1.7921 -2.2934
-12.0291 -0.8790 -1.8560
-14.9225 1.4403 -2.3045
-13.3062 -1.2963 -2.0576
-14.7301 1.0632 -2.2705
-14.0108 -1.7076 -2.1726
-14.5471 0.6972 -2.2394
-14.3361 -2.1000 -2.2306
-15.0817 -3.3402 -2.3791
-14.8705 -2.5468 -2.3230
-15.6895 -3.8747 -2.4894
-15.2111 -2.9852 -2.3871
-15.9333 -4.3460 -2.5443
-16.1343 -4.8227 -2.5947
-16.3398 -5.3175 -2.6480
-11.7856 -4.1530 -1.9259
-11.5775 -4.3970 -1.9089
-16.5424 -6.7444 -2.7540
-12.5529 -5.4752 -2.1115
-12.4706 -5.8019 -2.1209
-19.3634 -9.5847 -3.3320
-19.1966 -10.0869 -3.3447
-19.0331 -10.5957 -3.3602
-18.8726 -11.1121 -3.3787
-18.6921 -11.6231 -3.3961
-18.3765 -12.0523 -3.3911
-19.8103 -13.6885 -3.7160
-18.9789 -13.8034 -3.6220
-18.7982 -14.3792 -3.6531
-19.4703 -15.6533 -3.8565
-17.1883 -14.5166 -3.2185
-18.7025 -16.5861 -3.5764
-16.1335 -15.0198 -3.1540
-13.8190 -13.5031 -2.7648
-13.3620 -13.7032 -2.7390
-14.5911 -15.7057 -3.0682
-13.4094 -15.9110 -2.9785
-13.4102 -16.7156 -3.0678
-19.5060 -37.2162 -6.0177
-18.3703 -37.2097 -5.9433
-17.6335 -38.0045 -6.0006
-14.6863 -36.1300 -5.5863
-13.5219 -35.7164 -5.4703
-12.5917 -35.8531 -5.4431
-11.6848 -36.0336 -5.4261
-10.7279 -36.0281 -5.3847
-9.7851 -36.0226 -5.3470
-8.7976 -35.7845 -5.2785
-7.9357 -36.0119 -5.2822
-7.0267 -36.0066 -5.2550
-6.1265 -36.0014 -5.2310
-5.2454 -36.0753 -5.2217
-4.3519 -36.0248 -5.1975
-3.4912 -36.2362 -5.2142
-2.6088 -36.2311 -5.2027
-1.7201 -36.0260 -5.1657
-0.8528 -36.2210 -5.1889
0.0227 -36.2159 -5.1866
0.8981 -36.2108 -5.1872
1.7743 -36.2058 -5.1909
2.6523 -36.2007 -5.1975
3.5332 -36.1956 -5.2073
4.4276 -36.2695 -5.2314
4.6082 -31.4159 -4.5458
5.1205 -29.8632 -4.3375
5.2072 -26.5062 -3.8668
6.5275 -29.4455 -4.3170
7.2302 -29.2508 -4.3125
8.0280 -29.4086 -4.3627
2.9002 -9.6955 -1.4482
14.9860 -46.0172 -6.9249
14.4822 -41.0714 -6.2309
9.7897 -25.7609 -3.9425
7.5058 -18.3993 -2.8425
7.9264 -18.1622 -2.8344
8.3460 -17.9289 -2.8283
8.7654 -17.6989 -2.8243
3.3786 -6.4266 -1.0381
3.5055 -6.2938 -1.0300
3.7052 -6.2898 -1.0435
3.9102 -6.2854 -1.0581
3.8243 -5.8285 -0.9963
4.2752 -6.1845 -1.0744
4.0069 -5.5069 -0.9731
4.2194 -5.5137 -0.9919
2.3893 -2.9706 -0.5445
4.6696 -5.5268 -1.0334
4.7153 -5.3148 -1.0146
4.8860 -5.2462 -1.0236
4.9658 -5.0801 -1.0142
4.5475 -4.4326 -0.9065
4.8761 -4.5283 -0.9497
5.2388 -4.6345 -0.9981
5.5484 -4.6743 -1.0351
5.4424 -4.3645 -0.9952
5.6967 -4.3465 -1.0220
5.7135 -4.1448 -1.0066
6.2483 -4.3062 -1.0820
5.6904 -3.7221 -0.9694
6.7355 -4.1769 -1.1297
6.8268 -4.0084 -1.1282
6.9791 -3.8742 -1.1374
7.0125 -3.6739 -1.1279
7.8175 -3.8579 -1.2418
7.8832 -3.6561 -1.2376
8.1818 -3.5570 -1.2704
11.5485 -4.6921 -1.7747
11.5317 -4.3637 -1.7551
11.5173 -4.0429 -1.7373
11.5419 -3.7408 -1.7265
11.5617 -3.4408 -1.7163
7.2962 -1.9808 -1.0755
7.0847 -1.7407 -1.0376
7.0617 -1.5551 -1.0283
7.0715 -1.3790 -1.0244
7.1396 -1.2140 -1.0295
7.1669 -1.0411 -1.0293
7.2459 -0.8744 -1.0372
7.3953 -0.7116 -1.0556
7.5557 -0.5432 -1.0761
7.7858 -0.3709 -1.1071
8.0872 -0.1896 -1.1488
12.7190 0.0093 -1.8059
12.9471 0.3224 -1.8386
13.1868 0.6475 -1.8740
13.5286 0.9924 -1.9251
14.0068 1.3685 -1.9970
14.7514 1.8020 -2.1084
15.9100 2.3350 -2.2810
17.2228 2.9544 -2.4783
20.3889 4.0069 -2.9465
42.7170 9.4723 -6.2036
43.1711 10.6736 -6.3042
43.2129 11.7989 -6.3492
9.3252 2.7899 -1.3794
8.9248 2.9069 -1.3300
8.5226 3.0055 -1.2803
8.3368 3.1685 -1.2634
8.1531 3.3263 -1.2472
7.9742 3.4803 -1.2322
7.7997 3.6309 -1.2182
7.6170 3.7725 -1.2034
7.4209 3.9014 -1.1869
7.2303 4.0271 -1.1714
7.0641 4.1613 -1.1603
6.9341 4.3137 -1.1556
6.7904 4.4554 -1.1492
6.6488 4.5960 -1.1435
6.6022 4.8037 -1.1550
6.6392 5.0804 -1.1825
6.6554 5.3526 -1.2079
6.6370 5.6072 -1.2287
6.5673 5.8260 -1.2414
6.4621 6.0179 -1.2485
6.3534 6.2099 -1.2560
6.2435 6.4047 -1.2644
6.2612 6.7413 -1.3005
6.3229 7.1466 -1.3487
15.2321 18.0783 -3.3410
13.5783 16.9292 -3.0669
14.3884 18.8551 -3.3516
14.2983 19.7067 -3.4403
11.6285 16.8699 -2.8950
10.9922 16.8016 -2.8367
7.1543 11.5343 -1.9175
7.0573 12.0167 -1.9687
9.7937 17.6387 -2.8500
8.6459 16.4985 -2.6311
8.1362 16.4825 -2.5964
7.6419 16.4725 -2.5649
7.1617 16.4682 -2.5364
6.6938 16.4695 -2.5109
6.2371 16.4761 -2.4882
5.6982 16.2261 -2.4289
5.1424 15.8592 -2.3546
5.9250 19.8990 -2.9323
5.7403 21.1326 -3.0927
5.9864 24.3499 -3.5413
5.2802 23.9602 -3.4651
4.5993 23.5660 -3.3910
4.2546 24.9985 -3.5814
4.0097 27.5713 -3.9350
11.7302 97.0740 -13.8102
4.2520 59.0121 -8.3568
-9.7859 66.7652 -9.5352
-8.4796 49.4881 -7.0954
-11.7216 59.7039 -8.5988
-10.7396 48.4754 -7.0175
-12.0568 48.8057 -7.1060
-16.1317 59.1265 -8.6636
-12.9273 43.2388 -6.3801
-13.6833 42.0388 -6.2506
-11.0246 31.2813 -4.6898
-11.5871 30.5053 -4.6145
-12.5804 30.8533 -4.7123
-12.7928 29.3267 -4.5255
-13.9066 29.8881 -4.6631
-15.3003 30.9082 -4.8791
-12.5237 23.8330 -3.8093
-15.6461 28.1043 -4.5516
-15.8546 26.9266 -4.4222
-16.4297 26.4217 -4.4037
-16.8508 25.6931 -4.3495
-18.1539 26.2729 -4.5211
-14.1299 19.4282 -3.4015
-14.6030 19.0914 -3.4038
-14.7502 18.3477 -3.3342
-15.0818 17.8588 -3.3111
-15.7419 17.7518 -3.3613
-16.1497 17.3485 -3.3584
-16.5621 16.9512 -3.3584
-16.9800 16.5589 -3.3615
-17.1500 15.9346 -3.3185
-17.2070 15.2297 -3.2578
-17.1107 14.4224 -3.1732
-14.3470 11.5117 -2.6087
-13.6866 10.4483 -2.4424
-13.5061 9.8032 -2.3675
-14.2665 9.8378 -2.4588
-14.7173 9.6324 -2.4961
-14.3236 8.8879 -2.3926
-14.9041 8.7565 -2.4539
-14.9443 8.3011 -2.4271
-10.9290 5.7296 -1.7523
-11.3087 5.5846 -1.7913
-11.6106 5.3887 -1.8183
-11.9249 5.1881 -1.8476
-12.2525 4.9822 -1.8795
-12.5950 4.7701 -1.9141
-12.9538 4.5512 -1.9517
-12.0972 3.9246 -1.8081
-12.5387 3.7354 -1.8604
-13.0141 3.5371 -1.9180
-13.4130 3.2996 -1.9648
-13.6177 3.0029 -1.9839
-13.8386 2.7028 -2.0064
-13.9714 2.3797 -2.0170
-14.0371 2.0432 -2.0191
-14.1093 1.7067 -2.0233
-14.1879 1.3692 -2.0296
-14.2462 1.0281 -2.0341
-14.0756 0.6744 -2.0072
-13.9127 0.3299 -1.9826
-13.6711 -0.0062 -1.9479
-14.5062 -0.3573 -2.0679
-15.0188 -0.7333 -2.1432
-15.2475 -1.1144 -2.1794
-15.2122 -1.4822 -2.1792
-15.1802 -1.8503 -2.1807
-13.8823 -2.0337 -2.0011
-14.1708 -2.4271 -2.0508
-14.6006 -2.8655 -2.1228
-14.9338 -3.3076 -2.1825
-14.9762 -3.6987 -2.2015
-15.0151 -4.0958 -2.2215
-15.0618 -4.5023 -2.2441
-15.7963 -5.1408 -2.3717
-11.7829 -4.1522 -1.7840
-11.5762 -4.3966 -1.7685
-16.1558 -6.5869 -2.4920
-12.5513 -5.4747 -1.9562
-12.4687 -5.8012 -1.9648
-13.6232 -6.7435 -2.1721
-18.4687 -10.2817 -3.0212
-18.3100 -10.7811 -3.0374
-15.7034 -9.7648 -2.6436
-17.9627 -11.7810 -3.0714
-18.7023 -12.9231 -3.2507
-20.8884 -15.1924 -3.6938
-20.6680 -15.8096 -3.7218
-19.1332 -15.3825 -3.5117
-18.2098 -15.3795 -3.1407
-18.0064 -15.9690 -3.1716
-15.9285 -14.8292 -2.8682
-13.7823 -13.4673 -2.5398
-13.3602 -13.7015 -2.5226
-14.2001 -15.2851 -2.7504
-14.3064 -16.1659 -2.8461
-12.5623 -16.4585 -2.7304
-25.6830 -37.2519 -5.9677
-24.3713 -37.2444 -5.8707
-22.7738 -36.7097 -5.6983
-21.5785 -36.7362 -5.6201
-20.4144 -36.7606 -5.5470
-19.2789 -36.7831 -5.4788
-18.1698 -36.8039 -5.4151
-17.6335 -38.0047 -5.5276
-17.6190 -40.5100 -5.8285
-14.6862 -36.1300 -5.1459
-13.6762 -36.1241 -5.0966
-12.6848 -36.1184 -5.0511
-11.7104 -36.1128 -5.0094
-10.7515 -36.1072 -4.9711
-9.8065 -36.1017 -4.9363
-8.8742 -36.0963 -4.9048
-7.9532 -36.0910 -4.8765
-7.0422 -36.0857 -4.8514
-6.1400 -36.0805 -4.8292
-5.2454 -36.0753 -4.8101
-4.3757 -36.2214 -4.8139
-3.4989 -36.3153 -4.8137
-2.6146 -36.3102 -4.8031
-1.7295 -36.2211 -4.7842
-0.8548 -36.3000 -4.7903
0.0227 -36.2949 -4.7881
0.9000 -36.2899 -4.7886
1.7781 -36.2848 -4.7920
2.6580 -36.2797 -4.7981
3.5408 -36.2746 -4.8071
4.4275 -36.2695 -4.8189
3.9675 -27.0492 -3.6053
4.8836 -28.4826 -3.8107
5.6776 -28.9012 -3.8836
6.3570 -28.6772 -3.8727
7.0896 -28.6826 -3.8951
7.7861 -28.5228 -3.8975
2.8998 -9.6942 -1.3337
8.2895 -25.4550 -3.5283
16.4463 -46.6426 -6.5176
16.7367 -44.0422 -6.2083
7.3649 -18.0540 -2.5690
7.7779 -17.8224 -2.5618
8.1900 -17.5941 -2.5564
8.6926 -17.5523 -2.5798
3.3960 -6.4599 -0.9611
3.6281 -6.5142 -0.9818
3.7330 -6.3372 -0.9684
3.9400 -6.3334 -0.9819
3.9233 -5.9793 -0.9413
3.8291 -5.5392 -0.8862
4.0551 -5.5732 -0.9070
4.1421 -5.4128 -0.8968
2.3891 -2.9705 -0.5015
4.6281 -5.4778 -0.9432
4.6522 -5.2438 -0.9219
4.8269 -5.1828 -0.9313
4.9451 -5.0589 -0.9301
5.0506 -4.9230 -0.9271
4.7786 -4.4378 -0.8571
5.1288 -4.5373 -0.8998
5.4437 -4.5862 -0.9352
5.3331 -4.2770 -0.8980
5.6706 -4.3267 -0.9368
5.6877 -4.1262 -0.9228
5.6362 -3.8844 -0.8987
5.5489 -3.6297 -0.8704
6.5787 -4.0797 -1.0160
6.7230 -3.9476 -1.0231
6.8705 -3.8140 -1.0310
7.6094 -3.9868 -1.1269
7.7584 -3.8288 -1.1347
7.8238 -3.6286 -1.1309
11.2824 -4.9051 -1.6130
11.2680 -4.5783 -1.5943
11.2556 -4.2594 -1.5773
11.2544 -3.9508 -1.5630
11.2709 -3.6531 -1.5523
7.2996 -2.1725 -0.9976
7.0392 -1.9111 -0.9552
6.9742 -1.7136 -0.9404
6.9680 -1.5346 -0.9341
6.9792 -1.3611 -0.9307
7.0460 -1.1982 -0.9353
7.1015 -1.0317 -0.9389
7.1923 -0.8680 -0.9477
7.3402 -0.7064 -0.9645
7.5022 -0.5394 -0.9836
7.7536 -0.3694 -1.0149
8.0522 -0.1888 -1.0529
12.3547 0.0089 -1.6148
12.5719 0.3129 -1.6434
12.8008 0.6284 -1.6745
13.0413 0.9565 -1.7082
13.3477 1.3039 -1.7516
13.8152 1.6875 -1.8175
14.3554 2.1066 -1.8943
15.3538 2.6336 -2.0335
16.5127 3.2449 -2.1964
17.8623 3.9607 -2.3876
42.6311 10.5396 -5.7297
42.6522 11.6453 -5.7678
9.2049 2.7538 -1.2532
8.8137 2.8706 -1.2088
8.4960 2.9960 -1.1747
8.3078 3.1574 -1.1587
8.1245 3.3145 -1.1438
7.9458 3.4678 -1.1299
7.7635 3.6140 -1.1159
7.5634 3.7458 -1.0997
7.3691 3.8741 -1.0846
7.1803 3.9991 -1.0706
7.0124 4.1307 -1.0600
6.8684 4.2727 -1.0534
6.7265 4.4134 -1.0475
6.5865 4.5529 -1.0424
6.5480 4.7642 -1.0541
6.5825 5.0369 -1.0788
6.6051 5.3121 -1.1031
6.5859 5.5639 -1.1219
6.5351 5.7974 -1.1367
6.4277 5.9858 -1.1427
6.3194 6.1766 -1.1496
6.2098 6.3701 -1.1572
6.0990 6.5666 -1.1657
6.1814 6.9865 -1.2132
6.1754 7.3293 -1.2464
14.4004 17.9541 -2.9928
12.4429 16.3055 -2.6669
11.7614 16.2101 -2.6039
11.0934 16.0935 -2.5412
10.4599 15.9878 -2.4837
7.1534 11.5329 -1.7641
7.0516 12.0070 -1.8100
11.4769 20.6699 -3.0730
8.2575 15.7571 -2.3121
7.7752 15.7512 -2.2829
7.3068 15.7501 -2.2564
6.8509 15.7536 -2.2325
6.4062 15.7617 -2.2110
5.8791 15.5304 -2.1579
5.3342 15.1896 -2.0920
6.2593 19.3037 -2.6370
7.1042 23.8594 -3.2349
5.2575 19.3552 -2.6062
5.1962 21.1358 -2.8282
5.2318 23.7407 -3.1590
4.8373 24.7855 -3.2815
4.9579 29.1304 -3.8398
4.0115 27.5841 -3.6222
11.5684 95.7363 -12.5316
4.2553 59.0583 -7.6951
-11.1258 91.2123 -11.9466
-8.4743 57.8147 -7.5974
-9.8907 57.7215 -7.6150
-9.5703 48.7453 -6.4599
-10.7101 48.3412 -6.4393
-11.8427 47.9378 -6.4224
-11.8612 43.4730 -5.8614
-12.6898 42.4438 -5.7629
-11.1801 34.3473 -4.6993
-11.5541 32.7829 -4.5226
-11.1326 29.3083 -4.0796
-12.2550 30.0547 -4.2240
-13.3090 30.5094 -4.3323
-14.1522 30.4152 -4.3668
-14.7170 29.7295 -4.3186
-14.7265 28.0245 -4.1220
-15.0663 27.0622 -4.0333
-16.2939 27.6722 -4.1822
-15.8049 25.4165 -3.8984
-17.2974 26.3735 -4.1087
-17.8494 25.8319 -4.0909
-18.5709 25.5340 -4.1142
-16.3714 21.4030 -3.5118
-16.0200 19.9268 -3.3326
-17.0264 20.1609 -3.4401
-14.9452 16.8531 -2.9369
-15.4858 16.6350 -2.9638
-15.8813 16.2541 -2.9639
-17.0480 16.6249 -3.1062
-17.0311 15.8239 -3.0331
-16.6351 14.7232 -2.8988
-14.7158 12.4035 -2.5118
-15.0217 12.0527 -2.5140
-13.8406 10.5656 -2.2733
-13.9692 10.1392 -2.2539
-14.2681 9.8387 -2.2635
-14.4836 9.4792 -2.2610
-14.3297 8.8915 -2.2032
-14.7236 8.6503 -2.2314
-14.6366 8.1299 -2.1882
-15.2980 8.0199 -2.2578
-10.9530 5.4088 -1.5971
-11.2402 5.2166 -1.6204
-11.5385 5.0199 -1.6457
-11.8490 4.8179 -1.6732
-12.1728 4.6101 -1.7030
-12.5114 4.3956 -1.7353
-12.8662 4.1739 -1.7704
-11.6458 3.4693 -1.5907
-11.8469 3.2197 -1.6074
-12.0068 2.9535 -1.6192
-12.1778 2.6853 -1.6334
-12.3608 2.4140 -1.6499
-12.5568 2.1387 -1.6690
-12.7669 1.8582 -1.6908
-12.9924 1.5714 -1.7154
-13.2346 1.2771 -1.7431
-13.4630 0.9715 -1.7699
-13.5465 0.6489 -1.7786
-13.4826 0.3196 -1.7690
-14.9055 -0.0070 -1.9555
-14.2129 -0.3502 -1.8656
-14.7040 -0.7181 -1.9321
-14.8159 -1.0830 -1.9500
-14.7818 -1.4404 -1.9499
-14.7505 -1.7981 -1.9513
-14.7102 -2.1551 -1.9526
-13.7528 -2.3556 -1.8328
-14.0388 -2.7554 -1.8796
-14.0829 -3.1193 -1.8954
-14.1063 -3.4841 -1.9096
-14.1357 -3.8560 -1.9259
-14.1432 -4.2278 -1.9406
-14.0703 -4.5793 -1.9455
-11.7803 -4.1514 -1.6426
-11.5748 -4.3962 -1.6285
-13.7653 -5.6124 -1.9555
-12.5497 -5.4741 -1.8013
-12.4668 -5.8004 -1.8093
-12.8405 -6.3562 -1.8855
-19.6430 -10.9356 -2.9595
-20.4059 -12.0153 -3.1177
-20.2851 -12.6141 -3.1453
-21.4984 -14.8554 -3.4417
-20.5586 -14.9527 -3.3485
-20.0782 -15.3587 -3.3302
-17.0278 -13.6900 -2.8786
-19.0787 -16.1136 -3.0094
-16.5459 -14.6739 -2.6654
-15.1444 -14.0994 -2.4941
-13.7457 -13.4317 -2.3168
-13.3583 -13.6997 -2.3069
-14.7062 -15.8300 -2.6052
-14.7377 -16.6535 -2.6816
-13.7693 -16.3384 -2.5767
-29.5033 -36.7761 -5.6863
-28.0966 -36.8110 -5.5854
-26.7220 -36.8222 -5.4880
-25.4073 -36.8523 -5.3997
-24.3192 -37.1650 -5.3582
-23.0417 -37.1418 -5.2733
-21.8218 -37.1506 -5.1985
-20.6270 -37.1437 -5.1265
-19.5058 -37.2162 -5.0702
-18.2776 -37.0224 -4.9824
-17.6335 -38.0049 -5.0559
-17.6190 -40.5102 -5.3312
-14.6861 -36.1300 -4.7068
-13.6715 -36.1118 -4.6601
-12.7087 -36.1867 -4.6289
-11.8056 -36.4063 -4.6192
-10.8389 -36.4007 -4.5839
-9.8939 -36.4233 -4.5554
-8.9464 -36.3897 -4.5228
-8.0178 -36.3844 -4.4967
-7.1105 -36.4358 -4.4805
-6.1899 -36.3738 -4.4531
-5.2455 -36.0753 -4.3997
-4.4231 -36.6136 -4.4509
-3.5292 -36.6295 -4.4410
-2.6397 -36.6582 -4.4353
-1.7476 -36.5981 -4.4215
-0.8618 -36.5930 -4.4169
0.0228 -36.6479 -4.4220
0.8383 -33.8052 -4.0801
1.7923 -36.5777 -4.4184
2.6835 -36.6291 -4.4309
3.1827 -32.6073 -3.9523
3.8114 -31.2234 -3.7943
9.2231 -62.8819 -7.6658
5.1848 -30.2398 -3.7004
5.8770 -29.9170 -3.6769
6.5178 -29.4034 -3.6317
6.8510 -27.7182 -3.4427
7.9781 -29.2268 -3.6526
2.8993 -9.6929 -1.2197
7.9622 -24.4504 -3.0996
14.9508 -42.4022 -5.4189
9.1362 -24.0423 -3.0995
7.4172 -18.1827 -2.3663
7.8038 -17.8821 -2.3507
8.1864 -17.5868 -2.3369
8.5657 -17.2963 -2.3249
3.4136 -6.4934 -0.8835
3.6473 -6.5487 -0.9027
3.7612 -6.3851 -0.8922
3.9701 -6.3820 -0.9048
3.6547 -5.5702 -0.8019
3.8745 -5.6050 -0.8200
3.8821 -5.3356 -0.7940
4.1890 -5.4743 -0.8293
2.3889 -2.9703 -0.4585
4.5593 -5.3965 -0.8497
4.6935 -5.2905 -0.8505
4.7693 -5.1211 -0.8414
4.9766 -5.0913 -0.8559
5.1539 -5.0239 -0.8651
4.6852 -4.3512 -0.7684
5.0236 -4.4443 -0.8059
5.3431 -4.5015 -0.8393
5.4403 -4.3630 -0.8376
5.6448 -4.3071 -0.8526
5.8215 -4.2233 -0.8635
5.8036 -3.9999 -0.8461
5.7084 -3.7341 -0.8187
5.6181 -3.4842 -0.7933
6.5694 -3.8575 -0.9140
6.7124 -3.7263 -0.9209
7.5750 -3.9688 -1.0256
7.7004 -3.8002 -1.0296
7.9242 -3.6753 -1.0471
11.0322 -4.7964 -1.4418
11.0208 -4.4780 -1.4255
11.0158 -4.1688 -1.4111
11.0257 -3.8706 -1.3997
7.3096 -2.3693 -0.9202
7.0182 -2.0888 -0.8767
6.8833 -1.8689 -0.8538
6.8825 -1.6912 -0.8482
6.8770 -1.5146 -0.8426
6.8896 -1.3437 -0.8398
6.9550 -1.1828 -0.8438
7.0217 -1.0202 -0.8485
7.1397 -0.8618 -0.8598
7.2856 -0.7012 -0.8749
7.4495 -0.5357 -0.8926
7.7218 -0.3680 -0.9237
8.0175 -0.1881 -0.9581
8.3331 0.0059 -0.9953
12.2385 0.3045 -1.4620
12.4461 0.6108 -1.4878
12.6729 0.9294 -1.5169
12.9347 1.2634 -1.5511
13.2146 1.6140 -1.5886
13.6438 2.0021 -1.6452
14.1319 2.4239 -1.7103
14.9539 2.9385 -1.8176
16.0017 3.5480 -1.9544
17.2567 4.2662 -2.1193
9.7423 2.6598 -1.2038
9.1156 2.7270 -1.1339
8.7808 2.8598 -1.1004
8.4898 2.9938 -1.0725
8.3019 3.1550 -1.0579
8.1188 3.3121 -1.0443
7.9402 3.4653 -1.0316
7.8217 3.6410 -1.0272
7.5215 3.7250 -0.9991
7.3288 3.8528 -0.9855
7.1415 3.9775 -0.9728
6.9724 4.1071 -0.9629
6.8204 4.2428 -0.9556
6.6707 4.3767 -0.9491
6.5255 4.5107 -0.9435
6.4949 4.7255 -0.9552
6.5279 4.9951 -0.9774
6.5556 5.2722 -1.0002
6.5462 5.5303 -1.0187
6.5260 5.7892 -1.0369
6.4095 5.9688 -1.0409
6.2921 6.1499 -1.0456
6.1767 6.3360 -1.0514
6.0662 6.5312 -1.0591
6.0465 6.8340 -1.0841
6.0370 7.1649 -1.1130
12.3441 15.3901 -2.3434
11.8211 15.4905 -2.3143
11.1658 15.3889 -2.2580
10.5443 15.2969 -2.2063
8.0160 12.2522 -1.7386
7.1526 11.5314 -1.6112
7.0460 11.9974 -1.6520
10.5700 19.0364 -2.5851
9.7118 18.5322 -2.4839
7.4458 15.0838 -1.9969
7.0007 15.0902 -1.9747
6.5668 15.1002 -1.9546
6.0518 14.8897 -1.9078
7.4582 19.7017 -2.5005
7.2217 20.5645 -2.5870
7.7115 23.7823 -2.9675
6.8586 23.0344 -2.8526
6.4929 23.9033 -2.9399
4.3489 17.6892 -2.1621
4.5672 20.7252 -2.5189
4.3303 22.1880 -2.6832
15.2393 89.5407 -10.7808
4.0134 27.5969 -3.3101
11.3320 93.7814 -11.2127
4.2369 58.8052 -6.9987
-11.2454 92.1896 -11.0295
-8.7105 59.4244 -7.1331
-8.4100 49.0791 -5.9145
-9.5127 48.4509 -5.8653
-10.3972 46.9278 -5.7101
-11.7620 47.6101 -5.8266
-9.3735 34.3545 -4.2313
-12.2723 41.0464 -5.0910
-10.9614 33.6748 -4.2088
-11.3386 32.1708 -4.0543
-11.9551 31.4730 -4.0021
-11.8926 29.1654 -3.7446
-12.9101 29.5945 -3.8391
-14.1406 30.3898 -3.9859
-15.5657 31.4433 -4.1728
-15.3377 29.1869 -3.9219
-16.0381 28.8073 -3.9224
-16.0671 27.2865 -3.7676
-16.3756 26.3337 -3.6902
-17.0016 25.9220 -3.6895
-17.7418 25.6757 -3.7150
-20.4065 28.0575 -4.1304
-16.3685 21.3988 -3.2079
-21.5048 26.7487 -4.0874
-16.4098 19.4306 -3.0293
-17.3757 19.5935 -3.1198
-16.6037 17.8356 -2.9034
-16.5538 16.9421 -2.8228
-16.5105 16.1004 -2.7487
-16.0677 14.9284 -2.6146
-18.4209 16.3034 -2.9331
-14.7908 12.4664 -2.3069
-13.2295 10.6145 -2.0231
-13.5651 10.3551 -2.0359
-13.8952 10.0851 -2.0487
-14.1222 9.7378 -2.0473
-14.3052 9.3622 -2.0408
-14.3358 8.8950 -2.0143
-14.4262 8.4753 -1.9980
-14.3421 7.9662 -1.9595
-14.9376 7.8308 -2.0148
-14.9561 7.3854 -1.9930
-15.3720 7.1341 -2.0253
-15.9969 6.9593 -2.0852
-14.8721 6.0470 -1.9194
-44.8679 12.1933 -5.5644
-44.8015 11.0200 -5.5226
-16.9350 3.7340 -2.0762
-10.4274 2.0363 -1.2723
-31.1907 5.3120 -3.7896
-15.8563 2.3077 -1.9196
-15.5927 1.8858 -1.8819
-15.3424 1.4803 -1.8473
-14.9871 1.0813 -1.8012
-14.4784 0.6934 -1.7378
-14.3609 0.3403 -1.7226
-14.5239 -0.0070 -1.7420
-14.4831 -0.3570 -1.7380
-14.3099 -0.6990 -1.7190
-14.4093 -1.0534 -1.7339
-14.3762 -1.4010 -1.7338
-14.3455 -1.7489 -1.7350
-14.3172 -2.0977 -1.7375
-14.2508 -2.4411 -1.7365
-16.0183 -3.1441 -1.9609
-15.8421 -3.5091 -1.9495
-12.9837 -3.2069 -1.6071
-12.9002 -3.5191 -1.6071
-12.8241 -3.8337 -1.6090
-12.7552 -4.1514 -1.6127
-11.7777 -4.1506 -1.5016
-11.5735 -4.3958 -1.4889
-12.5904 -5.1335 -1.6355
-12.5481 -5.4735 -1.6470
-12.4168 -5.7773 -1.6479
-12.1447 -6.0119 -1.6308
-18.8211 -9.8902 -2.5591
-22.0841 -12.2948 -3.0427
-21.4845 -14.0914 -3.0943
-20.8785 -14.4273 -3.0568
-20.2014 -14.6932 -3.0091
-19.2307 -14.7107 -2.9170
-20.1450 -16.1965 -3.1146
-17.1588 -14.4922 -2.4544
-18.7085 -16.5921 -2.7330
-14.5862 -13.5798 -2.1784
-13.7154 -13.4023 -2.0964
-13.3565 -13.6980 -2.0917
-14.4347 -15.5379 -2.3190
-14.4498 -16.3283 -2.3844
-14.4679 -17.1675 -2.4554
-12.6674 -15.7901 -2.2141
-28.2777 -37.0486 -5.0982
-27.0393 -37.2598 -5.0362
-25.6826 -37.2519 -4.9502
-24.3709 -37.2444 -4.8699
-23.1006 -37.2370 -4.7948
-21.8361 -37.1751 -4.7178
-20.6541 -37.1927 -4.6556
-19.5018 -37.2089 -4.5975
-18.3873 -37.2448 -4.5459
-17.6335 -38.0050 -4.5855
-17.6190 -40.5104 -4.8352
-14.6861 -36.1300 -4.2689
-13.7872 -36.4178 -4.2624
-12.8289 -36.5289 -4.2379
-11.8055 -36.4063 -4.1895
-10.8389 -36.4007 -4.1575
-9.9180 -36.5120 -4.1416
-8.9464 -36.3897 -4.1020
-8.0178 -36.3844 -4.0784
-7.1222 -36.4959 -4.0703
-6.1899 -36.3738 -4.0388
-5.2455 -36.0753 -3.9903
-4.4232 -36.6136 -4.0368
-3.5293 -36.6295 -4.0278
-2.6442 -36.7200 -4.0294
-1.7477 -36.5981 -4.0101
-0.8619 -36.5930 -4.0059
0.0228 -36.7046 -4.0168
0.7960 -32.1056 -3.5143
1.5329 -31.2852 -3.4274
2.6877 -36.6892 -4.0251
3.5691 -36.5674 -4.0197
4.4272 -36.2695 -3.9973
4.5504 -31.0247 -3.4301
5.1147 -29.8316 -3.3106
5.7620 -29.3323 -3.2694
5.8447 -26.3674 -2.9535
6.8583 -27.7483 -3.1255
6.6810 -24.4755 -2.7740
2.8989 -9.6917 -1.1059
7.8646 -24.1511 -2.7764
11.0109 -31.2287 -3.6192
9.2325 -24.2960 -2.8404
10.7895 -26.4502 -3.1214
12.7562 -29.2308 -3.4845
9.1633 -19.6857 -2.3720
9.7854 -19.7596 -2.4084
3.4313 -6.5272 -0.8053
3.6667 -6.5836 -0.8228
3.7897 -6.4336 -0.8152
4.0006 -6.4312 -0.8268
3.6975 -5.6355 -0.7356
3.9100 -5.6564 -0.7504
3.9407 -5.4162 -0.7308
4.2137 -5.5066 -0.7564
2.3888 -2.9702 -0.4157
4.6604 -5.5162 -0.7875
4.6872 -5.2835 -0.7701
4.7133 -5.0611 -0.7539
4.9935 -5.1086 -0.7786
5.0579 -4.9303 -0.7697
5.1183 -4.7535 -0.7610
4.9229 -4.3553 -0.7159
5.2464 -4.4201 -0.7471
5.6011 -4.4921 -0.7817
5.6193 -4.2877 -0.7694
5.6986 -4.1343 -0.7662
5.9469 -4.0987 -0.7859
5.8769 -3.8444 -0.7640
5.7787 -3.5838 -0.7396
6.4230 -3.7716 -0.8100
6.5617 -3.6427 -0.8160
7.5409 -3.9511 -0.9254
7.6433 -3.7722 -0.9263
7.8879 -3.6586 -0.9447
10.7933 -4.6927 -1.2785
10.7898 -4.3843 -1.2648
10.7909 -4.0838 -1.2528
7.4349 -2.6101 -0.8554
7.0012 -2.2694 -0.7988
6.8660 -2.0436 -0.7773
6.7732 -1.8391 -0.7614
6.7785 -1.6657 -0.7571
6.7842 -1.4943 -0.7533
6.8025 -1.3268 -0.7513
6.8835 -1.1707 -0.7568
6.9680 -1.0125 -0.7630
7.0899 -0.8558 -0.7737
7.2318 -0.6961 -0.7869
7.4128 -0.5331 -0.8048
7.6903 -0.3666 -0.8335
7.9832 -0.1874 -0.8644
8.2863 0.0058 -0.8967
11.9696 0.2977 -1.2955
12.1399 0.5957 -1.3148
12.3256 0.9038 -1.3366
12.5704 1.2277 -1.3657
12.8336 1.5673 -1.3977
13.1119 1.9239 -1.4323
13.4911 2.3138 -1.4791
13.9647 2.7440 -1.5376
14.6006 3.2371 -1.6154
15.5683 3.8486 -1.7319
9.4501 2.5799 -1.0577
9.1051 2.7238 -1.0260
8.7710 2.8565 -0.9956
8.4837 2.9915 -0.9707
8.2959 3.1527 -0.9575
8.1131 3.3097 -0.9452
7.9507 3.4698 -0.9356
7.8682 3.6626 -0.9359
7.4801 3.7044 -0.9000
7.2891 3.8319 -0.8877
7.1032 3.9561 -0.8763
6.9369 4.0861 -0.8676
6.7859 4.2213 -0.8611
6.6373 4.3547 -0.8552
6.4853 4.4829 -0.8492
6.4417 4.6866 -0.8579
6.4732 4.9532 -0.8777
6.5067 5.2328 -0.8990
6.5183 5.5067 -0.9186
6.5161 5.7804 -0.9376
6.4036 5.9632 -0.9418
6.2863 6.1442 -0.9460
6.1679 6.3269 -0.9508
6.0482 6.5118 -0.9562
5.9345 6.7073 -0.9634
5.9472 7.0582 -0.9928
5.9611 7.4320 -1.0247
11.2392 14.7279 -1.9925
10.6289 14.6489 -1.9463
12.2208 17.7288 -2.3154
7.8670 12.0243 -1.5450
7.1518 11.5300 -1.4587
7.0405 11.9878 -1.4946
9.7206 17.5066 -2.1526
9.4501 18.0327 -2.1885
9.0448 18.3229 -2.1964
6.7199 14.4848 -1.7163
8.1784 18.8060 -2.2041
7.7374 19.0369 -2.2086
7.4253 19.6147 -2.2541
7.0159 19.9783 -2.2756
6.5940 20.3357 -2.2975
6.9332 23.2849 -2.6110
6.4571 23.7716 -2.6472
5.9830 24.3359 -2.6932
5.6291 25.5436 -2.8110
3.9548 20.2638 -2.2188
3.2803 19.2740 -2.1012
3.2370 22.2588 -2.4174
11.5396 95.5003 -10.3386
5.6223 58.3325 -6.2986
4.2399 58.8481 -6.3416
2.8370 59.3562 -6.3874
-7.1489 58.6049 -6.3488
-8.4728 57.8011 -6.2826
-10.0569 58.6880 -6.4041
-9.8554 50.1951 -5.5023
-10.7365 48.4583 -5.3393
-11.0150 44.5853 -4.9410
-9.5470 34.9895 -3.9024
-9.9410 33.2481 -3.7343
-10.3482 31.7903 -3.5980
-11.0239 31.2774 -3.5695
-11.6910 30.7772 -3.5441
-12.9584 31.7785 -3.6949
-13.0186 29.8426 -3.5058
-13.7349 29.5174 -3.5061
-14.4546 29.1982 -3.5092
-15.9380 30.3289 -3.6908
-15.5861 27.9950 -3.4522
-15.8304 26.8840 -3.3619
-15.7721 25.3629 -3.2189
-16.2974 24.8479 -3.2031
-17.0504 24.6746 -3.2335
-18.8997 25.9852 -3.4647
-15.5183 20.2870 -2.7546
-16.0170 19.9224 -2.7573
-16.5214 19.5623 -2.7625
-15.9344 17.9679 -2.5914
-15.8287 17.0028 -2.5071
-15.7345 16.1032 -2.4303
-15.2941 14.9139 -2.3064
-18.6243 17.3034 -2.7453
-17.9731 15.9068 -2.5924
-18.2178 15.3546 -2.5739
-13.8679 11.1265 -1.9211
-13.2745 10.1330 -1.8049
-13.5258 9.8168 -1.8066
-13.7584 9.4867 -1.8069
-13.9932 9.1578 -1.8085
-14.1741 8.7944 -1.8043
-14.1369 8.3052 -1.7739
-14.5103 8.0594 -1.7961
-14.5496 7.6271 -1.7780
-14.4933 7.1567 -1.7499
-15.7845 7.3253 -1.8843
-15.2685 6.6422 -1.8034
-16.0696 6.5337 -1.8792
-44.6973 13.3142 -5.0568
-44.2996 12.0384 -4.9786
-43.9199 10.8026 -4.9062
-16.9332 3.7334 -1.8814
-17.3491 3.3877 -1.9183
-10.6664 1.8165 -1.1745
-15.3063 2.2275 -1.6793
-14.9625 1.8094 -1.6367
-14.5860 1.4072 -1.5917
-14.2336 1.0267 -1.5504
-13.9029 0.6657 -1.5125
-14.0869 0.3336 -1.5315
-14.2212 -0.0070 -1.5460
-14.2691 -0.3519 -1.5520
-14.3193 -0.6996 -1.5592
-14.3353 -1.0482 -1.5636
-14.3071 -1.3944 -1.5641
-14.2809 -1.7412 -1.5657
-14.2569 -2.0890 -1.5685
-13.9092 -2.3827 -1.5364
-15.9709 -3.1349 -1.7723
-16.4213 -3.6375 -1.8319
-23.0832 -5.7017 -2.5902
-16.6801 -4.5505 -1.8839
-16.7357 -5.0031 -1.9036
-16.3500 -5.3215 -1.8742
-11.7751 -4.1498 -1.3611
-11.2960 -4.2905 -1.3176
-10.5746 -4.3117 -1.2455
-12.5465 -5.4730 -1.4931
-12.4630 -5.7989 -1.4997
-14.9933 -7.4222 -1.8255
-17.8715 -9.3914 -2.2033
-18.3885 -10.2376 -2.2973
-20.8062 -12.2515 -2.6360
-20.7824 -12.9238 -2.6722
-20.6070 -13.5160 -2.6912
-20.2688 -14.0062 -2.6909
-20.8518 -15.1665 -2.8165
-19.8801 -15.2076 -2.7345
-19.8285 -15.9422 -2.7800
-19.2677 -16.2736 -2.4736
-19.2316 -17.0562 -2.5215
-15.3703 -14.3100 -2.0603
-13.7136 -13.4007 -1.8813
-13.3546 -13.6963 -1.8772
-14.2210 -15.3080 -2.0506
-14.1092 -15.9436 -2.0897
-14.1832 -16.8299 -2.1605
-29.8859 -37.2537 -4.6888
-28.6035 -37.4758 -4.6289
-27.0391 -37.2598 -4.5206
-25.8928 -37.5571 -4.4798
-24.5736 -37.5543 -4.4077
-23.2828 -37.5311 -4.3380
-22.1095 -37.6409 -4.2879
-20.8339 -37.5169 -4.2155
-19.7209 -37.6271 -4.1733
-18.5149 -37.5035 -4.1090
-17.6335 -38.0053 -4.1163
-17.6190 -40.5106 -4.3404
-14.6860 -36.1300 -3.8320
-13.7872 -36.4178 -3.8262
-12.8288 -36.5289 -3.8043
-11.8055 -36.4063 -3.7608
-10.8388 -36.4007 -3.7321
-9.9180 -36.5120 -3.7179
-8.9463 -36.3897 -3.6823
-8.0179 -36.3844 -3.6611
-7.1223 -36.4959 -3.6538
-6.1900 -36.3738 -3.6255
-5.2455 -36.0753 -3.5820
-4.4232 -36.6136 -3.6237
-3.5294 -36.6294 -3.6156
-2.6443 -36.7200 -3.6170
-1.7478 -36.5981 -3.5997
-0.8620 -36.5930 -3.5959
0.0226 -36.7046 -3.6056
0.7459 -30.0861 -2.9562
1.5029 -30.6762 -3.0166
2.2628 -30.8902 -3.0420
2.9977 -30.7142 -3.0306
3.7285 -30.5468 -3.0219
4.4065 -30.0445 -2.9816
5.0182 -29.2699 -2.9156
5.6371 -28.6971 -2.8710
5.6849 -25.6470 -2.5786
6.2377 -25.2377 -2.5515
6.7390 -24.6886 -2.5114
2.8985 -9.6904 -0.9925
7.9377 -24.3762 -2.5152
9.0104 -25.5555 -2.6582
9.3305 -24.5545 -2.5764
10.8280 -26.5450 -2.8115
12.4403 -28.5074 -3.0499
9.2426 -19.8564 -2.1473
9.8714 -19.9336 -2.1804
10.5201 -20.0124 -2.2159
3.6862 -6.6187 -0.7424
3.8185 -6.4827 -0.7371
4.0316 -6.4810 -0.7477
3.7411 -5.7021 -0.6679
3.9471 -5.7102 -0.6797
4.0009 -5.4991 -0.6658
4.2379 -5.5383 -0.6826
2.3886 -2.9700 -0.3730
4.6040 -5.4496 -0.6980
4.6318 -5.2211 -0.6828
4.7800 -5.1328 -0.6860
4.9014 -5.0145 -0.6857
4.9656 -4.8405 -0.6780
5.0289 -4.6706 -0.6709
5.0915 -4.5045 -0.6643
5.1754 -4.3604 -0.6612
5.5756 -4.4717 -0.6981
6.0831 -4.6417 -0.7473
5.9309 -4.3029 -0.7154
5.8212 -4.0122 -0.6901
6.0552 -3.9611 -0.7061
5.9483 -3.6891 -0.6829
5.8472 -3.4336 -0.6614
6.4180 -3.5630 -0.7159
7.5072 -3.9335 -0.8263
7.6777 -3.7892 -0.8346
7.8519 -3.6420 -0.8435
10.5703 -4.5958 -1.1230
10.5724 -4.2961 -1.1116
10.5777 -4.0033 -1.1014
7.1299 -2.5032 -0.7357
6.8756 -2.2288 -0.7035
6.7574 -2.0114 -0.6861
6.6669 -1.8103 -0.6721
6.6726 -1.6398 -0.6683
6.6841 -1.4723 -0.6655
6.7551 -1.3176 -0.6690
6.8371 -1.1629 -0.6740
6.9207 -1.0057 -0.6795
7.0465 -0.8507 -0.6895
7.1802 -0.6912 -0.7005
7.3838 -0.5311 -0.7188
7.6589 -0.3652 -0.7443
7.9493 -0.1867 -0.7716
8.2401 0.0057 -0.7995
11.7128 0.2912 -1.1365
11.8749 0.5825 -1.1529
12.0399 0.8827 -1.1704
12.2339 1.1947 -1.1915
12.4748 1.5234 -1.2179
12.7365 1.8687 -1.2472
13.0347 2.2354 -1.2810
13.3925 2.6314 -1.3217
13.8700 3.0750 -1.3755
9.9818 2.4675 -0.9953
9.3557 2.5541 -0.9385
9.0947 2.7206 -0.9185
8.7613 2.8532 -0.8913
8.4776 2.9893 -0.8694
8.2900 3.1503 -0.8575
8.1073 3.3073 -0.8465
7.9912 3.4874 -0.8427
7.9083 3.6812 -0.8430
7.4576 3.6932 -0.8041
7.2499 3.8112 -0.7912
7.0655 3.9350 -0.7811
6.9019 4.0654 -0.7735
6.7519 4.2001 -0.7677
6.6042 4.3330 -0.7625
6.4282 4.4433 -0.7542
6.3776 4.6400 -0.7611
6.4191 4.9117 -0.7799
6.4509 5.1879 -0.7986
6.4908 5.4834 -0.8196
6.4880 5.7554 -0.8364
6.3977 5.9576 -0.8430
6.2805 6.1384 -0.8467
6.1621 6.3210 -0.8510
6.0425 6.5056 -0.8559
5.8821 6.6481 -0.8556
5.8658 6.9616 -0.8773
5.8770 7.3271 -0.9051
12.3745 16.2154 -1.9653
11.7943 16.2549 -1.9348
8.0954 11.7439 -1.3741
7.7237 11.8053 -1.3589
7.1509 11.5286 -1.3067
7.0349 11.9783 -1.3379
8.9514 16.1211 -1.7758
8.9408 17.0607 -1.8549
8.7538 17.7333 -1.9043
8.4096 18.1268 -1.9241
7.9651 18.3154 -1.9230
7.5580 18.5953 -1.9326
7.2219 19.0774 -1.9639
6.7799 19.3061 -1.9700
6.2750 19.3518 -1.9586
5.7770 19.4017 -1.9489
5.2812 19.4425 -1.9396
4.7479 19.3121 -1.9146
4.1907 19.0166 -1.8747
3.6077 18.4856 -1.8132
3.3770 19.8419 -1.9377
3.0650 21.0760 -2.0505
2.6218 21.6980 -2.1043
5.6133 58.2397 -5.6335
4.1552 57.6738 -5.5676
2.0573 43.0442 -4.1495
-8.9104 91.3571 -8.8422
-7.0707 57.9614 -5.6253
-8.7293 59.5491 -5.7987
-9.8029 57.2044 -5.5924
-9.5291 48.5318 -4.7662
-10.2119 46.0891 -4.5497
-11.2180 45.4058 -4.5082
-11.6490 42.6924 -4.2660
-9.2364 30.8908 -3.1086
-9.9733 30.6379 -3.1069
-10.6172 30.1230 -3.0802
-11.9078 31.3474 -3.2343
-12.7860 31.3550 -3.2665
-13.4657 30.8669 -3.2491
-13.2365 28.4458 -3.0275
-13.8820 28.0411 -3.0198
-14.8195 28.1999 -3.0750
-15.2815 27.4473 -3.0329
-15.1173 25.6726 -2.8768
-16.3757 26.3329 -2.9948
-16.9984 25.9163 -2.9938
-15.2661 22.0921 -2.5944
-15.8278 21.7612 -2.6002
-14.5398 19.0075 -2.3129
-14.7988 18.4068 -2.2831
-15.0545 17.8251 -2.2559
-15.0545 16.9754 -2.1942
-13.9081 14.9395 -1.9744
-14.5690 14.9102 -2.0169
-17.6567 17.2175 -2.3865
-18.0639 16.7824 -2.3865
-17.3949 15.3948 -2.2488
-17.7426 14.9538 -2.2469
-13.9484 11.1909 -1.7320
-12.9513 9.8861 -1.5784
-13.1763 9.5630 -1.5776
-13.4029 9.2414 -1.5779
-13.6314 8.9208 -1.5793
-17.7195 10.9940 -2.0221
-15.5646 9.1437 -1.7508
-14.1512 7.8597 -1.5704
-14.9619 7.8431 -1.6392
-15.2169 7.5137 -1.6472
-15.4708 7.1795 -1.6558
-15.7293 6.8425 -1.6657
-15.5177 6.3091 -1.6271
-16.3563 6.1938 -1.6992
-43.8731 14.2311 -4.4834
-43.8093 13.0492 -4.4444
-17.2337 4.6830 -1.7368
-43.5397 10.7086 -4.3616
-16.9313 3.7328 -1.6870
-15.2831 2.9842 -1.5155
-9.9679 1.6974 -0.9843
-10.9209 1.5892 -1.0746
-11.9914 1.4500 -1.1764
-12.4309 1.1991 -1.2166
-12.9013 0.9305 -1.2604
-13.4094 0.6419 -1.3085
-13.8238 0.3272 -1.3481
-13.8881 -0.0069 -1.3543
-13.9336 -0.3438 -1.3595
-13.9812 -0.6833 -1.3656
-13.9614 -1.0210 -1.3660
-13.9338 -1.3582 -1.3665
-13.9081 -1.6958 -1.3679
-13.8841 -2.0345 -1.3703
-13.7066 -2.3481 -1.3583
-13.4465 -2.6395 -1.3387
-13.1973 -2.9235 -1.3209
-12.9581 -3.2009 -1.3046
-16.4099 -4.4769 -1.6629
-16.0357 -4.7941 -1.6366
-11.6691 -3.7981 -1.2002
-10.9049 -3.8432 -1.1310
-10.2287 -3.8852 -1.0705
-19.1886 -7.8242 -2.0279
-12.5450 -5.4724 -1.3396
-12.4611 -5.7982 -1.3455
-27.2593 -13.4947 -2.9783
-16.5988 -8.7227 -1.8364
-17.2331 -9.5945 -1.9320
-17.7175 -10.4329 -2.0144
-17.8314 -11.0888 -2.0575
-17.8577 -11.7129 -2.0930
-21.0357 -14.5363 -2.5063
-20.2948 -14.7616 -2.4602
-17.9718 -13.7480 -2.2186
-17.1230 -13.7672 -2.1546
-18.8713 -15.9390 -2.1466
-15.2268 -13.5045 -1.7690
-16.6870 -15.5361 -1.9820
-13.7118 -13.3991 -1.6668
-13.3528 -13.6946 -1.6632
-13.8845 -14.9460 -1.7741
-13.4251 -15.1707 -1.7620
-13.8877 -16.4794 -1.8747
-30.1407 -37.5717 -4.1905
-28.6700 -37.5632 -4.1115
-27.0389 -37.2598 -4.0060
-25.8926 -37.5571 -3.9699
-24.5733 -37.5542 -3.9060
-23.2826 -37.5311 -3.8443
-22.1094 -37.6409 -3.8000
-20.8338 -37.5169 -3.7358
-19.7207 -37.6271 -3.6985
-18.5148 -37.5035 -3.6415
-17.6335 -38.0055 -3.6480
-17.6190 -40.5108 -3.8467
-14.6859 -36.1300 -3.3961
-13.7871 -36.4178 -3.3910
-12.8244 -36.5163 -3.3704
-11.8055 -36.4063 -3.3330
-10.8388 -36.4007 -3.3076
-9.8991 -36.4428 -3.2887
-8.9464 -36.3897 -3.2635
-8.0179 -36.3844 -3.2446
-7.1044 -36.4042 -3.2301
-6.1900 -36.3738 -3.2131
-5.2456 -36.0753 -3.1746
-4.4233 -36.6136 -3.2115
-3.5294 -36.6294 -3.2043
-2.6383 -36.6353 -3.1982
-1.7479 -36.5981 -3.1902
-0.8621 -36.5930 -3.1868
0.0225 -36.6159 -3.1877
0.7062 -28.4911 -2.4809
1.4080 -28.7408 -2.5047
2.1083 -28.7832 -2.5119
2.8142 -28.8354 -2.5214
3.5271 -28.8976 -2.5333
4.2488 -28.9701 -2.5477
4.8354 -28.2044 -2.4896
5.4153 -27.5688 -2.4441
5.6393 -25.4419 -2.2667
6.0612 -24.5241 -2.1970
6.7979 -24.9050 -2.2449
2.8980 -9.6892 -0.8793
7.9888 -24.5335 -2.2430
8.9644 -25.4256 -2.3433
9.4232 -24.7989 -2.3055
9.7036 -23.7890 -2.2325
11.8208 -27.0883 -2.5677
13.4439 -28.8829 -2.7673
9.9587 -20.1103 -1.9490
10.6147 -20.1927 -1.9809
3.7058 -6.6541 -0.6612
3.8478 -6.5325 -0.6581
4.0629 -6.5315 -0.6675
3.7858 -5.7702 -0.5988
3.9849 -5.7650 -0.6079
4.0629 -5.5843 -0.5989
4.2638 -5.5723 -0.6084
2.3885 -2.9699 -0.3304
4.5491 -5.3847 -0.6110
4.8215 -5.4350 -0.6296
4.7476 -5.0981 -0.6035
4.8127 -4.9239 -0.5963
4.8768 -4.7540 -0.5897
4.9399 -4.5880 -0.5836
5.0022 -4.4256 -0.5780
