ply
format ascii 1.0
element vertex 2147
property float32 x
property float32 y
property float32 z
end_header
0.3878 -15.6855 2.4025
0.7663 -15.6707 2.4025
1.1443 -15.6464 2.4025
1.5215 -15.6127 2.4025
1.8162 -14.9003 2.2993
2.1751 -14.8500 2.2993
2.5325 -14.7906 2.2993
2.8883 -14.7223 2.2993
3.2422 -14.6451 2.2993
3.5939 -14.5591 2.2993
3.9433 -14.4644 2.2993
4.2902 -14.3609 2.2993
4.6342 -14.2488 2.2993
4.9752 -14.1281 2.2993
5.3065 -13.9818 2.2965
5.5466 -13.6142 2.2583
5.7802 -13.2619 2.2232
5.9970 -12.8997 2.1870
6.1652 -12.4651 2.1389
6.3315 -12.0594 2.0959
4.8471 -8.7143 1.5351
4.7824 -8.1295 1.4527
4.6645 -7.5083 1.3622
4.6119 -7.0385 1.2974
4.6937 -6.7994 1.2746
4.8269 -6.6433 1.2675
4.9730 -6.5080 1.2650
5.1262 -6.3829 1.2652
5.2791 -6.2576 1.2660
5.3632 -6.0544 1.2516
5.3270 -5.7286 1.2112
5.3351 -5.4665 1.1835
5.3533 -5.2265 1.1600
5.4135 -5.0357 1.1472
5.5488 -4.9171 1.1512
5.6847 -4.7975 1.1558
5.7642 -4.6309 1.1498
5.8565 -4.4767 1.1472
5.9863 -4.3510 1.1525
6.1169 -4.2240 1.1586
6.2480 -4.0952 1.1653
6.1336 -3.8117 1.1274
5.8204 -3.4250 1.0551
5.6562 -3.1470 1.0121
5.5961 -2.9388 0.9892
5.5511 -2.7462 0.9701
5.5365 -2.5745 0.9572
5.4762 -2.3873 0.9373
5.4974 -2.2401 0.9322
5.5349 -2.1010 0.9305
5.5559 -1.9568 0.9267
5.6103 -1.8248 0.9289
5.6648 -1.6924 0.9318
5.7318 -1.5626 0.9372
5.8292 -1.4388 0.9480
5.8887 -1.3034 0.9531
5.9479 -1.1665 0.9588
6.0070 -1.0281 0.9649
6.0316 -0.8829 0.9660
5.9940 -0.7299 0.9578
5.9734 -0.5813 0.9529
5.9602 -0.4350 0.9497
5.9469 -0.2898 0.9471
5.9208 -0.1452 0.9429
5.8833 -0.0021 0.9376
5.8461 0.1392 0.9328
5.8090 0.2789 0.9285
5.7721 0.4171 0.9248
5.7352 0.5541 0.9216
5.7037 0.6905 0.9198
6.1402 0.8944 0.9943
6.8069 1.1602 1.1075
6.7304 1.3153 1.1009
6.6642 1.4704 1.0965
6.5974 1.6238 1.0927
6.5300 1.7757 1.0893
6.4619 1.9260 1.0863
6.2738 2.0363 1.0635
6.1880 2.1752 1.0585
6.1023 2.3123 1.0540
6.0168 2.4478 1.0500
5.9312 2.5818 1.0466
5.8733 2.7273 1.0485
5.8365 2.8837 1.0550
5.7991 3.0418 1.0621
5.7628 3.2028 1.0701
5.7388 3.3735 1.0814
5.7605 3.5764 1.1023
5.7664 3.7762 1.1214
5.7710 3.9819 1.1416
5.7757 4.1948 1.1631
5.7804 4.4156 1.1860
5.7845 4.6444 1.2104
5.8106 4.9011 1.2412
5.8443 5.1764 1.2756
5.9654 5.5468 1.3318
6.2814 6.1305 1.4360
6.3446 6.4990 1.4868
6.3091 6.7833 1.5174
6.2715 7.0786 1.5500
6.2492 7.4069 1.5893
6.2644 7.8001 1.6416
6.2617 8.1950 1.6932
6.1833 8.5113 1.7281
6.0420 8.7544 1.7482
5.8974 9.0032 1.7697
5.7494 9.2582 1.7928
5.5976 9.5200 1.8176
5.5927 10.0610 1.8953
5.5499 10.5786 1.9678
6.1816 12.5091 2.2993
5.8751 12.6502 2.2993
5.5655 12.7841 2.2993
5.2529 12.9107 2.2993
4.9376 13.0299 2.2993
4.6196 13.1416 2.2993
4.2993 13.2459 2.2993
3.9767 13.3427 2.2993
2.6526 9.7560 1.6701
2.4193 9.8315 1.6728
2.9969 13.5874 2.2993
2.6670 13.6537 2.2993
2.3357 13.7122 2.2993
2.0930 14.3811 2.4025
1.7444 14.4260 2.4025
1.3948 14.4629 2.4025
1.0445 14.4915 2.4025
0.6937 14.5120 2.4025
0.3425 14.5244 2.4025
-0.0089 14.5285 2.4025
-0.3603 14.5245 2.4025
-0.7115 14.5122 2.4025
-1.0624 14.4918 2.4025
-1.4128 14.4633 2.4025
-1.7624 14.4265 2.4025
-2.1111 14.3817 2.4025
-2.4587 14.3287 2.4025
-2.8051 14.2676 2.4025
-3.1500 14.1984 2.4025
-3.4932 14.1212 2.4025
-3.8347 14.0360 2.4025
-4.1741 13.9428 2.4025
-4.5114 13.8418 2.4025
-4.8463 13.7328 2.4025
-5.1787 13.6160 2.4025
-5.5084 13.4914 2.4025
-5.7865 13.2475 2.3825
-5.8947 12.6520 2.2994
-6.2015 12.5108 2.2994
-6.5050 12.3625 2.2994
-6.3372 11.3675 2.1413
-7.1017 12.0444 2.2994
-7.3944 11.8749 2.2994
-6.0820 9.2604 1.8202
-6.1098 8.8297 1.7632
-6.1303 8.4167 1.7089
-6.1131 7.9803 1.6489
-6.1188 7.5997 1.5995
-6.1566 7.2790 1.5620
-9.3256 10.4999 2.2994
-3.4582 3.7091 0.8298
-3.4607 3.5362 0.8091
-3.4630 3.3715 0.7899
-3.5060 3.2520 0.7810
-3.5887 3.1708 0.7816
-3.6697 3.0877 0.7822
-3.7489 3.0025 0.7828
-3.8263 2.9155 0.7834
-3.9018 2.8266 0.7841
-3.9753 2.7358 0.7847
-4.0468 2.6432 0.7854
-4.1164 2.5488 0.7861
-4.1838 2.4526 0.7868
-4.2491 2.3548 0.7875
-4.3123 2.2553 0.7882
-4.3733 2.1542 0.7890
-4.4320 2.0515 0.7897
-4.4884 1.9473 0.7905
-4.5425 1.8416 0.7913
-4.5941 1.7345 0.7920
-4.6434 1.6260 0.7928
-4.6903 1.5161 0.7936
-4.7346 1.4050 0.7945
-4.7764 1.2927 0.7953
-4.8156 1.1792 0.7961
-4.8522 1.0645 0.7970
-4.8862 0.9488 0.7978
-4.9175 0.8321 0.7987
-4.9461 0.7145 0.7996
-4.9719 0.5959 0.8004
-4.9950 0.4766 0.8013
-5.0153 0.3564 0.8022
-5.0327 0.2356 0.8031
-5.0473 0.1142 0.8040
-5.0589 -0.0078 0.8049
-5.0677 -0.1303 0.8058
-5.0735 -0.2532 0.8067
-5.0764 -0.3765 0.8077
-5.0763 -0.5001 0.8086
-5.0732 -0.6239 0.8095
-5.0672 -0.7478 0.8104
-14.4787 -2.4956 2.3225
-14.4274 -2.8473 2.3225
-14.3675 -3.1979 2.3225
-14.2991 -3.5473 2.3225
-14.2221 -3.8952 2.3225
-14.1365 -4.2414 2.3225
-14.0425 -4.5858 2.3225
-13.9399 -4.9280 2.3225
-13.8290 -5.2679 2.3225
-13.7096 -5.6053 2.3225
-13.5819 -5.9399 2.3225
-13.4460 -6.2715 2.3225
-13.3018 -6.6001 2.3225
-13.1495 -6.9252 2.3225
-12.9890 -7.2467 2.3225
-12.8206 -7.5644 2.3225
-12.6443 -7.8782 2.3225
-12.4602 -8.1877 2.3225
-12.2684 -8.4928 2.3225
-12.0689 -8.7933 2.3225
-11.8619 -9.0891 2.3225
-11.6475 -9.3798 2.3225
-10.6456 -9.0061 2.3225
-10.4319 -9.2667 2.3225
-10.1102 -9.4274 2.2994
-9.8858 -9.6749 2.2994
-9.6553 -9.9169 2.2994
-9.4187 -10.1532 2.2994
-9.1762 -10.3838 2.2994
-8.9279 -10.6084 2.2994
-8.6740 -10.8268 2.2994
-8.4145 -11.0390 2.2994
-8.1498 -11.2448 2.2994
-7.8799 -11.4440 2.2994
-7.6050 -11.6366 2.2994
-7.3253 -11.8223 2.2994
-7.0409 -12.0011 2.2994
-6.7520 -12.1728 2.2994
-6.4588 -12.3373 2.2994
-6.2599 -12.6941 2.3362
-6.1229 -13.2112 2.4025
-5.8042 -13.3599 2.4025
-5.4818 -13.5006 2.4025
-5.1559 -13.6332 2.4025
-4.8267 -13.7577 2.4025
-4.4944 -13.8740 2.4025
-4.1592 -13.9819 2.4025
-3.8213 -14.0815 2.4025
-3.4810 -14.1726 2.4025
-3.1385 -14.2552 2.4025
-2.7939 -14.3291 2.4025
-2.4475 -14.3945 2.4025
-2.0996 -14.4511 2.4025
-1.7503 -14.4991 2.4025
-1.3999 -14.5383 2.4025
-1.0486 -14.5687 2.4025
-0.6967 -14.5903 2.4025
-0.3443 -14.6030 2.4025
0.0084 -14.6070 2.4025
0.3610 -14.6021 2.4025
0.7133 -14.5884 2.4025
1.0652 -14.5658 2.4025
1.4163 -14.5345 2.4025
1.7589 -14.4317 2.3921
2.0248 -13.8247 2.2993
2.3575 -13.7696 2.2993
2.6888 -13.7063 2.2993
3.0182 -13.6346 2.2993
3.3458 -13.5548 2.2993
3.6711 -13.4668 2.2993
3.9941 -13.3707 2.2993
4.3144 -13.2666 2.2993
4.6320 -13.1545 2.2993
4.9467 -13.0347 2.2993
5.2581 -12.9070 2.2993
5.5661 -12.7716 2.2993
5.8063 -12.4905 2.2741
6.0315 -12.1956 2.2472
6.2386 -11.8835 2.2178
4.8497 -8.7198 1.6494
4.7849 -8.1344 1.5608
4.6853 -7.5424 1.4692
4.6314 -7.0690 1.3991
4.6627 -6.7550 1.3595
4.7952 -6.6002 1.3520
4.9439 -6.4704 1.3502
5.0962 -6.3461 1.3503
5.2482 -6.2215 1.3512
5.3909 -6.0862 1.3505
5.3535 -5.7577 1.3067
5.3608 -5.4934 1.2765
5.3786 -5.2517 1.2510
5.3959 -5.0198 1.2273
5.5264 -4.8977 1.2305
5.6614 -4.7784 1.2354
5.7406 -4.6125 1.2288
5.8481 -4.4708 1.2292
5.9776 -4.3452 1.2349
6.1081 -4.2184 1.2414
6.2389 -4.0898 1.2485
5.9661 -3.7081 1.1765
5.7731 -3.3976 1.1228
5.6121 -3.1229 1.0773
5.5670 -2.9240 1.0556
5.5228 -2.7327 1.0352
5.5177 -2.5662 1.0232
5.4593 -2.3804 1.0022
5.4959 -2.2399 0.9995
5.5232 -2.0969 0.9958
5.5515 -1.9556 0.9929
5.6058 -1.8238 0.9953
5.6603 -1.6914 0.9983
5.6995 -1.5542 0.9991
5.7339 -1.4157 0.9997
5.7920 -1.2824 1.0050
5.8499 -1.1477 1.0108
5.9074 -1.0115 1.0171
6.0076 -0.8798 1.0313
5.9704 -0.7275 1.0225
5.9411 -0.5786 1.0157
5.9282 -0.4331 1.0122
5.9151 -0.2886 1.0094
5.8887 -0.1448 1.0049
5.8516 -0.0025 0.9991
5.8148 0.1381 0.9940
5.7781 0.2770 0.9894
5.7415 0.4145 0.9854
5.7078 0.5510 0.9825
5.6816 0.6875 0.9814
5.8844 0.8568 1.0206
6.6953 1.1407 1.1667
6.6214 1.2935 1.1599
6.5479 1.4443 1.1538
6.4748 1.5932 1.1483
6.4020 1.7404 1.1435
6.3294 1.8861 1.1392
6.1807 2.0057 1.1217
6.0967 2.1426 1.1165
6.0127 2.2779 1.1118
5.9288 2.4116 1.1076
5.8877 2.5624 1.1120
5.8515 2.7167 1.1181
5.8148 2.8725 1.1249
5.7774 3.0300 1.1324
5.7427 3.1911 1.1412
5.7167 3.3601 1.1527
5.7379 3.5619 1.1749
5.7506 3.7654 1.1966
5.7550 3.9703 1.2180
5.7593 4.1824 1.2408
5.7638 4.4024 1.2652
5.7675 4.6302 1.2911
5.7827 4.8771 1.3214
5.8155 5.1504 1.3578
5.9107 5.4954 1.4115
6.2194 6.0693 1.5208
6.2529 6.4045 1.5673
6.2287 6.6963 1.6023
6.1899 6.9860 1.6362
6.1488 7.2872 1.6724
6.1836 7.6988 1.7329
6.1788 8.0858 1.7867
6.1671 8.4883 1.8431
6.0484 8.7631 1.8714
5.9038 9.0122 1.8944
5.7557 9.2676 1.9191
5.6038 9.5298 1.9456
5.6244 10.1172 2.0379
5.6046 10.6820 2.1246
5.7819 11.6993 2.2993
5.4953 11.8316 2.2993
5.2058 11.9571 2.2993
4.9135 12.0757 2.2993
4.6187 12.1874 2.2993
4.3214 12.2922 2.2993
4.0217 12.3900 2.2993
3.7200 12.4807 2.2993
2.3808 8.7557 1.6023
2.4122 9.8021 1.7829
2.8036 12.7102 2.2993
2.4950 12.7723 2.2993
2.2612 13.2746 2.3795
1.9580 13.4529 2.4025
1.6319 13.4951 2.4025
1.3049 13.5296 2.4025
0.9772 13.5565 2.4025
0.6490 13.5757 2.4025
0.3204 13.5872 2.4025
-0.0083 13.5911 2.4025
-0.3371 13.5873 2.4025
-0.6657 13.5758 2.4025
-0.9940 13.5567 2.4025
-1.3217 13.5298 2.4025
-1.6488 13.4954 2.4025
-1.9750 13.4533 2.4025
-2.3001 13.4036 2.4025
-2.6241 13.3463 2.4025
-2.9467 13.2814 2.4025
-3.2678 13.2090 2.4025
-3.5872 13.1291 2.4025
-3.9047 13.0417 2.4025
-4.2201 12.9469 2.4025
-4.5333 12.8447 2.4025
-4.8441 12.7352 2.4025
-5.1524 12.6185 2.4025
-5.4580 12.4944 2.4025
-5.7607 12.3633 2.4025
-5.8232 11.7467 2.3085
-6.0840 11.5613 2.2994
-6.3377 11.3675 2.2898
-6.6416 11.2632 2.2994
-6.9152 11.1043 2.2994
-6.2524 9.5191 2.0010
-7.4512 10.7673 2.2994
-6.1016 8.3766 1.8190
-6.1262 7.9967 1.7672
-6.1476 7.6348 1.7187
-6.1374 7.2557 1.6654
-6.1341 6.9060 1.6177
-3.4583 3.7088 0.8876
-3.4607 3.5359 0.8655
-3.4630 3.3712 0.8449
-3.4652 3.2138 0.8257
-3.4673 3.0632 0.8078
-3.4693 2.9187 0.7911
-3.5107 2.8114 0.7843
-3.5828 2.7296 0.7849
-3.6531 2.6461 0.7855
-3.7215 2.5608 0.7861
-3.7881 2.4739 0.7867
-3.8528 2.3853 0.7874
-3.9155 2.2950 0.7880
-3.9762 2.2032 0.7887
-4.0349 2.1099 0.7894
-4.0915 2.0151 0.7901
-4.1459 1.9188 0.7908
-4.1982 1.8211 0.7915
-4.2483 1.7220 0.7922
-4.2961 1.6217 0.7929
-4.3417 1.5200 0.7937
-4.3850 1.4171 0.7945
-4.4259 1.3131 0.7952
-4.4644 1.2079 0.7960
-4.5005 1.1017 0.7968
-4.5341 0.9944 0.7976
-4.5653 0.8862 0.7984
-4.5939 0.7770 0.7992
-4.6200 0.6670 0.8000
-4.6435 0.5562 0.8008
-4.6645 0.4447 0.8016
-4.6828 0.3325 0.8025
-4.6984 0.2197 0.8033
-4.7114 0.1063 0.8041
-4.7216 -0.0076 0.8050
-4.7292 -0.1219 0.8058
-4.7340 -0.2366 0.8067
-4.7360 -0.3516 0.8076
-4.7353 -0.4668 0.8084
-4.7318 -0.5822 0.8093
-4.7254 -0.6977 0.8101
-13.5064 -2.3289 2.3225
-13.4577 -2.6568 2.3225
-13.4010 -2.9837 2.3225
-13.3364 -3.3094 2.3225
-13.2638 -3.6337 2.3225
-13.1832 -3.9563 2.3225
-13.0947 -4.2772 2.3225
-12.9984 -4.5960 2.3225
-12.8942 -4.9127 2.3225
-12.7821 -5.2270 2.3225
-12.6624 -5.5387 2.3225
-12.5349 -5.8475 2.3225
-12.3998 -6.1534 2.3225
-12.2571 -6.4561 2.3225
-12.1069 -6.7555 2.3225
-11.9493 -7.0513 2.3225
-11.7844 -7.3433 2.3225
-11.6122 -7.6314 2.3225
-11.4328 -7.9153 2.3225
-11.2463 -8.1950 2.3225
-11.0529 -8.4701 2.3225
-10.8526 -8.7405 2.3225
-9.8636 -8.3454 2.2994
-9.6652 -8.5865 2.2994
-9.4608 -8.8227 2.2994
-9.2505 -9.0539 2.2994
-9.0344 -9.2800 2.2994
-8.8127 -9.5008 2.2994
-8.5855 -9.7162 2.2994
-8.3529 -9.9260 2.2994
-8.1150 -10.1300 2.2994
-7.8721 -10.3282 2.2994
-7.6241 -10.5204 2.2994
-7.3714 -10.7064 2.2994
-7.1140 -10.8862 2.2994
-6.8521 -11.0596 2.2994
-6.5859 -11.2265 2.2994
-6.3155 -11.3868 2.2994
-6.2429 -11.9258 2.3762
-6.0213 -12.2112 2.4025
-5.7267 -12.3573 2.4025
-5.4285 -12.4960 2.4025
-5.1269 -12.6274 2.4025
-4.8220 -12.7512 2.4025
-4.5140 -12.8674 2.4025
-4.2032 -12.9759 2.4025
-3.8896 -13.0766 2.4025
-3.5736 -13.1696 2.4025
-3.2553 -13.2546 2.4025
-2.9350 -13.3316 2.4025
-2.6127 -13.4007 2.4025
-2.2888 -13.4616 2.4025
-1.9634 -13.5145 2.4025
-1.6368 -13.5593 2.4025
-1.3091 -13.5958 2.4025
-0.9806 -13.6242 2.4025
-0.6515 -13.6444 2.4025
-0.3219 -13.6563 2.4025
0.0078 -13.6600 2.4025
0.3375 -13.6554 2.4025
0.6670 -13.6427 2.4025
0.9960 -13.6217 2.4025
1.3244 -13.5925 2.4025
1.6520 -13.5550 2.4025
1.8934 -12.9289 2.2993
2.2046 -12.8775 2.2993
2.5144 -12.8184 2.2993
1.9881 -8.9814 1.6195
3.1289 -12.6770 2.2993
3.4332 -12.5949 2.2993
3.7353 -12.5053 2.2993
4.0350 -12.4082 2.2993
4.3321 -12.3036 2.2993
4.6264 -12.1917 2.2993
4.9178 -12.0726 2.2993
5.2060 -11.9462 2.2993
5.4909 -11.8128 2.2993
5.7722 -11.6724 2.2993
6.0585 -11.5413 2.3025
6.2644 -11.2642 2.2777
4.7873 -8.1393 1.6694
4.7064 -7.5770 1.5777
4.6513 -7.0998 1.5020
4.6320 -6.7111 1.4437
4.7637 -6.5576 1.4357
4.9150 -6.4332 1.4348
5.0664 -6.3096 1.4348
5.2175 -6.1857 1.4357
5.3685 -6.0615 1.4373
5.3804 -5.7872 1.4035
5.3869 -5.5207 1.3708
5.4042 -5.2773 1.3432
5.4211 -5.0438 1.3176
5.5041 -4.8785 1.3095
5.6382 -4.7592 1.3145
5.7171 -4.5941 1.3076
5.8396 -4.4648 1.3114
5.9690 -4.3394 1.3174
6.0992 -4.2128 1.3242
6.2298 -4.0843 1.3317
5.8688 -3.6481 1.2362
5.7202 -3.3670 1.1883
5.5715 -3.1007 1.1423
5.5373 -2.9088 1.1214
5.4983 -2.7210 1.1007
5.4957 -2.5563 1.0883
5.4567 -2.3796 1.0697
5.4944 -2.2397 1.0670
5.5099 -2.0923 1.0607
5.5471 -1.9545 1.0593
5.6014 -1.8227 1.0618
5.6516 -1.6892 1.0641
5.6703 -1.5466 1.0611
5.6873 -1.4046 1.0585
5.7040 -1.2633 1.0565
5.7546 -1.1294 1.0613
5.8107 -0.9953 1.0678
5.9837 -0.8767 1.0963
5.9468 -0.7250 1.0869
5.9104 -0.5760 1.0783
5.8964 -0.4311 1.0744
5.8834 -0.2875 1.0713
5.8568 -0.1445 1.0664
5.8202 -0.0029 1.0603
5.7837 0.1369 1.0548
5.7473 0.2752 1.0499
5.7115 0.4120 1.0457
5.6855 0.5485 1.0439
5.6595 0.6844 1.0427
5.7894 0.8425 1.0710
6.4679 1.1015 1.2020
6.5649 1.2820 1.2264
6.4924 1.4316 1.2200
6.4202 1.5793 1.2142
6.3483 1.7254 1.2091
6.2766 1.8699 1.2046
6.0900 1.9758 1.1785
6.0077 2.1110 1.1730
5.9368 2.2487 1.1703
5.9016 2.4001 1.1753
5.8660 2.5525 1.1811
5.8298 2.7062 1.1875
5.7931 2.8614 1.1946
5.7558 3.0182 1.2025
5.7225 3.1795 1.2121
5.6946 3.3467 1.2238
5.7154 3.5475 1.2472
5.7348 3.7546 1.2717
5.7389 3.9588 1.2943
5.7430 4.1701 1.3185
5.7471 4.3891 1.3442
5.7505 4.6161 1.3716
5.7550 4.8532 1.4011
5.7869 5.1245 1.4395
5.8567 5.4447 1.4901
6.1583 6.0092 1.6042
6.1529 6.3015 1.6430
6.1397 6.6000 1.6825
6.1102 6.8954 1.7205
6.0679 7.1907 1.7579
6.0740 7.5617 1.8131
6.0977 7.9790 1.8781
6.1485 8.4620 1.9572
6.0473 8.7607 1.9928
5.9102 9.0213 2.0198
5.7620 9.2771 2.0461
5.6100 9.5397 2.0743
5.6450 10.1536 2.1783
5.6605 10.7878 2.2852
5.4294 10.9853 2.2993
5.1604 11.1098 2.2993
4.8887 11.2278 2.2993
4.6143 11.3395 2.2993
4.3375 11.4446 2.2993
4.0583 11.5432 2.2993
2.6746 8.2392 1.6282
2.3866 8.0063 1.5706
2.4130 8.8735 1.7292
2.9216 11.8712 2.2993
2.6331 11.9364 2.2993
2.3433 11.9949 2.2993
2.1443 12.5875 2.4025
1.8390 12.6343 2.4025
1.5327 12.6740 2.4025
1.2256 12.7064 2.4025
0.9178 12.7317 2.4025
0.6095 12.7498 2.4025
0.3009 12.7606 2.4025
-0.0079 12.7643 2.4025
-0.3166 12.7607 2.4025
-0.6253 12.7499 2.4025
-0.9336 12.7318 2.4025
-1.2414 12.7066 2.4025
-1.5485 12.6741 2.4025
-1.8549 12.6345 2.4025
-2.1603 12.5877 2.4025
-2.4646 12.5337 2.4025
-2.7675 12.4727 2.4025
-3.0690 12.4045 2.4025
-3.3689 12.3293 2.4025
-3.6670 12.2471 2.4025
-3.9632 12.1579 2.4025
-4.2573 12.0617 2.4025
-4.5491 11.9587 2.4025
-4.8385 11.8488 2.4025
-5.1253 11.7321 2.4025
-5.4095 11.6086 2.4025
-5.6907 11.4785 2.4025
-5.8269 11.0719 2.3454
-5.9761 10.7180 2.2994
-6.2361 10.5747 2.2994
-6.4928 10.4252 2.2994
-6.2525 9.5183 2.1312
-6.9957 10.1081 2.2994
-7.2415 9.9407 2.2994
-6.2817 8.1989 1.9302
-6.1188 7.5984 1.8222
-6.1389 7.2569 1.7745
-6.1630 6.9378 1.7315
-3.4583 3.7084 0.9456
-3.4607 3.5356 0.9221
-3.4630 3.3709 0.9002
-3.4652 3.2135 0.8798
-3.4673 3.0629 0.8607
-3.4693 2.9184 0.8429
-3.4712 2.7795 0.8263
-3.4731 2.6458 0.8107
-3.4749 2.5167 0.7962
-3.4975 2.4063 0.7873
-3.5597 2.3244 0.7879
-3.6202 2.2409 0.7885
-3.6788 2.1560 0.7891
-3.7354 2.0695 0.7897
-3.7902 1.9816 0.7904
-3.8429 1.8924 0.7910
-3.8937 1.8017 0.7917
-3.9424 1.7098 0.7924
-3.9890 1.6166 0.7931
-4.0335 1.5222 0.7937
-4.0759 1.4266 0.7945
-4.1160 1.3299 0.7952
-4.1540 1.2321 0.7959
-4.1896 1.1333 0.7966
-4.2230 1.0335 0.7973
-4.2541 0.9327 0.7981
-4.2829 0.8311 0.7988
-4.3093 0.7286 0.7996
-4.3333 0.6253 0.8004
-4.3548 0.5214 0.8011
-4.3739 0.4167 0.8019
-4.3906 0.3114 0.8027
-4.4047 0.2056 0.8035
-4.4164 0.0993 0.8043
-4.4255 -0.0074 0.8051
-4.4320 -0.1146 0.8059
-4.4360 -0.2220 0.8067
-4.4373 -0.3297 0.8075
-4.4361 -0.4376 0.8083
-4.4323 -0.5457 0.8091
-4.4258 -0.6538 0.8099
-4.4167 -0.7619 0.8107
-12.6071 -2.4898 2.3225
-12.5534 -2.7959 2.3225
-12.4922 -3.1008 2.3225
-12.4235 -3.4043 2.3225
-12.3474 -3.7064 2.3225
-12.2639 -4.0067 2.3225
-12.1730 -4.3051 2.3225
-12.0748 -4.6014 2.3225
-11.9693 -4.8955 2.3225
-11.8566 -5.1871 2.3225
-11.7366 -5.4760 2.3225
-11.6096 -5.7622 2.3225
-11.4754 -6.0453 2.3225
-11.3343 -6.3252 2.3225
-11.1862 -6.6018 2.3225
-11.0313 -6.8749 2.3225
-10.8696 -7.1442 2.3225
-10.7012 -7.4097 2.3225
-10.5262 -7.6711 2.3225
-10.3447 -7.9283 2.3225
-10.0558 -8.0997 2.2994
-9.2667 -7.8412 2.2994
-9.0800 -8.0674 2.2994
-8.8876 -8.2890 2.2994
-8.6898 -8.5060 2.2994
-8.4865 -8.7181 2.2994
-8.2780 -8.9252 2.2994
-8.0643 -9.1272 2.2994
-7.8455 -9.3239 2.2994
-7.6219 -9.5153 2.2994
-7.3935 -9.7011 2.2994
-7.1604 -9.8813 2.2994
-6.9229 -10.0558 2.2994
-6.6810 -10.2243 2.2994
-6.4349 -10.3869 2.2994
-6.2270 -10.6156 2.3152
-6.1965 -11.1731 2.4025
-5.9272 -11.3236 2.4025
-5.6541 -11.4673 2.4025
-5.3774 -11.6043 2.4025
-5.0973 -11.7343 2.4025
-4.8140 -11.8574 2.4025
-4.5276 -11.9735 2.4025
-4.2384 -12.0824 2.4025
-3.9464 -12.1841 2.4025
-3.6520 -12.2785 2.4025
-3.3553 -12.3656 2.4025
-3.0564 -12.4453 2.4025
-2.7555 -12.5175 2.4025
-2.4530 -12.5822 2.4025
-2.1488 -12.6393 2.4025
-1.8433 -12.6889 2.4025
-1.5367 -12.7308 2.4025
-1.2290 -12.7651 2.4025
-0.9206 -12.7917 2.4025
-0.6116 -12.8106 2.4025
-0.3023 -12.8218 2.4025
0.0073 -12.8253 2.4025
0.3169 -12.8210 2.4025
0.6262 -12.8091 2.4025
0.9351 -12.7894 2.4025
1.2434 -12.7620 2.4025
1.5509 -12.7270 2.4025
1.8021 -12.3067 2.3310
2.0698 -12.0911 2.2993
2.3607 -12.0357 2.2993
2.0124 -9.0923 1.7461
2.0190 -8.1808 1.5802
2.2451 -8.2370 1.6014
3.5071 -11.7423 2.2993
3.7886 -11.6513 2.2993
4.0676 -11.5533 2.2993
4.3440 -11.4485 2.2993
4.6177 -11.3368 2.2993
4.8884 -11.2184 2.2993
5.1560 -11.0934 2.2993
5.4204 -10.9618 2.2993
5.6813 -10.8237 2.2993
6.0900 -10.9515 2.3579
4.8108 -8.1798 1.7864
4.7278 -7.6120 1.6875
4.6714 -7.1311 1.6062
4.6203 -6.6948 1.5333
4.7352 -6.5189 1.5194
4.8863 -6.3962 1.5186
5.0369 -6.2734 1.5187
5.1871 -6.1502 1.5195
5.3372 -6.0267 1.5212
5.4077 -5.8171 1.5017
5.4134 -5.5483 1.4664
5.4302 -5.3032 1.4367
5.4466 -5.0681 1.4090
5.4819 -4.8593 1.3882
5.6150 -4.7402 1.3934
5.7029 -4.5832 1.3882
5.8312 -4.4589 1.3937
5.9603 -4.3336 1.4000
6.0903 -4.2072 1.4072
6.0062 -3.9382 1.3662
5.7742 -3.5897 1.2942
5.6588 -3.3313 1.2508
5.5401 -3.0837 1.2086
5.5067 -2.8932 1.1865
5.4761 -2.7104 1.1663
5.4737 -2.5465 1.1532
5.4552 -2.3794 1.1377
5.4814 -2.2348 1.1324
5.4967 -2.0877 1.1256
5.5427 -1.9533 1.1259
5.5970 -1.8217 1.1285
5.6231 -1.6811 1.1260
5.6413 -1.5391 1.1228
5.6583 -1.3978 1.1200
5.6750 -1.2573 1.1178
5.6913 -1.1174 1.1162
5.7167 -0.9796 1.1171
5.8943 -0.8640 1.1482
5.9234 -0.7226 1.1511
5.8873 -0.5742 1.1419
5.8648 -0.4292 1.1361
5.8520 -0.2864 1.1328
5.8251 -0.1441 1.1275
5.7889 -0.0033 1.1210
5.7528 0.1358 1.1152
5.7168 0.2733 1.1100
5.6892 0.4100 1.1071
5.6634 0.5460 1.1052
5.6375 0.6814 1.1038
5.7595 0.8378 1.1322
6.1816 1.0523 1.2208
6.5091 1.2707 1.2921
6.4376 1.4190 1.2853
6.3663 1.5656 1.2792
6.2953 1.7105 1.2738
6.2267 1.8546 1.2696
6.0016 1.9467 1.2338
5.9498 2.0902 1.2340
5.9151 2.2400 1.2386
5.8800 2.3908 1.2439
5.8444 2.5427 1.2499
5.8082 2.6958 1.2566
5.7715 2.8503 1.2640
5.7357 3.0073 1.2726
5.7025 3.1679 1.2827
5.6727 3.3333 1.2946
5.6929 3.5331 1.3192
5.7137 3.7404 1.3454
5.7229 3.9473 1.3705
5.7267 4.1578 1.3960
5.7304 4.3759 1.4231
5.7336 4.6020 1.4520
5.7366 4.8371 1.4828
5.7584 5.0988 1.5207
5.8035 5.3947 1.5675
6.0958 5.9476 1.6857
6.0619 6.2077 1.7183
6.0385 6.4906 1.7565
6.0235 6.7969 1.8004
5.9887 7.0963 1.8417
5.9678 7.4288 1.8908
6.0031 7.8545 1.9625
6.1299 8.4358 2.0711
6.0287 8.7331 2.1085
5.9166 9.0304 2.1460
5.7684 9.2866 2.1739
5.6233 9.5615 2.2066
5.6147 10.0982 2.2993
5.3669 10.2276 2.2993
5.1163 10.3510 2.2993
4.8629 10.4685 2.2993
4.6069 10.5799 2.2993
4.3484 10.6853 2.2993
4.0876 10.7845 2.2993
3.8245 10.8776 2.2993
2.6748 8.2392 1.7278
2.3678 7.9429 1.6535
2.3807 8.7545 1.8103
2.7534 11.1872 2.2993
2.4816 11.2488 2.2993
2.2339 11.4343 2.3258
2.0210 11.8625 2.4025
1.7332 11.9067 2.4025
1.4445 11.9442 2.4025
1.1551 11.9748 2.4025
0.8650 11.9987 2.4025
0.5744 12.0157 2.4025
0.2836 12.0260 2.4025
-0.0074 12.0294 2.4025
-0.2984 12.0260 2.4025
-0.5893 12.0158 2.4025
-0.8799 11.9987 2.4025
-1.1700 11.9749 2.4025
-1.4595 11.9442 2.4025
-1.7482 11.9068 2.4025
-2.0360 11.8626 2.4025
-2.3228 11.8116 2.4025
-2.6082 11.7540 2.4025
-2.8924 11.6896 2.4025
-3.1750 11.6186 2.4025
-3.4558 11.5409 2.4025
-3.7349 11.4567 2.4025
-4.0120 11.3659 2.4025
-4.2869 11.2686 2.4025
-4.5596 11.1649 2.4025
-4.8298 11.0547 2.4025
-5.0974 10.9382 2.4025
-5.3623 10.8154 2.4025
-5.6244 10.6863 2.4025
-5.8369 10.4676 2.3835
-5.8759 9.9630 2.2994
-6.1176 9.8219 2.2994
-6.2525 9.5175 2.2620
-6.5911 9.5228 2.2994
-6.8225 9.3648 2.2994
-6.2817 8.1982 2.0488
-7.2743 9.0324 2.2994
-7.4943 8.8582 2.2994
-6.1342 6.9047 1.8294
-3.4583 3.7081 1.0038
-3.4607 3.5353 0.9789
-3.4630 3.3706 0.9557
-3.4652 3.2132 0.9340
-3.4673 3.0626 0.9138
-3.4693 2.9181 0.8950
-3.4713 2.7792 0.8773
-3.4731 2.6455 0.8609
-3.4749 2.5164 0.8455
-3.4767 2.3917 0.8310
-3.4783 2.2710 0.8175
-3.4800 2.1539 0.8049
-3.4816 2.0401 0.7931
-3.5213 1.9506 0.7907
-3.5726 1.8676 0.7913
-3.6220 1.7833 0.7919
-3.6695 1.6977 0.7925
-3.7151 1.6110 0.7932
-3.7587 1.5230 0.7938
-3.8003 1.4339 0.7945
-3.8398 1.3437 0.7951
-3.8773 1.2525 0.7958
-3.9126 1.1603 0.7965
-3.9458 1.0671 0.7972
-3.9769 0.9729 0.7979
-4.0058 0.8780 0.7986
-4.0325 0.7822 0.7993
-4.0569 0.6856 0.8000
-4.0791 0.5884 0.8007
-4.0989 0.4904 0.8014
-4.1165 0.3919 0.8022
-4.1317 0.2928 0.8029
-4.1446 0.1932 0.8036
-4.1551 0.0932 0.8044
-4.1632 -0.0073 0.8051
-4.1690 -0.1081 0.8059
-4.1722 -0.2091 0.8066
-4.1731 -0.3104 0.8074
-4.1715 -0.4118 0.8081
-4.1674 -0.5134 0.8089
-4.1609 -0.6149 0.8097
-4.1519 -0.7165 0.8104
-11.8548 -2.3421 2.3225
-11.8038 -2.6297 2.3225
-11.7456 -2.9163 2.3225
-11.6806 -3.2016 2.3225
-11.6085 -3.4854 2.3225
-11.5294 -3.7676 2.3225
-11.4435 -4.0479 2.3225
-11.3506 -4.3263 2.3225
-11.2510 -4.6025 2.3225
-11.1445 -4.8764 2.3225
-11.0313 -5.1478 2.3225
-10.9114 -5.4165 2.3225
-10.7848 -5.6823 2.3225
-10.6517 -5.9452 2.3225
-10.5121 -6.2049 2.3225
-10.3661 -6.4612 2.3225
-10.1122 -6.6472 2.2994
-9.9551 -6.8939 2.2994
-9.7920 -7.1368 2.2994
-9.6228 -7.3758 2.2994
-9.4476 -7.6106 2.2994
-8.7357 -7.3927 2.2994
-8.5595 -7.6057 2.2994
-8.3779 -7.8144 2.2994
-8.1911 -8.0186 2.2994
-7.9993 -8.2183 2.2994
-7.8025 -8.4133 2.2994
-7.6009 -8.6034 2.2994
-7.3945 -8.7886 2.2994
-7.1835 -8.9687 2.2994
-6.9680 -9.1436 2.2994
-6.7482 -9.3132 2.2994
-6.5242 -9.4774 2.2994
-6.2961 -9.6360 2.2994
-6.2084 -10.0221 2.3542
-6.0894 -10.3818 2.4025
-5.8391 -10.5295 2.4025
-5.5852 -10.6711 2.4025
-5.3277 -10.8063 2.4025
-5.0669 -10.9351 2.4025
-4.8029 -11.0575 2.4025
-4.5359 -11.1733 2.4025
-4.2660 -11.2825 2.4025
-3.9934 -11.3850 2.4025
-3.7183 -11.4806 2.4025
-3.4409 -11.5694 2.4025
-3.1612 -11.6514 2.4025
-2.8796 -11.7263 2.4025
-2.5962 -11.7942 2.4025
-2.3111 -11.8551 2.4025
-2.0245 -11.9089 2.4025
-1.7367 -11.9555 2.4025
-1.4478 -11.9949 2.4025
-1.1579 -12.0272 2.4025
-0.8674 -12.0522 2.4025
-0.5762 -12.0700 2.4025
-0.2848 -12.0805 2.4025
0.0069 -12.0838 2.4025
0.2985 -12.0798 2.4025
0.5899 -12.0686 2.4025
0.8810 -12.0501 2.4025
1.1714 -12.0244 2.4025
1.4612 -11.9914 2.4025
1.7500 -11.9513 2.4025
1.9501 -11.3924 2.2993
2.2241 -11.3403 2.2993
1.9880 -8.9827 1.8308
2.0245 -8.2038 1.6818
2.2450 -8.2370 1.6996
3.3044 -11.0645 2.2993
3.5696 -10.9789 2.2993
3.8326 -10.8867 2.2993
4.0931 -10.7881 2.2993
4.3511 -10.6831 2.2993
4.6062 -10.5717 2.2993
4.8585 -10.4541 2.2993
5.1077 -10.3302 2.2993
5.3537 -10.2003 2.2993
5.5962 -10.0644 2.2993
4.8459 -8.2403 1.9095
4.7540 -7.6548 1.8006
4.6923 -7.1637 1.7119
4.6395 -6.7232 1.6337
4.7076 -6.4814 1.6028
4.8578 -6.3595 1.6019
5.0076 -6.2374 1.6019
5.1569 -6.1150 1.6028
5.3061 -5.9921 1.6045
5.4354 -5.8474 1.6012
5.4402 -5.5764 1.5634
5.4566 -5.3294 1.5315
5.4725 -5.0927 1.5018
5.4882 -4.8654 1.4743
5.5919 -4.7212 1.4719
5.6947 -4.5771 1.4703
5.8227 -4.4529 1.4760
5.9516 -4.3278 1.4827
6.0814 -4.2015 1.4902
5.8927 -3.8643 1.4216
5.6823 -3.5330 1.3507
5.5984 -3.2962 1.3123
5.5089 -3.0668 1.2744
5.4763 -2.8776 1.2512
5.4539 -2.6998 1.2317
5.4519 -2.5368 1.2178
5.4524 -2.3786 1.2056
5.4681 -2.2298 1.1976
5.4842 -2.0834 1.1906
5.5383 -1.9522 1.1926
5.5746 -1.8148 1.1915
5.5947 -1.6730 1.1876
5.6124 -1.5317 1.1840
5.6295 -1.3911 1.1810
5.6461 -1.2513 1.1787
5.6624 -1.1121 1.1770
5.6815 -0.9740 1.1766
5.7975 -0.8502 1.1969
5.9000 -0.7201 1.2150
5.8643 -0.5723 1.2053
5.8334 -0.4273 1.1974
5.8208 -0.2852 1.1939
5.7937 -0.1437 1.1881
5.7579 -0.0036 1.1813
5.7221 0.1347 1.1752
5.6925 0.2718 1.1709
5.6670 0.4080 1.1682
5.6414 0.5435 1.1662
5.6156 0.6783 1.1647
5.7297 0.8330 1.1931
5.9248 1.0082 1.2393
6.4541 1.2595 1.3570
6.3834 1.4067 1.3498
6.3131 1.5521 1.3434
6.2429 1.6958 1.3378
6.1350 1.8269 1.3246
5.9622 1.9335 1.2979
5.9280 2.0821 1.3020
5.8934 2.2314 1.3067
5.8583 2.3816 1.3122
5.8228 2.5328 1.3184
5.7867 2.6853 1.3254
5.7500 2.8392 1.3332
5.7158 2.9963 1.3426
5.6825 3.1563 1.3531
5.6508 3.3200 1.3652
5.6706 3.5188 1.3909
5.6908 3.7249 1.4185
5.7069 3.9358 1.4466
5.7104 4.1454 1.4733
5.7138 4.3628 1.5019
5.7166 4.5879 1.5322
5.7193 4.8220 1.5646
5.7301 5.0732 1.6015
5.7615 5.3551 1.6469
6.0082 5.8616 1.7583
5.9732 6.1162 1.7917
5.9402 6.3843 1.8285
5.9230 6.6830 1.8733
5.9040 6.9953 1.9212
5.8648 7.3000 1.9662
5.8957 7.7133 2.0394
6.1114 8.4096 2.1847
6.0102 8.7056 2.2241
5.9051 9.0120 2.2661
5.7665 9.2829 2.2993
5.5383 9.4164 2.2993
5.3071 9.5443 2.2993
5.0730 9.6667 2.2993
4.8362 9.7835 2.2993
4.5967 9.8947 2.2993
4.3548 10.0002 2.2993
4.1105 10.1000 2.2993
3.8640 10.1939 2.2993
3.6154 10.2821 2.2993
2.3470 7.2288 1.6037
2.3834 7.9947 1.7606
2.6533 9.7560 2.1342
2.6030 10.5752 2.2993
2.3460 10.6335 2.2993
2.1815 11.1656 2.4025
1.9106 11.2138 2.4025
1.6385 11.2557 2.4025
1.3656 11.2911 2.4025
1.0920 11.3202 2.4025
0.8177 11.3427 2.4025
0.5431 11.3589 2.4025
0.2681 11.3686 2.4025
-0.0070 11.3718 2.4025
-0.2822 11.3686 2.4025
-0.5571 11.3589 2.4025
-0.8319 11.3427 2.4025
-1.1061 11.3201 2.4025
-1.3798 11.2911 2.4025
-1.6527 11.2556 2.4025
-1.9248 11.2138 2.4025
-2.1959 11.1655 2.4025
-2.4657 11.1109 2.4025
-2.7343 11.0499 2.4025
-3.0014 10.9827 2.4025
-3.2669 10.9092 2.4025
-3.5307 10.8294 2.4025
-3.7925 10.7434 2.4025
-4.0524 10.6513 2.4025
-4.3101 10.5531 2.4025
-4.5654 10.4487 2.4025
-4.8183 10.3384 2.4025
-5.0686 10.2221 2.4025
-5.3162 10.1000 2.4025
-5.5610 9.9719 2.4025
-5.8027 9.8381 2.4025
-5.8605 9.4083 2.3306
-6.0073 9.1435 2.2994
-6.2293 8.9992 2.2994
-6.4479 8.8497 2.2994
-6.2817 8.1975 2.1679
-6.8744 8.5352 2.2994
-7.0822 8.3703 2.2994
-7.2861 8.2006 2.2994
-3.4583 3.7078 1.0623
-3.4608 3.5350 1.0359
-3.4630 3.3702 1.0114
-3.4652 3.2129 0.9885
-3.4673 3.0623 0.9672
-3.4693 2.9178 0.9472
-3.4713 2.7789 0.9286
-3.4731 2.6452 0.9112
-3.4749 2.5162 0.8949
-3.4767 2.3914 0.8797
-3.4784 2.2707 0.8654
-3.4800 2.1536 0.8521
-3.4816 2.0398 0.8396
-3.4831 1.9292 0.8280
-3.4846 1.8213 0.8171
-3.4861 1.7161 0.8070
-3.4875 1.6133 0.7975
-3.5117 1.5225 0.7939
-3.5527 1.4393 0.7945
-3.5917 1.3549 0.7951
-3.6287 1.2696 0.7957
-3.6638 1.1833 0.7964
-3.6969 1.0960 0.7970
-3.7280 1.0079 0.7977
-3.7570 0.9189 0.7983
-3.7840 0.8291 0.7990
-3.8088 0.7385 0.7996
-3.8315 0.6473 0.8003
-3.8521 0.5554 0.8010
-3.8705 0.4628 0.8017
-3.8868 0.3698 0.8024
-3.9008 0.2762 0.8031
-3.9126 0.1821 0.8038
-3.9221 0.0877 0.8045
-3.9294 -0.0071 0.8052
-3.9344 -0.1022 0.8059
-3.9372 -0.1976 0.8066
-3.9376 -0.2931 0.8073
-3.9357 -0.3888 0.8080
-3.9315 -0.4846 0.8087
-3.9250 -0.5803 0.8094
-3.9161 -0.6761 0.8102
-3.9049 -0.7717 0.8109
-11.1359 -2.4817 2.3225
-11.0806 -2.7520 2.3225
-11.0188 -3.0210 2.3225
-10.9503 -3.2886 2.3225
-10.8753 -3.5546 2.3225
-10.7938 -3.8189 2.3225
-10.7058 -4.0813 2.3225
-10.6114 -4.3416 2.3225
-10.5105 -4.5998 2.3225
-10.4034 -4.8555 2.3225
-10.2899 -5.1087 2.3225
-10.0691 -5.3060 2.2994
-9.9444 -5.5512 2.2994
-9.8137 -5.7934 2.2994
-9.6771 -6.0325 2.2994
-9.5345 -6.2683 2.2994
-9.3861 -6.5006 2.2994
-9.2319 -6.7294 2.2994
-9.0721 -6.9544 2.2994
-8.9067 -7.1756 2.2994
-8.2603 -6.9911 2.2994
-8.0934 -7.1923 2.2994
-7.9215 -7.3894 2.2994
-7.7447 -7.5823 2.2994
-7.5631 -7.7709 2.2994
-7.3769 -7.9550 2.2994
-7.1860 -8.1346 2.2994
-6.9907 -8.3095 2.2994
-6.7911 -8.4796 2.2994
-6.5873 -8.6447 2.2994
-6.3793 -8.8048 2.2994
-6.1988 -9.0054 2.3112
-6.1987 -9.4877 2.3949
-5.9891 -9.6689 2.4025
-5.7560 -9.8142 2.4025
-5.5194 -9.9536 2.4025
-5.2792 -10.0872 2.4025
-5.0358 -10.2149 2.4025
-4.7892 -10.3365 2.4025
-4.5396 -10.4520 2.4025
-4.2872 -10.5613 2.4025
-4.0320 -10.6644 2.4025
-3.7743 -10.7611 2.4025
-3.5143 -10.8514 2.4025
-3.2520 -10.9352 2.4025
-2.9877 -11.0125 2.4025
-2.7215 -11.0832 2.4025
-2.4536 -11.1473 2.4025
-2.1842 -11.2048 2.4025
-1.9133 -11.2555 2.4025
-1.6413 -11.2995 2.4025
-1.3682 -11.3367 2.4025
-1.0943 -11.3672 2.4025
-0.8197 -11.3908 2.4025
-0.5446 -11.4076 2.4025
-0.2691 -11.4175 2.4025
0.0065 -11.4206 2.4025
0.2821 -11.4169 2.4025
0.5575 -11.4063 2.4025
0.8326 -11.3888 2.4025
1.1071 -11.3646 2.4025
1.3809 -11.3335 2.4025
1.6538 -11.2957 2.4025
1.8430 -10.7675 2.2993
2.1020 -10.7184 2.2993
2.3597 -10.6628 2.2993
2.0185 -8.1800 1.7742
2.0226 -7.4217 1.6202
3.1231 -10.4581 2.2993
3.3738 -10.3773 2.2993
3.6224 -10.2903 2.2993
3.8687 -10.1973 2.2993
4.1125 -10.0982 2.2993
4.3538 -9.9931 2.2993
4.5923 -9.8820 2.2993
4.8279 -9.7652 2.2993
5.0605 -9.6426 2.2993
5.2899 -9.5143 2.2993
4.8818 -8.3019 2.0349
4.7830 -7.7021 1.9164
4.7195 -7.2058 1.8214
4.6623 -6.7568 1.7366
4.6846 -6.4503 1.6871
4.8326 -6.3271 1.6857
4.9803 -6.2040 1.6852
5.1278 -6.0811 1.6857
5.2752 -5.9578 1.6872
5.4234 -5.8350 1.6898
5.4674 -5.6048 1.6617
5.4833 -5.3561 1.6276
5.4988 -5.1177 1.5959
5.5140 -4.8888 1.5664
5.5689 -4.7023 1.5501
5.6864 -4.5709 1.5525
5.8142 -4.4469 1.5585
5.9429 -4.3220 1.5655
6.0725 -4.1959 1.5734
5.7829 -3.7927 1.4751
5.6126 -3.4902 1.4106
5.5390 -3.2617 1.3727
5.4779 -3.0499 1.3397
5.4534 -2.8660 1.3173
5.4399 -2.6933 1.2987
5.4306 -2.5273 1.2824
5.4391 -2.3732 1.2713
5.4548 -2.2248 1.2629
5.4799 -2.0821 1.2575
5.5258 -1.9482 1.2577
5.5464 -1.8060 1.2529
5.5663 -1.6649 1.2488
5.5837 -1.5242 1.2450
5.6008 -1.3844 1.2418
5.6174 -1.2454 1.2393
5.6343 -1.1070 1.2376
5.6654 -0.9716 1.2398
5.7692 -0.8465 1.2585
5.8768 -0.7177 1.2787
5.8414 -0.5705 1.2685
5.8063 -0.4258 1.2592
5.7898 -0.2841 1.2546
5.7624 -0.1433 1.2485
5.7270 -0.0040 1.2413
5.6955 0.1337 1.2356
5.6702 0.2703 1.2321
5.6448 0.4060 1.2292
5.6194 0.5410 1.2270
5.5938 0.6753 1.2254
5.7001 0.8283 1.2536
5.8930 1.0024 1.3019
6.3997 1.2484 1.4210
6.3300 1.3944 1.4136
6.2605 1.5387 1.4069
6.1996 1.6836 1.4029
6.0595 1.8040 1.3815
5.9405 1.9260 1.3655
5.9064 2.0741 1.3697
5.8718 2.2228 1.3746
5.8368 2.3724 1.3803
5.8013 2.5231 1.3868
5.7652 2.6749 1.3941
5.7286 2.8282 1.4023
5.6959 2.9855 1.4124
5.6625 3.1448 1.4234
5.6290 3.3067 1.4355
5.6483 3.5045 1.4625
5.6680 3.7095 1.4912
5.6883 3.9225 1.5220
5.6941 4.1331 1.5506
5.6972 4.3496 1.5806
5.6998 4.5739 1.6123
5.7021 4.8070 1.6463
5.7043 5.0498 1.6825
5.7324 5.3276 1.7292
5.9227 5.7776 1.8291
5.8866 6.0270 1.8634
5.8482 6.2849 1.8997
5.8255 6.5723 1.9442
5.8043 6.8766 1.9930
5.7810 7.1951 2.0450
5.9974 7.8458 2.1890
6.0929 8.3834 2.2982
5.8889 8.5293 2.2993
5.6788 8.6660 2.2993
5.4656 8.7977 2.2993
5.2493 8.9243 2.2993
5.0303 9.0457 2.2993
4.8085 9.1619 2.2993
4.5840 9.2728 2.2993
4.3571 9.3784 2.2993
4.1279 9.4785 2.2993
2.6202 6.4377 1.5462
2.4623 6.4955 1.5457
2.3510 6.6855 1.5773
2.3787 7.3260 1.7146
2.3623 7.9235 1.8409
2.6535 9.7560 2.2515
2.4675 10.0243 2.2993
2.2239 10.0796 2.2993
2.0680 10.5841 2.4025
1.8112 10.6298 2.4025
1.5533 10.6696 2.4025
1.2946 10.7032 2.4025
1.0352 10.7307 2.4025
0.7752 10.7522 2.4025
0.5148 10.7675 2.4025
0.2541 10.7767 2.4025
-0.0067 10.7797 2.4025
-0.2675 10.7767 2.4025
-0.5282 10.7674 2.4025
-0.7886 10.7521 2.4025
-1.0486 10.7306 2.4025
-1.3080 10.7031 2.4025
-1.5668 10.6694 2.4025
-1.8247 10.6296 2.4025
-2.0816 10.5838 2.4025
-2.3374 10.5320 2.4025
-2.5920 10.4741 2.4025
-2.8452 10.4102 2.4025
-3.0968 10.3404 2.4025
-3.3468 10.2647 2.4025
-3.5950 10.1831 2.4025
-3.8413 10.0956 2.4025
-4.0855 10.0024 2.4025
-4.3275 9.9033 2.4025
-4.5671 9.7986 2.4025
-4.8043 9.6882 2.4025
-5.0389 9.5723 2.4025
-5.2708 9.4508 2.4025
-5.4998 9.3238 2.4025
-5.7258 9.1914 2.4025
-5.8648 8.9259 2.3687
-5.9037 8.5282 2.2994
-6.1108 8.3863 2.2994
-6.2817 8.1968 2.2875
-6.5148 8.0879 2.2994
-6.7115 7.9315 2.2994
-6.9045 7.7704 2.2994
-3.4584 3.7075 1.1210
-3.4608 3.5346 1.0932
-3.4631 3.3699 1.0674
-3.4653 3.2126 1.0433
-3.4674 3.0620 1.0208
-3.4694 2.9175 0.9998
-3.4713 2.7786 0.9801
-3.4732 2.6449 0.9618
-3.4750 2.5159 0.9446
-3.4767 2.3912 0.9286
-3.4784 2.2704 0.9136
-3.4800 2.1533 0.8995
-3.4816 2.0396 0.8864
-3.4831 1.9289 0.8741
-3.4846 1.8211 0.8627
-3.4861 1.7158 0.8520
-3.4875 1.6130 0.8420
-3.4889 1.5124 0.8327
-3.4903 1.4137 0.8241
-3.4917 1.3170 0.8162
-3.4930 1.2218 0.8088
-3.4943 1.1283 0.8020
-3.5029 1.0382 0.7975
-3.5321 0.9547 0.7981
-3.5593 0.8703 0.7987
-3.5845 0.7851 0.7993
-3.6078 0.6993 0.8000
-3.6290 0.6128 0.8006
-3.6482 0.5257 0.8013
-3.6654 0.4381 0.8019
-3.6804 0.3499 0.8026
-3.6934 0.2612 0.8032
-3.7042 0.1722 0.8039
-3.7130 0.0827 0.8046
-3.7196 -0.0070 0.8052
-3.7240 -0.0970 0.8059
-3.7263 -0.1873 0.8066
-3.7264 -0.2777 0.8072
-3.7243 -0.3682 0.8079
-3.7200 -0.4588 0.8086
-3.7135 -0.5493 0.8093
-3.7048 -0.6399 0.8099
-3.6939 -0.7303 0.8106
-10.5370 -2.3490 2.3225
-10.4843 -2.6046 2.3225
-10.4254 -2.8590 2.3225
-10.3603 -3.1121 2.3225
-10.2889 -3.3637 2.3225
-10.1099 -3.5777 2.2994
-10.0272 -3.8233 2.2994
-9.9383 -4.0670 2.2994
-9.8436 -4.3086 2.2994
-9.7429 -4.5480 2.2994
-9.6362 -4.7849 2.2994
-9.5238 -5.0194 2.2994
-9.4056 -5.2511 2.2994
-9.2817 -5.4800 2.2994
-9.1521 -5.7060 2.2994
-9.0170 -5.9288 2.2994
-8.8763 -6.1483 2.2994
-8.7303 -6.3645 2.2994
-8.5789 -6.5771 2.2994
-8.4222 -6.7860 2.2994
-7.8321 -6.6294 2.2994
-7.6736 -6.8199 2.2994
-7.5104 -7.0066 2.2994
-7.3426 -7.1894 2.2994
-7.1703 -7.3680 2.2994
-6.9935 -7.5423 2.2994
-6.8124 -7.7124 2.2994
-6.6271 -7.8780 2.2994
-6.4378 -8.0391 2.2994
-6.2444 -8.1954 2.2994
-6.1813 -8.5323 2.3505
-6.1082 -8.8746 2.4025
-5.8944 -9.0228 2.4025
-5.6769 -9.1657 2.4025
-5.4559 -9.3032 2.4025
-5.2315 -9.4352 2.4025
-5.0038 -9.5617 2.4025
-4.7730 -9.6825 2.4025
-4.5392 -9.7977 2.4025
-4.3026 -9.9070 2.4025
-4.0633 -10.0105 2.4025
-3.8214 -10.1080 2.4025
-3.5771 -10.1995 2.4025
-3.3306 -10.2850 2.4025
-3.0820 -10.3643 2.4025
-2.8315 -10.4375 2.4025
-2.5792 -10.5044 2.4025
-2.3253 -10.5651 2.4025
-2.0699 -10.6195 2.4025
-1.8133 -10.6675 2.4025
-1.5555 -10.7091 2.4025
-1.2967 -10.7444 2.4025
-1.0371 -10.7732 2.4025
-0.7768 -10.7956 2.4025
-0.5161 -10.8115 2.4025
-0.2551 -10.8209 2.4025
0.0061 -10.8238 2.4025
0.2673 -10.8203 2.4025
0.5283 -10.8103 2.4025
0.7890 -10.7938 2.4025
1.0491 -10.7708 2.4025
1.3086 -10.7414 2.4025
1.5673 -10.7056 2.4025
1.8250 -10.6634 2.4025
1.9920 -10.1586 2.2993
2.2363 -10.1060 2.2993
2.4791 -10.0474 2.2993
2.0499 -7.5226 1.7326
2.0426 -6.8403 1.5867
2.1897 -6.7357 1.5746
3.4332 -9.7536 2.2993
3.6666 -9.6655 2.2993
3.8978 -9.5717 2.2993
4.1265 -9.4722 2.2993
4.3527 -9.3671 2.2993
4.5761 -9.2565 2.2993
4.7966 -9.1404 2.2993
5.0141 -9.0190 2.2993
4.9183 -8.3647 2.1629
4.8124 -7.7502 2.0342
4.7471 -7.2486 1.9328
4.6883 -6.7951 1.8422
4.6828 -6.4484 1.7791
4.8286 -6.3224 1.7767
4.9762 -6.1995 1.7762
5.1236 -6.0766 1.7767
5.2710 -5.9536 1.7782
5.4186 -5.8304 1.7808
5.4768 -5.6150 1.7557
5.4961 -5.3692 1.7207
5.5148 -5.1331 1.6881
5.5328 -4.9060 1.6577
5.5546 -4.6907 1.6306
5.6822 -4.5681 1.6361
5.8107 -4.4447 1.6426
5.9402 -4.3205 1.6501
5.8929 -4.0722 1.6101
5.6766 -3.7235 1.5269
5.5517 -3.4528 1.4713
5.4971 -3.2374 1.4365
5.4727 -3.0475 1.4113
5.4492 -2.8642 1.3878
5.4430 -2.6953 1.3701
5.4337 -2.5292 1.3528
5.4287 -2.3690 1.3377
5.4415 -2.2198 1.3281
5.4755 -2.0809 1.3246
5.4977 -1.9387 1.3191
5.5183 -1.7973 1.3141
5.5377 -1.6568 1.3096
5.5552 -1.5168 1.3055
5.5723 -1.3778 1.3022
5.5895 -1.2396 1.2997
5.6070 -1.1020 1.2980
5.6494 -0.9693 1.3029
5.7411 -0.8428 1.3199
5.8536 -0.7153 1.3422
5.8185 -0.5687 1.3315
5.7837 -0.4245 1.3217
5.7590 -0.2830 1.3150
5.7314 -0.1429 1.3084
5.6981 -0.0044 1.3013
5.6731 0.1328 1.2968
5.6480 0.2688 1.2930
5.6228 0.4040 1.2899
5.5975 0.5385 1.2876
5.5720 0.6723 1.2860
5.6707 0.8237 1.3138
5.8615 0.9966 1.3641
6.2104 1.2110 1.4526
6.2772 1.3823 1.4766
6.2085 1.5255 1.4696
6.1858 1.6794 1.4743
6.0669 1.8057 1.4569
5.9188 1.9186 1.4329
5.8848 2.0660 1.4372
5.8503 2.2142 1.4424
5.8153 2.3632 1.4483
5.7798 2.5133 1.4550
5.7438 2.6646 1.4626
5.7086 2.8179 1.4715
5.6760 2.9746 1.4820
5.6426 3.1333 1.4935
5.6085 3.2943 1.5060
5.6260 3.4902 1.5338
5.6453 3.6942 1.5638
5.6651 3.9060 1.5958
5.6778 4.1209 1.6279
5.6806 4.3365 1.6591
5.6829 4.5599 1.6924
5.6848 4.7920 1.7278
5.6867 5.0337 1.7657
5.7035 5.3001 1.8111
5.8392 5.6956 1.8983
5.8021 5.9400 1.9333
5.7627 6.1924 1.9704
5.7306 6.4646 2.0131
5.7075 6.7613 2.0628
5.8458 7.2751 2.1766
5.9851 7.8290 2.2993
5.7918 7.9685 2.2993
5.5953 8.1033 2.2993
5.3957 8.2333 2.2993
5.1932 8.3586 2.2993
4.9878 8.4791 2.2993
4.7797 8.5946 2.2993
4.5690 8.7051 2.2993
4.3559 8.8106 2.2993
4.1403 8.9110 2.2993
3.9225 9.0063 2.2993
2.6202 6.4372 1.6271
2.4242 6.3945 1.6014
2.3375 6.6466 1.6502
2.3543 7.2504 1.7858
2.8039 9.4039 2.2993
2.5751 9.4674 2.2993
2.3449 9.5255 2.2993
2.2015 9.9770 2.3950
1.9653 10.0576 2.4025
1.7212 10.1012 2.4025
1.4761 10.1390 2.4025
1.2303 10.1710 2.4025
0.9838 10.1972 2.4025
0.7367 10.2176 2.4025
0.4892 10.2321 2.4025
0.2415 10.2409 2.4025
-0.0064 10.2438 2.4025
-0.2542 10.2408 2.4025
-0.5020 10.2321 2.4025
-0.7495 10.2175 2.4025
-0.9966 10.1970 2.4025
-1.2431 10.1708 2.4025
-1.4890 10.1387 2.4025
-1.7341 10.1009 2.4025
-1.9782 10.0573 2.4025
-2.2213 10.0079 2.4025
-2.4632 9.9529 2.4025
-2.7038 9.8921 2.4025
-2.9429 9.8256 2.4025
-3.1804 9.7536 2.4025
-3.4162 9.6759 2.4025
-3.6502 9.5927 2.4025
-3.8822 9.5040 2.4025
-4.1121 9.4097 2.4025
-4.3398 9.3101 2.4025
-4.5651 9.2051 2.4025
-4.7879 9.0947 2.4025
-5.0082 8.9791 2.4025
-5.2257 8.8583 2.4025
-5.4403 8.7324 2.4025
-5.6520 8.6013 2.4025
-5.8607 8.4652 2.4025
-5.8846 8.0752 2.3307
-5.9992 7.8274 2.2994
-6.1893 7.6832 2.2994
-6.3761 7.5344 2.2994
-6.5594 7.3812 2.2994
-3.4584 3.7071 1.1801
-3.4608 3.5343 1.1508
-3.4631 3.3696 1.1236
-3.4653 3.2123 1.0983
-3.4674 3.0617 1.0746
-3.4694 2.9172 1.0525
-3.4713 2.7783 1.0319
-3.4732 2.6446 1.0126
-3.4750 2.5156 0.9946
-3.4767 2.3909 0.9777
-3.4784 2.2701 0.9619
-3.4800 2.1530 0.9471
-3.4816 2.0393 0.9333
-3.4832 1.9286 0.9204
-3.4846 1.8208 0.9084
-3.4861 1.7156 0.8972
-3.4876 1.6127 0.8867
-3.4890 1.5121 0.8770
-3.4903 1.4135 0.8680
-3.4917 1.3167 0.8596
-3.4930 1.2216 0.8519
-3.4943 1.1280 0.8447
-3.4956 1.0358 0.8382
-3.4969 0.9449 0.8323
-3.4981 0.8551 0.8269
-3.4994 0.7662 0.8220
-3.5006 0.6783 0.8177
-3.5018 0.5911 0.8139
-3.5030 0.5045 0.8105
-3.5042 0.4185 0.8077
-3.5054 0.3330 0.8054
-3.5066 0.2478 0.8035
-3.5161 0.1632 0.8040
-3.5241 0.0783 0.8046
-3.5301 -0.0069 0.8053
-3.5341 -0.0923 0.8059
-3.5360 -0.1780 0.8065
-3.5358 -0.2637 0.8072
-3.5335 -0.3496 0.8078
-3.5292 -0.4355 0.8085
-3.5227 -0.5214 0.8091
-3.5186 -0.6079 0.8107
-3.5198 -0.6961 0.8141
-9.8974 -2.2071 2.2994
-9.8476 -2.4471 2.2994
-6.6181 -1.8154 1.5541
-9.7304 -2.9236 2.2994
-9.6631 -3.1598 2.2994
-9.5900 -3.3944 2.2994
-9.5112 -3.6273 2.2994
-9.4267 -3.8583 2.2994
-9.3365 -4.0873 2.2994
-9.2407 -4.3142 2.2994
-9.1393 -4.5389 2.2994
-9.0323 -4.7610 2.2994
-8.9200 -4.9807 2.2994
-8.8022 -5.1976 2.2994
-8.6791 -5.4117 2.2994
-8.5506 -5.6229 2.2994
-8.4170 -5.8309 2.2994
-8.2783 -6.0357 2.2994
-8.1345 -6.2371 2.2994
-7.9857 -6.4350 2.2994
-7.4441 -6.3017 2.2994
-7.2933 -6.4827 2.2994
-7.1381 -6.6600 2.2994
-6.9784 -6.8335 2.2994
-6.8145 -7.0031 2.2994
-6.6464 -7.1686 2.2994
-6.4741 -7.3301 2.2994
-6.2979 -7.4873 2.2994
-6.1732 -7.7093 2.3203
-6.1736 -8.1032 2.3923
-6.0040 -8.2883 2.4025
-5.8044 -8.4338 2.4025
-5.6011 -8.5745 2.4025
-5.3943 -8.7101 2.4025
-5.1842 -8.8406 2.4025
-4.9709 -8.9659 2.4025
-4.7545 -9.0860 2.4025
-4.5351 -9.2007 2.4025
-4.3129 -9.3099 2.4025
-4.0880 -9.4137 2.4025
-3.8606 -9.5119 2.4025
-3.6308 -9.6044 2.4025
-3.3987 -9.6913 2.4025
-3.1644 -9.7724 2.4025
-2.9282 -9.8477 2.4025
-2.6902 -9.9171 2.4025
-2.4505 -9.9807 2.4025
-2.2092 -10.0382 2.4025
-1.9666 -10.0898 2.4025
-1.7227 -10.1354 2.4025
-1.4778 -10.1749 2.4025
-1.2319 -10.2084 2.4025
-0.9853 -10.2357 2.4025
-0.7381 -10.2569 2.4025
-0.4904 -10.2720 2.4025
-0.2424 -10.2810 2.4025
0.0058 -10.2838 2.4025
0.2539 -10.2804 2.4025
0.5019 -10.2709 2.4025
0.7496 -10.2553 2.4025
0.9967 -10.2335 2.4025
1.2433 -10.2056 2.4025
1.4890 -10.1716 2.4025
1.7338 -10.1316 2.4025
1.8926 -9.6520 2.2993
2.1246 -9.6022 2.2993
2.3553 -9.5466 2.2993
2.0226 -7.4229 1.7994
2.0520 -6.8722 1.6777
2.0712 -6.3716 1.5675
3.2619 -9.2677 2.2993
3.4838 -9.1842 2.2993
3.7035 -9.0951 2.2993
3.9208 -9.0007 2.2993
4.1358 -8.9010 2.2993
4.3481 -8.7960 2.2993
4.5577 -8.6859 2.2993
4.7645 -8.5706 2.2993
4.9551 -8.4280 2.2932
4.8424 -7.7992 2.1540
4.7752 -7.2921 2.0460
4.6989 -6.8110 1.9430
4.6917 -6.4612 1.8757
4.8246 -6.3178 1.8680
4.9721 -6.1949 1.8674
5.1194 -6.0722 1.8679
5.2666 -5.9493 1.8695
5.4141 -5.8262 1.8722
5.4829 -5.6218 1.8494
5.5021 -5.3756 1.8124
5.5207 -5.1391 1.7780
5.5386 -4.9116 1.7459
5.5612 -4.6968 1.7176
5.6890 -4.5741 1.7233
5.8177 -4.4506 1.7301
5.9474 -4.3263 1.7380
5.7042 -3.9423 1.6395
5.5803 -3.6608 1.5789
5.5231 -3.4355 1.5396
5.4753 -3.2250 1.5050
5.4596 -3.0406 1.4809
5.4449 -2.8624 1.4586
5.4454 -2.6969 1.4417
5.4368 -2.5310 1.4236
5.4267 -2.3686 1.4064
5.4311 -2.2160 1.3941
5.4486 -2.0710 1.3862
5.4698 -1.9292 1.3801
5.4904 -1.7886 1.3749
5.5093 -1.6487 1.3701
5.5268 -1.5095 1.3658
5.5444 -1.3713 1.3624
5.5623 -1.2339 1.3599
5.5798 -1.0971 1.3582
5.6333 -0.9669 1.3660
5.7132 -0.8391 1.3809
5.8304 -0.7129 1.4056
5.7957 -0.5669 1.3944
5.7613 -0.4233 1.3841
5.7283 -0.2819 1.3750
5.7005 -0.1426 1.3680
5.6756 -0.0048 1.3625
5.6507 0.1318 1.3577
5.6258 0.2674 1.3538
5.6008 0.4021 1.3505
5.5756 0.5360 1.3481
5.5503 0.6693 1.3463
5.6414 0.8190 1.3737
5.8301 0.9908 1.4259
6.0332 1.1761 1.4830
6.2249 1.3704 1.5388
6.1727 1.5162 1.5354
6.1721 1.6753 1.5459
6.0743 1.8075 1.5328
5.9183 1.9180 1.5055
5.8632 2.0580 1.5046
5.8288 2.2056 1.5099
5.7939 2.3541 1.5161
5.7584 2.5035 1.5231
5.7224 2.6542 1.5310
5.6888 2.8077 1.5406
5.6561 2.9638 1.5515
5.6228 3.1218 1.5635
5.5886 3.2822 1.5765
5.6039 3.4760 1.6049
5.6226 3.6789 1.6361
5.6419 3.8895 1.6695
5.6616 4.1086 1.7051
5.6641 4.3233 1.7377
5.6660 4.5458 1.7723
5.6676 4.7770 1.8093
5.6691 5.0177 1.8489
5.6747 5.2729 1.8926
5.7576 5.6155 1.9659
5.7196 5.8550 2.0016
5.6793 6.1022 2.0394
5.7036 6.4336 2.1043
5.8614 6.9429 2.2247
5.8802 7.3171 2.2993
5.6993 7.4544 2.2993
5.5153 7.5874 2.2993
5.3282 7.7159 2.2993
5.1383 7.8399 2.2993
4.9455 7.9593 2.2993
4.7500 8.0741 2.2993
4.5519 8.1842 2.2993
4.3513 8.2896 2.2993
4.1483 8.3902 2.2993
3.9431 8.4859 2.2993
3.7357 8.5767 2.2993
2.6202 6.4367 1.7085
2.3225 6.1259 1.6109
2.3605 6.7116 1.7498
2.6756 8.2392 2.1309
2.6705 8.9559 2.2993
2.4526 9.0164 2.2993
2.2334 9.0718 2.2993
2.1033 9.5317 2.4025
1.8718 9.5787 2.4025
1.6393 9.6202 2.4025
1.4059 9.6562 2.4025
1.1718 9.6868 2.4025
0.9370 9.7117 2.4025
0.7017 9.7312 2.4025
0.4660 9.7451 2.4025
0.2300 9.7534 2.4025
-0.0061 9.7562 2.4025
-0.2422 9.7534 2.4025
-0.4781 9.7450 2.4025
-0.7138 9.7311 2.4025
-0.9492 9.7116 2.4025
-1.1840 9.6865 2.4025
-1.4182 9.6560 2.4025
-1.6516 9.6199 2.4025
-1.8842 9.5783 2.4025
-2.1157 9.5312 2.4025
-2.3460 9.4787 2.4025
-2.5752 9.4207 2.4025
-2.8029 9.3574 2.4025
-3.0291 9.2887 2.4025
-3.2536 9.2146 2.4025
-3.4764 9.1352 2.4025
-3.6973 9.0506 2.4025
-3.9162 8.9608 2.4025
-4.1330 8.8658 2.4025
-4.3475 8.7657 2.4025
-4.5597 8.6604 2.4025
-4.7693 8.5502 2.4025
-4.9764 8.4351 2.4025
-5.1807 8.3150 2.4025
-5.3822 8.1900 2.4025
-5.5808 8.0603 2.4025
-5.7763 7.9259 2.4025
-5.8874 7.6809 2.3698
-5.9044 7.3288 2.3037
-6.0878 7.1930 2.3057
-6.2456 7.0274 2.2994
-3.4584 3.7068 1.2394
-3.4608 3.5340 1.2087
-3.4631 3.3693 1.1802
-3.4653 3.2120 1.1536
-3.4674 3.0614 1.1287
-3.4694 2.9169 1.1056
-3.4713 2.7780 1.0839
-3.4732 2.6443 1.0637
-3.4750 2.5153 1.0447
-3.4767 2.3906 1.0270
-3.4784 2.2699 1.0105
-3.4800 2.1528 0.9950
-3.4816 2.0390 0.9805
-3.4832 1.9284 0.9670
-3.4847 1.8205 0.9544
-3.4861 1.7153 0.9426
-3.4876 1.6125 0.9317
-3.4890 1.5118 0.9215
-3.4903 1.4132 0.9120
-3.4917 1.3164 0.9032
-3.4930 1.2213 0.8951
-3.4943 1.1278 0.8877
-3.4956 1.0356 0.8809
-3.4969 0.9446 0.8746
-3.4981 0.8548 0.8690
-3.4994 0.7660 0.8639
-3.5006 0.6780 0.8594
-3.5018 0.5908 0.8554
-3.5030 0.5043 0.8519
-3.5042 0.4183 0.8490
-3.5054 0.3327 0.8465
-3.5066 0.2475 0.8446
-3.5078 0.1625 0.8431
-3.5090 0.0777 0.8422
-3.5102 -0.0071 0.8417
-3.5113 -0.0920 0.8418
-3.5125 -0.1770 0.8423
-3.5137 -0.2623 0.8433
-3.5149 -0.3480 0.8448
-3.5161 -0.4341 0.8469
-3.5173 -0.5208 0.8494
-3.5186 -0.6082 0.8525
-3.5198 -0.6964 0.8561
-9.4124 -2.0996 2.2994
-6.3543 -1.5795 1.5603
-6.3504 -1.7424 1.5682
-6.3456 -1.9071 1.5770
-6.3401 -2.0737 1.5866
-6.3368 -2.2434 1.5979
-6.3406 -2.4186 1.6122
-6.3446 -2.5973 1.6277
-8.8769 -3.8868 2.2994
-8.7855 -4.1024 2.2994
-8.6889 -4.3158 2.2994
-8.5870 -4.5270 2.2994
-8.4799 -4.7356 2.2994
-8.3677 -4.9417 2.2994
-8.2504 -5.1451 2.2994
-8.1282 -5.3457 2.2994
-8.0009 -5.5433 2.2994
-7.8689 -5.7378 2.2994
-7.7320 -5.9292 2.2994
-7.5904 -6.1171 2.2994
-7.0910 -6.0034 2.2994
-6.9473 -6.1757 2.2994
-6.7992 -6.3444 2.2994
-6.6470 -6.5096 2.2994
-6.4907 -6.6710 2.2994
-6.3426 -6.8417 2.3039
-6.1663 -6.9822 2.2994
-6.1594 -7.3233 2.3612
-6.0880 -7.6036 2.4025
-5.9049 -7.7512 2.4025
-5.7182 -7.8943 2.4025
-5.5279 -8.0328 2.4025
-5.3342 -8.1666 2.4025
-5.1372 -8.2956 2.4025
-4.9371 -8.4198 2.4025
-4.7339 -8.5390 2.4025
-4.5277 -8.6532 2.4025
-4.3187 -8.7623 2.4025
-4.1071 -8.8663 2.4025
-3.8929 -8.9650 2.4025
-3.6763 -9.0584 2.4025
-3.4574 -9.1464 2.4025
-3.2363 -9.2291 2.4025
-3.0133 -9.3062 2.4025
-2.7883 -9.3778 2.4025
-2.5616 -9.4439 2.4025
-2.3334 -9.5043 2.4025
-2.1036 -9.5591 2.4025
-1.8726 -9.6081 2.4025
-1.6404 -9.6515 2.4025
-1.4071 -9.6891 2.4025
-1.1730 -9.7209 2.4025
-0.9382 -9.7469 2.4025
-0.7028 -9.7671 2.4025
-0.4669 -9.7814 2.4025
-0.2308 -9.7900 2.4025
0.0055 -9.7926 2.4025
0.2418 -9.7895 2.4025
0.4779 -9.7804 2.4025
0.7137 -9.7656 2.4025
0.9491 -9.7449 2.4025
1.1838 -9.7183 2.4025
1.4178 -9.6860 2.4025
1.6509 -9.6479 2.4025
1.8496 -9.4335 2.3599
2.0231 -9.1439 2.2993
2.2428 -9.0910 2.2993
2.2443 -8.2370 2.0967
2.0531 -6.8765 1.7628
2.0475 -6.2990 1.6273
3.1061 -8.8258 2.2993
3.3174 -8.7464 2.2993
3.5267 -8.6617 2.2993
3.7337 -8.5719 2.2993
3.9384 -8.4770 2.2993
4.1407 -8.3772 2.2993
4.3404 -8.2724 2.2993
4.5374 -8.1627 2.2993
4.7315 -8.0483 2.2993
4.8730 -7.8490 2.2760
4.8038 -7.3364 2.1611
4.6877 -6.7953 2.0352
4.7006 -6.4741 1.9732
4.8206 -6.3131 1.9597
4.9680 -6.1904 1.9591
5.1151 -6.0677 1.9595
5.2623 -5.9449 1.9612
5.4096 -5.8219 1.9639
5.4832 -5.6226 1.9417
5.5082 -5.3820 1.9048
5.5266 -5.1452 1.8685
5.5444 -4.9173 1.8347
5.5679 -4.7030 1.8052
5.6959 -4.5801 1.8112
5.8247 -4.4565 1.8183
5.7928 -4.2143 1.7770
5.6180 -3.8832 1.6949
5.5248 -3.6249 1.6408
5.4887 -3.4145 1.6059
5.4536 -3.2127 1.5734
5.4416 -3.0311 1.5492
5.4406 -2.8606 1.5296
5.4428 -2.6960 1.5123
5.4399 -2.5329 1.4949
5.4246 -2.3681 1.4754
5.4291 -2.2155 1.4625
5.4241 -2.0622 1.4481
5.4420 -1.9198 1.4409
5.4626 -1.7800 1.4354
5.4811 -1.6407 1.4303
5.4990 -1.5023 1.4259
5.5174 -1.3650 1.4225
5.5352 -1.2283 1.4199
5.5527 -1.0922 1.4181
5.6173 -0.9645 1.4291
5.6858 -0.8354 1.4418
5.8069 -0.7104 1.4687
5.7726 -0.5650 1.4570
5.7386 -0.4220 1.4463
5.7048 -0.2811 1.4365
5.6777 -0.1424 1.4293
5.6531 -0.0051 1.4235
5.6284 0.1309 1.4185
5.6037 0.2660 1.4144
