ply
format ascii 1.0
element vertex 2178
property float32 x
property float32 y
property float32 z
end_header
3.1248 -7.1765 2.2993
3.2963 -7.0974 2.2993
3.4658 -7.0141 2.2993
3.6331 -6.9267 2.2993
3.7981 -6.8352 2.2993
3.9609 -6.7397 2.2993
4.1212 -6.6403 2.2993
4.2789 -6.5370 2.2993
4.4341 -6.4299 2.2993
4.5865 -6.3191 2.2993
4.7361 -6.2045 2.2993
4.8829 -6.0864 2.2993
5.0266 -5.9647 2.2993
5.1673 -5.8396 2.2993
5.3048 -5.7112 2.2993
5.4391 -5.5794 2.2993
5.5700 -5.4445 2.2993
5.6976 -5.3064 2.2993
5.8218 -5.1653 2.2993
6.2460 -5.2778 2.4168
4.9439 -3.9771 1.8761
4.9027 -3.7527 1.8263
4.8640 -3.5402 1.7803
4.8275 -3.3383 1.7376
4.8001 -3.1509 1.7006
4.7703 -2.9691 1.6649
4.7490 -2.7990 1.6341
4.7285 -2.6352 1.6055
4.7090 -2.4773 1.5788
4.6903 -2.3246 1.5539
4.6723 -2.1768 1.5308
4.6550 -2.0334 1.5093
4.6639 -1.9045 1.4976
4.7381 -1.8026 1.5077
4.8325 -1.7061 1.5249
4.9331 -1.6087 1.5447
5.0358 -1.5086 1.5658
5.1408 -1.4057 1.5882
5.2482 -1.2997 1.6120
5.3583 -1.1904 1.6373
5.4714 -1.0775 1.6643
5.4807 -0.9424 1.6605
5.4936 -0.8085 1.6589
5.5067 -0.6749 1.6582
5.5191 -0.5415 1.6584
5.5302 -0.4079 1.6591
5.5413 -0.2743 1.6608
5.5525 -0.1405 1.6635
5.5638 -0.0063 1.6672
5.6458 0.1301 1.6931
5.7999 0.2740 1.7416
5.9274 0.4238 1.7834
5.8247 0.5583 1.7569
5.7240 0.6886 1.7319
5.6451 0.8180 1.7144
5.5879 0.9481 1.7043
5.5299 1.0764 1.6949
5.4721 1.2031 1.6864
5.4455 1.3361 1.6885
5.4360 1.4739 1.6970
5.4094 1.6081 1.7011
5.4053 1.7502 1.7134
5.4182 1.9003 1.7324
5.4378 2.0561 1.7549
5.4545 2.2146 1.7778
5.4313 2.3597 1.7892
5.4176 2.5112 1.8049
5.3911 2.6592 1.8178
5.3571 2.8054 1.8295
5.3432 2.9650 1.8495
5.3479 3.1391 1.8777
5.3652 3.3263 1.9122
5.4329 3.5531 1.9672
5.5684 3.8371 2.0501
5.5780 4.0462 2.0900
5.5307 4.2197 2.1107
5.4822 4.3965 2.1329
5.4303 4.5751 2.1560
5.3748 4.7554 2.1798
5.3175 4.9391 2.2052
5.2581 5.1265 2.2321
5.1967 5.3178 2.2608
5.1512 5.5329 2.2993
5.0142 5.6542 2.2993
4.8744 5.7721 2.2993
4.7319 5.8865 2.2993
4.5867 5.9976 2.2993
4.4390 6.1051 2.2993
4.2888 6.2090 2.2993
4.1362 6.3094 2.2993
3.9813 6.4060 2.2993
3.8242 6.4989 2.2993
3.6650 6.5881 2.2993
2.3579 4.4909 1.5473
2.2457 4.5410 1.5457
2.1853 4.7018 1.5823
2.1974 5.0438 1.6793
2.1958 5.3932 1.7777
2.4337 6.4180 2.0959
2.4984 7.1026 2.2993
2.3254 7.1600 2.2993
2.1512 7.2133 2.2993
2.0408 7.5017 2.3751
1.8799 7.6354 2.4026
1.6944 7.6780 2.4026
1.5079 7.7162 2.4026
1.3206 7.7499 2.4026
1.1326 7.7791 2.4026
0.9439 7.8039 2.4026
0.7547 7.8242 2.4026
0.5651 7.8400 2.4026
0.3752 7.8514 2.4026
0.1850 7.8582 2.4026
-0.0053 7.8605 2.4026
-0.1955 7.8583 2.4026
-0.3857 7.8515 2.4026
-0.5757 7.8403 2.4026
-0.7653 7.8246 2.4026
-0.9546 7.8044 2.4026
-1.1433 7.7797 2.4026
-1.3314 7.7505 2.4026
-1.5188 7.7168 2.4026
-1.7053 7.6788 2.4026
-1.8910 7.6363 2.4026
-2.0755 7.5894 2.4026
-2.2590 7.5381 2.4026
-2.4412 7.4825 2.4026
-2.6220 7.4225 2.4026
-2.8014 7.3583 2.4026
-2.9793 7.2898 2.4026
-3.1555 7.2171 2.4026
-3.3300 7.1403 2.4026
-3.5027 7.0593 2.4026
-3.6734 6.9741 2.4026
-3.8421 6.8850 2.4026
-4.0086 6.7918 2.4026
-4.1729 6.6946 2.4026
-4.3350 6.5936 2.4026
-4.4946 6.4887 2.4026
-4.6517 6.3800 2.4026
-4.8062 6.2676 2.4026
-4.9581 6.1514 2.4026
-5.1072 6.0317 2.4026
-5.2534 5.9084 2.4026
-5.3967 5.7816 2.4026
-5.5370 5.6514 2.4026
-5.6742 5.5178 2.4026
-5.8082 5.3810 2.4026
-5.9390 5.2409 2.4026
-6.0343 5.0708 2.3899
-6.0385 4.8300 2.3436
-6.0505 4.6041 2.3034
-6.1521 4.4506 2.2995
-6.2606 4.3023 2.2995
-6.3655 4.1515 2.2995
-6.4669 3.9980 2.2995
-6.5646 3.8422 2.2995
-6.6585 3.6839 2.2995
-6.7487 3.5234 2.2995
-6.8351 3.3608 2.2995
-6.9175 3.1960 2.2995
-6.5049 2.8165 2.1381
-7.0706 2.8605 2.2995
-7.1411 2.6900 2.2995
-7.2075 2.5178 2.2995
-7.2698 2.3440 2.2995
-7.3279 2.1686 2.2995
-7.3818 1.9918 2.2995
-7.4314 1.8137 2.2995
-7.4768 1.6343 2.2995
-7.5179 1.4539 2.2995
-7.5546 1.2724 2.2995
-7.5869 1.0900 2.2995
-7.6149 0.9068 2.2995
-7.6384 0.7228 2.2995
-7.6575 0.5383 2.2995
-7.6722 0.3533 2.2995
-7.6824 0.1679 2.2995
-7.6881 -0.0178 2.2995
-7.6893 -0.2036 2.2995
-7.6860 -0.3895 2.2995
-7.6782 -0.5754 2.2995
-7.6659 -0.7611 2.2995
-7.6491 -0.9465 2.2995
-7.6279 -1.1316 2.2995
-7.6021 -1.3162 2.2995
-7.5718 -1.5002 2.2995
-7.5371 -1.6834 2.2995
-7.4979 -1.8659 2.2995
-7.4543 -2.0474 2.2995
-7.4062 -2.2279 2.2995
-7.3538 -2.4073 2.2995
-7.2970 -2.5854 2.2995
-7.2358 -2.7621 2.2995
-7.1703 -2.9374 2.2995
-7.1006 -3.1111 2.2995
-7.0266 -3.2831 2.2995
-6.9484 -3.4534 2.2995
-6.8660 -3.6217 2.2995
-6.7796 -3.7881 2.2995
-6.6890 -3.9524 2.2995
-6.5945 -4.1145 2.2995
-6.4959 -4.2742 2.2995
-6.3935 -4.4316 2.2995
-6.2872 -4.5865 2.2995
-6.1771 -4.7388 2.2995
-6.1560 -4.9631 2.3347
-5.9677 -5.0543 2.4026
-5.8461 -5.1987 2.4026
-5.7209 -5.3402 2.4026
-5.5923 -5.4785 2.4026
-5.4603 -5.6138 2.4026
-5.3250 -5.7458 2.4026
-5.1864 -5.8745 2.4026
-5.0447 -5.9997 2.4026
-4.8999 -6.1215 2.4026
-4.7522 -6.2398 2.4026
-4.6015 -6.3544 2.4026
-4.4480 -6.4653 2.4026
-4.2919 -6.5724 2.4026
-4.1331 -6.6757 2.4026
-3.9717 -6.7751 2.4026
-3.8080 -6.8705 2.4026
-3.6419 -6.9619 2.4026
-3.4736 -7.0492 2.4026
-3.3032 -7.1323 2.4026
-3.1308 -7.2113 2.4026
-2.9564 -7.2859 2.4026
-2.7802 -7.3563 2.4026
-2.6024 -7.4224 2.4026
-2.4229 -7.4840 2.4026
-2.2419 -7.5412 2.4026
-2.0596 -7.5940 2.4026
-1.8760 -7.6422 2.4026
-1.6913 -7.6860 2.4026
-1.5055 -7.7252 2.4026
-1.3188 -7.7598 2.4026
-1.1313 -7.7897 2.4026
-0.9432 -7.8151 2.4026
-0.7544 -7.8358 2.4026
-0.5652 -7.8519 2.4026
-0.3756 -7.8633 2.4026
-0.1858 -7.8701 2.4026
0.0040 -7.8721 2.4026
0.1939 -7.8695 2.4026
0.3837 -7.8622 2.4026
0.5732 -7.8503 2.4026
0.7623 -7.8337 2.4026
0.9510 -7.8124 2.4026
1.1391 -7.7865 2.4026
1.3264 -7.7560 2.4026
1.5130 -7.7209 2.4026
1.6986 -7.6812 2.4026
1.8634 -7.5569 2.3774
1.9777 -7.2621 2.2993
2.1519 -7.2112 2.2993
2.2247 -6.8476 2.2003
2.4964 -7.0965 2.2993
2.6663 -7.0329 2.2993
2.8347 -6.9651 2.2993
3.0012 -6.8932 2.2993
3.1660 -6.8173 2.2993
3.3287 -6.7374 2.2993
3.4894 -6.6535 2.2993
3.6480 -6.5657 2.2993
3.8044 -6.4740 2.2993
3.9584 -6.3786 2.2993
4.1100 -6.2794 2.2993
4.2590 -6.1766 2.2993
4.4055 -6.0702 2.2993
4.5493 -5.9603 2.2993
4.6902 -5.8469 2.2993
4.8284 -5.7301 2.2993
4.9636 -5.6100 2.2993
5.0957 -5.4866 2.2993
5.2248 -5.3602 2.2993
5.3507 -5.2306 2.2993
5.4733 -5.0980 2.2993
5.5926 -4.9625 2.2993
5.7086 -4.8242 2.2993
4.9653 -3.9947 1.9613
4.9234 -3.7690 1.9090
4.8840 -3.5551 1.8607
4.8468 -3.3521 1.8159
4.8117 -3.1589 1.7744
4.7836 -2.9777 1.7378
4.7615 -2.8068 1.7054
4.7408 -2.6425 1.6753
4.7210 -2.4840 1.6474
4.7021 -2.3308 1.6214
4.6839 -2.1825 1.5972
4.6664 -2.0387 1.5747
4.6495 -1.8990 1.5538
4.7071 -1.7911 1.5588
4.8006 -1.6952 1.5765
4.9001 -1.5983 1.5968
5.0017 -1.4988 1.6184
5.1054 -1.3964 1.6414
5.2116 -1.2910 1.6658
5.3230 -1.1829 1.6926
5.4493 -1.0735 1.7248
5.4911 -0.9446 1.7312
5.5020 -0.8101 1.7288
5.5130 -0.6761 1.7274
5.5240 -0.5423 1.7271
5.5350 -0.4087 1.7278
5.5462 -0.2750 1.7296
5.5574 -0.1410 1.7323
5.5687 -0.0067 1.7362
5.6563 0.1299 1.7648
5.8110 0.2741 1.8155
5.8545 0.4182 1.8326
5.7541 0.5511 1.8057
5.6688 0.6815 1.7844
5.5935 0.8101 1.7672
5.5551 0.9421 1.7626
5.4976 1.0697 1.7529
5.4403 1.1957 1.7442
5.4098 1.3269 1.7450
5.4002 1.4638 1.7536
5.3901 1.6019 1.7632
5.3878 1.7441 1.7765
5.4063 1.8957 1.7981
5.4368 2.0553 1.8250
5.4568 2.2151 1.8500
5.4334 2.3602 1.8617
5.4072 2.5060 1.8737
5.3737 2.6502 1.8846
5.3397 2.7959 1.8966
5.3285 2.9564 1.9183
5.3393 3.1337 1.9497
5.3577 3.3212 1.9860
5.4414 3.5582 2.0492
5.5900 3.8516 2.1405
5.5412 4.0190 2.1592
5.4908 4.1889 2.1792
5.4389 4.3613 2.2007
5.3852 4.5367 2.2235
5.3297 4.7150 2.2479
5.2724 4.8967 2.2738
5.2085 5.0776 2.2993
5.0825 5.2005 2.2993
4.9536 5.3202 2.2993
4.8219 5.4369 2.2993
4.6875 5.5503 2.2993
4.5505 5.6604 2.2993
4.4110 5.7673 2.2993
4.2690 5.8707 2.2993
4.1246 5.9708 2.2993
3.9779 6.0673 2.2993
3.8289 6.1603 2.2993
3.6779 6.2497 2.2993
3.5247 6.3355 2.2993
2.3580 4.4909 1.6090
2.1932 4.4344 1.5696
2.1736 4.6764 1.6365
2.2039 5.0584 1.7513
2.1845 5.3649 1.8388
2.4339 6.4180 2.1793
2.4029 6.8306 2.2993
2.2451 6.9123 2.3082
2.0689 6.9371 2.2993
1.9855 7.2980 2.4026
1.8081 7.3432 2.4026
1.6297 7.3842 2.4026
1.4503 7.4209 2.4026
1.2702 7.4533 2.4026
1.0893 7.4815 2.4026
0.9079 7.5053 2.4026
0.7259 7.5249 2.4026
0.5435 7.5401 2.4026
0.3608 7.5510 2.4026
0.1779 7.5575 2.4026
-0.0051 7.5598 2.4026
-0.1881 7.5576 2.4026
-0.3710 7.5511 2.4026
-0.5537 7.5403 2.4026
-0.7361 7.5252 2.4026
-0.9181 7.5057 2.4026
-1.0996 7.4819 2.4026
-1.2806 7.4538 2.4026
-1.4608 7.4215 2.4026
-1.6402 7.3848 2.4026
-1.8187 7.3439 2.4026
-1.9962 7.2988 2.4026
-2.1726 7.2494 2.4026
-2.3479 7.1959 2.4026
-2.5218 7.1382 2.4026
-2.6943 7.0764 2.4026
-2.8654 7.0105 2.4026
-3.0348 6.9405 2.4026
-3.2026 6.8665 2.4026
-3.3686 6.7885 2.4026
-3.5328 6.7066 2.4026
-3.6950 6.6208 2.4026
-3.8551 6.5311 2.4026
-4.0131 6.4376 2.4026
-4.1689 6.3404 2.4026
-4.3223 6.2395 2.4026
-4.4734 6.1349 2.4026
-4.6219 6.0267 2.4026
-4.7679 5.9149 2.4026
-4.9112 5.7997 2.4026
-5.0518 5.6811 2.4026
-5.1895 5.5591 2.4026
-5.3244 5.4338 2.4026
-5.4562 5.3053 2.4026
-5.5850 5.1736 2.4026
-5.7106 5.0389 2.4026
-5.8331 4.9011 2.4026
-5.9523 4.7605 2.4026
-6.0399 4.5955 2.3914
-6.0427 4.3709 2.3490
-6.0536 4.1596 2.3125
-6.1203 3.9910 2.2995
-6.2176 3.8434 2.2995
-6.3115 3.6935 2.2995
-6.4017 3.5413 2.2995
-6.4883 3.3870 2.2995
-6.5712 3.2305 2.2995
-6.6504 3.0720 2.2995
-6.5049 2.8160 2.2240
-6.7973 2.7494 2.2995
-6.8649 2.5855 2.2995
-6.9287 2.4199 2.2995
-6.9884 2.2527 2.2995
-7.0442 2.0841 2.2995
-7.0959 1.9141 2.2995
-7.1434 1.7429 2.2995
-7.1869 1.5705 2.2995
-7.2263 1.3970 2.2995
-7.2615 1.2225 2.2995
-7.2924 1.0471 2.2995
-7.3192 0.8710 2.2995
-7.3417 0.6942 2.2995
-7.3599 0.5169 2.2995
-7.3738 0.3390 2.2995
-7.3835 0.1609 2.2995
-7.3888 -0.0176 2.2995
-7.3899 -0.1962 2.2995
-7.3866 -0.3749 2.2995
-7.3790 -0.5535 2.2995
-7.3670 -0.7319 2.2995
-7.3508 -0.9101 2.2995
-7.3302 -1.0880 2.2995
-7.3053 -1.2653 2.2995
-7.2761 -1.4421 2.2995
-7.2425 -1.6182 2.2995
-7.2048 -1.7935 2.2995
-7.1627 -1.9679 2.2995
-7.1164 -2.1413 2.2995
-7.0659 -2.3136 2.2995
-7.0112 -2.4846 2.2995
-6.9523 -2.6544 2.2995
-6.8893 -2.8228 2.2995
-6.8222 -2.9896 2.2995
-6.7510 -3.1549 2.2995
-6.6757 -3.3184 2.2995
-6.5965 -3.4801 2.2995
-6.5133 -3.6399 2.2995
-6.4262 -3.7976 2.2995
-6.3353 -3.9533 2.2995
-6.2406 -4.1067 2.2995
-6.1548 -4.2667 2.3043
-6.1489 -4.4861 2.3410
-6.1497 -4.7183 2.3831
-6.0857 -4.9070 2.4026
-5.7401 -4.8620 2.4026
-5.6230 -5.0009 2.4026
-5.5026 -5.1368 2.4026
-5.3788 -5.2699 2.4026
-5.2518 -5.3999 2.4026
-5.1216 -5.5268 2.4026
-4.9882 -5.6505 2.4026
-4.8519 -5.7709 2.4026
-4.7126 -5.8880 2.4026
-4.5704 -6.0017 2.4026
-4.4255 -6.1118 2.4026
-4.2779 -6.2184 2.4026
-4.1276 -6.3214 2.4026
-3.9749 -6.4207 2.4026
-3.8197 -6.5162 2.4026
-3.6622 -6.6079 2.4026
-3.5025 -6.6958 2.4026
-3.3406 -6.7796 2.4026
-3.1767 -6.8596 2.4026
-3.0108 -6.9354 2.4026
-2.8431 -7.0072 2.4026
-2.6737 -7.0748 2.4026
-2.5026 -7.1383 2.4026
-2.3300 -7.1976 2.4026
-2.1560 -7.2526 2.4026
-1.9806 -7.3033 2.4026
-1.8041 -7.3496 2.4026
-1.6264 -7.3917 2.4026
-1.4478 -7.4293 2.4026
-1.2683 -7.4626 2.4026
-1.0880 -7.4914 2.4026
-0.9070 -7.5158 2.4026
-0.7255 -7.5357 2.4026
-0.5435 -7.5512 2.4026
-0.3612 -7.5621 2.4026
-0.1787 -7.5686 2.4026
0.0039 -7.5706 2.4026
0.1865 -7.5681 2.4026
0.3689 -7.5611 2.4026
0.5512 -7.5497 2.4026
0.7331 -7.5337 2.4026
0.9145 -7.5133 2.4026
1.0954 -7.4884 2.4026
1.2755 -7.4591 2.4026
1.4549 -7.4253 2.4026
1.6334 -7.3872 2.4026
1.8109 -7.3447 2.4026
1.9018 -6.9842 2.2993
2.0806 -6.9726 2.3117
2.2246 -6.8477 2.2878
2.4007 -6.8251 2.2993
2.5642 -6.7639 2.2993
2.7260 -6.6988 2.2993
2.8863 -6.6297 2.2993
3.0447 -6.5568 2.2993
3.2013 -6.4799 2.2993
3.3559 -6.3993 2.2993
3.5084 -6.3149 2.2993
3.6588 -6.2268 2.2993
3.8070 -6.1351 2.2993
3.9528 -6.0398 2.2993
4.0962 -5.9410 2.2993
4.2371 -5.8387 2.2993
4.3754 -5.7330 2.2993
4.5111 -5.6240 2.2993
4.6440 -5.5118 2.2993
4.7741 -5.3963 2.2993
4.9012 -5.2778 2.2993
5.0254 -5.1562 2.2993
5.1466 -5.0316 2.2993
5.2646 -4.9042 2.2993
5.3795 -4.7739 2.2993
5.4911 -4.6409 2.2993
4.9870 -4.0127 2.0479
4.9444 -3.7855 1.9931
4.9042 -3.5703 1.9423
4.8664 -3.3661 1.8954
4.8301 -3.1714 1.8516
4.8008 -2.9888 1.8129
4.7774 -2.8165 1.7786
4.7551 -2.6508 1.7467
4.7338 -2.4911 1.7171
4.7140 -2.3371 1.6896
4.6956 -2.1884 1.6643
4.6779 -2.0441 1.6408
4.6608 -1.9040 1.6190
4.6763 -1.7798 1.6096
4.7689 -1.6843 1.6278
4.8673 -1.5880 1.6486
4.9678 -1.4890 1.6707
5.0781 -1.3893 1.6968
5.1957 -1.2874 1.7260
5.3174 -1.1820 1.7572
5.4433 -1.0727 1.7906
5.4960 -0.9458 1.8007
5.5069 -0.8112 1.7982
5.5178 -0.6771 1.7968
5.5288 -0.5432 1.7964
5.5399 -0.4094 1.7971
5.5511 -0.2756 1.7989
5.5623 -0.1415 1.8018
5.5737 -0.0071 1.8057
5.6669 0.1298 1.8373
5.8222 0.2742 1.8901
5.7866 0.4129 1.8821
5.7021 0.5457 1.8592
5.6189 0.6752 1.8378
5.5424 0.8023 1.8194
5.5066 0.9335 1.8154
5.4654 1.0631 1.8106
5.4087 1.1884 1.8016
5.3743 1.3178 1.8011
5.3647 1.4538 1.8099
5.3596 1.5925 1.8215
5.3769 1.7402 1.8419
5.3969 1.8920 1.8647
5.4359 2.0546 1.8956
5.4591 2.2157 1.9227
5.4328 2.3596 1.9338
5.3919 2.4985 1.9410
5.3563 2.6412 1.9514
5.3223 2.7864 1.9638
5.3143 2.9481 1.9874
5.3320 3.1289 2.0225
5.3502 3.3161 2.0601
5.4532 3.5655 2.1332
5.5635 3.8328 2.2128
5.4966 3.9861 2.2247
5.4462 4.1543 2.2452
5.3943 4.3251 2.2671
5.3406 4.4986 2.2904
5.2488 4.6430 2.2993
5.1332 4.7670 2.2993
5.0147 4.8882 2.2993
4.8934 5.0066 2.2993
4.7694 5.1219 2.2993
4.6426 5.2343 2.2993
4.5133 5.3435 2.2993
4.3814 5.4496 2.2993
4.2471 5.5526 2.2993
4.1104 5.6522 2.2993
3.9714 5.7486 2.2993
3.8302 5.8416 2.2993
3.6868 5.9312 2.2993
3.5414 6.0173 2.2993
3.3940 6.1000 2.2993
2.3582 4.4908 1.6711
2.1690 4.3852 1.6121
2.2042 4.7419 1.7234
2.1793 5.0016 1.7984
2.6302 6.4592 2.2993
2.4341 6.4180 2.2634
2.3138 6.5770 2.2993
2.1536 6.6302 2.2993
2.0334 6.8175 2.3468
1.9119 7.0272 2.4026
1.7411 7.0707 2.4026
1.5693 7.1102 2.4026
1.3966 7.1455 2.4026
1.2231 7.1768 2.4026
1.0490 7.2039 2.4026
0.8742 7.2269 2.4026
0.6990 7.2457 2.4026
0.5234 7.2604 2.4026
0.3474 7.2709 2.4026
0.1713 7.2772 2.4026
-0.0049 7.2793 2.4026
-0.1811 7.2772 2.4026
-0.3573 7.2710 2.4026
-0.5332 7.2606 2.4026
-0.7089 7.2460 2.4026
-0.8842 7.2272 2.4026
-1.0589 7.2043 2.4026
-1.2332 7.1772 2.4026
-1.4067 7.1460 2.4026
-1.5794 7.1107 2.4026
-1.7513 7.0712 2.4026
-1.9223 7.0277 2.4026
-2.0921 6.9802 2.4026
-2.2608 6.9286 2.4026
-2.4283 6.8730 2.4026
-2.5944 6.8134 2.4026
-2.7591 6.7499 2.4026
-2.9223 6.6825 2.4026
-3.0838 6.6112 2.4026
-3.2436 6.5361 2.4026
-3.4017 6.4572 2.4026
-3.5578 6.3745 2.4026
-3.7120 6.2881 2.4026
-3.8641 6.1980 2.4026
-4.0140 6.1043 2.4026
-4.1617 6.0071 2.4026
-4.3071 5.9063 2.4026
-4.4501 5.8021 2.4026
-4.5906 5.6944 2.4026
-4.7285 5.5834 2.4026
-4.8638 5.4692 2.4026
-4.9964 5.3516 2.4026
-5.1261 5.2310 2.4026
-5.2530 5.1072 2.4026
-5.3769 4.9804 2.4026
-5.4978 4.8506 2.4026
-5.6156 4.7179 2.4026
-5.7303 4.5824 2.4026
-5.8417 4.4441 2.4026
-5.9498 4.3032 2.4026
-6.0451 4.1532 2.3989
-6.0476 3.9431 2.3603
-6.0553 3.7426 2.3264
-6.0756 3.5549 2.2995
-6.1624 3.4084 2.2995
-6.2484 3.2612 2.3005
-6.3253 3.1091 2.2995
-6.4015 2.9565 2.2995
-6.4739 2.8021 2.2995
-6.5427 2.6459 2.2995
-6.6077 2.4881 2.2995
-6.6689 2.3287 2.2995
-6.7263 2.1677 2.2995
-6.7798 2.0054 2.2995
-6.8295 1.8418 2.2995
-6.8752 1.6769 2.2995
-6.9169 1.5110 2.2995
-6.9547 1.3440 2.2995
-6.9884 1.1760 2.2995
-7.0181 1.0073 2.2995
-7.0437 0.8377 2.2995
-7.0652 0.6676 2.2995
-7.0827 0.4969 2.2995
-7.0960 0.3258 2.2995
-7.1051 0.1543 2.2995
-7.1102 -0.0174 2.2995
-7.1110 -0.1893 2.2995
-7.1078 -0.3612 2.2995
-7.1003 -0.5331 2.2995
-7.0887 -0.7048 2.2995
-7.0729 -0.8762 2.2995
-7.0530 -1.0473 2.2995
-7.0289 -1.2179 2.2995
-7.0007 -1.3880 2.2995
-6.9684 -1.5574 2.2995
-6.9319 -1.7260 2.2995
-6.8913 -1.8938 2.2995
-6.8467 -2.0606 2.2995
-6.7980 -2.2263 2.2995
-6.7452 -2.3909 2.2995
-6.6885 -2.5542 2.2995
-6.6277 -2.7161 2.2995
-6.5631 -2.8766 2.2995
-6.4945 -3.0355 2.2995
-6.4220 -3.1927 2.2995
-6.3457 -3.3482 2.2995
-6.2656 -3.5019 2.2995
-6.1817 -3.6536 2.2995
-6.1463 -3.8358 2.3192
-6.1417 -4.0421 2.3527
-6.1443 -4.2599 2.3914
-6.0701 -4.4292 2.4026
-5.9637 -4.5761 2.4026
-5.8536 -4.7204 2.4026
-5.5277 -4.6826 2.4026
-5.4149 -4.8163 2.4026
-5.2989 -4.9472 2.4026
-5.1796 -5.0752 2.4026
-5.0572 -5.2004 2.4026
-4.9318 -5.3225 2.4026
-4.8034 -5.4416 2.4026
-4.6720 -5.5575 2.4026
-4.5379 -5.6702 2.4026
-4.4009 -5.7796 2.4026
-4.2613 -5.8856 2.4026
-4.1191 -5.9882 2.4026
-3.9744 -6.0873 2.4026
-3.8273 -6.1828 2.4026
-3.6779 -6.2748 2.4026
-3.5262 -6.3630 2.4026
-3.3724 -6.4475 2.4026
-3.2165 -6.5283 2.4026
-3.0586 -6.6052 2.4026
-2.8989 -6.6782 2.4026
-2.7374 -6.7472 2.4026
-2.5743 -6.8123 2.4026
-2.4096 -6.8734 2.4026
-2.2434 -6.9304 2.4026
-2.0758 -6.9834 2.4026
-1.9070 -7.0322 2.4026
-1.7370 -7.0768 2.4026
-1.5660 -7.1172 2.4026
-1.3940 -7.1535 2.4026
-1.2211 -7.1855 2.4026
-1.0475 -7.2132 2.4026
-0.8733 -7.2367 2.4026
-0.6985 -7.2559 2.4026
-0.5233 -7.2707 2.4026
-0.3478 -7.2813 2.4026
-0.1721 -7.2875 2.4026
0.0037 -7.2895 2.4026
0.1795 -7.2870 2.4026
0.3552 -7.2803 2.4026
0.5306 -7.2693 2.4026
0.7058 -7.2539 2.4026
0.8805 -7.2343 2.4026
1.0546 -7.2104 2.4026
1.2281 -7.1822 2.4026
1.4008 -7.1497 2.4026
1.5726 -7.1130 2.4026
1.7435 -7.0721 2.4026
1.8714 -6.8731 2.3500
1.9925 -6.6780 2.2993
2.1526 -6.6269 2.2993
2.3115 -6.5719 2.2993
2.4689 -6.5131 2.2993
2.6248 -6.4504 2.2993
2.7790 -6.3840 2.2993
2.0315 -4.3751 1.5933
3.0824 -6.2398 2.2993
3.2313 -6.1622 2.2993
3.3782 -6.0810 2.2993
3.5230 -5.9963 2.2993
3.6657 -5.9080 2.2993
3.8062 -5.8163 2.2993
3.9443 -5.7212 2.2993
4.0800 -5.6228 2.2993
4.2132 -5.5211 2.2993
4.3439 -5.4162 2.2993
4.4720 -5.3081 2.2993
4.5973 -5.1970 2.2993
4.7198 -5.0829 2.2993
4.8394 -4.9658 2.2993
4.9562 -4.8460 2.2993
5.0699 -4.7233 2.2993
5.1806 -4.5979 2.2993
5.2881 -4.4699 2.2993
5.3925 -4.3394 2.2993
4.9657 -3.8022 2.0784
4.9248 -3.5857 2.0253
4.8863 -3.3803 1.9761
4.8485 -3.1839 1.9299
4.8183 -3.0001 1.8892
4.7944 -2.8270 1.8533
4.7717 -2.6605 1.8199
4.7501 -2.5000 1.7889
4.7295 -2.3451 1.7600
4.7097 -2.1953 1.7332
4.6908 -2.0501 1.7082
4.6727 -1.9092 1.6851
4.6557 -1.7723 1.6637
4.7414 -1.6750 1.6802
4.8487 -1.5823 1.7049
4.9591 -1.4868 1.7313
5.0728 -1.3882 1.7596
5.1902 -1.2865 1.7899
5.3116 -1.1811 1.8222
5.4374 -1.0720 1.8567
5.4916 -0.9454 1.8678
5.5118 -0.8123 1.8683
5.5228 -0.6781 1.8667
5.5338 -0.5441 1.8663
5.5449 -0.4102 1.8670
5.5560 -0.2762 1.8689
5.5673 -0.1421 1.8718
5.5787 -0.0075 1.8759
5.6776 0.1296 1.9105
5.8335 0.2743 1.9656
5.7340 0.4088 1.9357
5.6514 0.5405 1.9125
5.5695 0.6688 1.8906
5.4920 0.7946 1.8711
5.4566 0.9247 1.8669
5.4206 1.0540 1.8636
5.3771 1.1811 1.8588
5.3391 1.3088 1.8568
5.3329 1.4448 1.8671
5.3490 1.5890 1.8865
5.3660 1.7363 1.9075
5.3929 1.8902 1.9336
5.4349 2.0538 1.9668
5.4614 2.2162 1.9960
5.4176 2.3526 2.0010
5.3775 2.4914 2.0087
5.3414 2.6334 2.0193
5.3049 2.7769 2.0310
5.3070 2.9437 2.0593
5.3246 3.1242 2.0957
5.3426 3.3110 2.1345
5.4749 3.5792 2.2222
5.5718 3.8381 2.2993
5.4523 3.9536 2.2897
5.3758 4.1001 2.2993
5.2732 4.2275 2.2993
5.1676 4.3524 2.2993
5.0591 4.4747 2.2993
4.9477 4.5943 2.2993
4.8336 4.7112 2.2993
4.7167 4.8253 2.2993
4.5972 4.9365 2.2993
4.4751 5.0449 2.2993
4.3504 5.1502 2.2993
4.2234 5.2526 2.2993
4.0939 5.3518 2.2993
3.9622 5.4480 2.2993
3.8282 5.5409 2.2993
3.6921 5.6306 2.2993
3.5539 5.7170 2.2993
3.4138 5.8001 2.2993
3.2717 5.8798 2.2993
2.1664 4.1253 1.5926
2.1939 4.4352 1.6915
2.1869 4.7045 1.7738
2.6859 6.1640 2.2993
2.5355 6.2263 2.2993
2.3837 6.2849 2.2993
2.2387 6.3632 2.3078
2.0761 6.3912 2.2993
2.0068 6.7280 2.4026
1.8432 6.7739 2.4026
1.6785 6.8159 2.4026
1.5128 6.8540 2.4026
1.3463 6.8881 2.4026
1.1791 6.9182 2.4026
1.0112 6.9444 2.4026
0.8428 6.9666 2.4026
0.6738 6.9847 2.4026
0.5045 6.9988 2.4026
0.3349 7.0090 2.4026
0.1651 7.0150 2.4026
-0.0048 7.0171 2.4026
-0.1747 7.0151 2.4026
-0.3445 7.0091 2.4026
-0.5141 6.9990 2.4026
-0.6834 6.9849 2.4026
-0.8524 6.9668 2.4026
-1.0209 6.9447 2.4026
-1.1888 6.9186 2.4026
-1.3561 6.8884 2.4026
-1.5226 6.8544 2.4026
-1.6884 6.8163 2.4026
-1.8531 6.7744 2.4026
-2.0169 6.7285 2.4026
-2.1795 6.6787 2.4026
-2.3409 6.6251 2.4026
-2.5010 6.5676 2.4026
-2.6598 6.5064 2.4026
-2.8170 6.4413 2.4026
-2.9727 6.3726 2.4026
-3.1268 6.3001 2.4026
-3.2791 6.2240 2.4026
-3.4296 6.1442 2.4026
-3.5782 6.0609 2.4026
-3.7247 5.9740 2.4026
-3.8692 5.8837 2.4026
-4.0116 5.7899 2.4026
-4.1517 5.6927 2.4026
-4.2895 5.5921 2.4026
-4.4249 5.4883 2.4026
-4.5578 5.3813 2.4026
-4.6881 5.2711 2.4026
-4.8158 5.1578 2.4026
-4.9408 5.0414 2.4026
-5.0631 4.9220 2.4026
-5.1825 4.7997 2.4026
-5.2989 4.6746 2.4026
-5.4124 4.5466 2.4026
-5.5228 4.4160 2.4026
-5.6301 4.2827 2.4026
-5.7343 4.1468 2.4026
-5.8351 4.0084 2.4026
-5.9327 3.8676 2.4026
-6.0269 3.7245 2.4026
-6.0524 3.5409 2.3769
-6.0557 3.3489 2.3448
-6.0643 3.1647 2.3169
-6.0956 2.9957 2.2995
-6.1689 2.8486 2.2995
-6.2538 2.7064 2.3051
-6.3048 2.5492 2.2995
-6.3673 2.3971 2.2995
-6.4263 2.2434 2.2995
-6.4815 2.0883 2.2995
-6.5329 1.9319 2.2995
-6.5807 1.7742 2.2995
-6.6246 1.6153 2.2995
-6.6647 1.4554 2.2995
-6.7010 1.2945 2.2995
-6.7334 1.1326 2.2995
-6.7619 0.9700 2.2995
-6.7865 0.8067 2.2995
-6.8071 0.6427 2.2995
-6.8238 0.4783 2.2995
-6.8365 0.3134 2.2995
-6.8452 0.1482 2.2995
-6.8500 -0.0173 2.2995
-6.8507 -0.1829 2.2995
-6.8474 -0.3485 2.2995
-6.8402 -0.5140 2.2995
-6.8289 -0.6794 2.2995
-6.8136 -0.8446 2.2995
-6.7943 -1.0094 2.2995
-6.7710 -1.1737 2.2995
-6.7437 -1.3375 2.2995
-6.7124 -1.5007 2.2995
-6.6772 -1.6631 2.2995
-6.6380 -1.8247 2.2995
-6.5949 -1.9853 2.2995
-6.5479 -2.1449 2.2995
-6.4970 -2.3034 2.2995
-6.4422 -2.4606 2.2995
-6.3836 -2.6166 2.2995
-6.3212 -2.7711 2.2995
-6.2551 -2.9241 2.2995
-6.1852 -3.0755 2.2995
-6.1413 -3.2409 2.3106
-6.1370 -3.4305 2.3386
-6.1368 -3.6276 2.3703
-6.1322 -3.8275 2.4026
-6.0404 -3.9759 2.4026
-5.9449 -4.1221 2.4026
-5.8458 -4.2660 2.4026
-5.7432 -4.4074 2.4026
-5.6371 -4.5463 2.4026
-5.3291 -4.5148 2.4026
-5.2203 -4.6436 2.4026
-5.1084 -4.7698 2.4026
-4.9933 -4.8932 2.4026
-4.8753 -5.0138 2.4026
-4.7543 -5.1315 2.4026
-4.6305 -5.2462 2.4026
-4.5038 -5.3579 2.4026
-4.3744 -5.4665 2.4026
-4.2424 -5.5719 2.4026
-4.1078 -5.6740 2.4026
-3.9707 -5.7729 2.4026
-3.8312 -5.8684 2.4026
-3.6894 -5.9604 2.4026
-3.5453 -6.0490 2.4026
-3.3990 -6.1340 2.4026
-3.2507 -6.2155 2.4026
-3.1005 -6.2932 2.4026
-2.9483 -6.3673 2.4026
-2.7943 -6.4377 2.4026
-2.6387 -6.5042 2.4026
-2.4814 -6.5669 2.4026
-2.3226 -6.6258 2.4026
-2.1624 -6.6807 2.4026
-2.0009 -6.7317 2.4026
-1.8382 -6.7787 2.4026
-1.6743 -6.8217 2.4026
-1.5094 -6.8606 2.4026
-1.3436 -6.8956 2.4026
-1.1770 -6.9264 2.4026
-1.0097 -6.9531 2.4026
-0.8417 -6.9757 2.4026
-0.6733 -6.9942 2.4026
-0.5044 -7.0085 2.4026
-0.3353 -7.0187 2.4026
-0.1659 -7.0247 2.4026
0.0036 -7.0266 2.4026
0.1730 -7.0243 2.4026
0.3423 -7.0178 2.4026
0.5115 -7.0072 2.4026
0.6802 -6.9924 2.4026
0.8486 -6.9735 2.4026
1.0165 -6.9504 2.4026
1.1837 -6.9233 2.4026
1.3502 -6.8920 2.4026
1.5158 -6.8567 2.4026
1.6806 -6.8173 2.4026
1.8442 -6.7739 2.4026
1.9205 -6.4374 2.2993
2.0868 -6.4248 2.3125
2.2280 -6.3353 2.2993
2.3798 -6.2786 2.2993
2.5300 -6.2182 2.2993
2.6788 -6.1542 2.2993
2.0377 -4.3888 1.6580
2.0453 -4.1406 1.5827
3.1148 -5.9406 2.2993
3.2564 -5.8623 2.2993
3.3961 -5.7807 2.2993
3.5336 -5.6957 2.2993
3.6691 -5.6073 2.2993
3.8022 -5.5157 2.2993
3.9331 -5.4208 2.2993
4.0616 -5.3228 2.2993
4.1876 -5.2218 2.2993
4.3111 -5.1176 2.2993
4.4319 -5.0106 2.2993
4.5501 -4.9006 2.2993
4.6655 -4.7878 2.2993
4.7781 -4.6723 2.2993
4.8878 -4.5541 2.2993
4.9945 -4.4333 2.2993
5.0983 -4.3099 2.2993
5.1989 -4.1841 2.2993
4.9873 -3.8193 2.1651
4.9457 -3.6014 2.1095
4.9059 -3.3943 2.0578
4.8671 -3.1965 2.0093
4.8360 -3.0115 1.9666
4.8117 -2.8376 1.9291
4.7886 -2.6703 1.8942
4.7666 -2.5091 1.8617
4.7456 -2.3535 1.8315
4.7256 -2.2031 1.8035
4.7064 -2.0573 1.7774
4.6880 -1.9158 1.7532
4.6575 -1.7733 1.7260
4.7367 -1.6737 1.7406
4.8438 -1.5810 1.7662
4.9540 -1.4856 1.7936
5.0675 -1.3872 1.8228
5.1847 -1.2855 1.8541
5.3059 -1.1802 1.8875
5.4314 -1.0712 1.9232
5.4855 -0.9448 1.9346
5.5168 -0.8135 1.9390
5.5277 -0.6791 1.9373
5.5387 -0.5450 1.9369
5.5498 -0.4109 1.9376
5.5610 -0.2769 1.9395
5.5723 -0.1426 1.9425
5.5837 -0.0079 1.9467
5.6885 0.1295 1.9846
5.8276 0.2737 2.0358
5.6756 0.4042 1.9864
5.6012 0.5353 1.9652
5.5206 0.6626 1.9428
5.4420 0.7870 1.9221
5.4071 0.9159 1.9179
5.3716 1.0440 1.9145
5.3354 1.1715 1.9120
5.3066 1.3005 1.9132
5.3225 1.4416 1.9318
5.3385 1.5854 1.9518
5.3550 1.7323 1.9734
5.3889 1.8884 2.0029
5.4383 2.0547 2.0400
5.4452 2.2092 2.0629
5.4024 2.3455 2.0684
5.3631 2.4843 2.0766
5.3270 2.6259 2.0874
5.2774 2.7621 2.0944
5.2905 2.9341 2.1279
5.3171 3.1194 2.1692
5.3491 3.3146 2.2151
5.4657 3.5727 2.2993
5.3757 3.7026 2.2993
5.2827 3.8302 2.2993
5.1867 3.9555 2.2993
5.0878 4.0785 2.2993
4.9860 4.1990 2.2993
4.8813 4.3170 2.2993
4.7739 4.4325 2.2993
4.6638 4.5453 2.2993
4.5511 4.6554 2.2993
4.4358 4.7628 2.2993
4.3180 4.8674 2.2993
4.1978 4.9691 2.2993
4.0752 5.0679 2.2993
3.9504 5.1637 2.2993
3.8233 5.2565 2.2993
3.6940 5.3462 2.2993
3.5627 5.4328 2.2993
3.4294 5.5163 2.2993
3.2942 5.5965 2.2993
2.1727 3.9043 1.5823
2.1696 4.1311 1.6528
2.1934 4.4339 1.7525
2.1736 4.6753 1.8269
2.5919 5.9479 2.2993
2.4468 6.0080 2.2993
2.3003 6.0646 2.2993
2.1525 6.1177 2.2993
2.0308 6.2514 2.3307
1.9366 6.4922 2.4026
1.7787 6.5365 2.4026
1.6197 6.5771 2.4026
1.4599 6.6138 2.4026
1.2993 6.6468 2.4026
1.1379 6.6759 2.4026
0.9758 6.7011 2.4026
0.8133 6.7225 2.4026
0.6502 6.7401 2.4026
0.4869 6.7537 2.4026
0.3232 6.7635 2.4026
0.1593 6.7693 2.4026
-0.0046 6.7713 2.4026
-0.1686 6.7694 2.4026
-0.3324 6.7635 2.4026
-0.4961 6.7538 2.4026
-0.6595 6.7402 2.4026
-0.8226 6.7227 2.4026
-0.9852 6.7014 2.4026
-1.1473 6.6761 2.4026
-1.3087 6.6470 2.4026
-1.4694 6.6141 2.4026
-1.6293 6.5774 2.4026
-1.7883 6.5369 2.4026
-1.9463 6.4926 2.4026
-2.1032 6.4445 2.4026
-2.2590 6.3927 2.4026
-2.4135 6.3373 2.4026
-2.5667 6.2781 2.4026
-2.7184 6.2153 2.4026
-2.8687 6.1489 2.4026
-3.0173 6.0789 2.4026
-3.1642 6.0054 2.4026
-3.3094 5.9284 2.4026
-3.4528 5.8480 2.4026
-3.5942 5.7641 2.4026
-3.7336 5.6769 2.4026
-3.8709 5.5863 2.4026
-4.0061 5.4925 2.4026
-4.1390 5.3954 2.4026
-4.2696 5.2952 2.4026
-4.3978 5.1919 2.4026
-4.5235 5.0855 2.4026
-4.6467 4.9761 2.4026
-4.7673 4.8638 2.4026
-4.8852 4.7485 2.4026
-5.0003 4.6305 2.4026
-5.1126 4.5097 2.4026
-5.2220 4.3862 2.4026
-5.3285 4.2601 2.4026
-5.4320 4.1314 2.4026
-5.5324 4.0003 2.4026
-5.6296 3.8668 2.4026
-5.7237 3.7309 2.4026
-5.8145 3.5927 2.4026
-5.9020 3.4524 2.4026
-5.9861 3.3099 2.4026
-6.0568 3.1602 2.3986
-6.0590 2.9772 2.3693
-6.0627 2.7991 2.3426
-6.0701 2.6264 2.3193
-6.0820 2.4587 2.2995
-6.1423 2.3119 2.2995
-6.1990 2.1636 2.2995
-6.2624 2.0173 2.3033
-6.3018 1.8630 2.2995
-6.3477 1.7109 2.2995
-6.3900 1.5576 2.2995
-6.4286 1.4033 2.2995
-6.4635 1.2481 2.2995
-6.4946 1.0920 2.2995
-6.5220 0.9351 2.2995
-6.5456 0.7776 2.2995
-6.5655 0.6194 2.2995
-6.5814 0.4608 2.2995
-6.5936 0.3018 2.2995
-6.6019 0.1424 2.2995
-6.6064 -0.0171 2.2995
-6.6070 -0.1768 2.2995
-6.6038 -0.3365 2.2995
-6.5966 -0.4962 2.2995
-6.5857 -0.6557 2.2995
-6.5708 -0.8150 2.2995
-6.5521 -0.9739 2.2995
-6.5295 -1.1323 2.2995
-6.5031 -1.2903 2.2995
-6.4729 -1.4476 2.2995
-6.4388 -1.6042 2.2995
-6.4009 -1.7600 2.2995
-6.3593 -1.9148 2.2995
-6.3139 -2.0687 2.2995
-6.2647 -2.2215 2.2995
-6.2118 -2.3731 2.2995
-6.1552 -2.5234 2.2995
-6.1339 -2.6894 2.3142
-6.1306 -2.8664 2.3374
-6.1300 -3.0485 2.3636
-6.1322 -3.2366 2.3930
-6.0789 -3.3985 2.4026
-5.9974 -3.5456 2.4026
-5.9123 -3.6907 2.4026
-5.8236 -3.8338 2.4026
-5.7315 -3.9747 2.4026
-5.6359 -4.1133 2.4026
-5.5369 -4.2496 2.4026
-5.4346 -4.3835 2.4026
-5.1428 -4.3575 2.4026
-5.0378 -4.4818 2.4026
-4.9297 -4.6035 2.4026
-4.8187 -4.7225 2.4026
-4.7048 -4.8388 2.4026
-4.5880 -4.9524 2.4026
-4.4684 -5.0630 2.4026
-4.3462 -5.1708 2.4026
-4.2213 -5.2755 2.4026
-4.0938 -5.3772 2.4026
-3.9639 -5.4757 2.4026
-3.8316 -5.5711 2.4026
-3.6969 -5.6631 2.4026
-3.5600 -5.7519 2.4026
-3.4210 -5.8374 2.4026
-3.2799 -5.9194 2.4026
-3.1367 -5.9979 2.4026
-2.9917 -6.0729 2.4026
-2.8449 -6.1444 2.4026
-2.6963 -6.2122 2.4026
-2.5461 -6.2764 2.4026
-2.3943 -6.3369 2.4026
-2.2411 -6.3936 2.4026
-2.0865 -6.4466 2.4026
-1.9306 -6.4958 2.4026
-1.7736 -6.5411 2.4026
-1.6155 -6.5826 2.4026
-1.4564 -6.6202 2.4026
-1.2964 -6.6538 2.4026
-1.1357 -6.6836 2.4026
-0.9742 -6.7093 2.4026
-0.8122 -6.7311 2.4026
-0.6497 -6.7490 2.4026
-0.4867 -6.7628 2.4026
-0.3235 -6.7726 2.4026
-0.1601 -6.7784 2.4026
0.0034 -6.7802 2.4026
0.1669 -6.7780 2.4026
0.3303 -6.7717 2.4026
0.4935 -6.7615 2.4026
0.6563 -6.7473 2.4026
0.8188 -6.7290 2.4026
0.9807 -6.7068 2.4026
1.1421 -6.6806 2.4026
1.3027 -6.6505 2.4026
1.4626 -6.6164 2.4026
1.6215 -6.5784 2.4026
1.7795 -6.5365 2.4026
1.8818 -6.3080 2.3349
2.0021 -6.1645 2.2993
2.1498 -6.1134 2.2993
2.2963 -6.0588 2.2993
2.4413 -6.0005 2.2993
2.5848 -5.9388 2.2993
2.7267 -5.8736 2.2993
2.0347 -4.1195 1.6318
2.0572 -3.9238 1.5738
3.1423 -5.6573 2.2993
3.2770 -5.5786 2.2993
3.4098 -5.4966 2.2993
3.5405 -5.4114 2.2993
3.6691 -5.3230 2.2993
3.7954 -5.2315 2.2993
3.9194 -5.1370 2.2993
4.0411 -5.0395 2.2993
4.1602 -4.9391 2.2993
4.2769 -4.8358 2.2993
4.3910 -4.7297 2.2993
4.5024 -4.6210 2.2993
4.6111 -4.5095 2.2993
4.7170 -4.3955 2.2993
4.8201 -4.2789 2.2993
4.9202 -4.1599 2.2993
5.0174 -4.0385 2.2993
5.0093 -3.8366 2.2533
4.9670 -3.6173 2.1952
4.9254 -3.4082 2.1406
4.8860 -3.2094 2.0899
4.8539 -3.0232 2.0452
4.8292 -2.8483 2.0060
4.8057 -2.6802 1.9695
4.7833 -2.5183 1.9356
4.7620 -2.3621 1.9041
4.7416 -2.2110 1.8748
4.7221 -2.0646 1.8476
4.6956 -1.9193 1.8193
4.6593 -1.7744 1.7889
4.7319 -1.6724 1.8015
4.8388 -1.5798 1.8279
4.9488 -1.4844 1.8561
5.0622 -1.3861 1.8863
5.1792 -1.2845 1.9186
5.3001 -1.1794 1.9531
5.4253 -1.0704 1.9900
5.4793 -0.9441 2.0017
5.5144 -0.8135 2.0076
5.5327 -0.6801 2.0086
5.5438 -0.5459 2.0081
5.5549 -0.4117 2.0088
5.5661 -0.2775 2.0108
5.5774 -0.1431 2.0139
5.5888 -0.0083 2.0182
5.6994 0.1293 2.0596
5.7656 0.2704 2.0862
5.6178 0.3997 2.0365
5.5479 0.5298 2.0160
5.4722 0.6564 1.9946
5.3939 0.7797 1.9732
5.3581 0.9072 1.9684
5.3230 1.0342 1.9649
5.2897 1.1611 1.9632
5.2860 1.2950 1.9737
5.3120 1.4384 1.9967
5.3279 1.5819 2.0173
5.3440 1.7284 2.0394
5.3848 1.8866 2.0726
5.4185 2.0468 2.1049
5.4278 2.2017 2.1294
5.3871 2.3385 2.1358
5.3466 2.4763 2.1438
5.2940 2.6092 2.1482
5.2405 2.7423 2.1536
5.2455 2.9087 2.1847
5.2868 3.1012 2.2333
5.3593 3.3205 2.2981
5.2784 3.4499 2.2993
5.1916 3.5753 2.2993
5.1019 3.6986 2.2993
5.0092 3.8197 2.2993
4.9137 3.9385 2.2993
4.8154 4.0549 2.2993
4.7144 4.1690 2.2993
4.6107 4.2805 2.2993
4.5044 4.3895 2.2993
4.3956 4.4959 2.2993
4.2843 4.5997 2.2993
4.1706 4.7007 2.2993
4.0545 4.7990 2.2993
3.9361 4.8945 2.2993
3.8155 4.9871 2.2993
3.6928 5.0767 2.2993
3.5680 5.1634 2.2993
3.4412 5.2471 2.2993
3.3125 5.3277 2.2993
2.1777 3.6993 1.5737
2.1611 3.8831 1.6294
2.1953 4.1797 1.7314
2.1709 4.3882 1.7958
2.6424 5.6834 2.2993
2.5036 5.7448 2.2993
2.3634 5.8029 2.2993
2.2325 5.8854 2.3103
2.0792 5.9089 2.2993
2.0222 6.2243 2.4026
1.8707 6.2707 2.4026
1.7181 6.3135 2.4026
1.5646 6.3527 2.4026
1.4102 6.3882 2.4026
1.2550 6.4201 2.4026
1.0991 6.4482 2.4026
0.9426 6.4726 2.4026
0.7856 6.4933 2.4026
0.6281 6.5102 2.4026
0.4703 6.5234 2.4026
0.3122 6.5328 2.4026
0.1539 6.5385 2.4026
-0.0045 6.5404 2.4026
-0.1629 6.5385 2.4026
-0.3211 6.5329 2.4026
-0.4793 6.5235 2.4026
-0.6371 6.5103 2.4026
-0.7946 6.4934 2.4026
-0.9517 6.4728 2.4026
-1.1082 6.4484 2.4026
-1.2642 6.4203 2.4026
-1.4194 6.3885 2.4026
-1.5739 6.3530 2.4026
-1.7274 6.3138 2.4026
-1.8800 6.2710 2.4026
-2.0316 6.2245 2.4026
-2.1821 6.1745 2.4026
-2.3313 6.1209 2.4026
-2.4792 6.0637 2.4026
-2.6258 6.0030 2.4026
-2.7709 5.9388 2.4026
-2.9144 5.8712 2.4026
-3.0563 5.8002 2.4026
-3.1966 5.7257 2.4026
-3.3350 5.6480 2.4026
-3.4716 5.5669 2.4026
-3.6062 5.4826 2.4026
-3.7388 5.3951 2.4026
-3.8693 5.3045 2.4026
-3.9976 5.2107 2.4026
-4.1237 5.1138 2.4026
-4.2475 5.0140 2.4026
-4.3689 4.9112 2.4026
-4.4878 4.8055 2.4026
-4.6042 4.6969 2.4026
-4.7181 4.5856 2.4026
-4.8292 4.4716 2.4026
-4.9376 4.3549 2.4026
-5.0433 4.2356 2.4026
-5.1460 4.1137 2.4026
-5.2459 3.9894 2.4026
-5.3428 3.8627 2.4026
-5.4366 3.7337 2.4026
-5.5274 3.6025 2.4026
-5.6150 3.4690 2.4026
-5.6995 3.3334 2.4026
-5.7806 3.1958 2.4026
-5.8585 3.0563 2.4026
-5.9331 2.9149 2.4026
-6.0042 2.7716 2.4026
-6.0632 2.6229 2.3991
-6.0652 2.4514 2.3748
-6.0672 2.2832 2.3523
-6.0729 2.1192 2.3330
-6.0789 1.9577 2.3155
-6.0848 1.7984 2.2995
-6.1290 1.6515 2.2995
-6.1698 1.5035 2.2995
-6.2070 1.3545 2.2995
-6.2406 1.2046 2.2995
-6.2743 1.0545 2.3009
-6.2969 0.9024 2.2995
-6.3196 0.7503 2.2995
-6.3387 0.5976 2.2995
-6.3540 0.4444 2.2995
-6.3657 0.2909 2.2995
-6.3736 0.1370 2.2995
-6.3779 -0.0170 2.2995
-6.3784 -0.1712 2.2995
-6.3751 -0.3254 2.2995
-6.3682 -0.4795 2.2995
-6.3575 -0.6334 2.2995
-6.3431 -0.7872 2.2995
-6.3249 -0.9406 2.2995
-6.3030 -1.0935 2.2995
-6.2775 -1.2460 2.2995
-6.2482 -1.3978 2.2995
-6.2152 -1.5489 2.2995
-6.1786 -1.6993 2.2995
-6.1383 -1.8487 2.2995
-6.1265 -2.0078 2.3116
-6.1244 -2.1722 2.3290
-6.1220 -2.3392 2.3479
-6.1237 -2.5109 2.3702
-6.1257 -2.6863 2.3944
-6.0821 -2.8441 2.4026
-6.0140 -2.9913 2.4026
-5.9423 -3.1368 2.4026
-5.8670 -3.2805 2.4026
-5.7883 -3.4225 2.4026
-5.7061 -3.5625 2.4026
-5.6204 -3.7005 2.4026
-5.5315 -3.8364 2.4026
-5.4391 -3.9701 2.4026
-5.3436 -4.1016 2.4026
-5.2448 -4.2308 2.4026
-4.9678 -4.2097 2.4026
-4.8663 -4.3297 2.4026
-4.7619 -4.4472 2.4026
-4.6546 -4.5621 2.4026
-4.5445 -4.6745 2.4026
-4.4317 -4.7841 2.4026
-4.3161 -4.8909 2.4026
-4.1980 -4.9950 2.4026
-4.0773 -5.0961 2.4026
-3.9542 -5.1942 2.4026
-3.8287 -5.2894 2.4026
-3.7009 -5.3814 2.4026
-3.5708 -5.4703 2.4026
-3.4385 -5.5561 2.4026
-3.3042 -5.6385 2.4026
-3.1679 -5.7177 2.4026
-3.0296 -5.7935 2.4026
-2.8895 -5.8660 2.4026
-2.7477 -5.9349 2.4026
-2.6042 -6.0004 2.4026
-2.4591 -6.0624 2.4026
-2.3125 -6.1208 2.4026
-2.1645 -6.1756 2.4026
-2.0152 -6.2267 2.4026
-1.8647 -6.2742 2.4026
-1.7130 -6.3179 2.4026
-1.5603 -6.3580 2.4026
-1.4066 -6.3943 2.4026
-1.2521 -6.4268 2.4026
-1.0969 -6.4555 2.4026
-0.9409 -6.4803 2.4026
-0.7844 -6.5014 2.4026
-0.6275 -6.5186 2.4026
-0.4701 -6.5319 2.4026
-0.3125 -6.5414 2.4026
-0.1546 -6.5470 2.4026
0.0033 -6.5488 2.4026
0.1612 -6.5466 2.4026
0.3190 -6.5406 2.4026
0.4766 -6.5307 2.4026
0.6339 -6.5170 2.4026
0.7908 -6.4994 2.4026
0.9472 -6.4779 2.4026
1.1030 -6.4527 2.4026
1.2582 -6.4236 2.4026
1.4126 -6.3907 2.4026
1.5661 -6.3540 2.4026
1.7186 -6.3136 2.4026
1.8701 -6.2695 2.4026
1.9337 -5.9543 2.2993
2.0915 -5.9480 2.3161
2.2178 -5.8522 2.2993
2.3579 -5.7960 2.2993
2.4965 -5.7364 2.2993
2.0397 -4.3940 1.7808
2.0633 -4.1779 1.7132
2.0383 -3.8882 1.6145
2.0675 -3.7226 1.5663
3.1652 -5.3887 2.2993
2.2141 -3.5694 1.5458
2.3342 -3.5678 1.5694
3.5440 -5.1419 2.2993
3.6660 -5.0536 2.2993
3.7858 -4.9624 2.2993
3.9034 -4.8683 2.2993
4.0185 -4.7713 2.2993
4.1312 -4.6716 2.2993
4.2415 -4.5692 2.2993
4.3491 -4.4641 2.2993
4.4542 -4.3565 2.2993
4.5565 -4.2464 2.2993
4.6561 -4.1339 2.2993
4.7530 -4.0189 2.2993
4.8469 -3.9017 2.2993
4.9379 -3.7823 2.2993
4.9878 -3.6329 2.2819
4.9453 -3.4224 2.2248
4.9052 -3.2224 2.1719
4.8722 -3.0349 2.1250
4.8470 -2.8592 2.0841
4.8231 -2.6903 2.0460
4.8003 -2.5277 2.0107
4.7786 -2.3707 1.9778
4.7579 -2.2189 1.9473
4.7350 -2.0706 1.9176
4.6907 -1.9177 1.8811
4.6688 -1.7784 1.8553
4.7416 -1.6761 1.8684
4.8338 -1.5785 1.8899
4.9436 -1.4832 1.9191
5.0568 -1.3850 1.9502
5.1736 -1.2835 1.9835
5.2943 -1.1785 2.0192
5.4192 -1.0696 2.0572
5.4730 -0.9434 2.0693
5.5081 -0.8130 2.0754
5.5378 -0.6811 2.0806
5.5488 -0.5468 2.0801
5.5599 -0.4125 2.0808
5.5712 -0.2782 2.0827
5.5825 -0.1436 2.0859
5.5939 -0.0087 2.0904
5.7106 0.1291 2.1355
5.7045 0.2671 2.1359
5.5608 0.3952 2.0859
5.4922 0.5240 2.0652
5.4239 0.6502 2.0457
5.3472 0.7725 2.0240
5.3097 0.8986 2.0183
5.2778 1.0250 2.0159
5.2684 1.1561 2.0232
5.2589 1.2880 2.0318
5.2858 1.4309 2.0557
5.3129 1.5771 2.0813
5.3331 1.7244 2.1058
5.3781 1.8838 2.1418
5.4066 2.0419 2.1730
5.4103 2.1942 2.1961
5.3697 2.3305 2.2026
5.3093 2.4586 2.2025
5.2570 2.5905 2.2069
5.2038 2.7227 2.2124
5.2008 2.8835 2.2410
5.2408 3.0738 2.2904
5.1832 3.2110 2.2993
5.1023 3.3343 2.2993
5.0184 3.4556 2.2993
4.9317 3.5748 2.2993
4.8421 3.6919 2.2993
4.7499 3.8067 2.2993
4.6549 3.9193 2.2993
4.5573 4.0296 2.2993
4.4571 4.1375 2.2993
4.3544 4.2429 2.2993
4.2492 4.3458 2.2993
4.1417 4.4461 2.2993
4.0318 4.5439 2.2993
3.9196 4.6389 2.2993
3.8052 4.7312 2.2993
3.6886 4.8208 2.2993
3.5700 4.9075 2.2993
3.4494 4.9913 2.2993
3.3268 5.0723 2.2993
2.1816 3.5085 1.5664
2.1576 3.6649 1.6127
2.1915 3.9375 1.7092
2.1770 4.1446 1.7760
2.6873 5.4317 2.2993
2.5546 5.4943 2.2993
2.4204 5.5536 2.2993
2.2849 5.6098 2.2993
2.1481 5.6627 2.2993
2.0279 5.7628 2.3197
1.9550 6.0173 2.4026
1.8086 6.0622 2.4026
1.6611 6.1036 2.4026
1.5127 6.1415 2.4026
1.3634 6.1759 2.4026
1.2134 6.2066 2.4026
1.0627 6.2338 2.4026
0.9113 6.2575 2.4026
0.7595 6.2775 2.4026
0.6073 6.2938 2.4026
0.4546 6.3066 2.4026
0.3018 6.3157 2.4026
0.1488 6.3212 2.4026
-0.0044 6.3230 2.4026
-0.1575 6.3212 2.4026
-0.3105 6.3158 2.4026
-0.4634 6.3067 2.4026
-0.6160 6.2939 2.4026
-0.7683 6.2776 2.4026
-0.9201 6.2576 2.4026
-1.0715 6.2340 2.4026
-1.2222 6.2068 2.4026
-1.3723 6.1760 2.4026
-1.5216 6.1417 2.4026
-1.6701 6.1038 2.4026
-1.8177 6.0624 2.4026
-1.9642 6.0174 2.4026
-2.1096 5.9690 2.4026
-2.2539 5.9171 2.4026
-2.3969 5.8618 2.4026
-2.5386 5.8031 2.4026
-2.6788 5.7411 2.4026
-2.8176 5.6757 2.4026
-2.9548 5.6069 2.4026
-3.0903 5.5350 2.4026
-3.2241 5.4598 2.4026
-3.3561 5.3814 2.4026
-3.4863 5.2998 2.4026
-3.6144 5.2152 2.4026
-3.7406 5.1275 2.4026
-3.8646 5.0368 2.4026
-3.9865 4.9431 2.4026
-4.1061 4.8466 2.4026
-4.2234 4.7471 2.4026
-4.3383 4.6449 2.4026
-4.4508 4.5400 2.4026
-4.5608 4.4323 2.4026
-4.6682 4.3220 2.4026
-4.7730 4.2092 2.4026
-4.8750 4.0938 2.4026
-4.9743 3.9760 2.4026
-5.0708 3.8558 2.4026
-5.1644 3.7333 2.4026
-5.2551 3.6085 2.4026
-5.3427 3.4816 2.4026
-5.4274 3.3526 2.4026
-5.5089 3.2215 2.4026
-5.5873 3.0885 2.4026
-5.6625 2.9536 2.4026
-5.7345 2.8168 2.4026
-5.8032 2.6784 2.4026
-5.8686 2.5382 2.4026
-5.9306 2.3965 2.4026
-5.9892 2.2533 2.4026
-6.0444 2.1087 2.4026
-6.0710 1.9547 2.3927
-6.0729 1.7945 2.3747
-6.0748 1.6364 2.3583
-6.0779 1.4807 2.3439
-6.0826 1.3269 2.3317
-6.0869 1.1745 2.3208
-6.0909 1.0232 2.3113
-6.0945 0.8729 2.3030
-6.1071 0.7246 2.2995
-6.1254 0.5770 2.2995
-6.1402 0.4290 2.2995
-6.1513 0.2806 2.2995
-6.1590 0.1320 2.2995
-6.1630 -0.0169 2.2995
-6.1634 -0.1658 2.2995
-6.1602 -0.3148 2.2995
-6.1534 -0.4637 2.2995
-6.1429 -0.6125 2.2995
-6.1289 -0.7610 2.2995
-6.1160 -0.9099 2.3012
-6.1159 -1.0615 2.3092
-6.1155 -1.2143 2.3185
-6.1149 -1.3684 2.3292
-6.1140 -1.5241 2.3412
-6.1139 -1.6819 2.3551
-6.1158 -1.8424 2.3713
-6.1177 -2.0054 2.3892
-6.1040 -2.1654 2.4026
-6.0523 -2.3130 2.4026
-5.9970 -2.4594 2.4026
-5.9382 -2.6045 2.4026
-5.8758 -2.7481 2.4026
-5.8099 -2.8903 2.4026
-5.7406 -3.0308 2.4026
-5.6679 -3.1696 2.4026
-5.5917 -3.3067 2.4026
-5.5122 -3.4419 2.4026
-5.4295 -3.5752 2.4026
-5.3434 -3.7064 2.4026
-5.2542 -3.8356 2.4026
-5.1618 -3.9626 2.4026
-5.0664 -4.0873 2.4026
-4.8030 -4.0705 2.4026
-4.7049 -4.1865 2.4026
-4.6039 -4.3000 2.4026
-4.5001 -4.4111 2.4026
-4.3936 -4.5197 2.4026
-4.2845 -4.6256 2.4026
-4.1727 -4.7289 2.4026
-4.0585 -4.8294 2.4026
-3.9418 -4.9271 2.4026
-3.8228 -5.0220 2.4026
-3.7014 -5.1139 2.4026
-3.5778 -5.2029 2.4026
-3.4520 -5.2888 2.4026
-3.3241 -5.3717 2.4026
-3.1943 -5.4514 2.4026
-3.0625 -5.5279 2.4026
-2.9288 -5.6011 2.4026
-2.7933 -5.6711 2.4026
-2.6562 -5.7378 2.4026
-2.5175 -5.8010 2.4026
-2.3772 -5.8609 2.4026
-2.2355 -5.9173 2.4026
-2.0924 -5.9703 2.4026
-1.9481 -6.0197 2.4026
-1.8026 -6.0656 2.4026
-1.6559 -6.1078 2.4026
-1.5083 -6.1465 2.4026
-1.3598 -6.1816 2.4026
-1.2104 -6.2130 2.4026
-1.0603 -6.2407 2.4026
-0.9096 -6.2648 2.4026
-0.7583 -6.2851 2.4026
-0.6066 -6.3017 2.4026
-0.4544 -6.3147 2.4026
-0.3021 -6.3238 2.4026
-0.1495 -6.3292 2.4026
0.0031 -6.3309 2.4026
0.1558 -6.3289 2.4026
0.3083 -6.3230 2.4026
0.4607 -6.3135 2.4026
0.6127 -6.3002 2.4026
0.7644 -6.2832 2.4026
0.9156 -6.2625 2.4026
1.0662 -6.2381 2.4026
1.2162 -6.2100 2.4026
1.3655 -6.1782 2.4026
1.5139 -6.1428 2.4026
1.6614 -6.1037 2.4026
1.8078 -6.0611 2.4026
1.8901 -5.8206 2.3250
2.0072 -5.7088 2.2993
2.1439 -5.6578 2.2993
2.2794 -5.6035 2.2993
2.4134 -5.5459 2.2993
2.0306 -4.3748 1.8339
2.0525 -4.1563 1.7629
2.0598 -3.9295 1.6876
2.0417 -3.6764 1.6000
2.0775 -3.5372 1.5611
2.1405 -3.4510 1.5458
2.2899 -3.5005 1.5926
3.4262 -4.9715 2.2993
3.5442 -4.8861 2.2993
3.6600 -4.7980 2.2993
3.7737 -4.7070 2.2993
3.8851 -4.6133 2.2993
3.9941 -4.5169 2.2993
4.1007 -4.4180 2.2993
4.2048 -4.3165 2.2993
4.3064 -4.2124 2.2993
4.4054 -4.1060 2.2993
4.5018 -3.9973 2.2993
4.5954 -3.8862 2.2993
4.6863 -3.7729 2.2993
4.7744 -3.6575 2.2993
4.8596 -3.5400 2.2993
4.9418 -3.4205 2.2993
4.9247 -3.2357 2.2552
4.8907 -3.0469 2.2061
4.8651 -2.8703 2.1634
4.8407 -2.7006 2.1238
4.8176 -2.5372 2.0869
4.7955 -2.3795 2.0526
4.7745 -2.2271 2.0208
4.7300 -2.0688 1.9810
4.6858 -1.9160 1.9433
4.6784 -1.7824 1.9225
4.7514 -1.6800 1.9361
4.8288 -1.5773 1.9523
4.9384 -1.4821 1.9824
5.0514 -1.3839 2.0145
5.1679 -1.2825 2.0489
5.2884 -1.1775 2.0856
5.4131 -1.0688 2.1249
5.4668 -0.9428 2.1372
5.5017 -0.8125 2.1435
5.5368 -0.6814 2.1510
5.5540 -0.5477 2.1528
5.5651 -0.4133 2.1535
5.5763 -0.2789 2.1555
5.5876 -0.1442 2.1588
5.5991 -0.0091 2.1634
5.7218 0.1290 2.2122
5.6442 0.2638 2.1850
5.5044 0.3908 2.1348
5.4371 0.5184 2.1137
5.3701 0.6433 2.0940
5.3009 0.7654 2.0745
5.2654 0.8907 2.0693
5.2565 1.0205 2.0757
5.2471 1.1510 2.0832
5.2373 1.2823 2.0918
5.2584 1.4231 2.1142
5.2849 1.5684 2.1403
5.3264 1.7219 2.1742
5.3703 1.8807 2.2109
5.3948 2.0370 2.2415
5.3902 2.1856 2.2617
5.3540 2.3233 2.2703
5.3013 2.4544 2.2733
5.2202 2.5720 2.2653
5.1673 2.7032 2.2709
5.1566 2.8586 2.2968
5.0898 2.9848 2.2993
5.0144 3.1060 2.2993
4.9361 3.2253 2.2993
4.8550 3.3427 2.2993
4.7712 3.4580 2.2993
4.6846 3.5714 2.2993
4.5954 3.6825 2.2993
4.5035 3.7915 2.2993
4.4092 3.8982 2.2993
4.3123 4.0026 2.2993
4.2129 4.1046 2.2993
4.1112 4.2042 2.2993
4.0072 4.3013 2.2993
3.9009 4.3959 2.2993
3.7923 4.4879 2.2993
3.6817 4.5773 2.2993
3.5689 4.6639 2.2993
3.4542 4.7479 2.2993
3.3375 4.8290 2.2993
2.1845 3.3303 1.5604
2.1544 3.4645 1.5987
2.1776 3.6985 1.6822
2.1821 3.9203 1.7588
2.1648 4.1210 1.8252
2.6002 5.2553 2.2993
2.4718 5.3159 2.2993
2.3420 5.3733 2.2993
2.2262 5.4652 2.3152
2.0786 5.4789 2.2993
2.0200 5.7401 2.3880
1.8917 5.8220 2.4026
1.7500 5.8655 2.4026
1.6073 5.9056 2.4026
1.4637 5.9423 2.4026
1.3192 5.9755 2.4026
1.1741 6.0053 2.4026
1.0282 6.0317 2.4026
0.8818 6.0545 2.4026
0.7349 6.0739 2.4026
0.5876 6.0897 2.4026
0.4399 6.1021 2.4026
0.2920 6.1109 2.4026
0.1439 6.1162 2.4026
-0.0042 6.1180 2.4026
-0.1524 6.1162 2.4026
-0.3005 6.1109 2.4026
-0.4484 6.1021 2.4026
-0.5961 6.0898 2.4026
-0.7434 6.0739 2.4026
-0.8904 6.0546 2.4026
-1.0368 6.0318 2.4026
-1.1827 6.0054 2.4026
-1.3279 5.9756 2.4026
-1.4724 5.9424 2.4026
-1.6160 5.9057 2.4026
-1.7588 5.8656 2.4026
-1.9006 5.8221 2.4026
-2.0413 5.7752 2.4026
-2.1809 5.7250 2.4026
-2.3193 5.6715 2.4026
-2.4563 5.6146 2.4026
-2.5920 5.5545 2.4026
-2.7263 5.4912 2.4026
-2.8590 5.4247 2.4026
-2.9901 5.3550 2.4026
-3.1196 5.2822 2.4026
-3.2473 5.2063 2.4026
-3.3732 5.1274 2.4026
-3.4971 5.0455 2.4026
-3.6192 4.9606 2.4026
-3.7391 4.8728 2.4026
-3.8570 4.7821 2.4026
-3.9727 4.6887 2.4026
-4.0862 4.5924 2.4026
-4.1974 4.4935 2.4026
-4.3062 4.3919 2.4026
-4.4125 4.2877 2.4026
-4.5164 4.1810 2.4026
-4.6177 4.0718 2.4026
-4.7164 3.9601 2.4026
-4.8124 3.8461 2.4026
-4.9057 3.7298 2.4026
-4.9962 3.6112 2.4026
-5.0839 3.4905 2.4026
-5.1686 3.3677 2.4026
-5.2504 3.2428 2.4026
-5.3293 3.1160 2.4026
-5.4051 2.9873 2.4026
-5.4778 2.8567 2.4026
-5.5473 2.7244 2.4026
-5.6137 2.5905 2.4026
-5.6769 2.4549 2.4026
-5.7368 2.3178 2.4026
-5.7935 2.1792 2.4026
-5.8468 2.0393 2.4026
-5.8967 1.8981 2.4026
-5.9432 1.7557 2.4026
-5.9863 1.6121 2.4026
-6.0260 1.4675 2.4026
-6.0622 1.3220 2.4026
-6.0803 1.1727 2.3968
-6.0820 1.0213 2.3861
-6.0838 0.8709 2.3769
-6.0856 0.7216 2.3691
-6.0873 0.5730 2.3627
-6.0891 0.4250 2.3578
-6.0908 0.2774 2.3542
-6.0925 0.1301 2.3520
-6.0943 -0.0171 2.3511
-6.0960 -0.1645 2.3517
-6.0978 -0.3121 2.3536
-6.0995 -0.4601 2.3569
-6.1012 -0.6088 2.3616
-6.1030 -0.7583 2.3677
-6.1048 -0.9087 2.3753
-6.1066 -1.0603 2.3843
-6.1084 -1.2133 2.3947
-6.0997 -1.3655 2.4026
-6.0673 -1.5130 2.4026
-6.0314 -1.6597 2.4026
-5.9920 -1.8056 2.4026
-5.9489 -1.9505 2.4026
-5.9024 -2.0943 2.4026
-5.8523 -2.2371 2.4026
-5.7988 -2.3786 2.4026
-5.7419 -2.5189 2.4026
-5.6815 -2.6577 2.4026
-5.6178 -2.7951 2.4026
-5.5507 -2.9310 2.4026
-5.4803 -3.0652 2.4026
-5.4066 -3.1977 2.4026
-5.3297 -3.3284 2.4026
-5.2496 -3.4572 2.4026
-5.1664 -3.5841 2.4026
-5.0801 -3.7089 2.4026
-4.9907 -3.8317 2.4026
-4.8983 -3.9522 2.4026
-4.6476 -3.9392 2.4026
-4.5525 -4.0513 2.4026
-4.4547 -4.1612 2.4026
-4.3543 -4.2686 2.4026
-4.2512 -4.3736 2.4026
-4.1456 -4.4761 2.4026
-4.0375 -4.5760 2.4026
-3.9269 -4.6732 2.4026
-3.8140 -4.7678 2.4026
-3.6988 -4.8595 2.4026
-3.5813 -4.9484 2.4026
-3.4617 -5.0345 2.4026
-3.3400 -5.1176 2.4026
-3.2162 -5.1977 2.4026
-3.0906 -5.2748 2.4026
-2.9630 -5.3488 2.4026
-2.8337 -5.4196 2.4026
-2.7026 -5.4873 2.4026
-2.5699 -5.5518 2.4026
-2.4357 -5.6130 2.4026
-2.3000 -5.6709 2.4026
-2.1628 -5.7254 2.4026
-2.0244 -5.7766 2.4026
-1.8847 -5.8244 2.4026
-1.7440 -5.8688 2.4026
-1.6021 -5.9097 2.4026
-1.4593 -5.9471 2.4026
-1.3156 -5.9810 2.4026
-1.1711 -6.0114 2.4026
-1.0259 -6.0382 2.4026
-0.8800 -6.0614 2.4026
-0.7337 -6.0811 2.4026
-0.5868 -6.0972 2.4026
-0.4397 -6.1097 2.4026
-0.2923 -6.1185 2.4026
-0.1447 -6.1238 2.4026
0.0030 -6.1254 2.4026
0.1507 -6.1234 2.4026
0.2983 -6.1178 2.4026
0.4457 -6.1086 2.4026
0.5928 -6.0957 2.4026
0.7395 -6.0793 2.4026
0.8858 -6.0593 2.4026
1.0316 -6.0357 2.4026
1.1767 -6.0085 2.4026
1.3211 -5.9778 2.4026
1.4646 -5.9435 2.4026
1.6073 -5.9058 2.4026
1.7490 -5.8645 2.4026
1.8840 -5.8025 2.3954
1.9419 -5.5237 2.2993
2.0742 -5.4744 2.2993
2.2053 -5.4219 2.2993
2.3350 -5.3662 2.2993
2.4633 -5.3074 2.2993
2.0347 -4.1206 1.8063
2.0637 -3.9372 1.7475
2.0498 -3.6915 1.6603
2.0481 -3.4874 1.5906
2.1391 -3.4491 1.5966
2.2897 -3.5005 1.6458
3.3150 -4.8107 2.2993
3.4292 -4.7281 2.2993
3.5414 -4.6428 2.2993
3.6514 -4.5549 2.2993
3.7591 -4.4642 2.2993
3.8647 -4.3710 2.2993
3.9679 -4.2753 2.2993
4.0686 -4.1771 2.2993
4.1670 -4.0765 2.2993
4.2628 -3.9736 2.2993
4.3561 -3.8683 2.2993
4.4467 -3.7609 2.2993
4.5347 -3.6513 2.2993
4.6200 -3.5397 2.2993
4.7025 -3.4260 2.2993
4.7822 -3.3104 2.2993
4.8590 -3.1929 2.2993
4.9096 -3.0591 2.2885
4.8835 -2.8816 2.2440
4.8587 -2.7110 2.2027
4.8351 -2.5468 2.1643
4.8127 -2.3884 2.1286
4.7706 -2.2257 2.0864
4.7249 -2.0669 2.0448
4.6809 -1.9144 2.0059
4.6881 -1.7865 1.9907
4.7613 -1.6839 2.0047
4.8358 -1.5799 2.0202
4.9332 -1.4809 2.0461
5.0459 -1.3828 2.0792
5.1623 -1.2815 2.1146
5.2825 -1.1766 2.1525
5.4070 -1.0680 2.1929
5.4605 -0.9421 2.2056
5.4954 -0.8119 2.2120
5.5304 -0.6810 2.2197
5.5591 -0.5486 2.2262
5.5703 -0.4141 2.2269
5.5815 -0.2795 2.2289
5.5928 -0.1447 2.2323
5.6043 -0.0096 2.2371
5.7226 0.1286 2.2858
5.5846 0.2607 2.2334
5.4488 0.3865 2.1831
5.3826 0.5128 2.1618
5.3168 0.6366 2.1417
5.2561 0.7586 2.1249
5.2442 0.8868 2.1290
5.2352 1.0160 2.1355
5.2258 1.1459 2.1432
5.2160 1.2767 2.1520
5.2309 1.4153 2.1725
5.2571 1.5597 2.1992
5.3280 1.7220 2.2465
5.3625 1.8775 2.2804
5.3576 2.0225 2.2993
5.3052 2.1508 2.2993
5.2497 2.2776 2.2993
5.1912 2.4031 2.2993
5.1297 2.5270 2.2993
5.0653 2.6495 2.2993
4.9980 2.7703 2.2993
4.9279 2.8894 2.2993
4.8549 3.0068 2.2993
4.7792 3.1223 2.2993
4.7007 3.2360 2.2993
4.6196 3.3477 2.2993
4.5358 3.4575 2.2993
4.4494 3.5651 2.2993
4.3605 3.6707 2.2993
4.2692 3.7740 2.2993
4.1754 3.8752 2.2993
4.0792 3.9740 2.2993
3.9808 4.0704 2.2993
3.8801 4.1645 2.2993
3.7772 4.2561 2.2993
3.6721 4.3452 2.2993
2.4443 3.0386 1.5765
2.3268 3.0404 1.5481
2.2486 3.0904 1.5457
3.2318 4.6757 2.2993
2.1555 3.2858 1.5901
2.1608 3.4745 1.6559
2.1862 3.7129 1.7441
2.1613 3.8826 1.7990
2.3593 4.4908 2.0541
2.5179 5.0886 2.2993
2.3936 5.1472 2.2993
2.2679 5.2029 2.2993
2.1410 5.2556 2.2993
