ply
format ascii 1.0
element vertex 2177
property float32 x
property float32 y
property float32 z
end_header
6.3414 -0.4653 1.4506
6.2624 -0.3076 1.4313
6.1856 -0.1542 1.4134
6.1108 -0.0046 1.3968
6.0378 0.1414 1.3814
5.9665 0.2841 1.3672
5.8482 0.4204 1.3429
5.5269 0.5318 1.2725
5.1973 0.6272 1.2005
4.9093 0.7132 1.1384
4.8946 0.8323 1.1400
4.8798 0.9517 1.1423
4.8651 1.0715 1.1453
4.8384 1.1890 1.1462
4.8103 1.3062 1.1474
4.7823 1.4235 1.1493
4.7543 1.5413 1.1519
4.7263 1.6595 1.1552
4.6982 1.7783 1.1592
4.6831 1.9033 1.1672
4.6712 2.0314 1.1768
4.6593 2.1617 1.1873
4.6473 2.2942 1.1987
4.6352 2.4294 1.2111
4.6912 2.6052 1.2425
4.8323 2.8386 1.2984
5.1283 3.1817 1.3989
5.4376 3.5585 1.5071
5.4279 3.7428 1.5299
5.4588 3.9622 1.5659
5.4915 4.1925 1.6047
5.5238 4.4326 1.6458
5.5443 4.6739 1.6859
5.8439 5.1734 1.8154
5.7091 5.3058 1.8137
5.5865 5.4495 1.8169
5.4849 5.6157 1.8283
5.4040 5.8075 1.8484
5.3082 5.9887 1.8654
5.3084 6.2891 1.9191
5.3788 6.6945 2.0033
5.3786 7.0364 2.0668
5.2990 7.2913 2.1042
5.1943 7.5233 2.1350
5.3947 8.2327 2.2993
5.1923 8.3582 2.2993
4.9871 8.4788 2.2993
4.7791 8.5945 2.2993
4.5686 8.7052 2.2993
4.3555 8.8109 2.2993
4.1400 8.9116 2.2993
3.9223 9.0070 2.2993
3.7024 9.0973 2.2993
3.4805 9.1824 2.2993
3.2567 9.2622 2.2993
2.0976 6.4610 1.5911
2.1270 7.1348 1.7441
2.5752 9.4696 2.2993
2.2896 9.3027 2.2450
2.1135 9.5808 2.2993
1.9495 9.9793 2.3832
1.7212 10.1044 2.4026
1.4761 10.1424 2.4026
1.2302 10.1746 2.4026
0.9836 10.2011 2.4026
0.7365 10.2217 2.4026
0.4890 10.2365 2.4026
0.2411 10.2454 2.4026
-0.0068 10.2486 2.4026
-0.2548 10.2458 2.4026
-0.5027 10.2373 2.4026
-0.7503 10.2229 2.4026
-0.9975 10.2026 2.4026
-1.2442 10.1766 2.4026
-1.4903 10.1447 2.4026
-1.7355 10.1070 2.4026
-1.9799 10.0636 2.4026
-2.2232 10.0144 2.4026
-2.4653 9.9595 2.4026
-2.7060 9.8988 2.4026
-2.9454 9.8325 2.4026
-3.1831 9.7606 2.4026
-3.4191 9.6830 2.4026
-3.6533 9.5999 2.4026
-3.8855 9.5112 2.4026
-4.1157 9.4171 2.4026
-4.3436 9.3175 2.4026
-4.5691 9.2126 2.4026
-4.7922 9.1023 2.4026
-5.0127 8.9867 2.4026
-5.2305 8.8659 2.4026
-5.4454 8.7400 2.4026
-5.6573 8.6089 2.4026
-5.8662 8.4728 2.4026
-6.0719 8.3318 2.4026
-6.1045 7.9644 2.3376
-6.1954 7.6903 2.2995
-6.3823 7.5415 2.2995
-6.5658 7.3882 2.2995
-6.7457 7.2306 2.2995
-6.9218 7.0687 2.2995
-7.0942 6.9025 2.2995
-7.2626 6.7322 2.2995
-7.4270 6.5579 2.2995
-7.5873 6.3796 2.2995
-7.7434 6.1975 2.2995
-7.8952 6.0116 2.2995
-8.0426 5.8221 2.2995
-8.1855 5.6290 2.2995
-8.3239 5.4324 2.2995
-8.4576 5.2325 2.2995
-8.5865 5.0294 2.2995
-8.7106 4.8231 2.2995
-8.8299 4.6138 2.2995
-8.9442 4.4016 2.2995
-9.0534 4.1866 2.2995
-9.1575 3.9689 2.2995
-9.2564 3.7487 2.2995
-9.3501 3.5260 2.2995
-9.4385 3.3010 2.2995
-9.5215 3.0738 2.2995
-9.5991 2.8446 2.2995
-9.6712 2.6134 2.2995
-9.7377 2.3804 2.2995
-9.7987 2.1457 2.2995
-9.8541 1.9095 2.2995
-9.9038 1.6719 2.2995
-9.9477 1.4330 2.2995
-9.9860 1.1929 2.2995
-10.0184 0.9519 2.2995
-10.0451 0.7100 2.2995
-10.0659 0.4674 2.2995
-10.0808 0.2242 2.2995
-10.0899 -0.0195 2.2995
-10.0931 -0.2634 2.2995
-10.0904 -0.5075 2.2995
-10.0818 -0.7517 2.2995
-10.0672 -0.9957 2.2995
-10.0467 -1.2394 2.2995
-10.0203 -1.4827 2.2995
-9.9880 -1.7254 2.2995
-9.9498 -1.9674 2.2995
-9.9057 -2.2086 2.2995
-9.8557 -2.4488 2.2995
-9.7998 -2.6878 2.2995
-9.7381 -2.9255 2.2995
-9.6706 -3.1618 2.2995
-9.5973 -3.3965 2.2995
-9.5182 -3.6295 2.2995
-9.4335 -3.8607 2.2995
-9.3430 -4.0898 2.2995
-9.2470 -4.3167 2.2995
-9.1454 -4.5414 2.2995
-9.0382 -4.7636 2.2995
-8.9256 -4.9833 2.2995
-8.8076 -5.2003 2.2995
-8.6842 -5.4144 2.2995
-8.5555 -5.6255 2.2995
-8.4217 -5.8335 2.2995
-8.2827 -6.0383 2.2995
-8.1387 -6.2397 2.2995
-7.9896 -6.4376 2.2995
-7.4475 -6.3039 2.2995
-7.2965 -6.4848 2.2995
-7.1410 -6.6620 2.2995
-6.9812 -6.8354 2.2995
-6.8170 -7.0049 2.2995
-6.6487 -7.1704 2.2995
-6.4763 -7.3317 2.2995
-6.2999 -7.4888 2.2995
-6.1513 -7.6811 2.3114
-6.1435 -8.0628 2.3800
-6.0055 -8.2894 2.4026
-5.8057 -8.4348 2.4026
-5.6023 -8.5752 2.4026
-5.3954 -8.7107 2.4026
-5.1851 -8.8410 2.4026
-4.9717 -8.9661 2.4026
-4.7551 -9.0860 2.4026
-4.5356 -9.2004 2.4026
-4.3133 -9.3095 2.4026
-4.0884 -9.4130 2.4026
-3.8608 -9.5110 2.4026
-3.6309 -9.6033 2.4026
-3.3988 -9.6899 2.4026
-3.1645 -9.7708 2.4026
-2.9283 -9.8459 2.4026
-2.6902 -9.9151 2.4026
-2.4505 -9.9784 2.4026
-2.2092 -10.0357 2.4026
-1.9666 -10.0870 2.4026
-1.7227 -10.1324 2.4026
-1.4778 -10.1717 2.4026
-1.2320 -10.2049 2.4026
-0.9855 -10.2320 2.4026
-0.7383 -10.2530 2.4026
-0.4907 -10.2678 2.4026
-0.2428 -10.2765 2.4026
0.0053 -10.2791 2.4026
0.2533 -10.2756 2.4026
0.5012 -10.2659 2.4026
0.7487 -10.2500 2.4026
0.9957 -10.2281 2.4026
1.2421 -10.2000 2.4026
1.4877 -10.1658 2.4026
1.7323 -10.1256 2.4026
1.9062 -9.7239 2.3178
2.1229 -9.5962 2.2993
2.3534 -9.5404 2.2993
2.5824 -9.4790 2.2993
2.8098 -9.4120 2.2993
2.2551 -6.9383 1.7082
2.4417 -6.9382 1.7226
3.4808 -9.1775 2.2993
3.7003 -9.0884 2.2993
3.9175 -8.9939 2.2993
4.1322 -8.8941 2.2993
4.3443 -8.7891 2.2993
4.5537 -8.6789 2.2993
4.7602 -8.5636 2.2993
4.9638 -8.4433 2.2993
5.1643 -8.3181 2.2993
5.1395 -7.8488 2.2041
5.1614 -7.4818 2.1362
5.2434 -7.2213 2.0982
5.3084 -6.9515 2.0573
5.3795 -6.7027 2.0224
5.3135 -6.3026 1.9406
5.2558 -5.9373 1.8675
5.2774 -5.6792 1.8267
5.2999 -5.4343 1.7894
2.1328 -2.0838 0.7032
2.2342 -2.0798 0.7202
5.5109 -4.8872 1.7389
5.6115 -4.7394 1.7349
5.6659 -4.5556 1.7180
5.7051 -4.3646 1.6984
5.7434 -4.1780 1.6801
5.7739 -3.9906 1.6612
5.8242 -3.8209 1.6496
5.8771 -3.6557 1.6400
5.9295 -3.4926 1.6315
5.9744 -3.3274 1.6222
6.0140 -3.1617 1.6127
6.0535 -2.9981 1.6043
6.0916 -2.8359 1.5967
6.1291 -2.6752 1.5901
6.1666 -2.5161 1.5845
6.2041 -2.3582 1.5800
6.2417 -2.2015 1.5765
6.2918 -2.0497 1.5771
6.3444 -1.8986 1.5793
6.3977 -1.7473 1.5826
6.4534 -1.5960 1.5873
6.5215 -1.4467 1.5960
6.5911 -1.2959 1.6059
6.6621 -1.1434 1.6170
6.6569 -0.9776 1.6106
6.5141 -0.7964 1.5719
6.4271 -0.6285 1.5477
6.3456 -0.4661 1.5259
6.2666 -0.3083 1.5056
6.1896 -0.1547 1.4867
6.1147 -0.0050 1.4692
6.0416 0.1411 1.4529
5.9702 0.2839 1.4379
5.8661 0.4212 1.4157
5.5345 0.5321 1.3393
5.1991 0.6270 1.2622
4.9104 0.7130 1.1966
4.8956 0.8322 1.1983
4.8809 0.9516 1.2007
4.8661 1.0714 1.2038
4.8458 1.1904 1.2063
4.8177 1.3078 1.2075
4.7896 1.4254 1.2095
4.7616 1.5433 1.2122
4.7335 1.6617 1.2156
4.7054 1.7807 1.2198
4.6929 1.9070 1.2289
4.6812 2.0354 1.2390
4.6693 2.1659 1.2501
4.6573 2.2988 1.2621
4.6453 2.4343 1.2751
4.6331 2.5726 1.2891
4.7640 2.7981 1.3447
5.0078 3.1066 1.4350
5.3921 3.5283 1.5699
5.4558 3.7616 1.6153
5.4875 3.9826 1.6535
5.5105 4.2065 1.6914
5.5302 4.4373 1.7307
5.5509 4.6790 1.7729
5.7853 5.1210 1.8876
5.6644 5.2638 1.8900
5.5427 5.4064 1.8933
5.4289 5.5579 1.9005
5.3483 5.7471 1.9212
5.2665 5.9412 1.9437
5.2920 6.2691 2.0092
5.3682 6.6808 2.0997
5.3593 7.0105 2.1627
5.2599 7.2368 2.1933
5.1516 7.4610 2.2235
5.1373 7.8393 2.2993
4.9447 7.9589 2.2993
4.7493 8.0739 2.2993
4.5513 8.1842 2.2993
4.3508 8.2898 2.2993
4.1479 8.3905 2.2993
3.9428 8.4864 2.2993
3.7355 8.5775 2.2993
2.3945 5.8833 1.5614
2.2356 5.8974 1.5507
2.1161 6.0177 1.5686
2.1161 6.5176 1.6854
2.0985 7.0390 1.8068
2.4526 9.0184 2.2993
2.2334 9.0740 2.2993
2.0130 9.1244 2.2993
1.8719 9.5814 2.4026
1.6393 9.6231 2.4026
1.4059 9.6594 2.4026
1.1717 9.6901 2.4026
0.9368 9.7153 2.4026
0.7014 9.7350 2.4026
0.4657 9.7490 2.4026
0.2296 9.7576 2.4026
-0.0065 9.7605 2.4026
-0.2427 9.7579 2.4026
-0.4788 9.7497 2.4026
-0.7147 9.7360 2.4026
-0.9501 9.7167 2.4026
-1.1851 9.6918 2.4026
-1.4194 9.6614 2.4026
-1.6530 9.6255 2.4026
-1.8857 9.5840 2.4026
-2.1174 9.5371 2.4026
-2.3479 9.4847 2.4026
-2.5772 9.4269 2.4026
-2.8051 9.3636 2.4026
-3.0315 9.2950 2.4026
-3.2563 9.2211 2.4026
-3.4793 9.1418 2.4026
-3.7004 9.0573 2.4026
-3.9195 8.9675 2.4026
-4.1365 8.8725 2.4026
-4.3512 8.7725 2.4026
-4.5636 8.6673 2.4026
-4.7735 8.5571 2.4026
-4.9808 8.4420 2.4026
-5.1854 8.3219 2.4026
-5.3871 8.1969 2.4026
-5.5859 8.0672 2.4026
-5.7816 7.9328 2.4026
-5.9742 7.7937 2.4026
-6.1027 7.5746 2.3789
-6.1121 7.2215 2.3128
-6.2515 7.0338 2.2995
-6.4226 6.8836 2.2995
-6.5902 6.7293 2.2995
-6.7541 6.5709 2.2995
-6.9143 6.4086 2.2995
-7.0707 6.2426 2.2995
-7.2231 6.0727 2.2995
-7.3715 5.8992 2.2995
-7.5158 5.7221 2.2995
-7.6560 5.5415 2.2995
-7.7918 5.3576 2.2995
-7.9233 5.1704 2.2995
-8.0504 4.9799 2.2995
-8.1729 4.7864 2.2995
-8.2908 4.5900 2.2995
-8.4041 4.3906 2.2995
-8.5126 4.1886 2.2995
-8.6163 3.9838 2.2995
-8.7152 3.7765 2.2995
-8.8091 3.5668 2.2995
-8.8980 3.3548 2.2995
-8.9819 3.1406 2.2995
-9.0606 2.9243 2.2995
-9.1341 2.7061 2.2995
-9.2025 2.4861 2.2995
-9.2655 2.2643 2.2995
-9.3233 2.0409 2.2995
-9.3757 1.8161 2.2995
-9.4226 1.5900 2.2995
-9.4642 1.3627 2.2995
-9.5003 1.1343 2.2995
-9.5309 0.9049 2.2995
-9.5559 0.6748 2.2995
-9.5755 0.4439 2.2995
-9.5894 0.2126 2.2995
-9.5977 -0.0192 2.2995
-9.6005 -0.2512 2.2995
-9.5976 -0.4834 2.2995
-9.5891 -0.7156 2.2995
-9.5750 -0.9476 2.2995
-9.5552 -1.1794 2.2995
-9.5298 -1.4107 2.2995
-9.4988 -1.6415 2.2995
-9.4622 -1.8717 2.2995
-9.4199 -2.1010 2.2995
-9.3721 -2.3293 2.2995
-9.3187 -2.5565 2.2995
-9.2597 -2.7825 2.2995
-9.1953 -3.0071 2.2995
-9.1253 -3.2302 2.2995
-9.0499 -3.4516 2.2995
-8.9691 -3.6712 2.2995
-8.8828 -3.8890 2.2995
-8.7913 -4.1046 2.2995
-8.6944 -4.3181 2.2995
-8.5923 -4.5293 2.2995
-8.4850 -4.7380 2.2995
-8.3726 -4.9441 2.2995
-8.2551 -5.1475 2.2995
-8.1326 -5.3481 2.2995
-8.0052 -5.5457 2.2995
-7.8729 -5.7402 2.2995
-7.7358 -5.9315 2.2995
-7.5940 -6.1194 2.2995
-7.0942 -6.0054 2.2995
-6.9502 -6.1776 2.2995
-6.8019 -6.3463 2.2995
-6.6495 -6.5113 2.2995
-6.4931 -6.6727 2.2995
-6.3332 -6.8307 2.2997
-6.1683 -6.9837 2.2995
-6.1415 -7.3011 2.3536
-6.0897 -7.6049 2.4026
-5.9064 -7.7523 2.4026
-5.7196 -7.8953 2.4026
-5.5291 -8.0336 2.4026
-5.3353 -8.1673 2.4026
-5.1382 -8.2961 2.4026
-4.9379 -8.4201 2.4026
-4.7346 -8.5392 2.4026
-4.5283 -8.6532 2.4026
-4.3193 -8.7621 2.4026
-4.1075 -8.8659 2.4026
-3.8932 -8.9644 2.4026
-3.6766 -9.0576 2.4026
-3.4576 -9.1454 2.4026
-3.2365 -9.2278 2.4026
-3.0134 -9.3047 2.4026
-2.7884 -9.3762 2.4026
-2.5617 -9.4420 2.4026
-2.3334 -9.5022 2.4026
-2.1037 -9.5567 2.4026
-1.8726 -9.6056 2.4026
-1.6404 -9.6487 2.4026
-1.4072 -9.6861 2.4026
-1.1732 -9.7177 2.4026
-0.9384 -9.7435 2.4026
-0.7030 -9.7635 2.4026
-0.4673 -9.7776 2.4026
-0.2312 -9.7859 2.4026
0.0050 -9.7884 2.4026
0.2412 -9.7850 2.4026
0.4772 -9.7758 2.4026
0.7129 -9.7608 2.4026
0.9481 -9.7399 2.4026
1.1827 -9.7132 2.4026
1.4166 -9.6807 2.4026
1.6495 -9.6425 2.4026
1.8815 -9.5985 2.4026
2.0214 -9.1384 2.2993
2.2409 -9.0854 2.2993
2.4591 -9.0270 2.2993
2.6756 -8.9633 2.2993
2.2537 -6.9347 1.7927
2.4402 -6.9345 1.8078
3.3147 -8.7403 2.2993
3.5238 -8.6555 2.2993
3.7306 -8.5657 2.2993
3.9351 -8.4708 2.2993
4.1372 -8.3709 2.2993
4.3367 -8.2660 2.2993
4.5335 -8.1564 2.2993
4.7274 -8.0419 2.2993
4.9184 -7.9227 2.2993
5.0854 -7.7669 2.2899
5.1315 -7.4390 2.2299
5.2180 -7.1870 2.1923
5.3029 -6.9449 2.1577
5.3573 -6.6758 2.1145
5.2848 -6.2692 2.0264
5.2388 -5.9186 1.9542
5.2637 -5.6651 1.9128
5.2925 -5.4273 1.8759
2.2260 -2.1750 0.7705
2.2994 -2.1407 0.7781
5.4989 -4.8771 1.8214
5.5903 -4.7220 1.8142
5.6669 -4.5569 1.8037
5.7029 -4.3634 1.7820
5.7412 -4.1768 1.7628
5.7770 -3.9932 1.7446
5.8284 -3.8241 1.7326
5.8813 -3.6588 1.7225
5.9337 -3.4956 1.7135
5.9855 -3.3341 1.7057
6.0366 -3.1740 1.6988
6.0761 -3.0098 1.6899
6.1144 -2.8470 1.6819
6.1520 -2.6857 1.6748
6.1910 -2.5265 1.6693
6.2421 -2.3731 1.6681
6.2938 -2.2203 1.6680
6.3461 -2.0678 1.6692
6.3992 -1.9154 1.6714
6.4531 -1.7629 1.6749
6.5079 -1.6100 1.6795
6.5746 -1.4589 1.6881
6.6450 -1.3069 1.6986
6.7079 -1.1517 1.7081
6.6969 -0.9839 1.6998
6.5454 -0.8006 1.6569
6.4281 -0.6291 1.6239
6.3499 -0.4669 1.6018
6.2707 -0.3089 1.5804
6.1937 -0.1552 1.5605
6.1187 -0.0054 1.5421
6.0455 0.1408 1.5249
5.9740 0.2837 1.5091
5.8842 0.4221 1.4894
5.5365 0.5319 1.4051
5.2008 0.6269 1.3241
4.9114 0.7128 1.2552
4.8967 0.8320 1.2570
4.8820 0.9515 1.2595
4.8672 1.0713 1.2627
4.8524 1.1917 1.2667
4.8251 1.3095 1.2682
4.7970 1.4272 1.2702
4.7689 1.5453 1.2730
4.7408 1.6639 1.2766
4.7146 1.7839 1.2815
4.7029 1.9107 1.2912
4.6912 2.0394 1.3018
4.6794 2.1703 1.3134
4.6675 2.3035 1.3260
4.6555 2.4393 1.3397
4.6434 2.5780 1.3544
4.6973 2.7586 1.3899
4.8922 3.0345 1.4696
5.2563 3.4391 1.6042
5.4798 3.7777 1.7007
5.4979 3.9897 1.7365
5.5168 4.2108 1.7750
5.5367 4.4420 1.8162
5.5576 4.6841 1.8605
5.7357 5.0766 1.9615
5.6203 5.2223 1.9655
5.4995 5.3637 1.9689
5.3778 5.5050 1.9732
5.2934 5.6876 1.9929
5.2387 5.9093 2.0263
5.2558 6.2257 2.0913
5.3526 6.6609 2.1941
5.3391 6.9836 2.2580
5.2423 7.2121 2.2909
5.0832 7.3614 2.2993
4.9022 7.4800 2.2993
4.7184 7.5942 2.2993
4.5320 7.7040 2.2993
4.3431 7.8093 2.2993
4.1519 7.9101 2.2993
3.9583 8.0064 2.2993
3.7626 8.0980 2.2993
3.5648 8.1849 2.2993
2.3947 5.8833 1.6363
2.2357 5.8974 1.6250
2.0913 5.9468 1.6245
2.1131 6.5079 1.7635
2.3291 7.8119 2.1013
2.3406 8.6061 2.2993
2.1314 8.6592 2.2993
1.9504 8.8402 2.3344
1.7864 9.1435 2.4026
1.5645 9.1834 2.4026
1.3417 9.2180 2.4026
1.1182 9.2473 2.4026
0.8941 9.2714 2.4026
0.6694 9.2902 2.4026
0.4444 9.3036 2.4026
0.2191 9.3118 2.4026
-0.0063 9.3146 2.4026
-0.2317 9.3121 2.4026
-0.4570 9.3042 2.4026
-0.6821 9.2911 2.4026
-0.9068 9.2726 2.4026
-1.1310 9.2488 2.4026
-1.3547 9.2198 2.4026
-1.5776 9.1854 2.4026
-1.7996 9.1458 2.4026
-2.0207 9.1010 2.4026
-2.2407 9.0509 2.4026
-2.4595 8.9956 2.4026
-2.6770 8.9352 2.4026
-2.8930 8.8697 2.4026
-3.1075 8.7990 2.4026
-3.3203 8.7233 2.4026
-3.5312 8.6425 2.4026
-3.7403 8.5567 2.4026
-3.9473 8.4660 2.4026
-4.1521 8.3704 2.4026
-4.3548 8.2699 2.4026
-4.5550 8.1647 2.4026
-4.7527 8.0547 2.4026
-4.9478 7.9400 2.4026
-5.1402 7.8206 2.4026
-5.3298 7.6967 2.4026
-5.5165 7.5683 2.4026
-5.7001 7.4355 2.4026
-5.8806 7.2983 2.4026
-6.0579 7.1567 2.4026
-6.1046 6.8678 2.3535
-6.1275 6.5667 2.2995
-6.2977 6.4300 2.3033
-6.4436 6.2681 2.2995
-6.5963 6.1132 2.2995
-6.7453 5.9546 2.2995
-6.8906 5.7925 2.2995
-7.0320 5.6268 2.2995
-7.1695 5.4578 2.2995
-7.3030 5.2854 2.2995
-7.4324 5.1098 2.2995
-7.5577 4.9311 2.2995
-7.6787 4.7494 2.2995
-7.7954 4.5647 2.2995
-7.9077 4.3772 2.2995
-8.0155 4.1870 2.2995
-8.1188 3.9941 2.2995
-8.2175 3.7988 2.2995
-8.3116 3.6010 2.2995
-8.4009 3.4009 2.2995
-8.4855 3.1987 2.2995
-8.5652 2.9943 2.2995
-8.6401 2.7880 2.2995
-8.7100 2.5798 2.2995
-8.7749 2.3699 2.2995
-8.8348 2.1584 2.2995
-8.8896 1.9454 2.2995
-8.9393 1.7310 2.2995
-8.9839 1.5153 2.2995
-9.0233 1.2985 2.2995
-9.0574 1.0807 2.2995
-9.0863 0.8621 2.2995
-9.1100 0.6426 2.2995
-9.1283 0.4226 2.2995
-9.1414 0.2020 2.2995
-9.1491 -0.0189 2.2995
-9.1514 -0.2401 2.2995
-9.1484 -0.4614 2.2995
-9.1401 -0.6827 2.2995
-9.1264 -0.9039 2.2995
-9.1073 -1.1247 2.2995
-9.0828 -1.3452 2.2995
-9.0530 -1.5651 2.2995
-9.0179 -1.7844 2.2995
-8.9774 -2.0029 2.2995
-8.9315 -2.2204 2.2995
-8.8804 -2.4369 2.2995
-8.8240 -2.6522 2.2995
-8.7623 -2.8661 2.2995
-8.6955 -3.0786 2.2995
-8.6234 -3.2895 2.2995
-8.5461 -3.4987 2.2995
-8.4637 -3.7061 2.2995
-8.3763 -3.9115 2.2995
-8.2838 -4.1148 2.2995
-8.1863 -4.3159 2.2995
-8.0839 -4.5146 2.2995
-7.9766 -4.7109 2.2995
-7.8645 -4.9046 2.2995
-7.7476 -5.0955 2.2995
-7.6260 -5.2836 2.2995
-7.4998 -5.4688 2.2995
-7.3691 -5.6509 2.2995
-7.2338 -5.8298 2.2995
-6.7711 -5.7325 2.2995
-6.6335 -5.8968 2.2995
-6.4919 -6.0576 2.2995
-6.3464 -6.2151 2.2995
-6.1970 -6.3689 2.2995
-6.1426 -6.6257 2.3371
-6.1406 -6.9529 2.3986
-5.9830 -7.1133 2.4026
-5.8116 -7.2581 2.4026
-5.6366 -7.3988 2.4026
-5.4582 -7.5351 2.4026
-5.2764 -7.6670 2.4026
-5.0914 -7.7944 2.4026
-4.9032 -7.9173 2.4026
-4.7120 -8.0355 2.4026
-4.5180 -8.1490 2.4026
-4.3211 -8.2577 2.4026
-4.1215 -8.3616 2.4026
-3.9195 -8.4605 2.4026
-3.7150 -8.5544 2.4026
-3.5082 -8.6433 2.4026
-3.2992 -8.7270 2.4026
-3.0882 -8.8056 2.4026
-2.8753 -8.8789 2.4026
-2.6606 -8.9470 2.4026
-2.4443 -9.0098 2.4026
-2.2264 -9.0672 2.4026
-2.0072 -9.1192 2.4026
-1.7868 -9.1657 2.4026
-1.5652 -9.2069 2.4026
-1.3427 -9.2425 2.4026
-1.1194 -9.2726 2.4026
-0.8954 -9.2972 2.4026
-0.6708 -9.3163 2.4026
-0.4458 -9.3298 2.4026
-0.2206 -9.3377 2.4026
0.0047 -9.3401 2.4026
0.2301 -9.3369 2.4026
0.4553 -9.3281 2.4026
0.6801 -9.3138 2.4026
0.9046 -9.2939 2.4026
1.1284 -9.2685 2.4026
1.3516 -9.2375 2.4026
1.5739 -9.2011 2.4026
1.7952 -9.1592 2.4026
1.9287 -8.7202 2.2993
2.1382 -8.6697 2.2993
2.3464 -8.6141 2.2993
2.5530 -8.5533 2.2993
2.2523 -6.9311 1.8777
2.4387 -6.9309 1.8934
3.1630 -8.3408 2.2993
3.3625 -8.2600 2.2993
3.5599 -8.1743 2.2993
3.7551 -8.0839 2.2993
3.9480 -7.9887 2.2993
4.1384 -7.8887 2.2993
4.3262 -7.7842 2.2993
4.5114 -7.6751 2.2993
4.6937 -7.5615 2.2993
4.8732 -7.4434 2.2993
5.0496 -7.3211 2.2993
5.2229 -7.1944 2.2993
5.2959 -6.9364 2.2579
5.3331 -6.6463 2.2056
5.2563 -6.2360 2.1118
5.2260 -5.9048 2.0426
5.2563 -5.6577 2.0012
5.2852 -5.4203 1.9627
2.2260 -2.1753 0.8072
2.2991 -2.1407 0.8151
5.5036 -4.8818 1.9098
5.5828 -4.7162 1.8981
5.6799 -4.5679 1.8939
5.7158 -4.3738 1.8710
5.7510 -4.1845 1.8498
5.7908 -4.0033 1.8319
5.8409 -3.8328 1.8188
5.8919 -3.6659 1.8076
5.9426 -3.5013 1.7976
5.9930 -3.3387 1.7888
6.0432 -3.1779 1.7813
6.0932 -3.0187 1.7750
6.1439 -2.8612 1.7701
6.1944 -2.7046 1.7662
6.2453 -2.5491 1.7636
6.2968 -2.3944 1.7623
6.3489 -2.2403 1.7622
6.4017 -2.0864 1.7633
6.4553 -1.9327 1.7657
6.5098 -1.7789 1.7693
6.5652 -1.6246 1.7742
6.6235 -1.4702 1.7809
6.6813 -1.3145 1.7884
6.7423 -1.1581 1.7977
6.7376 -0.9904 1.7906
6.6002 -0.8078 1.7494
6.4187 -0.6286 1.6977
6.3421 -0.4667 1.6750
6.2675 -0.3092 1.6537
6.1946 -0.1557 1.6340
6.1227 -0.0059 1.6154
6.0494 0.1404 1.5975
5.9778 0.2834 1.5808
5.9025 0.4230 1.5640
5.5384 0.5318 1.4714
5.2025 0.6267 1.3865
4.9125 0.7126 1.3142
4.8978 0.8319 1.3160
4.8831 0.9513 1.3186
4.8683 1.0712 1.3219
4.8534 1.1916 1.3260
4.8326 1.3112 1.3293
4.8044 1.4291 1.3314
4.7763 1.5474 1.3344
4.7482 1.6662 1.3381
4.7246 1.7873 1.3439
4.7130 1.9144 1.3541
4.7013 2.0434 1.3652
4.6896 2.1746 1.3774
4.6777 2.3082 1.3906
4.6658 2.4444 1.4049
4.6538 2.5834 1.4204
4.6417 2.7255 1.4371
4.7812 2.9653 1.5028
5.1264 3.3537 1.6371
5.4859 3.7814 1.7813
5.5041 3.9937 1.8189
5.5232 4.2152 1.8592
5.5432 4.4467 1.9024
5.5642 4.6893 1.9488
5.7033 5.0474 2.0405
5.5686 5.1737 2.0373
5.4541 5.3189 2.0427
5.3358 5.4616 2.0481
5.2417 5.6316 2.0645
5.2111 5.8776 2.1086
5.2082 6.1688 2.1679
5.3371 6.6409 2.2886
5.1974 6.7977 2.2993
5.0299 6.9193 2.2993
4.8595 7.0368 2.2993
4.6865 7.1503 2.2993
4.5108 7.2596 2.2993
4.3327 7.3646 2.2993
4.1522 7.4654 2.2993
3.9693 7.5619 2.2993
3.7843 7.6540 2.2993
3.5972 7.7416 2.2993
3.4081 7.8248 2.2993
2.3949 5.8833 1.7116
2.0920 5.5181 1.5904
2.1214 6.0322 1.7236
2.0946 6.4507 1.8284
2.3292 7.8119 2.1979
2.2379 8.2278 2.2993
2.0379 8.2786 2.2993
1.9192 8.6985 2.4026
1.7080 8.7417 2.4026
1.4958 8.7799 2.4026
1.2828 8.8130 2.4026
1.0691 8.8411 2.4026
0.8548 8.8641 2.4026
0.6400 8.8820 2.4026
0.4249 8.8949 2.4026
0.2095 8.9027 2.4026
-0.0060 8.9053 2.4026
-0.2216 8.9029 2.4026
-0.4370 8.8954 2.4026
-0.6522 8.8828 2.4026
-0.8671 8.8651 2.4026
-1.0814 8.8424 2.4026
-1.2952 8.8145 2.4026
-1.5084 8.7817 2.4026
-1.7207 8.7437 2.4026
-1.9321 8.7008 2.4026
-2.1424 8.6529 2.4026
-2.3516 8.6000 2.4026
-2.5595 8.5421 2.4026
-2.7660 8.4794 2.4026
-2.9710 8.4117 2.4026
-3.1744 8.3392 2.4026
-3.3760 8.2619 2.4026
-3.5759 8.1799 2.4026
-3.7737 8.0931 2.4026
-3.9695 8.0016 2.4026
-4.1632 7.9054 2.4026
-4.3545 7.8047 2.4026
-4.5435 7.6994 2.4026
-4.7300 7.5897 2.4026
-4.9138 7.4755 2.4026
-5.0950 7.3569 2.4026
-5.2734 7.2341 2.4026
-5.4488 7.1070 2.4026
-5.6212 6.9757 2.4026
-5.7906 6.8403 2.4026
-5.9567 6.7009 2.4026
-6.1054 6.5423 2.3970
-6.1090 6.2366 2.3375
-6.1588 5.9905 2.2995
-6.3046 5.8423 2.2995
-6.4469 5.6906 2.2995
-6.5857 5.5355 2.2995
-6.7207 5.3771 2.2995
-6.8520 5.2154 2.2995
-6.9795 5.0506 2.2995
-7.1030 4.8827 2.2995
-7.2225 4.7118 2.2995
-7.3380 4.5380 2.2995
-7.4494 4.3615 2.2995
-7.5565 4.1822 2.2995
-7.6594 4.0003 2.2995
-7.7579 3.8160 2.2995
-7.8521 3.6292 2.2995
-7.9418 3.4401 2.2995
-8.0270 3.2489 2.2995
-8.1076 3.0556 2.2995
-8.1835 2.8602 2.2995
-8.2549 2.6631 2.2995
-8.3214 2.4641 2.2995
-8.3833 2.2635 2.2995
-8.4403 2.0614 2.2995
-8.4924 1.8578 2.2995
-8.5397 1.6530 2.2995
-8.5821 1.4469 2.2995
-8.6195 1.2398 2.2995
-8.6519 1.0317 2.2995
-8.6793 0.8228 2.2995
-8.7016 0.6132 2.2995
-8.7189 0.4030 2.2995
-8.7312 0.1923 2.2995
-8.7383 -0.0187 2.2995
-8.7403 -0.2299 2.2995
-8.7373 -0.4413 2.2995
-8.7291 -0.6526 2.2995
-8.7157 -0.8638 2.2995
-8.6973 -1.0747 2.2995
-8.6737 -1.2852 2.2995
-8.6450 -1.4952 2.2995
-8.6112 -1.7045 2.2995
-8.5724 -1.9131 2.2995
-8.5284 -2.1208 2.2995
-8.4794 -2.3274 2.2995
-8.4253 -2.5329 2.2995
-8.3662 -2.7371 2.2995
-8.3022 -2.9400 2.2995
-8.2331 -3.1413 2.2995
-8.1592 -3.3409 2.2995
-8.0804 -3.5388 2.2995
-7.9967 -3.7348 2.2995
-7.9082 -3.9288 2.2995
-7.8150 -4.1207 2.2995
-7.7170 -4.3103 2.2995
-7.6144 -4.4976 2.2995
-7.5073 -4.6824 2.2995
-7.3955 -4.8645 2.2995
-7.2793 -5.0440 2.2995
-7.1587 -5.2207 2.2995
-7.0338 -5.3944 2.2995
-6.9045 -5.5650 2.2995
-6.4745 -5.4820 2.2995
-6.3429 -5.6390 2.2995
-6.2074 -5.7927 2.2995
-6.1431 -6.0166 2.3279
-6.1389 -6.3098 2.3824
-6.0376 -6.5131 2.4026
-5.8807 -6.6593 2.4026
-5.7203 -6.8016 2.4026
-5.5563 -6.9400 2.4026
-5.3890 -7.0743 2.4026
-5.2183 -7.2045 2.4026
-5.0445 -7.3306 2.4026
-4.8675 -7.4523 2.4026
-4.6876 -7.5697 2.4026
-4.5048 -7.6826 2.4026
-4.3192 -7.7910 2.4026
-4.1309 -7.8949 2.4026
-3.9401 -7.9941 2.4026
-3.7469 -8.0886 2.4026
-3.5514 -8.1783 2.4026
-3.3537 -8.2631 2.4026
-3.1539 -8.3431 2.4026
-2.9522 -8.4182 2.4026
-2.7486 -8.4882 2.4026
-2.5434 -8.5533 2.4026
-2.3366 -8.6132 2.4026
-2.1283 -8.6680 2.4026
-1.9188 -8.7177 2.4026
-1.7080 -8.7622 2.4026
-1.4963 -8.8015 2.4026
-1.2835 -8.8355 2.4026
-1.0701 -8.8643 2.4026
-0.8559 -8.8878 2.4026
-0.6413 -8.9060 2.4026
-0.4262 -8.9189 2.4026
-0.2109 -8.9265 2.4026
0.0045 -8.9288 2.4026
0.2199 -8.9258 2.4026
0.4351 -8.9174 2.4026
0.6501 -8.9037 2.4026
0.8647 -8.8847 2.4026
1.0787 -8.8605 2.4026
1.2920 -8.8309 2.4026
1.5045 -8.7961 2.4026
1.7160 -8.7561 2.4026
1.9011 -8.5960 2.3709
2.0440 -8.2883 2.2993
2.2430 -8.2352 2.2993
2.4406 -8.1772 2.2993
2.2510 -6.9274 1.9630
2.4372 -6.9272 1.9794
3.0237 -7.9742 2.2993
3.2145 -7.8971 2.2993
3.4032 -7.8153 2.2993
3.5899 -7.7289 2.2993
3.7743 -7.6379 2.2993
3.9564 -7.5425 2.2993
4.1360 -7.4426 2.2993
4.3131 -7.3384 2.2993
4.4875 -7.2299 2.2993
4.6591 -7.1171 2.2993
4.8279 -7.0002 2.2993
4.9937 -6.8793 2.2993
5.1564 -6.7543 2.2993
5.3069 -6.6142 2.2954
5.1723 -6.1369 2.1733
5.2091 -5.8862 2.1293
5.2488 -5.6502 2.0899
5.2871 -5.4228 2.0533
2.2260 -2.1755 0.8442
2.2989 -2.1408 0.8524
5.5127 -4.8904 2.0005
5.6000 -4.7313 1.9910
5.6929 -4.5789 1.9850
5.7287 -4.3842 1.9609
5.7707 -4.1994 1.9409
5.8137 -4.0196 1.9231
5.8624 -3.8475 1.9088
5.9135 -3.6799 1.8969
5.9642 -3.5146 1.8863
6.0147 -3.3513 1.8771
6.0709 -3.1930 1.8710
6.1326 -3.0387 1.8678
6.1931 -2.8846 1.8654
6.2442 -2.7269 1.8613
6.2957 -2.5701 1.8586
6.3477 -2.4142 1.8572
6.4003 -2.2588 1.8571
6.4535 -2.1038 1.8582
6.5075 -1.9488 1.8607
6.5669 -1.7949 1.8657
6.6299 -1.6411 1.8729
6.6932 -1.4862 1.8811
6.7536 -1.3293 1.8895
6.8156 -1.1712 1.8994
6.7790 -0.9970 1.8830
6.6563 -0.8152 1.8439
6.4092 -0.6281 1.7718
6.3329 -0.4665 1.7480
6.2585 -0.3092 1.7259
6.1858 -0.1559 1.7052
6.1148 -0.0063 1.6861
6.0453 0.1399 1.6683
5.9772 0.2830 1.6518
5.9103 0.4232 1.6365
5.5404 0.5316 1.5381
5.2042 0.6266 1.4493
4.9136 0.7125 1.3735
4.8989 0.8317 1.3754
4.8841 0.9512 1.3780
4.8694 1.0711 1.3815
4.8545 1.1916 1.3858
4.8396 1.3127 1.3909
4.8119 1.4310 1.3932
4.7838 1.5494 1.3963
4.7557 1.6684 1.4001
4.7347 1.7908 1.4070
4.7231 1.9182 1.4177
4.7115 2.0475 1.4293
4.6998 2.1791 1.4420
4.6881 2.3129 1.4559
4.6763 2.4495 1.4709
4.6643 2.5889 1.4871
4.6523 2.7314 1.5046
4.7013 2.9153 1.5435
5.0022 3.2720 1.6685
5.4810 3.7776 1.8590
5.5103 3.9978 1.9020
5.5295 4.2196 1.9441
5.5497 4.4515 1.9893
5.5710 4.6945 2.0379
5.6711 5.0184 2.1191
5.5173 5.1256 2.1082
5.4038 5.2693 2.1137
5.2890 5.4131 2.1202
5.2112 5.5983 2.1435
5.1835 5.8460 2.1904
5.1613 6.1126 2.2436
5.1346 6.3885 2.2993
4.9770 6.5088 2.2993
4.8166 6.6253 2.2993
4.6535 6.7380 2.2993
4.4878 6.8467 2.2993
4.3197 6.9514 2.2993
4.1491 7.0521 2.2993
3.9763 7.1487 2.2993
3.8013 7.2411 2.2993
3.6241 7.3294 2.2993
3.4449 7.4134 2.2993
3.2639 7.4931 2.2993
2.1070 5.1757 1.5724
2.1007 5.5406 1.6676
2.1003 5.9718 1.7818
2.5226 7.7684 2.2993
2.3294 7.8119 2.2951
2.1545 7.9209 2.3114
1.9558 7.9447 2.3041
1.8380 8.3303 2.4026
1.6358 8.3716 2.4026
1.4326 8.4082 2.4026
1.2286 8.4399 2.4026
1.0239 8.4668 2.4026
0.8186 8.4889 2.4026
0.6129 8.5061 2.4026
0.4069 8.5184 2.4026
0.2006 8.5258 2.4026
-0.0058 8.5284 2.4026
-0.2122 8.5261 2.4026
-0.4186 8.5189 2.4026
-0.6247 8.5068 2.4026
-0.8304 8.4898 2.4026
-1.0357 8.4680 2.4026
-1.2405 8.4413 2.4026
-1.4446 8.4098 2.4026
-1.6479 8.3734 2.4026
-1.8504 8.3322 2.4026
-2.0518 8.2863 2.4026
-2.2521 8.2356 2.4026
-2.4512 8.1801 2.4026
-2.6490 8.1199 2.4026
-2.8453 8.0551 2.4026
-3.0400 7.9856 2.4026
-3.2331 7.9115 2.4026
-3.4244 7.8328 2.4026
-3.6139 7.7496 2.4026
-3.8014 7.6619 2.4026
-3.9867 7.5698 2.4026
-4.1699 7.4732 2.4026
-4.3508 7.3723 2.4026
-4.5293 7.2671 2.4026
-4.7054 7.1577 2.4026
-4.8788 7.0441 2.4026
-5.0495 6.9263 2.4026
-5.2174 6.8045 2.4026
-5.3824 6.6787 2.4026
-5.5445 6.5490 2.4026
-5.7035 6.4154 2.4026
-5.8593 6.2780 2.4026
-6.0118 6.1368 2.4026
-6.1070 5.9395 2.3815
-6.1125 5.6637 2.3285
-6.1724 5.4477 2.2995
-6.3051 5.2991 2.2995
-6.4342 5.1473 2.2995
-6.5598 4.9924 2.2995
-6.6817 4.8345 2.2995
-6.7998 4.6737 2.2995
-6.9141 4.5100 2.2995
-7.0245 4.3436 2.2995
-7.1310 4.1745 2.2995
-7.2334 4.0028 2.2995
-7.3317 3.8286 2.2995
-7.4259 3.6521 2.2995
-7.5159 3.4732 2.2995
-7.6016 3.2922 2.2995
-7.6829 3.1091 2.2995
-7.7599 2.9240 2.2995
-7.8325 2.7369 2.2995
-7.9005 2.5482 2.2995
-7.9641 2.3577 2.2995
-8.0231 2.1657 2.2995
-8.0775 1.9722 2.2995
-8.1272 1.7773 2.2995
-8.1722 1.5813 2.2995
-8.2126 1.3841 2.2995
-8.2482 1.1858 2.2995
-8.2790 0.9867 2.2995
-8.3050 0.7868 2.2995
-8.3262 0.5862 2.2995
-8.3426 0.3850 2.2995
-8.3541 0.1835 2.2995
-8.3607 -0.0185 2.2995
-8.3625 -0.2206 2.2995
-8.3593 -0.4228 2.2995
-8.3513 -0.6250 2.2995
-8.3384 -0.8270 2.2995
-8.3205 -1.0287 2.2995
-8.2978 -1.2301 2.2995
-8.2701 -1.4309 2.2995
-8.2376 -1.6312 2.2995
-8.2002 -1.8307 2.2995
-8.1580 -2.0293 2.2995
-8.1109 -2.2269 2.2995
-8.0590 -2.4234 2.2995
-8.0023 -2.6187 2.2995
-7.9409 -2.8126 2.2995
-7.8747 -3.0051 2.2995
-7.8038 -3.1960 2.2995
-7.7283 -3.3852 2.2995
-7.6481 -3.5726 2.2995
-7.5633 -3.7581 2.2995
-7.4740 -3.9415 2.2995
-7.3802 -4.1227 2.2995
-7.2819 -4.3017 2.2995
-7.1793 -4.4784 2.2995
-7.0723 -4.6525 2.2995
-6.9610 -4.8240 2.2995
-6.8455 -4.9928 2.2995
-6.7259 -5.1588 2.2995
-6.6022 -5.3219 2.2995
-6.2013 -5.2512 2.2995
-6.1424 -5.4612 2.3249
-6.1374 -5.7279 2.3738
-6.0723 -5.9478 2.4026
-5.9291 -6.0948 2.4026
-5.7824 -6.2383 2.4026
-5.6320 -6.3782 2.4026
-5.4783 -6.5144 2.4026
-5.3212 -6.6468 2.4026
-5.1609 -6.7754 2.4026
-4.9974 -6.9000 2.4026
-4.8308 -7.0206 2.4026
-4.6613 -7.1371 2.4026
-4.4890 -7.2495 2.4026
-4.3138 -7.3575 2.4026
-4.1361 -7.4613 2.4026
-3.9558 -7.5607 2.4026
-3.7730 -7.6556 2.4026
-3.5880 -7.7460 2.4026
-3.4007 -7.8318 2.4026
-3.2114 -7.9131 2.4026
-3.0200 -7.9896 2.4026
-2.8269 -8.0614 2.4026
-2.6319 -8.1284 2.4026
-2.4354 -8.1907 2.4026
-2.2374 -8.2480 2.4026
-2.0380 -8.3005 2.4026
-1.8373 -8.3480 2.4026
-1.6355 -8.3906 2.4026
-1.4327 -8.4282 2.4026
-1.2290 -8.4608 2.4026
-1.0246 -8.4883 2.4026
-0.8196 -8.5108 2.4026
-0.6141 -8.5282 2.4026
-0.4081 -8.5406 2.4026
-0.2020 -8.5479 2.4026
0.0043 -8.5500 2.4026
0.2105 -8.5471 2.4026
0.4166 -8.5391 2.4026
0.6225 -8.5261 2.4026
0.8279 -8.5079 2.4026
1.0328 -8.4847 2.4026
1.2371 -8.4565 2.4026
1.4406 -8.4232 2.4026
1.6431 -8.3849 2.4026
1.8447 -8.3417 2.4026
1.9572 -7.9371 2.2993
2.1477 -7.8862 2.2993
2.3370 -7.8307 2.2993
2.2496 -6.9238 2.0487
2.4357 -6.9236 2.0659
2.8954 -7.6366 2.2993
3.0781 -7.5628 2.2993
3.2589 -7.4845 2.2993
3.4377 -7.4019 2.2993
3.6143 -7.3148 2.2993
3.7888 -7.2235 2.2993
3.9608 -7.1280 2.2993
4.1304 -7.0283 2.2993
4.2975 -6.9244 2.2993
4.4619 -6.8165 2.2993
4.6236 -6.7047 2.2993
4.7825 -6.5889 2.2993
4.9384 -6.4694 2.2993
5.0912 -6.3460 2.2993
5.0905 -6.0404 2.2333
5.1740 -5.8472 2.2082
5.2412 -5.6426 2.1790
5.2919 -5.4283 2.1457
2.2260 -2.1758 0.8814
2.2987 -2.1408 0.8898
5.5236 -4.9006 2.0926
5.6174 -4.7465 2.0850
5.7063 -4.5902 2.0772
5.7505 -4.4014 2.0549
5.7940 -4.2168 2.0344
5.8369 -4.0362 2.0156
5.8843 -3.8623 2.0001
5.9354 -3.6940 1.9875
5.9937 -3.5324 1.9788
6.0552 -3.3744 1.9725
6.1168 -3.2177 1.9677
6.1789 -3.0622 1.9643
6.2413 -2.9075 1.9622
6.2947 -2.7494 1.9585
6.3465 -2.5914 1.9556
6.3988 -2.4342 1.9540
6.4527 -2.2778 1.9541
6.5128 -2.1236 1.9572
6.5742 -1.9693 1.9618
6.6367 -1.8145 1.9678
6.7007 -1.6591 1.9754
6.7661 -1.5029 1.9844
6.8280 -1.3444 1.9935
6.8910 -1.1847 2.0041
6.8256 -1.0043 1.9785
6.7137 -0.8227 1.9407
6.5987 -0.6472 1.9034
6.3236 -0.4663 1.8213
6.2494 -0.3092 1.7982
6.1770 -0.1561 1.7767
6.1062 -0.0067 1.7567
6.0369 0.1393 1.7382
5.9689 0.2822 1.7210
5.8900 0.4213 1.7016
5.5424 0.5314 1.6052
5.2060 0.6264 1.5125
4.9147 0.7123 1.4332
4.9000 0.8315 1.4351
4.8852 0.9511 1.4379
4.8704 1.0710 1.4415
4.8556 1.1915 1.4459
4.8407 1.3127 1.4513
4.8195 1.4329 1.4556
4.7913 1.5515 1.4587
4.7632 1.6707 1.4627
4.7450 1.7943 1.4708
4.7334 1.9220 1.4819
4.7218 2.0517 1.4941
4.7102 2.1835 1.5074
4.6985 2.3178 1.5218
4.6868 2.4546 1.5375
4.6749 2.5944 1.5545
4.6630 2.7373 1.5728
4.6509 2.8837 1.5925
4.9471 3.2356 1.7209
5.4720 3.7710 1.9355
5.5166 4.0019 1.9858
5.5360 4.2241 2.0298
5.5563 4.4563 2.0770
5.5778 4.6997 2.1277
5.6390 4.9895 2.1973
5.4667 5.0781 2.1782
5.3541 5.2204 2.1838
5.2484 5.3711 2.1939
5.1620 5.5450 2.2140
5.1384 5.7946 2.2641
5.0728 6.0073 2.2993
4.9244 6.1264 2.2993
4.7732 6.2419 2.2993
4.6195 6.3537 2.2993
4.4631 6.4618 2.2993
4.3043 6.5661 2.2993
4.1430 6.6667 2.2993
3.9795 6.7633 2.2993
3.8138 6.8560 2.2993
3.6459 6.9447 2.2993
3.4760 7.0294 2.2993
3.3042 7.1101 2.2993
3.1306 7.1866 2.2993
2.0858 5.1235 1.6229
2.1139 5.5752 1.7495
2.0968 5.9615 1.8546
2.4196 7.4508 2.2993
2.2383 7.5062 2.2993
2.0557 7.5573 2.2993
1.9441 7.8968 2.3878
1.7630 7.9899 2.4026
1.5690 8.0295 2.4026
1.3741 8.0646 2.4026
1.1784 8.0951 2.4026
0.9821 8.1209 2.4026
0.7852 8.1421 2.4026
0.5879 8.1586 2.4026
0.3903 8.1704 2.4026
0.1924 8.1775 2.4026
-0.0056 8.1800 2.4026
-0.2036 8.1777 2.4026
-0.4015 8.1708 2.4026
-0.5992 8.1592 2.4026
-0.7966 8.1429 2.4026
-0.9935 8.1219 2.4026
-1.1899 8.0963 2.4026
-1.3857 8.0660 2.4026
-1.5807 8.0311 2.4026
-1.7749 7.9916 2.4026
-1.9681 7.9475 2.4026
-2.1602 7.8988 2.4026
-2.3512 7.8455 2.4026
-2.5408 7.7878 2.4026
-2.7291 7.7255 2.4026
-2.9159 7.6588 2.4026
-3.1010 7.5876 2.4026
-3.2845 7.5121 2.4026
-3.4662 7.4322 2.4026
-3.6460 7.3480 2.4026
-3.8237 7.2596 2.4026
-3.9994 7.1669 2.4026
-4.1728 7.0701 2.4026
-4.3440 6.9691 2.4026
-4.5127 6.8640 2.4026
-4.6790 6.7550 2.4026
-4.8427 6.6420 2.4026
-5.0036 6.5251 2.4026
-5.1618 6.4043 2.4026
-5.3172 6.2798 2.4026
-5.4696 6.1516 2.4026
-5.6189 6.0198 2.4026
-5.7651 5.8843 2.4026
-5.9081 5.7454 2.4026
-6.0478 5.6031 2.4026
-6.1084 5.3906 2.3732
-6.1146 5.1384 2.3256
-6.1696 4.9350 2.2995
-6.3019 4.7955 2.3038
-6.4067 4.6350 2.2995
-6.5198 4.4807 2.2995
-6.6293 4.3237 2.2995
-6.7351 4.1640 2.2995
-6.8370 4.0018 2.2995
-6.9351 3.8371 2.2995
-7.0292 3.6701 2.2995
-7.1193 3.5007 2.2995
-7.2054 3.3292 2.2995
-7.2875 3.1556 2.2995
-7.3653 2.9800 2.2995
-7.4390 2.8024 2.2995
-7.5084 2.6231 2.2995
-7.5735 2.4421 2.2995
-7.6342 2.2595 2.2995
-7.6906 2.0754 2.2995
-7.7426 1.8899 2.2995
-7.7901 1.7031 2.2995
-7.8331 1.5151 2.2995
-7.8716 1.3260 2.2995
-7.9056 1.1360 2.2995
-7.9349 0.9451 2.2995
-7.9597 0.7535 2.2995
-7.9799 0.5612 2.2995
-7.9954 0.3685 2.2995
-8.0062 0.1753 2.2995
-8.0124 -0.0183 2.2995
-8.0139 -0.2119 2.2995
-8.0107 -0.4057 2.2995
-8.0029 -0.5994 2.2995
-7.9903 -0.7930 2.2995
-7.9730 -0.9863 2.2995
-7.9511 -1.1792 2.2995
-7.9244 -1.3717 2.2995
-7.8931 -1.5635 2.2995
-7.8571 -1.7546 2.2995
-7.8165 -1.9449 2.2995
-7.7712 -2.1342 2.2995
-7.7213 -2.3224 2.2995
-7.6669 -2.5094 2.2995
-7.6078 -2.6952 2.2995
-7.5443 -2.8795 2.2995
-7.4762 -3.0624 2.2995
-7.4037 -3.2436 2.2995
-7.3267 -3.4230 2.2995
-7.2453 -3.6006 2.2995
-7.1597 -3.7763 2.2995
-7.0696 -3.9498 2.2995
-6.9754 -4.1212 2.2995
-6.8769 -4.2903 2.2995
-6.7743 -4.4570 2.2995
-6.6677 -4.6213 2.2995
-6.5569 -4.7829 2.2995
-6.4423 -4.9418 2.2995
-6.3283 -5.1017 2.3012
-6.1360 -5.1964 2.3719
-6.0887 -5.4141 2.4026
-5.9585 -5.5615 2.4026
-5.8246 -5.7057 2.4026
-5.6872 -5.8467 2.4026
-5.5464 -5.9842 2.4026
-5.4021 -6.1183 2.4026
-5.2546 -6.2489 2.4026
-5.1039 -6.3759 2.4026
-4.9500 -6.4991 2.4026
-4.7932 -6.6186 2.4026
-4.6334 -6.7342 2.4026
-4.4707 -6.8458 2.4026
-4.3054 -6.9535 2.4026
-4.1374 -7.0571 2.4026
-3.9668 -7.1565 2.4026
-3.7939 -7.2518 2.4026
-3.6186 -7.3428 2.4026
-3.4411 -7.4294 2.4026
-3.2615 -7.5117 2.4026
-3.0798 -7.5895 2.4026
-2.8963 -7.6629 2.4026
-2.7111 -7.7317 2.4026
-2.5241 -7.7959 2.4026
-2.3356 -7.8556 2.4026
-2.1457 -7.9105 2.4026
-1.9545 -7.9608 2.4026
-1.7620 -8.0064 2.4026
-1.5685 -8.0472 2.4026
-1.3740 -8.0832 2.4026
-1.1787 -8.1144 2.4026
-0.9827 -8.1408 2.4026
-0.7860 -8.1624 2.4026
-0.5889 -8.1791 2.4026
-0.3914 -8.1910 2.4026
-0.1937 -8.1979 2.4026
0.0041 -8.2000 2.4026
0.2019 -8.1973 2.4026
0.3995 -8.1896 2.4026
0.5969 -8.1771 2.4026
0.7939 -8.1597 2.4026
0.9904 -8.1375 2.4026
1.1863 -8.1104 2.4026
1.3815 -8.0786 2.4026
1.5758 -8.0419 2.4026
1.7691 -8.0005 2.4026
1.9068 -7.7334 2.3358
2.0597 -7.5637 2.2993
2.2412 -7.5106 2.2993
2.2482 -6.9201 2.1349
2.4342 -6.9199 2.1528
2.7769 -7.3245 2.2993
2.9521 -7.2538 2.2993
3.1255 -7.1788 2.2993
3.2970 -7.0996 2.2993
3.4665 -7.0162 2.2993
3.6338 -6.9287 2.2993
3.7989 -6.8371 2.2993
3.9616 -6.7416 2.2993
4.1219 -6.6421 2.2993
4.2797 -6.5387 2.2993
4.4348 -6.4315 2.2993
4.5872 -6.3205 2.2993
4.7368 -6.2059 2.2993
4.8835 -6.0877 2.2993
5.0272 -5.9659 2.2993
5.1392 -5.8084 2.2866
5.2215 -5.6219 2.2630
5.2995 -5.4367 2.2401
2.2261 -2.1761 0.9188
2.2985 -2.1408 0.9275
5.5346 -4.9109 2.1858
5.6351 -4.7620 2.1803
5.7453 -4.6221 2.1801
5.7712 -4.4178 2.1497
5.8154 -4.2330 2.1284
5.8591 -4.0520 2.1089
5.9094 -3.8793 2.0936
5.9744 -3.7188 2.0852
6.0391 -3.5597 2.0781
6.1017 -3.4008 2.0717
6.1637 -3.2429 2.0666
6.2261 -3.0861 2.0629
6.2890 -2.9303 2.0606
6.3463 -2.7725 2.0579
6.4035 -2.6152 2.0563
6.4623 -2.4588 2.0566
6.5221 -2.3028 2.0583
6.5830 -2.1470 2.0616
6.6451 -1.9910 2.0664
6.7085 -1.8346 2.0728
6.7734 -1.6777 2.0808
6.8399 -1.5197 2.0904
6.9033 -1.3597 2.1002
6.9634 -1.1976 2.1101
6.8866 -1.0138 2.0799
6.7725 -0.8304 2.0398
6.6636 -0.6540 2.0027
6.3143 -0.4660 1.8948
6.2404 -0.3092 1.8708
6.1682 -0.1563 1.8484
6.0976 -0.0071 1.8276
6.0284 0.1387 1.8083
5.9607 0.2814 1.7904
5.8680 0.4193 1.7660
5.5499 0.5317 1.6745
5.2078 0.6263 1.5762
4.9158 0.7121 1.4934
4.9011 0.8314 1.4953
4.8863 0.9509 1.4982
4.8715 1.0709 1.5019
4.8567 1.1914 1.5065
4.8418 1.3126 1.5120
4.8268 1.4347 1.5184
4.7989 1.5537 1.5218
4.7707 1.6730 1.5260
4.7553 1.7979 1.5352
4.7438 1.9259 1.5468
4.7323 2.0559 1.5595
4.7207 2.1880 1.5734
4.7091 2.3226 1.5885
4.6974 2.4598 1.6049
4.6857 2.6000 1.6226
4.6738 2.7433 1.6417
4.6618 2.8901 1.6623
4.9189 3.2167 1.7819
5.4630 3.7643 2.0122
5.5208 4.0045 2.0694
5.5425 4.2286 2.1162
5.5630 4.4612 2.1654
5.5846 4.7050 2.2183
5.5931 4.9483 2.2694
5.4246 5.0385 2.2507
5.3064 5.1734 2.2537
5.2176 5.3391 2.2710
5.1270 5.5069 2.2897
5.0117 5.6512 2.2993
4.8720 5.7690 2.2993
4.7295 5.8835 2.2993
4.5844 5.9944 2.2993
4.4368 6.1019 2.2993
4.2866 6.2058 2.2993
4.1341 6.3061 2.2993
3.9793 6.4027 2.2993
3.8223 6.4955 2.2993
3.6631 6.5846 2.2993
2.3691 4.5123 1.5555
2.2445 4.5386 1.5457
3.1737 6.8288 2.2993
2.0841 4.7839 1.5936
2.1159 5.1969 1.7139
2.0884 5.5075 1.7994
2.4970 7.0990 2.2993
2.3242 7.1564 2.2993
2.1546 7.2251 2.3042
1.9746 7.2587 2.2993
1.8789 7.6316 2.4026
1.6935 7.6742 2.4026
1.5071 7.7124 2.4026
1.3199 7.7461 2.4026
1.1319 7.7754 2.4026
0.9433 7.8002 2.4026
0.7542 7.8205 2.4026
0.5647 7.8364 2.4026
0.3748 7.8477 2.4026
0.1848 7.8546 2.4026
-0.0054 7.8569 2.4026
-0.1956 7.8547 2.4026
-0.3857 7.8481 2.4026
-0.5756 7.8369 2.4026
-0.7652 7.8212 2.4026
-0.9544 7.8011 2.4026
-1.1430 7.7764 2.4026
-1.3311 7.7473 2.4026
-1.5184 7.7137 2.4026
-1.7049 7.6757 2.4026
-1.8905 7.6333 2.4026
-2.0750 7.5865 2.4026
-2.2584 7.5353 2.4026
-2.4405 7.4798 2.4026
-2.6214 7.4199 2.4026
-2.8007 7.3558 2.4026
-2.9786 7.2874 2.4026
-3.1548 7.2148 2.4026
-3.3292 7.1380 2.4026
-3.5019 7.0571 2.4026
-3.6726 6.9720 2.4026
-3.8413 6.8829 2.4026
-4.0078 6.7898 2.4026
-4.1721 6.6928 2.4026
-4.3342 6.5918 2.4026
-4.4938 6.4870 2.4026
-4.6509 6.3784 2.4026
-4.8055 6.2661 2.4026
-4.9573 6.1500 2.4026
-5.1065 6.0304 2.4026
-5.2527 5.9072 2.4026
-5.3961 5.7805 2.4026
-5.5364 5.6503 2.4026
-5.6736 5.5168 2.4026
-5.8077 5.3801 2.4026
-5.9385 5.2401 2.4026
-6.0660 5.0970 2.4026
-6.1097 4.8865 2.3714
-6.1153 4.6530 2.3282
-6.1519 4.4501 2.2995
-6.2604 4.3019 2.2995
-6.3654 4.1510 2.2995
-6.4669 3.9976 2.2995
-6.5646 3.8418 2.2995
-6.6587 3.6836 2.2995
-6.7489 3.5232 2.2995
-6.8354 3.3605 2.2995
-6.9179 3.1958 2.2995
-6.9965 3.0290 2.2995
-7.0711 2.8604 2.2995
-7.1417 2.6899 2.2995
-7.2082 2.5177 2.2995
-7.2706 2.3439 2.2995
-7.3288 2.1685 2.2995
-7.3827 1.9917 2.2995
-7.4325 1.8136 2.2995
-7.4780 1.6343 2.2995
-7.5191 1.4538 2.2995
-7.5559 1.2723 2.2995
-7.5883 1.0899 2.2995
-7.6164 0.9066 2.2995
-7.6400 0.7227 2.2995
-7.6592 0.5381 2.2995
-7.6739 0.3531 2.2995
-7.6842 0.1677 2.2995
-7.6900 -0.0181 2.2995
-7.6913 -0.2040 2.2995
-7.6881 -0.3899 2.2995
-7.6804 -0.5758 2.2995
-7.6681 -0.7616 2.2995
-7.6514 -0.9471 2.2995
-7.6302 -1.1322 2.2995
-7.6045 -1.3168 2.2995
-7.5743 -1.5009 2.2995
-7.5396 -1.6842 2.2995
-7.5005 -1.8668 2.2995
-7.4569 -2.0484 2.2995
-7.4089 -2.2290 2.2995
-7.3565 -2.4084 2.2995
-7.2997 -2.5866 2.2995
-7.2386 -2.7634 2.2995
-7.1731 -2.9388 2.2995
-7.1034 -3.1126 2.2995
-7.0294 -3.2847 2.2995
-6.9513 -3.4550 2.2995
-6.8689 -3.6235 2.2995
-6.7825 -3.7899 2.2995
-6.6919 -3.9543 2.2995
-6.5974 -4.1164 2.2995
-6.4988 -4.2763 2.2995
-6.3964 -4.4338 2.2995
-6.2901 -4.5887 2.2995
-6.1800 -4.7411 2.2995
-6.1404 -4.9507 2.3276
-5.9704 -5.0567 2.4026
-5.8488 -5.2012 2.4026
-5.7236 -5.3428 2.4026
-5.5949 -5.4812 2.4026
-5.4629 -5.6165 2.4026
-5.3275 -5.7486 2.4026
-5.1889 -5.8774 2.4026
-5.0471 -6.0027 2.4026
-4.9023 -6.1246 2.4026
-4.7545 -6.2429 2.4026
-4.6038 -6.3576 2.4026
-4.4502 -6.4685 2.4026
-4.2940 -6.5757 2.4026
-4.1351 -6.6791 2.4026
-3.9737 -6.7785 2.4026
-3.8099 -6.8739 2.4026
-3.6438 -6.9654 2.4026
-3.4754 -7.0527 2.4026
-3.3049 -7.1358 2.4026
-3.1324 -7.2148 2.4026
-2.9579 -7.2895 2.4026
-2.7817 -7.3599 2.4026
-2.6037 -7.4260 2.4026
-2.4241 -7.4876 2.4026
-2.2431 -7.5449 2.4026
-2.0607 -7.5976 2.4026
-1.8770 -7.6459 2.4026
-1.6922 -7.6896 2.4026
-1.5063 -7.7288 2.4026
-1.3196 -7.7634 2.4026
-1.1320 -7.7933 2.4026
-0.9437 -7.8187 2.4026
-0.7549 -7.8394 2.4026
-0.5656 -7.8554 2.4026
-0.3760 -7.8668 2.4026
-0.1861 -7.8735 2.4026
0.0039 -7.8755 2.4026
0.1938 -7.8729 2.4026
0.3836 -7.8655 2.4026
0.5732 -7.8535 2.4026
0.7624 -7.8369 2.4026
0.9512 -7.8156 2.4026
1.1393 -7.7896 2.4026
1.3267 -7.7590 2.4026
1.5133 -7.7238 2.4026
1.6989 -7.6841 2.4026
1.8835 -7.6398 2.4026
1.9781 -7.2647 2.2993
2.1524 -7.2137 2.2993
2.2468 -6.9164 2.2216
2.4327 -6.9161 2.2401
2.6669 -7.0352 2.2993
2.8353 -6.9673 2.2993
3.0019 -6.8953 2.2993
3.1666 -6.8193 2.2993
3.3294 -6.7393 2.2993
3.4901 -6.6553 2.2993
3.6487 -6.5674 2.2993
3.8050 -6.4757 2.2993
3.9590 -6.3802 2.2993
4.1106 -6.2810 2.2993
4.2597 -6.1781 2.2993
4.4061 -6.0716 2.2993
4.5499 -5.9615 2.2993
4.6908 -5.8481 2.2993
4.8289 -5.7312 2.2993
4.9641 -5.6110 2.2993
5.0962 -5.4876 2.2993
5.2252 -5.3611 2.2993
2.2261 -2.1763 0.9565
2.2982 -2.1408 0.9654
5.4874 -4.8696 2.2559
5.5720 -4.7092 2.2442
5.6538 -4.5490 2.2332
5.7331 -4.3891 2.2229
5.8098 -4.2294 2.2133
5.8742 -4.0630 2.2008
5.9210 -3.8875 2.1835
5.9861 -3.7266 2.1746
6.0509 -3.5671 2.1672
6.1153 -3.4089 2.1611
6.1796 -3.2517 2.1564
6.2408 -3.0939 2.1521
6.2932 -2.9327 2.1461
6.3508 -2.7749 2.1433
6.4134 -2.6197 2.1434
6.4738 -2.4637 2.1441
6.5338 -2.3075 2.1459
6.5937 -2.1510 2.1490
6.6537 -1.9941 2.1532
6.7099 -1.8355 2.1575
6.7622 -1.6754 2.1617
6.8077 -1.5131 2.1650
6.8500 -1.3497 2.1685
6.8904 -1.1855 2.1727
6.9368 -1.0216 2.1800
6.8327 -0.8382 2.1414
6.7217 -0.6602 2.1020
6.3925 -0.4722 1.9959
6.2313 -0.3092 1.9437
6.1593 -0.1565 1.9204
6.0889 -0.0076 1.8988
6.0200 0.1380 1.8787
5.9524 0.2805 1.8601
5.8460 0.4173 1.8304
5.5620 0.5325 1.7459
5.2096 0.6261 1.6403
4.9169 0.7119 1.5539
4.9022 0.8312 1.5559
4.8874 0.9508 1.5588
4.8727 1.0708 1.5627
4.8578 1.1913 1.5675
4.8429 1.3126 1.5732
4.8279 1.4347 1.5799
4.8066 1.5558 1.5855
4.7784 1.6753 1.5898
4.7658 1.8015 1.6004
4.7543 1.9298 1.6124
4.7428 2.0601 1.6257
4.7313 2.1926 1.6402
4.7198 2.3275 1.6560
4.7082 2.4651 1.6730
4.6967 2.6058 1.6916
4.6863 2.7503 1.7120
4.6745 2.8976 1.7335
4.8908 3.1980 1.8426
5.4539 3.7576 2.0892
5.5114 3.9972 2.1485
5.5490 4.2331 2.2033
5.5698 4.4661 2.2546
5.5662 4.6890 2.2993
5.4492 4.8206 2.2993
5.3291 4.9493 2.2993
5.2061 5.0751 2.2993
5.0801 5.1979 2.2993
4.9512 5.3175 2.2993
4.8196 5.4341 2.2993
4.6853 5.5475 2.2993
4.5483 5.6576 2.2993
4.4088 5.7644 2.2993
4.2669 5.8678 2.2993
4.1225 5.9677 2.2993
3.9759 6.0642 2.2993
3.8270 6.1572 2.2993
3.6760 6.2466 2.2993
3.5230 6.3323 2.2993
2.3617 4.4979 1.6123
2.1993 4.4469 1.5748
2.0962 4.5100 1.5790
2.0948 4.8080 1.6654
2.1011 5.1603 1.7696
2.2676 5.9797 2.0315
2.4016 6.8273 2.2993
2.2354 6.8825 2.2993
2.0678 6.9337 2.2993
1.9421 7.1387 2.3513
1.8071 7.3397 2.4026
1.6288 7.3806 2.4026
1.4495 7.4174 2.4026
1.2695 7.4498 2.4026
1.0887 7.4780 2.4026
0.9073 7.5019 2.4026
0.7254 7.5214 2.4026
0.5431 7.5367 2.4026
0.3605 7.5476 2.4026
0.1777 7.5542 2.4026
-0.0052 7.5564 2.4026
-0.1882 7.5544 2.4026
-0.3710 7.5479 2.4026
-0.5537 7.5372 2.4026
-0.7360 7.5221 2.4026
-0.9180 7.5026 2.4026
-1.0994 7.4789 2.4026
-1.2803 7.4509 2.4026
-1.4604 7.4186 2.4026
-1.6398 7.3820 2.4026
-1.8183 7.3411 2.4026
-1.9957 7.2961 2.4026
-2.1721 7.2468 2.4026
-2.3473 7.1933 2.4026
-2.5212 7.1357 2.4026
-2.6937 7.0740 2.4026
-2.8647 7.0082 2.4026
-3.0341 6.9383 2.4026
-3.2019 6.8644 2.4026
-3.3679 6.7865 2.4026
-3.5320 6.7046 2.4026
-3.6942 6.6189 2.4026
-3.8544 6.5293 2.4026
-4.0124 6.4359 2.4026
-4.1682 6.3388 2.4026
-4.3216 6.2379 2.4026
-4.4727 6.1334 2.4026
-4.6212 6.0253 2.4026
-4.7672 5.9136 2.4026
-4.9106 5.7985 2.4026
-5.0512 5.6799 2.4026
-5.1889 5.5580 2.4026
-5.3238 5.4328 2.4026
-5.4557 5.3044 2.4026
-5.5845 5.1728 2.4026
-5.7102 5.0381 2.4026
-5.8327 4.9004 2.4026
-5.9519 4.7598 2.4026
-6.0678 4.6163 2.4026
-6.1109 4.4199 2.3756
-6.1146 4.2011 2.3359
-6.1233 3.9926 2.3006
-6.2176 3.8430 2.2995
-6.3115 3.6932 2.2995
-6.4018 3.5410 2.2995
-6.4885 3.3867 2.2995
-6.5715 3.2303 2.2995
-6.6507 3.0718 2.2995
-6.7262 2.9115 2.2995
-6.7978 2.7493 2.2995
-6.8655 2.5854 2.2995
-6.9293 2.4198 2.2995
-6.9892 2.2526 2.2995
-7.0450 2.0840 2.2995
-7.0968 1.9141 2.2995
-7.1444 1.7428 2.2995
-7.1880 1.5704 2.2995
-7.2274 1.3969 2.2995
-7.2627 1.2224 2.2995
-7.2937 1.0470 2.2995
-7.3205 0.8709 2.2995
-7.3431 0.6941 2.2995
-7.3614 0.5167 2.2995
-7.3755 0.3388 2.2995
-7.3852 0.1606 2.2995
-7.3906 -0.0179 2.2995
-7.3917 -0.1965 2.2995
-7.3885 -0.3752 2.2995
-7.3809 -0.5539 2.2995
-7.3691 -0.7324 2.2995
-7.3529 -0.9107 2.2995
-7.3323 -1.0885 2.2995
-7.3075 -1.2659 2.2995
-7.2783 -1.4428 2.2995
-7.2449 -1.6189 2.2995
-7.2071 -1.7943 2.2995
-7.1651 -1.9688 2.2995
-7.1189 -2.1422 2.2995
-7.0684 -2.3146 2.2995
-7.0137 -2.4858 2.2995
-6.9549 -2.6556 2.2995
-6.8919 -2.8241 2.2995
-6.8248 -2.9910 2.2995
-6.7536 -3.1563 2.2995
-6.6784 -3.3199 2.2995
-6.5992 -3.4817 2.2995
-6.5160 -3.6415 2.2995
-6.4289 -3.7994 2.2995
-6.3380 -3.9551 2.2995
-6.2432 -4.1086 2.2995
-6.1451 -4.2601 2.2996
-6.1373 -4.4778 2.3356
-6.1347 -4.7069 2.3762
-6.0884 -4.9093 2.4026
-5.7426 -4.8643 2.4026
-5.6255 -5.0032 2.4026
-5.5050 -5.1393 2.4026
-5.3812 -5.2724 2.4026
-5.2542 -5.4025 2.4026
-5.1239 -5.5294 2.4026
-4.9905 -5.6532 2.4026
-4.8541 -5.7737 2.4026
-4.7148 -5.8908 2.4026
-4.5726 -6.0046 2.4026
-4.4276 -6.1148 2.4026
-4.2799 -6.2214 2.4026
-4.1296 -6.3245 2.4026
-3.9768 -6.4238 2.4026
-3.8215 -6.5194 2.4026
-3.6640 -6.6111 2.4026
-3.5042 -6.6990 2.4026
-3.3422 -6.7829 2.4026
-3.1782 -6.8628 2.4026
-3.0123 -6.9387 2.4026
-2.8445 -7.0105 2.4026
-2.6750 -7.0782 2.4026
-2.5039 -7.1417 2.4026
-2.3312 -7.2009 2.4026
-2.1571 -7.2559 2.4026
-1.9817 -7.3067 2.4026
-1.8050 -7.3530 2.4026
-1.6273 -7.3951 2.4026
-1.4486 -7.4327 2.4026
-1.2690 -7.4659 2.4026
-1.0886 -7.4948 2.4026
-0.9075 -7.5191 2.4026
-0.7259 -7.5390 2.4026
-0.5439 -7.5544 2.4026
-0.3616 -7.5654 2.4026
-0.1790 -7.5718 2.4026
0.0037 -7.5738 2.4026
0.1864 -7.5712 2.4026
0.3689 -7.5642 2.4026
0.5512 -7.5527 2.4026
0.7331 -7.5367 2.4026
0.9146 -7.5162 2.4026
1.0955 -7.4912 2.4026
1.2758 -7.4619 2.4026
1.4552 -7.4281 2.4026
1.6338 -7.3899 2.4026
1.8113 -7.3473 2.4026
1.9143 -7.0308 2.3138
2.0699 -6.9376 2.2993
2.2362 -6.8845 2.2993
2.4012 -6.8273 2.2993
2.5647 -6.7661 2.2993
2.7266 -6.7009 2.2993
2.8868 -6.6317 2.2993
3.0453 -6.5587 2.2993
3.2019 -6.4818 2.2993
3.3565 -6.4010 2.2993
3.5090 -6.3166 2.2993
3.6594 -6.2284 2.2993
3.8075 -6.1366 2.2993
3.9534 -6.0412 2.2993
4.0968 -5.9423 2.2993
4.2376 -5.8400 2.2993
4.3759 -5.7342 2.2993
4.5116 -5.6252 2.2993
4.6445 -5.5128 2.2993
4.7745 -5.3973 2.2993
4.9017 -5.2787 2.2993
5.0258 -5.1570 2.2993
2.2261 -2.1766 0.9945
2.2980 -2.1409 1.0036
5.3737 -4.7692 2.2967
5.4571 -4.6126 2.2850
5.5378 -4.4563 2.2740
5.6160 -4.3000 2.2637
5.6918 -4.1440 2.2542
5.7667 -3.9892 2.2460
5.8392 -3.8343 2.2385
5.9094 -3.6793 2.2316
5.9773 -3.5243 2.2254
6.0430 -3.3691 2.2199
6.1010 -3.2108 2.2130
6.1632 -3.0559 2.2092
6.2277 -2.9027 2.2075
6.2865 -2.7473 2.2052
6.3384 -2.5896 2.2019
6.3885 -2.4317 2.1992
6.4366 -2.2737 2.1973
6.4850 -2.1160 2.1967
6.5396 -1.9604 2.1996
6.5915 -1.8036 2.2028
6.6366 -1.6447 2.2050
6.6798 -1.4852 2.2078
6.7212 -1.3248 2.2113
6.7607 -1.1637 2.2155
6.8071 -1.0030 2.2232
6.8526 -0.8411 2.2318
6.7813 -0.6665 2.2038
6.6073 -0.4886 2.1438
6.2221 -0.3092 2.0168
6.1504 -0.1568 1.9927
6.0802 -0.0080 1.9703
6.0114 0.1374 1.9495
5.9440 0.2797 1.9302
5.8240 0.4153 1.8948
5.5744 0.5332 1.8181
5.2201 0.6270 1.7078
4.9181 0.7117 1.6149
4.9033 0.8310 1.6170
4.8886 0.9507 1.6200
4.8738 1.0707 1.6240
4.8589 1.1912 1.6289
4.8440 1.3125 1.6348
4.8290 1.4347 1.6417
4.8139 1.5578 1.6497
4.7877 1.6783 1.6549
4.7763 1.8051 1.6663
4.7649 1.9337 1.6788
4.7535 2.0644 1.6927
4.7421 2.1972 1.7077
4.7318 2.3331 1.7246
4.7215 2.4717 1.7428
4.7112 2.6134 1.7626
4.7010 2.7585 1.7839
4.6707 2.8949 1.7992
4.8628 3.1793 1.9031
5.4448 3.7509 2.1665
5.5019 3.9899 2.2278
5.5557 4.2377 2.2913
5.4686 4.3845 2.2993
5.3590 4.5140 2.2993
5.2464 4.6407 2.2993
5.1309 4.7647 2.2993
5.0124 4.8858 2.2993
4.8912 5.0041 2.2993
4.7672 5.1194 2.2993
4.6405 5.2317 2.2993
4.5112 5.3409 2.2993
4.3794 5.4469 2.2993
4.2451 5.5498 2.2993
4.1084 5.6494 2.2993
3.9695 5.7458 2.2993
3.8283 5.8387 2.2993
3.6850 5.9283 2.2993
3.5397 6.0144 2.2993
3.3923 6.0970 2.2993
2.3619 4.4979 1.6746
2.1065 4.2590 1.5665
2.0816 4.4782 1.6284
2.1120 4.8473 1.7438
2.0858 5.1224 1.8243
2.2676 5.9793 2.1097
2.3126 6.5739 2.2993
2.1540 6.6315 2.3008
1.9912 6.6765 2.2993
1.9110 7.0239 2.4026
1.7402 7.0674 2.4026
1.5684 7.1069 2.4026
1.3958 7.1422 2.4026
1.2224 7.1735 2.4026
1.0484 7.2007 2.4026
0.8737 7.2237 2.4026
0.6985 7.2425 2.4026
0.5230 7.2572 2.4026
0.3471 7.2677 2.4026
0.1711 7.2740 2.4026
-0.0051 7.2762 2.4026
-0.1812 7.2742 2.4026
-0.3573 7.2680 2.4026
-0.5332 7.2576 2.4026
-0.7088 7.2430 2.4026
-0.8840 7.2243 2.4026
-1.0587 7.2015 2.4026
-1.2329 7.1744 2.4026
-1.4064 7.1433 2.4026
-1.5791 7.1080 2.4026
-1.7509 7.0687 2.4026
-1.9218 7.0252 2.4026
-2.0916 6.9777 2.4026
-2.2603 6.9262 2.4026
-2.4278 6.8707 2.4026
-2.5938 6.8112 2.4026
-2.7585 6.7478 2.4026
-2.9217 6.6804 2.4026
-3.0832 6.6092 2.4026
-3.2430 6.5342 2.4026
-3.4010 6.4553 2.4026
-3.5571 6.3727 2.4026
-3.7113 6.2864 2.4026
-3.8634 6.1964 2.4026
-4.0133 6.1028 2.4026
-4.1611 6.0056 2.4026
-4.3065 5.9049 2.4026
-4.4495 5.8008 2.4026
-4.5900 5.6932 2.4026
