ply
format ascii 1.0
element vertex 1988
property float32 x
property float32 y
property float32 z
end_header
6.0892 -3.9775 -1.1396
6.0594 -3.7522 -1.1158
6.0972 -3.5747 -1.1056
6.2237 -3.4494 -1.1122
6.3528 -3.3228 -1.1197
6.4848 -3.1947 -1.1280
6.6199 -3.0647 -1.1374
6.8673 -2.9798 -1.1661
7.2217 -2.9282 -1.2129
7.6066 -2.8722 -1.2644
7.9011 -2.7672 -1.3007
8.1431 -2.6327 -1.3285
9.4267 -2.7980 -1.5250
10.8386 -2.9339 -1.7399
32.0544 -7.8505 -5.1089
37.3874 -8.2043 -5.9201
38.1777 -7.4154 -6.0096
39.0935 -6.6172 -6.1211
40.1538 -5.8023 -6.2575
41.1858 -4.9386 -6.3918
42.1668 -4.0253 -6.5210
22.9508 -1.6324 -3.5388
43.3856 -2.0337 -6.6739
43.6893 -0.9908 -6.7086
35.8807 0.0535 -5.5030
42.9171 1.1013 -6.5781
7.2303 0.3605 -1.1082
7.1056 0.5266 -1.0897
7.1364 0.7026 -1.0957
7.1919 0.8841 -1.1061
7.2641 1.0717 -1.1198
7.2967 1.2573 -1.1281
7.3853 1.4571 -1.1459
7.6161 1.6948 -1.1866
7.9604 1.9743 -1.2462
14.2020 3.8889 -2.2353
14.4213 4.3260 -2.2835
14.2774 4.6616 -2.2758
14.0915 4.9807 -2.2627
13.8610 5.2792 -2.2435
13.2763 5.4273 -2.1676
15.1332 7.5078 -2.5464
14.5972 6.3830 -2.4056
15.2899 8.0514 -2.6026
14.5810 6.8000 -2.4272
22.7810 12.7082 -3.9256
8.7599 7.4093 -1.7159
22.3662 13.1950 -3.9047
22.0719 13.7506 -3.9070
8.6357 7.6696 -1.7261
21.8516 14.3573 -3.9251
12.3914 8.5771 -2.2606
8.5369 7.9588 -1.7431
11.4279 8.3255 -2.1193
8.4380 8.2564 -1.7619
10.5808 8.1066 -1.9964
9.8293 7.9148 -1.8887
8.3018 8.5251 -1.7748
7.3269 10.1078 -1.8553
7.1598 10.3965 -1.8750
8.1410 8.7743 -1.7840
8.3760 12.8143 -2.2727
7.9800 9.0286 -1.7949
7.1262 11.4992 -2.0073
7.8184 9.2884 -1.8074
7.2467 12.3500 -2.1237
7.6559 9.5544 -1.8215
6.8438 12.3365 -2.0913
7.0036 13.3760 -2.2372
7.4922 9.8273 -1.8375
6.6254 13.4334 -2.2185
6.2527 13.4892 -2.2013
11.9435 29.4099 -4.6963
6.2671 14.4231 -2.3274
5.7728 47.8121 -7.1084
4.7095 48.8991 -7.2504
2.3001 31.9486 -4.7273
25.5942 67.6659 -10.6999
20.6906 58.9666 -9.2397
19.3933 59.8572 -9.3005
18.1526 61.0143 -9.4070
-9.7895 80.3157 -11.9461
-8.3389 56.9331 -8.4970
21.7424 80.1080 -12.2634
-6.6638 38.9187 -5.8318
17.9349 73.0087 -11.1046
-8.1323 41.4520 -6.2404
-8.1862 36.9773 -5.5961
20.2948 92.1665 -13.9373
-8.9926 36.4287 -5.5457
-10.0278 36.7816 -5.6363
14.3380 84.3109 -12.6258
-9.2672 31.0201 -4.7877
-10.8684 33.4161 -5.1982
-8.4991 24.1340 -3.7864
-8.8681 23.3651 -3.6996
-13.2644 20.2425 -3.5978
-8.3665 20.5348 -3.2838
-12.7679 18.4947 -3.3429
-13.3252 18.3385 -3.3738
-8.9534 20.5415 -3.3198
-6.3637 8.3275 -1.5607
-14.2905 17.7927 -3.4006
-9.4945 20.4220 -3.3380
-14.8452 17.5956 -3.4327
-9.9391 20.0945 -3.3242
-15.1405 17.0906 -3.4068
-15.2518 16.4006 -3.3439
-10.3837 19.7767 -3.3137
-15.3479 15.7247 -3.2830
-15.2760 14.9131 -3.1919
-10.8290 19.4679 -3.3065
-16.7814 15.6092 -3.4292
-15.8296 14.0263 -3.1668
-12.1537 20.6588 -3.5594
-16.6696 14.0668 -3.2684
-12.8955 20.7561 -3.6306
-20.5728 16.5267 -3.9573
-16.1509 8.9851 -2.7874
-16.7611 8.8014 -2.8576
-20.9415 16.0063 -3.9557
-15.5514 7.6928 -2.6212
-15.7434 7.3199 -2.6253
-21.4208 15.5677 -3.9772
-15.7340 6.8583 -2.5976
-15.7308 6.4093 -2.5730
-23.2681 16.0661 -4.2503
-15.7334 5.9714 -2.5514
-16.0380 10.5111 -2.8847
-15.7417 5.5434 -2.5326
-15.0366 9.3435 -2.6654
-15.7512 5.1225 -2.5158
-15.5774 9.1656 -2.7235
-15.5723 4.6515 -2.4708
-15.4062 4.1993 -2.4299
-14.1707 0.3469 -2.1773
-15.2519 3.7638 -2.3927
-15.1083 3.3433 -2.3590
-13.7564 0.0043 -2.1150
-14.6006 2.8628 -2.2704
-13.4035 -0.3199 -2.0633
-17.7981 3.0452 -2.7579
-13.9412 -0.6700 -2.1499
-18.8767 2.7621 -2.9166
-14.3466 -1.0376 -2.2177
-17.1971 2.0934 -2.6510
-14.4493 -1.3967 -2.2403
-18.9005 1.8385 -2.9086
-14.6915 -1.7794 -2.2859
-14.8723 1.0847 -2.2862
-14.2783 -2.0806 -2.2309
-14.3020 0.6962 -2.1973
-13.7410 -2.3428 -2.1571
-14.7386 -3.2527 -2.3400
-13.2425 -2.5886 -2.0900
-17.3854 -4.2800 -2.7783
-13.4062 -6.6246 -2.3385
-14.1128 -7.4034 -2.4942
-18.3382 -4.9876 -2.9516
-13.5069 -7.5074 -2.4205
-18.4567 -5.5023 -2.9939
-12.9426 -7.6090 -2.3535
-11.8658 -7.3677 -2.1911
-27.7753 -9.0169 -4.5435
-15.9606 -10.4531 -2.9954
-20.9270 -7.3573 -3.4544
-16.4887 -6.2487 -2.7482
-15.8133 -10.9119 -3.0186
-16.0067 -6.5128 -2.6957
-13.5459 -5.8971 -2.3065
-15.6164 -11.3430 -3.0347
-13.6207 -6.3256 -2.3466
-15.4196 -11.7799 -3.0532
-14.3329 -11.5090 -2.8943
-14.4489 -12.1895 -2.7643
-11.7919 -10.4462 -2.3053
-12.5795 -11.6988 -2.5156
-12.3042 -12.0105 -2.5197
-12.0389 -12.3339 -2.5274
-11.3874 -12.2454 -2.4537
-11.5344 -13.0210 -2.5541
-11.2935 -13.3877 -2.5733
-9.9775 -12.4253 -2.3426
-10.1316 -13.2617 -2.4548
-10.0074 -13.7773 -2.5062
-9.7490 -14.1278 -2.5276
-9.5931 -14.6475 -2.5797
-9.9376 -16.0049 -2.7770
-14.3313 -24.3775 -4.1704
-14.5360 -26.1535 -4.4148
-10.8160 -23.2925 -3.7939
-15.6769 -80.2705 -12.1153
-13.7190 -80.5553 -12.1064
-11.7633 -80.8396 -12.1043
-9.8077 -81.1237 -12.1090
-7.8497 -81.4081 -12.1204
-5.8872 -81.6930 -12.1387
-3.9178 -81.9788 -12.1639
-1.9391 -82.2658 -12.1960
0.0512 -82.5544 -12.2351
1.8990 -76.5363 -11.3462
3.7298 -76.0675 -11.2860
5.6810 -77.4927 -11.5135
3.9171 -40.1030 -5.9700
4.8950 -40.0719 -5.9804
5.8785 -40.0495 -5.9956
7.1387 -41.6054 -6.2514
6.0944 -31.0010 -4.6778
3.6599 -16.4983 -2.5015
4.0001 -16.1719 -2.4654
4.2136 -15.4246 -2.3656
4.5468 -15.1893 -2.3450
4.8558 -14.8998 -2.3171
5.9163 -16.7666 -2.6279
5.7193 -15.0388 -2.3773
6.2664 -15.3495 -2.4487
6.5709 -15.0451 -2.4238
7.1662 -15.3826 -2.5043
7.6963 -15.5282 -2.5564
7.8724 -14.9629 -2.4927
9.2291 -16.5570 -2.7933
11.8863 -20.1617 -3.4472
52.1183 -83.7086 -14.5157
31.8347 -46.0126 -8.2272
15.8462 -21.7595 -3.9557
15.1983 -19.8433 -3.6708
33.1477 -41.1763 -7.7584
14.1009 -16.6742 -3.2030
13.9033 -15.6565 -3.0691
13.8424 -14.8487 -2.9735
13.8457 -14.1504 -2.8978
7.0992 -6.9129 -1.4494
6.6907 -6.2071 -1.3339
6.7014 -5.9221 -1.3062
6.6512 -5.5973 -1.2687
6.4126 -5.1369 -1.1982
6.1009 -4.6496 -1.1177
6.0821 -4.4069 -1.0935
6.0228 -4.1457 -1.0636
6.0071 -3.9244 -1.0429
5.9925 -3.7112 -1.0236
6.0267 -3.5338 -1.0137
6.1244 -3.3949 -1.0151
6.2507 -3.2699 -1.0218
6.3797 -3.1434 -1.0292
6.5117 -3.0150 -1.0375
6.8314 -2.9647 -1.0757
7.2237 -2.9296 -1.1249
7.6088 -2.8736 -1.1726
7.8885 -2.7633 -1.2039
8.1261 -2.6278 -1.2290
9.3123 -2.7647 -1.3965
10.8176 -2.9290 -1.6096
32.0494 -7.8515 -4.7344
36.7610 -8.0694 -5.3947
37.5324 -7.2927 -5.4750
38.4891 -6.5175 -5.5843
39.5733 -5.7211 -5.7142
40.6566 -4.8779 -5.8460
41.6531 -3.9791 -5.9677
8.4309 -0.6002 -1.2043
8.3579 -0.3923 -1.1909
43.1909 -0.9824 -6.1429
7.5987 0.0108 -1.0794
7.4125 0.1897 -1.0522
7.2297 0.3600 -1.0261
7.1050 0.5261 -1.0089
7.0901 0.6977 -1.0079
7.0965 0.8719 -1.0105
7.1647 1.0565 -1.0225
7.2255 1.2445 -1.0341
7.3062 1.4410 -1.0493
7.5349 1.6762 -1.0866
7.8904 1.9565 -1.1432
13.7235 3.7569 -1.9989
14.0453 4.2123 -2.0580
13.8928 4.5351 -2.0491
13.3147 4.7052 -1.9781
14.3778 5.4751 -2.1530
14.3563 5.8678 -2.1683
14.2961 6.2503 -2.1794
14.3178 6.6763 -2.2046
14.7987 7.3408 -2.3032
14.9444 7.8684 -2.3526
15.0737 8.4076 -2.4021
15.0012 8.8489 -2.4218
17.3972 10.8370 -2.8475
21.2040 13.9302 -3.5217
11.6443 8.0590 -1.9640
10.7790 7.8519 -1.8480
10.0126 7.6705 -1.7465
8.9409 7.1987 -1.5881
8.4679 7.1617 -1.5332
8.3695 7.4325 -1.5462
8.2710 7.7102 -1.5608
8.1723 7.9957 -1.5771
8.0733 8.2897 -1.5950
7.9273 8.5432 -1.6053
7.7691 8.7892 -1.6147
7.6102 9.0404 -1.6255
7.4504 9.2973 -1.6378
7.2893 9.5604 -1.6517
7.1265 9.8305 -1.6671
6.9618 10.1083 -1.6842
8.3154 12.7206 -2.0842
7.7814 12.5556 -2.0247
6.5494 11.1609 -1.7729
6.5652 11.8335 -1.8531
6.5877 12.5808 -1.9437
6.6179 13.4172 -2.0467
8.7358 18.8449 -2.8405
6.2715 14.4324 -2.1511
5.8879 14.4974 -2.1381
5.5779 14.7458 -2.1535
5.2653 15.0045 -2.1714
19.6750 60.7231 -8.7135
18.5555 62.3648 -8.8797
15.6817 57.7740 -8.1676
17.8541 72.6754 -10.2079
16.9593 77.0142 -10.7545
14.0936 82.8693 -11.4597
12.5022 86.0312 -11.8502
5.7357 47.5021 -6.5214
4.6205 47.9729 -6.5683
-9.7079 79.6398 -10.9386
-7.0134 47.8797 -6.5988
-8.0820 47.1975 -6.5311
-7.2624 37.0151 -5.1460
-8.8345 39.9028 -5.5769
-9.3093 37.7086 -5.3015
-10.2003 37.4118 -5.2944
-11.3284 37.9169 -5.4048
-12.7080 39.0693 -5.6131
-11.8124 33.5398 -4.8601
-11.9737 31.5453 -4.6134
-11.8143 28.9951 -4.2827
-8.5093 19.5211 -2.9141
-9.0779 19.5245 -2.9479
-9.5162 19.2379 -2.9399
-11.2654 21.4544 -3.3209
-11.3981 20.4892 -3.2149
-12.1057 20.5756 -3.2751
-12.6098 20.2945 -3.2798
-13.0721 19.9475 -3.2757
-13.7146 19.8644 -3.3176
-12.7407 17.5326 -2.9805
-6.3638 8.3268 -1.4421
-13.6036 16.9359 -2.9913
-14.5553 17.2504 -3.1102
-14.8686 16.7820 -3.0918
-14.8432 15.9598 -3.0077
-14.7451 15.1058 -2.9152
-16.0663 15.6830 -3.1029
-16.5447 15.3875 -3.1251
-17.5786 15.5745 -3.2509
-19.1396 16.1494 -3.4692
-19.0090 15.2688 -3.3805
-20.7195 15.8349 -3.6186
-15.4474 11.2252 -2.6520
-15.9603 11.0189 -2.6959
-16.0359 10.5084 -2.6673
-16.5059 10.2552 -2.7059
-14.5489 8.5594 -2.3526
-14.3458 7.9798 -2.2900
-14.5724 7.6510 -2.2981
-14.8055 7.3227 -2.3085
-15.0196 6.9822 -2.3171
-15.0185 6.5453 -2.2940
-15.0224 6.1196 -2.2735
-15.0312 5.7038 -2.2555
-15.0447 5.2968 -2.2399
-14.9519 4.8615 -2.2101
-14.7962 4.4186 -2.1728
-14.6511 3.9924 -2.1388
-14.5159 3.5812 -2.1079
-13.9379 3.0834 -2.0146
-18.9558 3.7155 -2.7289
-19.2305 3.2890 -2.7590
-19.5149 2.8542 -2.7919
-19.8098 2.4101 -2.8278
-16.3423 1.5885 -2.3290
-14.8686 1.0834 -2.1168
-14.2985 0.6951 -2.0347
-13.7402 0.3355 -1.9555
-13.8326 0.0034 -1.9701
-13.9256 -0.3332 -1.9859
-13.4649 -0.6481 -1.9238
-13.8983 -1.0061 -1.9906
-14.2131 -1.3748 -2.0419
-14.4295 -1.7487 -2.0805
-13.7463 -2.0040 -1.9904
-13.2458 -2.2592 -1.9272
-14.4871 -2.8329 -2.1192
-17.4122 -3.8440 -2.5625
-17.1260 -4.2173 -2.5371
-16.5332 -4.4978 -2.4670
-16.3438 -4.8735 -2.4580
-16.1618 -5.2478 -2.4513
-14.9463 -5.2557 -2.2877
-15.6254 -5.9227 -2.4151
-15.1845 -6.1793 -2.3715
-14.7652 -6.4290 -2.3317
-13.7857 -6.4032 -2.2028
-13.8325 -6.8362 -2.2380
-13.2476 -6.9505 -2.1718
-12.7024 -7.0612 -2.1117
-15.4649 -9.0931 -2.6089
-15.6283 -9.7051 -2.6775
-15.5330 -10.1743 -2.7047
-15.3867 -10.6187 -2.7254
-15.2019 -11.0431 -2.7413
-14.9957 -11.4572 -2.7554
-14.8153 -11.8975 -2.7764
-13.5274 -11.4132 -2.3881
-14.5640 -12.9033 -2.6275
-11.1484 -10.3689 -2.0575
-12.5084 -12.2110 -2.3640
-20.6378 -21.1454 -3.9988
-20.4967 -22.0428 -4.0765
-18.0893 -20.4224 -3.6974
-19.7198 -23.3786 -4.1478
-12.0171 -14.9665 -2.6047
-19.0528 -24.9410 -4.2619
-9.6627 -13.3039 -2.2341
-9.5244 -13.8035 -2.2800
-9.3176 -14.2278 -2.3135
-9.4678 -15.2494 -2.4430
-9.4572 -16.0879 -2.5412
-15.0442 -27.0696 -4.2193
-10.2889 -19.6159 -3.0192
-15.6792 -80.2870 -11.1928
-13.7210 -80.5718 -11.1847
-5.4342 -37.3471 -5.1653
-9.8092 -81.1404 -11.1873
-7.8510 -81.4248 -11.1980
-5.8882 -81.7098 -11.2149
-3.9185 -81.9957 -11.2382
-1.9395 -82.2828 -11.2679
0.0511 -82.5714 -11.3041
2.0557 -82.8620 -11.3468
3.7000 -75.4688 -10.3429
2.8873 -39.3890 -5.4057
3.7348 -38.2404 -5.2583
4.6887 -38.3867 -5.2916
5.9294 -40.3999 -5.5863
7.0037 -40.8221 -5.6654
8.1397 -41.4080 -5.7710
3.6144 -16.2946 -2.2819
3.8843 -15.7049 -2.2113
4.2498 -15.5580 -2.2037
4.6360 -15.4883 -2.2084
4.9498 -15.1896 -2.1815
5.2558 -14.8959 -2.1561
5.7357 -15.0833 -2.2018
6.3131 -15.4651 -2.2782
6.6264 -15.1732 -2.2572
7.1042 -15.2509 -2.2926
7.7526 -15.6430 -2.3779
7.9413 -15.0949 -2.3219
9.0835 -16.2971 -2.5385
11.8815 -20.1551 -3.1815
52.1191 -83.7167 -13.4021
31.3906 -47.8049 -7.7676
31.0602 -44.8969 -7.4104
15.8433 -21.7574 -3.6510
13.7489 -17.9524 -3.0654
13.3074 -16.5320 -2.8750
13.1510 -15.5523 -2.7572
13.1021 -14.7557 -2.6694
13.1237 -14.0791 -2.6018
13.1975 -13.4892 -2.5490
6.6207 -6.4476 -1.2473
6.6378 -6.1587 -1.2211
6.6371 -5.8659 -1.1936
6.5892 -5.5457 -1.1596
6.3147 -5.0590 -1.0885
6.0139 -4.5838 -1.0164
5.9701 -4.3264 -0.9901
5.9548 -4.0994 -0.9700
5.9406 -3.8813 -0.9512
5.9272 -3.6713 -0.9337
5.9632 -3.4970 -0.9250
6.0310 -3.3436 -0.9218
6.1521 -3.2188 -0.9272
6.2783 -3.0939 -0.9338
6.4072 -2.9672 -0.9411
6.6919 -2.9047 -0.9713
7.2257 -2.9309 -1.0372
7.6110 -2.8750 -1.0811
7.8759 -2.7595 -1.1078
8.1070 -2.6222 -1.1299
8.4523 -2.5099 -1.1680
9.6439 -2.6119 -1.3221
32.0443 -7.8525 -4.3612
36.1707 -7.9422 -4.8900
36.9418 -7.1804 -4.9640
8.1355 -1.3782 -1.0872
8.1264 -1.1754 -1.0807
8.1181 -0.9745 -1.0750
8.1156 -0.7758 -1.0707
8.1387 -0.5800 -1.0704
8.1759 -0.3843 -1.0726
7.5758 -0.1728 -0.9919
7.3893 0.0100 -0.9662
7.2130 0.1841 -0.9424
7.0723 0.3517 -0.9239
6.9926 0.5174 -0.9138
6.9979 0.6881 -0.9154
7.0038 0.8600 -0.9176
7.0555 1.0400 -0.9264
7.1484 1.2308 -0.9412
7.2289 1.4253 -0.9550
7.4555 1.6580 -0.9889
7.8218 1.9389 -1.0423
13.0565 3.5734 -1.7490
13.5521 4.0635 -1.8260
13.8948 4.5348 -1.8845
14.0820 4.9754 -1.9236
14.1302 5.3798 -1.9453
14.1071 5.7649 -1.9587
14.0852 6.1571 -1.9738
14.1957 6.6183 -2.0091
14.4509 7.1672 -2.0670
14.6151 7.6940 -2.1144
14.7191 8.2087 -2.1554
14.6452 8.6378 -2.1724
14.5723 9.0762 -2.1915
11.8690 7.7965 -1.8110
10.9841 7.6012 -1.7020
7.8915 5.7478 -1.2428
8.0662 6.1787 -1.2923
8.2611 6.6507 -1.3477
8.2177 6.9494 -1.3665
8.1199 7.2102 -1.3776
8.0219 7.4774 -1.3901
7.9236 7.7516 -1.4040
7.8247 8.0338 -1.4193
7.7250 8.3245 -1.4362
7.5697 8.5629 -1.4443
7.4135 8.8060 -1.4537
7.2563 9.0543 -1.4643
7.0977 9.3084 -1.4762
6.9374 9.5689 -1.4895
6.4962 9.4315 -1.4424
8.0648 12.3364 -1.8552
7.6148 12.2859 -1.8184
7.1702 12.2180 -1.7811
5.8837 10.6043 -1.5239
5.8225 11.1187 -1.5764
5.7624 11.6820 -1.6352
5.7034 12.3025 -1.7015
5.6452 12.9901 -1.7765
5.5704 13.7149 -1.8559
5.2750 13.9443 -1.8684
4.9770 14.1823 -1.8830
4.6757 14.4298 -1.8997
17.8321 59.9296 -7.8282
15.6626 57.7004 -7.4834
17.7689 72.3242 -9.3192
17.0157 77.2659 -9.8979
15.2470 78.1769 -9.9626
14.3229 84.2129 -10.6827
5.6920 47.1377 -5.9362
4.5857 47.6092 -5.9794
-5.9034 48.4251 -6.1014
-6.9484 47.4317 -5.9968
-8.1097 47.3552 -6.0114
-9.2888 47.3396 -6.0376
-8.3955 37.9169 -4.8616
-9.1837 37.1971 -4.7978
-9.4115 34.5158 -4.4814
-10.3942 34.7872 -4.5495
-15.4257 47.4208 -6.2510
-11.1023 31.5212 -4.1909
-11.7605 30.9814 -4.1574
-12.3293 30.2567 -4.1008
-13.0869 30.0204 -4.1124
-10.4737 22.5248 -3.1209
-10.6702 21.5691 -3.0249
-11.3380 21.5909 -3.0672
-11.7621 21.1420 -3.0446
-11.4770 19.5053 -2.8497
-12.4088 19.9694 -2.9623
-13.0468 19.9071 -3.0009
-14.0608 20.3641 -3.1221
-15.1352 20.8260 -3.2503
-6.3638 8.3261 -1.3239
-13.9042 17.3087 -2.8070
-14.2173 16.8484 -2.7893
-14.9906 16.9183 -2.8622
-14.9456 16.0684 -2.7809
-15.1933 15.5634 -2.7584
-15.8046 15.4261 -2.8032
-16.3182 15.1753 -2.8309
-17.1416 15.1858 -2.9117
-19.1918 16.1918 -3.1954
-19.8003 15.9027 -3.2347
-16.5690 12.6615 -2.6585
-20.7673 15.0894 -3.2757
-20.7935 14.3540 -3.2272
-16.0338 10.5058 -2.4507
-24.4847 15.2106 -3.6887
-22.8563 13.4449 -3.3967
-22.9015 12.7371 -3.3601
-13.9097 7.3020 -2.0163
-14.1299 6.9875 -2.0253
-14.3562 6.6728 -2.0361
-14.3672 6.2604 -2.0177
-14.3771 5.8557 -2.0007
-17.4234 6.6103 -2.4042
-18.0500 6.3536 -2.4714
-14.2320 4.6264 -1.9348
-14.0959 4.2085 -1.9039
-13.9410 3.7980 -1.8721
-17.7522 4.3784 -2.3715
-18.1351 4.0107 -2.4117
-18.4556 3.6162 -2.4446
-18.4795 3.1593 -2.4396
-18.9010 2.7632 -2.4885
-19.2703 2.3431 -2.5317
-15.3194 0.7437 -2.0068
-13.8160 0.3364 -1.8103
-13.9093 0.0025 -1.8240
-14.0035 -0.3360 -1.8389
-12.8641 -0.6200 -1.6926
-13.3224 -0.9653 -1.7573
-13.7281 -1.3288 -1.8165
-14.0859 -1.7080 -1.8708
-13.2541 -1.9332 -1.7679
-14.2489 -2.4313 -1.9100
-14.8686 -2.9085 -2.0040
-14.9924 -3.3108 -2.0330
-27.3260 -6.7309 -3.7304
-24.9902 -6.8002 -3.4365
-15.5789 -4.6465 -2.1594
-15.4081 -5.0041 -2.1540
-15.2431 -5.3611 -2.1506
-14.8504 -5.6300 -2.1159
-14.4449 -5.8794 -2.0799
-21.5639 -9.3908 -3.1398
-21.0547 -9.7811 -3.1022
-13.0123 -6.4318 -1.9414
-12.3666 -6.4892 -1.8697
-14.7557 -8.2037 -2.2623
-15.2420 -8.9632 -2.3716
-15.1576 -9.4139 -2.3953
-15.0669 -9.8702 -2.4202
-14.9776 -10.3376 -2.4474
-14.7964 -10.7497 -2.4616
-14.5619 -11.1270 -2.4687
-14.3292 -11.5083 -2.4778
-13.4134 -11.3181 -2.1703
-12.9416 -11.4670 -2.1400
-12.4880 -11.6160 -2.1126
-11.9376 -11.6548 -2.0683
-10.7466 -11.0120 -1.9090
-18.0298 -19.3914 -3.2877
-17.4249 -19.6740 -3.2656
-16.5725 -19.6489 -3.1963
-12.0148 -14.9649 -2.3881
-19.3996 -25.3971 -3.9795
-19.7627 -27.2120 -4.1905
-16.2606 -24.8316 -3.7031
-9.0416 -14.5641 -2.1399
-8.9150 -15.1666 -2.1974
-8.6637 -15.5901 -2.2289
-8.4083 -16.0317 -2.2635
-8.1280 -16.4524 -2.2956
-7.8068 -16.8144 -2.3201
-7.3326 -16.8479 -2.3006
-6.8640 -16.8750 -2.2819
-6.4052 -16.9074 -2.2656
-11.5466 -46.9358 -6.0661
-10.3538 -46.9543 -6.0357
-9.1727 -46.9726 -6.0089
-8.0019 -46.9907 -5.9858
-6.8397 -47.0087 -5.9661
-5.7150 -47.2762 -5.9814
-4.5599 -47.2941 -5.9685
-3.4093 -47.3119 -5.9590
-2.2618 -47.3297 -5.9528
-1.1161 -47.3475 -5.9499
0.0292 -47.3652 -5.9504
1.1753 -47.3830 -5.9541
2.3237 -47.4008 -5.9612
2.8306 -38.6187 -4.8635
3.8266 -39.1840 -4.9442
4.7808 -39.1438 -4.9515
5.8882 -40.1223 -5.0908
6.8153 -39.7267 -5.0590
3.2694 -16.6331 -2.1271
3.6185 -16.3143 -2.0963
4.0092 -16.2112 -2.0943
4.2864 -15.6933 -2.0395
4.7056 -15.7220 -2.0567
5.0473 -15.4901 -2.0410
5.3582 -15.1871 -2.0168
5.7523 -15.1279 -2.0259
6.3327 -15.5143 -2.0966
6.6936 -15.3283 -2.0917
7.1169 -15.2794 -2.1069
7.4305 -14.9943 -2.0906
8.0111 -15.2289 -2.1485
9.1393 -16.3985 -2.3427
11.8766 -20.1485 -2.9168
31.5276 -50.6455 -7.4353
30.4671 -46.4023 -6.9140
30.4833 -44.0666 -6.6694
13.0240 -17.8873 -2.7521
12.7516 -16.6516 -2.6068
12.6276 -15.6889 -2.5013
12.5647 -14.8604 -2.4151
12.5904 -14.1806 -2.3516
12.6523 -13.5747 -2.2993
12.7399 -13.0227 -2.2555
6.5686 -6.3975 -1.1342
6.5859 -6.1111 -1.1104
6.5742 -5.8110 -1.0835
6.5478 -5.5114 -1.0559
6.2835 -5.0345 -0.9924
5.8908 -4.4905 -0.9122
5.9024 -4.2777 -0.8968
5.8885 -4.0543 -0.8787
5.8756 -3.8394 -0.8618
5.8636 -3.6323 -0.8461
5.9012 -3.4611 -0.8383
5.9685 -3.3093 -0.8354
6.0568 -3.1694 -0.8359
6.1803 -3.0460 -0.8416
6.3064 -2.9209 -0.8480
6.5407 -2.8395 -0.8691
7.1740 -2.9105 -0.9426
7.6132 -2.8763 -0.9898
7.8603 -2.7545 -1.0118
8.0880 -2.6166 -1.0315
8.4107 -2.4982 -1.0635
9.5014 -2.5739 -1.1918
8.0784 -1.9802 -1.0058
8.0482 -1.7677 -0.9953
8.0382 -1.5629 -0.9879
8.0289 -1.3607 -0.9813
8.0204 -1.1606 -0.9754
8.0414 -0.9659 -0.9737
8.0640 -0.7714 -0.9727
8.0870 -0.5768 -0.9724
8.1247 -0.3825 -0.9743
7.3988 -0.1692 -0.8855
7.1916 0.0093 -0.8594
7.0353 0.1792 -0.8400
6.9373 0.3445 -0.8281
6.8929 0.5095 -0.8230
6.9083 0.6788 -0.8256
6.9138 0.8485 -0.8274
6.9498 1.0239 -0.8335
7.0396 1.2116 -0.8465
7.1536 1.4099 -0.8630
7.3775 1.6402 -0.8935
7.7547 1.9218 -0.9434
8.4173 2.3032 -1.0293
12.8677 3.8574 -1.5827
13.3557 4.3579 -1.6532
13.7498 4.8571 -1.7141
13.8732 5.2810 -1.7429
13.8670 5.6658 -1.7569
13.8435 6.0505 -1.7699
21.3402 9.9477 -2.7553
14.0978 6.9911 -1.8395
14.3010 7.5276 -1.8871
14.3817 8.0195 -1.9207
14.3066 8.4370 -1.9353
14.2322 8.8633 -1.9517
11.1961 7.3537 -1.5577
10.3963 7.1937 -1.4687
7.2582 5.2860 -1.0421
7.3947 5.6637 -1.0799
7.5459 6.0742 -1.1221
7.7141 6.5229 -1.1691
7.8855 7.0013 -1.2192
7.7881 7.2587 -1.2298
7.6902 7.5226 -1.2416
7.5916 7.7938 -1.2547
7.4920 8.0728 -1.2690
7.3808 8.3485 -1.2829
7.2272 8.5840 -1.2909
7.0725 8.8243 -1.3000
6.9164 9.0699 -1.3102
6.7585 9.3215 -1.3216
8.0771 11.7258 -1.6333
7.7502 11.8542 -1.6235
7.3764 11.9004 -1.6039
7.0538 12.0187 -1.5955
6.9145 12.4613 -1.6306
6.7675 12.9224 -1.6681
9.1764 18.6018 -2.3707
8.9251 19.2506 -2.4240
8.4216 19.3776 -2.4125
4.8044 11.8281 -1.4571
4.7206 12.4778 -1.5220
4.6332 13.2018 -1.5955
4.4316 13.6756 -1.6388
4.1399 13.9125 -1.6542
15.7531 58.0301 -6.8503
14.5226 59.1076 -6.9321
15.8178 71.8221 -8.3740
14.9478 76.6382 -8.8889
14.1988 83.4791 -9.6379
6.9080 47.5310 -5.4659
5.6726 46.9750 -5.3839
3.8083 39.5366 -4.5191
-7.8692 80.7279 -9.2313
-7.0100 57.4969 -6.5934
-8.1846 55.8655 -6.4285
-8.1411 47.5351 -5.4922
-7.2224 36.8056 -4.2725
-8.1306 36.7177 -4.2852
-8.9044 36.0631 -4.2340
-9.2809 34.0342 -4.0224
-9.4137 31.5034 -3.7505
-7.9163 24.3337 -2.9200
-8.5463 24.2624 -2.9367
-9.1676 24.1488 -2.9503
-9.5616 23.4628 -2.8952
-9.9356 22.7896 -2.8425
-10.0884 21.6944 -2.7369
-10.9568 22.1468 -2.8282
-11.1580 21.2465 -2.7485
-11.5769 20.8074 -2.7288
-11.8569 20.1494 -2.6811
-12.3471 19.8685 -2.6844
-12.7061 19.3858 -2.6618
-13.5055 19.5582 -2.7314
-14.1920 19.5264 -2.7761
-6.3638 8.3254 -1.2061
-15.3226 19.0726 -2.8181
-14.6237 17.3284 -2.6139
-14.4517 16.3086 -2.5141
-13.7236 14.7532 -2.3268
-14.6609 15.0167 -2.4256
-15.3146 14.9463 -2.4756
-15.9957 14.8739 -2.5292
-16.7050 14.7975 -2.5865
-17.4849 14.7502 -2.6538
-19.0788 15.3215 -2.8415
-19.0265 14.5378 -2.7834
-23.0797 16.7675 -3.3194
-21.0279 14.5141 -2.9761
-16.0317 10.5031 -2.2347
-14.4142 8.9534 -1.9806
-15.6291 9.1924 -2.1187
-16.0994 8.9528 -2.1548
-16.5915 8.7085 -2.1943
-16.9162 8.3641 -2.2123
-13.7289 6.3802 -1.7767
-13.7716 5.9999 -1.7650
-17.3125 7.0500 -2.1988
-17.6899 6.7102 -2.2281
-17.6304 6.2047 -2.2036
-17.8346 5.7963 -2.2135
-18.2251 5.4401 -2.2476
-18.5361 5.0485 -2.2729
-17.0299 4.1991 -2.0777
-17.5649 3.8834 -2.1334
-17.6777 3.4626 -2.1388
-18.1599 3.1035 -2.1901
-18.3622 2.6832 -2.2087
-18.5709 2.2569 -2.2292
-18.4789 1.7938 -2.2150
-45.0075 3.2735 -5.3902
-14.4921 0.7026 -1.7352
-13.8924 0.3373 -1.6639
-13.9515 0.0015 -1.6725
-14.0561 -0.3382 -1.6875
-14.2823 -0.6892 -1.7182
-12.7939 -0.9278 -1.5432
-13.1664 -1.2753 -1.5933
-13.5667 -1.6459 -1.6480
-13.9641 -2.0376 -1.7038
-14.0145 -2.3922 -1.7185
-14.4627 -2.8300 -1.7834
-14.5614 -3.2166 -1.8067
-14.5997 -3.5972 -1.8238
-28.0730 -7.6410 -3.5329
-26.8095 -7.9979 -3.4011
-14.7234 -4.7828 -1.8840
-14.5431 -5.1160 -1.8783
-46.2621 -17.5417 -6.0346
-17.0106 -6.9248 -2.2425
-20.8210 -9.0687 -2.7759
-20.2964 -9.4303 -2.7385
-18.2449 -9.0195 -2.4929
-13.8187 -7.2522 -1.9135
-16.4588 -9.1518 -2.3114
-13.2343 -7.7835 -1.8863
-14.2995 -8.8821 -2.0702
-14.6235 -9.5808 -2.1521
-14.5324 -10.0315 -2.1758
-14.3824 -10.4501 -2.1926
-14.1537 -10.8162 -2.1989
-13.9051 -11.1689 -2.2036
-12.4019 -10.4656 -1.8244
-11.7385 -10.4020 -1.7649
-11.1252 -10.3493 -1.7114
-10.3626 -10.1180 -1.6327
-16.7674 -17.1829 -2.7089
-16.7757 -18.0443 -2.7823
-19.0567 -21.5183 -3.2486
-18.8478 -22.3485 -3.3068
-12.0125 -14.9633 -2.1721
-18.5102 -24.2347 -3.4546
-18.6802 -25.7234 -3.6039
-16.5095 -25.2135 -3.4212
-15.6190 -25.1607 -3.3640
-14.3103 -24.3472 -3.2100
-14.6193 -26.3089 -3.4230
-7.3880 -14.9556 -1.8992
-7.0895 -15.2704 -1.9178
-6.7887 -15.5995 -1.9389
-6.4849 -15.9441 -1.9626
-6.0768 -16.0417 -1.9567
-15.0654 -46.4314 -5.5724
-13.8440 -46.4655 -5.5365
-12.6380 -46.4981 -5.5040
-11.4458 -46.5290 -5.4748
-10.2659 -46.5584 -5.4488
-9.1375 -46.7948 -5.4502
-7.9880 -46.9119 -5.4408
-6.7859 -46.6415 -5.3897
-5.7148 -47.2762 -5.4461
-4.5218 -46.9015 -5.3893
-3.3810 -46.9213 -5.3810
-2.2433 -46.9433 -5.3759
-1.1135 -47.2391 -5.4051
0.0290 -47.2479 -5.4045
1.1654 -46.9918 -5.3766
2.3043 -47.0094 -5.3829
3.4753 -47.4186 -5.4372
4.1843 -42.8499 -4.9228
4.8390 -39.6234 -4.5634
5.6695 -38.6354 -4.4632
6.3047 -36.7538 -4.2612
6.4404 -32.7688 -3.8151
3.6226 -16.3341 -1.9108
4.0138 -16.2308 -1.9089
4.4046 -16.1274 -1.9080
4.7601 -15.9053 -1.8941
5.0227 -15.4157 -1.8489
5.4279 -15.3860 -1.8598
5.9900 -15.7542 -1.9203
6.3210 -15.4867 -1.9048
6.8499 -15.6875 -1.9483
7.1986 -15.4559 -1.9395
7.5127 -15.1614 -1.9237
8.4723 -16.1069 -2.0678
8.7620 -15.7228 -2.0438
11.8718 -20.1419 -2.6530
7.5098 -12.0646 -1.6115
13.8798 -21.1412 -2.8658
12.6244 -18.2514 -2.5128
12.2871 -16.8766 -2.3620
12.1168 -15.8241 -2.2532
12.0626 -14.9882 -2.1733
12.0831 -14.2920 -2.1124
12.1414 -13.6762 -2.0624
12.2304 -13.1232 -2.0212
12.3498 -12.6252 -1.9881
6.5174 -6.3482 -1.0232
6.5355 -6.0650 -1.0018
6.5274 -5.7701 -0.9779
6.5191 -5.4879 -0.9556
6.2666 -5.0215 -0.8996
5.7983 -4.4204 -0.8160
5.8363 -4.2303 -0.8058
5.8239 -4.0102 -0.7896
5.8123 -3.7985 -0.7746
5.8014 -3.5943 -0.7605
5.8406 -3.4261 -0.7537
5.9074 -3.2759 -0.7510
5.9741 -3.1266 -0.7488
6.0855 -2.9998 -0.7526
6.2089 -2.8762 -0.7581
6.3966 -2.7774 -0.7717
7.0443 -2.8583 -0.8402
7.6153 -2.8777 -0.8987
7.8424 -2.7488 -0.9162
8.0692 -2.6111 -0.9339
8.0628 -2.3954 -0.9250
8.0120 -2.1710 -0.9118
7.9744 -1.9552 -0.9007
7.9431 -1.7452 -0.8910
7.9339 -1.5432 -0.8844
7.9466 -1.3472 -0.8808
7.9686 -1.1536 -0.8787
7.9908 -0.9603 -0.8772
8.0133 -0.7671 -0.8762
8.0360 -0.5737 -0.8758
7.5679 -0.3567 -0.8225
7.2339 -0.1660 -0.7845
7.0249 0.0086 -0.7606
6.9276 0.1760 -0.7494
6.8498 0.3397 -0.7406
6.7839 0.5010 -0.7336
6.8003 0.6678 -0.7360
6.8176 0.8362 -0.7388
6.8492 1.0086 -0.7437
6.9591 1.1973 -0.7576
7.0882 1.3966 -0.7741
7.2989 1.6222 -0.8001
7.6888 1.9049 -0.8465
8.3328 2.2795 -0.9220
12.2507 3.6716 -1.3632
12.6874 4.1390 -1.4207
13.1680 4.6507 -1.4848
13.6094 5.1796 -1.5464
13.6356 5.5703 -1.5622
16.0025 6.9930 -1.8500
20.6528 9.6258 -2.4108
20.4089 10.1192 -2.4073
14.0008 7.3686 -1.6700
14.0602 7.8392 -1.6972
13.9841 8.2458 -1.7096
11.4152 7.1081 -1.4145
10.5969 6.9593 -1.3320
9.5486 6.6064 -1.2186
13.4679 9.8074 -1.7466
6.0458 4.6301 -0.7975
6.6687 5.3675 -0.8956
7.0769 5.9834 -0.9685
7.2219 6.4115 -1.0083
7.3836 6.8810 -1.0527
7.4708 7.3073 -1.0889
7.3726 7.5682 -1.0999
7.2733 7.8364 -1.1120
7.1728 8.1126 -1.1253
7.0505 8.3734 -1.1365
6.8983 8.6062 -1.1442
6.7446 8.8439 -1.1529
6.5891 9.0871 -1.1626
7.8087 11.3353 -1.4246
7.5235 11.5066 -1.4218
7.2491 11.6941 -1.4219
7.0117 11.9462 -1.4306
6.8683 12.3771 -1.4609
6.7378 12.8649 -1.4979
9.0481 18.3406 -2.1081
8.7876 18.9527 -2.1523
7.9159 18.2128 -2.0449
7.7072 18.9734 -2.1077
17.2328 45.5485 -5.0098
21.0500 59.9754 -6.5359
19.2841 59.5055 -6.4295
17.5233 58.8844 -6.3124
3.6497 13.4436 -1.4308
14.5154 59.0746 -6.2463
16.9257 76.8483 -8.0778
14.4647 85.0375 -8.8508
5.7317 47.4621 -4.9038
3.8084 39.5367 -4.0738
-9.7372 79.8601 -8.2559
-7.0090 47.8377 -4.9626
-7.6722 44.7936 -4.6659
-8.9760 45.7383 -4.7869
-8.5435 38.5792 -4.0594
-9.0595 36.6884 -3.8837
-9.9322 36.4199 -3.8811
-9.0272 30.2077 -3.2428
-7.4937 23.0331 -2.4924
-11.4763 32.5782 -3.5560
-11.6733 30.7471 -3.3876
-12.5712 30.8457 -3.4328
-13.3166 30.5426 -3.4359
-11.0055 23.6649 -2.6929
-10.4884 21.1983 -2.4419
-10.9684 20.8838 -2.4371
-11.3979 20.4840 -2.4236
-11.8066 20.0622 -2.4085
-12.1755 19.5907 -2.3883
-12.9269 19.7209 -2.4434
-13.5062 19.5577 -2.4649
-14.0642 19.3490 -2.4827
-6.3637 8.3245 -1.0885
-15.5476 19.3512 -2.5809
-13.6971 16.2290 -2.2100
-15.3927 17.3689 -2.4174
-15.7029 16.8794 -2.4037
-16.0696 16.4580 -2.4006
-14.6303 14.2771 -2.1356
-15.2704 14.1981 -2.1805
-16.9942 15.0521 -2.3765
-17.7470 14.9697 -2.4331
-17.5305 14.0766 -2.3586
-18.3650 14.0308 -2.4272
-22.2972 16.1972 -2.8976
-24.1115 16.6406 -3.0837
-16.0297 10.5005 -2.0194
-21.3004 13.2290 -2.6454
-13.7720 8.0990 -1.6876
-14.6189 8.1284 -1.7689
-15.3715 8.0670 -1.8381
-16.1250 7.9717 -1.9069
-16.6177 7.7215 -1.9449
-16.8120 7.3233 -1.9488
-16.9041 6.8825 -1.9421
-17.2315 6.5351 -1.9635
-17.5035 6.1588 -1.9794
-17.4014 5.6543 -1.9544
-17.5517 5.2378 -1.9590
-17.3777 4.7318 -1.9288
-17.1565 4.2291 -1.8948
-16.8098 3.7153 -1.8484
-17.3882 3.4047 -1.9049
-17.6613 3.0171 -1.9288
-17.7055 2.5860 -1.9288
-17.6082 2.1387 -1.9145
-17.5175 1.6993 -1.9022
-17.3243 1.2589 -1.8798
-15.3368 0.7425 -1.6639
-13.9694 0.3383 -1.5162
-13.9540 0.0006 -1.5161
-14.0585 -0.3392 -1.5299
-14.2848 -0.6903 -1.5580
-14.6819 -1.0656 -1.6057
-14.7839 -1.4329 -1.6223
-15.2794 -1.8547 -1.6833
-15.1505 -2.2118 -1.6766
-15.0249 -2.5657 -1.6712
-14.0795 -2.7560 -1.5751
-14.1556 -3.1279 -1.5936
-14.0651 -3.4664 -1.5944
-13.8698 -3.7761 -1.5841
-13.5206 -4.0344 -1.5568
-13.1024 -4.2571 -1.5219
-28.8849 -10.1631 -3.3868
-23.7245 -8.9975 -2.8098
-17.0079 -6.9249 -2.0360
-19.9212 -8.6782 -2.4119
-19.4315 -9.0298 -2.3812
-17.2670 -8.5373 -2.1430
-16.1391 -8.4711 -2.0302
-15.9881 -8.8913 -2.0399
-15.8384 -9.3163 -2.0512
-15.6898 -9.7469 -2.0641
-11.9867 -7.8541 -1.6031
-13.8809 -9.5828 -1.8888
-13.9920 -10.1676 -1.9388
-13.5639 -10.3666 -1.9156
-13.0938 -10.5183 -1.8864
-14.9580 -12.6240 -1.9811
-14.8805 -13.1875 -2.0146
-14.3948 -13.3921 -1.9941
-14.9092 -14.5587 -2.1156
-15.1435 -15.5201 -2.2036
-16.2973 -17.5312 -2.4348
-20.7347 -23.4150 -3.1842
-21.5895 -25.6015 -3.4126
-12.0103 -14.9617 -1.9567
-20.0769 -26.2879 -3.3763
-19.0377 -26.2177 -3.3099
-17.1519 -24.8635 -3.0880
-15.9838 -24.4126 -2.9854
-16.0021 -25.7797 -3.1065
-14.3034 -24.3371 -2.8921
-26.2846 -47.3051 -5.5480
-14.1645 -27.0103 -3.1287
-23.4144 -47.4013 -5.4267
-22.0265 -47.4471 -5.3724
-20.7886 -47.7721 -5.3535
-19.3338 -47.5384 -5.2760
-18.5668 -49.0163 -5.3912
-18.6288 -53.0151 -5.7823
-15.1468 -46.6852 -5.0525
-13.9721 -46.8983 -5.0394
-12.7512 -46.9172 -5.0085
-11.5452 -46.9358 -4.9808
-10.3526 -46.9543 -4.9560
-9.1717 -46.9726 -4.9343
-8.0010 -46.9907 -4.9155
-6.8224 -46.8945 -4.8876
-5.7145 -47.2762 -4.9122
-4.5595 -47.2941 -4.9017
-3.4090 -47.3119 -4.8939
-2.2555 -47.1998 -4.8754
-1.1161 -47.3475 -4.8865
0.0290 -47.3652 -4.8869
1.1750 -47.3830 -4.8899
1.8618 -37.9884 -3.9235
3.4750 -47.4186 -4.9041
4.1264 -42.2613 -4.3791
4.6131 -37.7770 -3.9240
5.9384 -40.4708 -4.2166
6.9351 -40.4319 -4.2277
8.1783 -41.6143 -4.3694
3.6267 -16.3538 -1.7253
4.0175 -16.2469 -1.7231
4.1896 -15.3415 -1.6367
4.5824 -15.3127 -1.6443
5.1461 -15.7955 -1.7082
5.5783 -15.8133 -1.7234
5.9757 -15.7177 -1.7273
6.3093 -15.4593 -1.7143
6.7463 -15.4513 -1.7299
7.2776 -15.6267 -1.7677
7.5778 -15.2939 -1.7491
8.5019 -16.1644 -1.8704
22.8725 -41.0464 -4.8087
11.8670 -20.1353 -2.3901
7.4621 -11.9889 -1.4430
7.6957 -11.7227 -1.4318
11.8796 -17.1760 -2.1306
11.7365 -16.1216 -2.0327
11.6705 -15.2425 -1.9552
11.6904 -14.5270 -1.8974
11.7384 -13.8856 -1.8484
11.8112 -13.3054 -1.8070
11.9151 -12.7861 -1.7733
6.4477 -6.5921 -0.9347
6.4668 -6.2995 -0.9141
6.4853 -6.0190 -0.8950
6.4983 -5.7450 -0.8764
6.4907 -5.4646 -0.8564
6.2498 -5.0086 -0.8075
5.7088 -4.3527 -0.7229
5.7573 -4.1736 -0.7153
5.7608 -3.9673 -0.7027
5.7504 -3.7585 -0.6894
5.7407 -3.5571 -0.6769
5.7814 -3.3918 -0.6710
5.8476 -3.2432 -0.6685
5.9138 -3.0955 -0.6665
5.9939 -2.9551 -0.6664
6.1146 -2.8330 -0.6711
6.2589 -2.7181 -0.6786
6.9194 -2.8082 -0.7417
7.5476 -2.8526 -0.8003
7.8246 -2.7431 -0.8213
7.9868 -2.5850 -0.8303
7.9467 -2.3614 -0.8189
7.9093 -2.1437 -0.8083
7.8732 -1.9309 -0.7985
7.8537 -1.7261 -0.7909
7.8751 -1.5323 -0.7880
7.8967 -1.3393 -0.7855
7.9186 -1.1469 -0.7836
7.9406 -0.9548 -0.7821
7.9629 -0.7628 -0.7811
8.0049 -0.5720 -0.7825
7.2897 -0.3441 -0.7106
7.0766 -0.1628 -0.6882
6.9376 0.0081 -0.6735
6.8450 0.1734 -0.6637
6.7647 0.3351 -0.6556
6.6907 0.4937 -0.6484
6.6942 0.6569 -0.6492
6.7141 0.8231 -0.6519
6.7936 1.0000 -0.6608
6.9014 1.1869 -0.6729
7.0281 1.3843 -0.6873
7.2250 1.6053 -0.7091
7.6242 1.8884 -0.7515
8.2462 2.2553 -0.8167
21.4803 6.4362 -2.1392
21.3227 6.9546 -2.1366
16.3329 5.7673 -1.6478
20.8924 7.9501 -2.1236
20.6105 8.4182 -2.1121
16.0003 6.9909 -1.6542
20.1186 9.3754 -2.1000
17.1825 8.5182 -1.8120
19.7717 10.4043 -2.1082
13.7536 7.6672 -1.4839
11.6416 6.8636 -1.2719
10.8034 6.7263 -1.1962
9.7732 6.4176 -1.0976
13.2381 9.1580 -1.5093
13.1081 9.5443 -1.5185
12.9778 9.9379 -1.5289
12.7994 10.3011 -1.5350
5.5486 4.6908 -0.6780
6.0999 5.4149 -0.7603
6.7754 6.3137 -0.8623
6.9140 6.7621 -0.8995
7.0687 7.2557 -0.9412
7.0675 7.6140 -0.9643
6.9673 7.8794 -0.9753
6.8655 8.1530 -0.9874
6.7328 8.3991 -0.9963
6.5815 8.6294 -1.0035
6.4283 8.8647 -1.0116
7.6330 11.0794 -1.2419
7.3549 11.2479 -1.2395
7.1054 11.4615 -1.2428
6.9703 11.8747 -1.2680
6.7850 12.2262 -1.2867
6.7085 12.8080 -1.3296
6.9881 14.1638 -1.4514
8.1782 17.6373 -1.7855
7.7099 17.7376 -1.7752
7.3798 18.1663 -1.7987
17.6024 46.5222 -4.5605
16.4654 46.9101 -4.5560
20.0870 61.9790 -5.9680
17.4748 58.7180 -5.6093
15.9148 58.6187 -5.5594
7.3411 29.8748 -2.8147
16.8780 76.6274 -7.1769
14.9875 76.8335 -7.1583
14.2729 83.9056 -7.7809
6.8223 46.9366 -4.3352
5.5889 46.2769 -4.2599
4.5971 47.7219 -4.3809
3.4299 47.6326 -4.3635
-7.7931 79.9334 -7.3417
-7.1297 58.4693 -5.3857
-8.3881 57.2459 -5.2915
-6.2893 36.7170 -3.4079
-7.2538 36.9596 -3.4468
-8.2307 37.1642 -3.4847
-11.9451 48.3706 -4.5631
-10.5790 38.7887 -3.6838
-10.3700 34.6983 -3.3197
-10.6767 32.8142 -3.1648
-11.6504 33.0700 -3.2175
-12.0385 31.7066 -3.1140
-11.4190 28.0164 -2.7796
-13.0774 29.9917 -3.0079
-9.7482 20.9596 -2.1265
-10.2179 20.6501 -2.1211
-10.6862 20.3450 -2.1172
-11.1539 20.0440 -2.1150
-11.6216 19.7464 -2.1143
-11.4721 18.4575 -2.0071
-12.6192 19.2500 -2.1276
-13.1522 19.0435 -2.1412
-13.6933 18.8371 -2.1566
-6.3635 8.3235 -0.9712
-12.9869 16.1625 -1.9237
-15.0539 17.8350 -2.1677
-15.0319 16.9603 -2.1071
-15.3646 16.5143 -2.0994
-15.6338 16.0101 -2.0850
-15.7141 15.3332 -2.0480
-14.6064 13.5793 -1.8624
-18.5567 16.4344 -2.3175
-18.9854 16.0127 -2.3248
-17.6032 14.1335 -2.1157
-17.4651 13.3418 -2.0622
-18.1056 13.1509 -2.1024
-23.4330 16.1704 -2.6782
-16.0276 10.4979 -1.8046
-23.6168 14.6659 -2.6219
-18.8593 11.0894 -2.0661
-19.0703 10.6020 -2.0633
-19.2847 10.1193 -2.0622
-30.9331 15.2901 -3.2718
-19.1815 8.9114 -2.0082
-18.8381 8.2045 -1.9536
-18.5196 7.5389 -1.9038
-17.4182 6.6047 -1.7762
-16.9100 5.4934 -1.7001
-17.1856 5.1274 -1.7173
-17.4688 4.7554 -1.7361
-17.7073 4.3637 -1.7514
-17.9334 3.9624 -1.7663
-17.0064 3.3288 -1.6691
-16.8746 2.8816 -1.6512
-16.5696 2.4190 -1.6176
-16.2852 1.9769 -1.5870
-16.0194 1.5529 -1.5593
-15.7704 1.1449 -1.5341
-15.3456 0.7420 -1.4928
-15.0856 0.3643 -1.4684
-13.9565 -0.0003 -1.3601
-14.2055 -0.3436 -1.3868
-14.3908 -0.6964 -1.4082
-14.7661 -1.0727 -1.4491
-43.5219 -4.2214 -4.2861
-14.9148 -1.8114 -1.4748
-14.7908 -2.1602 -1.4694
-14.6637 -2.5050 -1.4645
-14.4555 -2.8306 -1.4521
-14.9339 -3.3009 -1.5099
-15.4402 -3.8063 -1.5721
-27.1094 -7.3824 -2.7815
-22.0063 -6.5680 -2.2766
-26.4301 -8.5892 -2.7587
-23.9245 -8.4195 -2.5211
-20.5162 -7.7822 -2.1840
-17.0052 -6.9250 -1.8300
-19.0784 -8.3124 -2.0768
-17.4989 -8.1329 -1.9282
-21.0374 -10.4031 -2.3481
-15.6930 -8.2381 -1.7755
-15.5446 -8.6458 -1.7840
-15.3971 -9.0579 -1.7939
-15.2047 -9.4467 -1.7997
-14.9960 -9.8272 -1.8047
-13.6882 -9.4508 -1.6763
-12.9292 -9.3963 -1.6125
-13.4915 -10.3124 -1.7151
-14.9172 -11.9843 -1.9347
-14.4649 -12.2090 -1.7042
-14.4972 -12.8490 -1.7462
-17.3509 -16.1438 -2.1387
-13.8291 -13.5052 -1.7463
-13.9444 -14.2925 -1.8059
-13.9919 -15.0526 -1.8606
-14.0489 -15.8663 -1.9206
-13.9124 -16.4991 -1.9578
-12.0080 -14.9601 -1.7419
-13.2828 -17.3934 -1.9891
-19.7401 -27.1871 -3.0564
-32.8248 -47.5867 -5.2635
-16.6877 -25.4895 -2.7762
-15.7361 -25.3530 -2.7213
-14.2965 -24.3271 -2.5753
-14.6501 -26.3681 -2.7550
-24.9787 -47.6354 -4.9160
-23.6134 -47.8074 -4.8767
-22.1565 -47.7303 -4.8158
-20.8214 -47.8506 -4.7785
-19.4427 -47.8093 -4.7287
-18.5669 -49.0195 -4.8051
-18.6289 -53.0186 -5.1540
-15.2238 -46.9254 -4.5266
-14.0702 -47.2303 -4.5237
-12.8297 -47.2090 -4.4924
-11.6164 -47.2278 -4.4676
-10.4393 -47.3501 -4.4554
-9.2282 -47.2647 -4.4263
-8.0680 -47.3868 -4.4191
-6.8812 -47.3011 -4.3952
-5.7142 -47.2762 -4.3795
-4.5875 -47.5867 -4.3972
-3.4375 -47.7086 -4.3998
-2.2756 -47.6225 -4.3857
-1.1255 -47.7445 -4.3932
0.0291 -47.6583 -4.3839
1.1846 -47.7803 -4.3962
2.3386 -47.7201 -4.3941
3.1407 -42.8607 -3.9519
3.7100 -37.9998 -3.5104
4.8037 -39.3413 -3.6432
5.7989 -39.5232 -3.6710
6.6894 -39.0024 -3.6355
3.4250 -17.4288 -1.6313
3.6308 -16.3736 -1.5397
4.0229 -16.2700 -1.5381
4.3945 -16.0927 -1.5302
4.5863 -15.3270 -1.4668
5.1509 -15.8115 -1.5239
5.6052 -15.8908 -1.5433
5.9614 -15.6815 -1.5357
6.2977 -15.4321 -1.5248
6.5570 -15.0190 -1.4982
7.2919 -15.6587 -1.5781
7.5661 -15.2714 -1.5559
7.8881 -14.9986 -1.5459
11.4389 -20.5295 -2.1422
7.2161 -12.2448 -1.2945
7.4151 -11.9143 -1.2770
7.6569 -11.6646 -1.2686
7.9318 -11.4691 -1.2667
11.3004 -15.5239 -1.7425
11.3086 -14.7711 -1.6866
11.3467 -14.1011 -1.6393
11.4267 -13.5180 -1.6015
11.5264 -12.9858 -1.5693
11.6369 -12.4887 -1.5411
6.3950 -6.5388 -0.8248
6.4159 -6.2506 -0.8068
6.4358 -5.9736 -0.7900
6.4696 -5.7202 -0.7760
6.4627 -5.4415 -0.7582
6.2331 -4.9958 -0.7160
5.6222 -4.2872 -0.6329
5.6708 -4.1113 -0.6262
5.6992 -3.9253 -0.6179
5.6900 -3.7195 -0.6061
5.6814 -3.5208 -0.5952
5.7235 -3.3583 -0.5901
5.7892 -3.2113 -0.5878
5.8549 -3.0651 -0.5860
5.9206 -2.9194 -0.5844
6.0233 -2.7911 -0.5869
6.1440 -2.6686 -0.5913
6.7656 -2.7462 -0.6436
7.4061 -2.7997 -0.6968
7.7905 -2.7317 -0.7254
7.8822 -2.5517 -0.7269
7.8597 -2.3361 -0.7183
7.8415 -2.1259 -0.7106
7.8271 -1.9202 -0.7037
7.8175 -1.7186 -0.6978
7.8259 -1.5232 -0.6940
7.8474 -1.3315 -0.6917
7.8692 -1.1403 -0.6898
7.8934 -0.9496 -0.6886
7.9352 -0.7607 -0.6893
7.9775 -0.5706 -0.6905
7.1302 -0.3370 -0.6152
6.9707 -0.1608 -0.6000
6.8574 0.0075 -0.5891
6.7663 0.1710 -0.5805
6.6871 0.3308 -0.5733
6.6100 0.4873 -0.5665
6.5956 0.6468 -0.5656
6.6307 0.8125 -0.5691
6.6992 0.9857 -0.5759
6.8448 1.1767 -0.5898
6.9691 1.3722 -0.6022
7.1624 1.5909 -0.6210
7.5608 1.8722 -0.6582
8.1617 2.2316 -0.7138
10.1144 3.0300 -0.8893
9.9040 3.2296 -0.8760
16.3317 5.7658 -1.4542
20.2705 7.7120 -1.8181
20.0409 8.1842 -1.8119
15.9982 6.9888 -1.4590
16.7751 7.8161 -1.5442
19.4736 9.6527 -1.8108
19.3417 10.1766 -1.8182
19.2238 10.7154 -1.8282
11.0159 6.4939 -1.0607
10.0090 6.2309 -0.9765
9.8274 6.4525 -0.9724
9.6390 6.6675 -0.9681
9.9375 7.2350 -1.0139
12.6382 9.6768 -1.3111
12.5080 10.0656 -1.3207
18.9585 16.0262 -2.0394
11.4378 10.1525 -1.2548
5.1224 4.7728 -0.5737
5.6162 5.4923 -0.6429
6.2565 6.4214 -0.7329
6.6173 7.1284 -0.7942
6.7646 7.6495 -0.8329
6.6722 7.9228 -0.8439
6.5689 8.1939 -0.8547
6.4264 8.4254 -0.8615
6.2755 8.6533 -0.8682
7.5505 10.9589 -1.0798
7.2743 11.1239 -1.0775
6.9987 11.2886 -1.0758
6.8423 11.6558 -1.0937
6.7193 12.1070 -1.1196
6.6512 12.6977 -1.1581
6.8703 13.9242 -1.2535
8.0714 17.4057 -1.5478
7.6473 17.5926 -1.5465
7.2233 17.7799 -1.5462
6.8878 18.2029 -1.5671
16.3357 46.5377 -3.9693
19.6459 60.6144 -5.1253
18.6977 62.8234 -5.2698
18.5941 68.4833 -5.7028
7.2695 29.5818 -2.4471
6.5995 29.9607 -2.4636
15.5202 79.5598 -6.5074
8.2927 48.7472 -3.9686
12.1320 83.4624 -6.7674
5.6884 47.0988 -3.8060
4.5621 47.3564 -3.8163
-5.6879 58.3347 -4.7036
-6.7158 55.0702 -4.4533
-7.1235 48.6112 -3.9449
-8.1777 47.7372 -3.8901
-9.2376 47.0640 -3.8538
-7.6643 34.6040 -2.8490
-8.3904 33.9737 -2.8143
-10.2879 37.7187 -3.1457
-14.2023 47.5177 -3.9926
-15.3053 47.0363 -3.9843
-11.0007 31.2233 -2.6682
-11.8437 31.1910 -2.6909
-8.3885 20.5794 -1.7936
-8.9547 20.5349 -1.8094
-9.4543 20.3261 -1.8120
-9.9066 20.0193 -1.8069
-10.3574 19.7175 -1.8033
-10.1979 18.3245 -1.6994
-12.2831 20.8687 -1.9641
-12.8730 20.7098 -1.9798
-12.1957 18.6025 -1.8077
-12.4772 18.0647 -1.7861
-13.1652 18.1091 -1.8233
-6.3633 8.3226 -0.8541
-14.1523 17.6114 -1.8440
-14.5548 17.2422 -1.8437
-16.1436 18.2129 -1.9910
-14.9825 16.1021 -1.8015
-13.9845 14.3198 -1.6414
-16.4527 16.0524 -1.8875
-17.9302 16.6678 -2.0128
-17.2587 15.2833 -1.8979
-18.7621 15.8226 -2.0233
-20.9399 16.8107 -2.2167
-21.3919 16.3397 -2.2252
-24.0311 17.4528 -2.4586
-21.8338 15.0650 -2.1991
-16.0256 10.4952 -1.5904
-17.8298 11.0708 -1.7449
-18.0313 10.6011 -1.7417
-18.2003 10.1169 -1.7365
-18.0283 9.4586 -1.7004
-17.8706 8.8321 -1.6674
-17.7261 8.2339 -1.6375
-17.5937 7.6612 -1.6102
-19.3632 7.8809 -1.7570
-18.2201 6.4084 -1.6284
-16.4466 5.3417 -1.4603
-16.6784 4.9749 -1.4722
-16.8796 4.5939 -1.4821
-17.0858 4.2094 -1.4933
-17.2972 3.8207 -1.5057
-17.5145 3.4271 -1.5195
-18.3658 3.1350 -1.5890
-19.2475 2.8087 -1.6616
-19.9044 2.4150 -1.7156
-42.4887 4.1160 -3.6587
-28.6119 2.0754 -2.4628
-15.3543 0.7414 -1.3219
-14.5430 0.3503 -1.2530
-13.9589 -0.0012 -1.2043
-14.2081 -0.3446 -1.2282
-14.3948 -0.6975 -1.2475
-14.8510 -1.0799 -1.2910
-36.6830 -3.5604 -3.2007
-14.5679 -1.7702 -1.2765
-14.4485 -2.1112 -1.2722
-14.2631 -2.4375 -1.2627
-14.0506 -2.7522 -1.2514
-13.4495 -2.9737 -1.2059
-14.8306 -3.6570 -1.3393
-15.1942 -4.1387 -1.3829
-20.9863 -6.2650 -1.9263
-15.8834 -5.1629 -1.4712
-16.7084 -5.8811 -1.5627
-19.2756 -7.3129 -1.8215
-17.0025 -6.9251 -1.6245
-17.7604 -7.7394 -1.7168
-20.4661 -9.5135 -2.0029
-17.6582 -8.7333 -1.7507
-15.2718 -8.0181 -1.5350
-15.0822 -8.3897 -1.5381
-14.8759 -8.7524 -1.5402
-14.6719 -9.1167 -1.5436
-14.4697 -9.4834 -1.5480
-14.2690 -9.8529 -1.5536
-14.1848 -10.3099 -1.5731
-14.5618 -11.1316 -1.6463
-14.4361 -11.5989 -1.6653
-14.2918 -12.0641 -1.4752
-14.3211 -12.6942 -1.5114
-16.7555 -15.5912 -1.8100
-16.4024 -16.0197 -1.8154
-15.8943 -16.2924 -1.8045
-15.3397 -16.5039 -1.7884
-15.1194 -17.0768 -1.8125
-12.7485 -15.1200 -1.5734
-12.0058 -14.9585 -1.5276
-12.6928 -16.6222 -1.6674
-19.9878 -27.5304 -2.7151
-17.3418 -25.1426 -2.4400
-16.0814 -24.5653 -2.3477
-15.2608 -24.5889 -2.3162
-14.2896 -24.3171 -2.2593
-15.0173 -27.0308 -2.4791
-25.2079 -48.0757 -4.3554
-23.8126 -48.2140 -4.3178
-22.3359 -48.1202 -4.2628
-20.9971 -48.2576 -4.2316
-19.5852 -48.1628 -4.1832
-18.5669 -49.0228 -4.2202
-18.6289 -53.0222 -4.5269
-15.2238 -46.9285 -3.9761
-14.0882 -47.2936 -3.9789
-12.8289 -47.2090 -3.9462
-11.6157 -47.2278 -3.9247
-10.4415 -47.3626 -3.9151
-9.2277 -47.2648 -3.8886
-8.0697 -47.3994 -3.8835
-6.8808 -47.3011 -3.8616
-5.7139 -47.2762 -3.8478
-4.5873 -47.5867 -3.8634
-3.4382 -47.7212 -3.8668
-2.2756 -47.6225 -3.8535
-1.1258 -47.7570 -3.8610
0.0261 -42.9551 -3.4717
1.1845 -47.7803 -3.8626
2.3383 -47.7202 -3.8607
3.4743 -47.4186 -3.8414
4.0178 -41.1558 -3.3402
4.9652 -40.6673 -3.3086
5.5780 -38.0210 -3.1024
6.5790 -38.3618 -3.1413
3.3795 -17.1987 -1.4141
3.6416 -16.4234 -1.3566
4.0274 -16.2896 -1.3526
4.3035 -15.7607 -1.3163
4.7826 -15.9841 -1.3435
4.9890 -15.3156 -1.2963
5.5566 -15.7542 -1.3436
5.9473 -15.6455 -1.3453
6.0807 -14.9015 -1.2927
6.7768 -15.5236 -1.3594
7.2609 -15.5932 -1.3794
7.5338 -15.2074 -1.3599
7.7788 -14.7920 -1.3380
7.0401 -12.6359 -1.1570
7.1392 -12.1154 -1.1238
7.3687 -11.8408 -1.1135
7.6250 -11.6169 -1.1083
7.9130 -11.4429 -1.1085
8.5018 -11.6803 -1.1498
10.9771 -14.3393 -1.4357
11.0569 -13.7422 -1.4006
11.1458 -13.1869 -1.3695
11.2614 -12.6884 -1.3439
11.3840 -12.2184 -1.3213
6.3374 -6.4806 -0.7162
6.3659 -6.2025 -0.7014
6.3913 -5.9329 -0.6872
6.4348 -5.6900 -0.6760
6.4349 -5.4187 -0.6611
6.2166 -4.9831 -0.6252
5.5384 -4.2237 -0.5458
5.5871 -4.0511 -0.5400
5.6352 -3.8817 -0.5346
5.6309 -3.6813 -0.5248
5.6234 -3.4853 -0.5153
5.6669 -3.3255 -0.5109
5.7321 -3.1800 -0.5089
5.7972 -3.0353 -0.5072
5.8623 -2.8911 -0.5058
5.9349 -2.7506 -0.5053
6.0530 -2.6295 -0.5089
6.6139 -2.6851 -0.5495
7.2700 -2.7488 -0.5973
7.7012 -2.7009 -0.6261
7.8336 -2.5365 -0.6305
7.8153 -2.3234 -0.6233
7.8017 -2.1156 -0.6168
7.7921 -1.9121 -0.6111
7.7828 -1.7115 -0.6058
7.7773 -1.5143 -0.6013
7.7988 -1.3237 -0.5992
7.8253 -1.1344 -0.5978
7.8666 -0.9469 -0.5979
7.9083 -0.7586 -0.5984
7.4376 -0.5324 -0.5606
7.0046 -0.3316 -0.5262
6.8899 -0.1594 -0.5162
6.7792 0.0070 -0.5068
6.6895 0.1686 -0.4993
6.6121 0.3267 -0.4930
6.5282 0.4809 -0.4865
6.5155 0.6385 -0.4857
6.5496 0.8021 -0.4886
6.5896 0.9691 -0.4922
6.7893 1.1667 -0.5082
6.9112 1.3603 -0.5186
7.1010 1.5768 -0.5345
7.4986 1.8563 -0.5666
8.0790 2.2084 -0.6132
9.8046 2.9365 -0.7480
9.6065 3.1320 -0.7370
9.4144 3.3230 -0.7269
9.2291 3.5106 -0.7177
19.5375 7.9773 -1.5310
15.9960 6.9867 -1.2641
19.2165 8.9523 -1.5326
14.3194 7.0968 -1.1533
13.3805 7.0391 -1.0892
11.2345 6.2613 -0.9250
9.9772 5.8809 -0.8316
9.7013 6.0387 -0.8191
9.4865 6.2279 -0.8121
9.3257 6.4501 -0.8102
9.2762 6.7528 -0.8185
9.7728 7.4820 -0.8766
18.5785 14.9491 -1.6958
18.6155 15.7347 -1.7308
11.4459 10.1587 -1.0851
10.9768 10.2269 -1.0622
9.5922 9.3798 -0.9485
4.7479 4.8726 -0.4803
5.1938 5.5944 -0.5382
5.7709 6.5253 -0.6134
6.3274 7.5127 -0.6908
6.3869 7.9662 -0.7172
6.2788 8.2311 -0.7263
6.1301 8.4521 -0.7317
7.5475 10.9537 -0.9311
7.2668 11.1115 -0.9283
6.9671 11.2368 -0.9235
6.8065 11.5941 -0.9381
6.6682 12.0141 -0.9579
6.6429 12.6809 -0.9971
6.7938 13.7682 -1.0684
8.0067 17.2651 -1.3233
7.5859 17.4502 -1.3220
7.1653 17.6359 -1.3216
6.7460 17.8270 -1.3224
20.8619 59.4282 -4.3669
18.5688 57.2874 -4.1729
20.2429 68.0110 -4.9143
20.6464 76.0374 -5.4539
7.1736 29.1899 -2.0797
6.4988 29.5017 -2.0893
6.0356 30.9381 -2.1793
13.9858 82.2087 -5.7635
6.9229 47.6234 -3.3252
5.6480 46.7623 -3.2539
4.6713 48.4869 -3.3646
-7.6163 78.1068 -5.4234
-6.4501 52.8874 -3.6830
-7.9703 54.3860 -3.8010
-8.1853 47.7781 -3.3533
-9.1928 46.8318 -3.3029
-10.5940 47.8276 -3.3919
-14.5912 59.0767 -4.2157
-17.2897 63.3844 -4.5541
-11.2000 37.4701 -2.7126
-10.2579 31.5225 -2.3008
-9.2572 26.2727 -1.9348
-9.5289 25.0930 -1.8657
-8.0744 19.8074 -1.4880
-8.6168 19.7586 -1.5008
-9.1369 19.6423 -1.5097
-9.5752 19.3481 -1.5058
-10.0119 19.0582 -1.5031
-11.2182 20.1564 -1.6123
-11.9370 20.2791 -1.6464
-12.4107 19.9644 -1.6466
-13.2284 20.1759 -1.6918
-12.2846 17.7843 -1.5175
-12.7941 17.5972 -1.5293
-6.3631 8.3216 -0.7373
-13.7014 17.0488 -1.5414
-14.0555 16.6491 -1.5375
-14.9753 16.8933 -1.5952
-15.3888 16.5372 -1.5985
-15.6359 16.0093 -1.5858
-16.0896 15.6966 -1.5952
-16.7543 15.5731 -1.6257
-18.7791 16.6280 -1.7854
-19.9268 16.8031 -1.8582
-18.2995 14.6894 -1.6755
-19.0437 14.5445 -1.7137
-19.7623 14.3510 -1.7495
-23.3378 16.1009 -2.0344
-16.0235 10.4926 -1.3766
-16.9785 10.5409 -1.4388
-20.8623 12.2639 -1.7453
-22.7988 12.6713 -1.8844
-24.7758 12.9969 -2.0248
-26.1610 12.9274 -2.1156
-29.8969 13.8851 -2.3942
-26.0133 11.3257 -2.0644
-18.0067 7.3275 -1.4171
-17.8392 6.7618 -1.3932
-17.6798 6.2171 -1.3711
-17.5189 5.6888 -1.3501
-17.2276 5.1376 -1.3202
-16.9519 4.6124 -1.2925
-19.6425 4.8380 -1.4912
-23.4243 5.1725 -1.7716
-15.8534 3.1010 -1.1952
-16.0365 2.7363 -1.2060
-16.2330 2.3677 -1.2184
-19.1704 2.3246 -1.4370
-19.8234 1.9191 -1.4849
-29.8349 2.1621 -2.2344
-15.3630 0.7408 -1.1511
-15.1035 0.3628 -1.1328
-13.9614 -0.0021 -1.0488
-14.2106 -0.3456 -1.0699
-14.0326 -0.6809 -1.0594
-22.1563 -1.6126 -1.6783
-36.7415 -3.5685 -2.7941
-14.2374 -1.7310 -1.0876
-14.0797 -2.0582 -1.0810
-13.5632 -2.3188 -1.0473
-14.4443 -2.8302 -1.1223
-14.6308 -3.2358 -1.1446
-14.8164 -3.6545 -1.1678
-14.7312 -4.0135 -1.1705
-14.9403 -4.4611 -1.1974
-14.8821 -4.8384 -1.2039
-23.2843 -8.1974 -1.9024
-22.7641 -8.6380 -1.8796
-14.4038 -5.8677 -1.2027
-21.4924 -9.3672 -1.8160
-17.6996 -8.2287 -1.5144
-17.0440 -8.4308 -1.4777
-16.4233 -8.6239 -1.4438
-15.6851 -8.7263 -1.3993
-14.9585 -8.8020 -1.3552
-19.7507 -12.2740 -1.8184
-16.7719 -10.9935 -1.5706
-19.0554 -13.1595 -1.8163
-18.6376 -13.5478 -1.8098
-14.0729 -10.7590 -1.3934
-14.2415 -11.4437 -1.4390
-13.8439 -11.6871 -1.2271
-13.8622 -12.2886 -1.2567
-13.7766 -12.8205 -1.2786
-13.5540 -13.2390 -1.2891
-13.3303 -13.6655 -1.3008
-13.1050 -14.1008 -1.3135
-21.5892 -24.3861 -2.2253
-17.5680 -20.8378 -1.8646
-12.0035 -14.9569 -1.3137
-11.4966 -15.0568 -1.2993
-11.0313 -15.1953 -1.2893
-16.3366 -23.6870 -1.9780
-16.4174 -25.0804 -2.0629
-15.4859 -24.9536 -2.0232
-14.2827 -24.3072 -1.9442
-14.5519 -26.1950 -2.0685
-25.2061 -48.0757 -3.7505
-23.8110 -48.2140 -3.7185
-22.3345 -48.1202 -3.6716
-20.9958 -48.2576 -3.6451
-19.5840 -48.1628 -3.6038
-18.5670 -49.0261 -3.6362
-18.6290 -53.0256 -3.9008
-15.2239 -46.9315 -3.4265
-14.0873 -47.2936 -3.4289
-12.8282 -47.2090 -3.4010
-11.6150 -47.2278 -3.3827
-10.4381 -47.3501 -3.3737
-9.2272 -47.2648 -3.3519
-8.0671 -47.3868 -3.3468
-6.8805 -47.3011 -3.3289
-5.7136 -47.2762 -3.3171
-4.5871 -47.5867 -3.3307
-3.4372 -47.7086 -3.3328
-2.2755 -47.6225 -3.3221
-1.1256 -47.7445 -3.3278
0.0247 -40.7989 -2.8428
1.0268 -41.4255 -2.8871
2.0301 -41.4334 -2.8898
3.0209 -41.2335 -2.8796
3.9598 -40.5651 -2.8381
4.8470 -39.7024 -2.7843
5.3524 -36.4863 -2.5662
2.9929 -17.4529 -1.2318
3.4022 -17.3159 -1.2270
3.7555 -16.9386 -1.2058
4.2096 -17.0280 -1.2184
4.2164 -15.4428 -1.1113
4.7365 -15.8312 -1.1465
5.0892 -15.6243 -1.1393
5.4676 -15.5030 -1.1389
5.6380 -14.8328 -1.0986
6.2294 -15.2671 -1.1406
6.6717 -15.2839 -1.1526
7.1784 -15.4172 -1.1743
7.5018 -15.1440 -1.1659
7.8215 -14.8742 -1.1582
6.9306 -12.4405 -0.9804
7.0951 -12.0416 -0.9612
7.3287 -11.7775 -0.9529
7.6074 -11.5911 -0.9513
7.8944 -11.4169 -0.9513
8.1801 -11.2393 -0.9515
10.7184 -14.0026 -1.2054
10.8068 -13.4325 -1.1769
10.9140 -12.9137 -1.1527
11.0208 -12.4184 -1.1303
6.2370 -6.6949 -0.6220
6.2810 -6.4235 -0.6098
6.3168 -6.1552 -0.5977
6.3474 -5.8928 -0.5861
6.3913 -5.6521 -0.5764
6.4074 -5.3961 -0.5650
5.6395 -4.5210 -0.4867
5.4572 -4.1622 -0.4614
5.5058 -3.9926 -0.4564
5.5540 -3.8262 -0.4518
5.5732 -3.6440 -0.4453
5.5667 -3.4506 -0.4371
5.6115 -3.2934 -0.4335
5.6761 -3.1494 -0.4316
5.7407 -3.0061 -0.4301
5.8053 -2.8634 -0.4288
5.8700 -2.7209 -0.4277
