ply
format ascii 1.0
element vertex 2088
property float32 x
property float32 y
property float32 z
end_header
-22.0510 -18.6283 0.2850
-11.7214 -10.3977 0.1531
-12.5954 -11.7288 0.1664
-44.4423 -43.4364 0.5950
-21.8661 -22.4296 0.2970
-19.0504 -20.5102 0.2628
-18.1635 -20.5285 0.2549
-17.3119 -20.5457 0.2475
-16.4927 -20.5619 0.2407
-33.2116 -43.5199 0.4954
-16.0364 -22.1014 0.2450
-13.5928 -19.7190 0.2131
-28.4958 -43.5545 0.4593
-27.0220 -43.5642 0.4488
-25.5916 -43.5747 0.4390
-24.2007 -43.5849 0.4300
-22.8460 -43.5949 0.4215
-21.5245 -43.6046 0.4137
-20.2337 -43.6140 0.4064
-18.9709 -43.6233 0.3997
-18.1835 -44.7386 0.4035
-18.2082 -48.0996 0.4274
-14.9578 -42.5943 0.3733
-13.8138 -42.6027 0.3686
-12.6872 -42.6110 0.3644
-11.5762 -42.6191 0.3606
-10.4794 -42.6271 0.3572
-9.3951 -42.6351 0.3541
-8.3218 -42.6429 0.3515
-7.2583 -42.6507 0.3492
-6.2030 -42.6585 0.3473
-5.1850 -42.9160 0.3478
-4.1364 -42.9237 0.3466
-3.0712 -42.6385 0.3434
-2.0375 -42.6461 0.3430
-1.0058 -42.6537 0.3428
0.0251 -42.6612 0.3430
1.0564 -42.6688 0.3436
2.1036 -42.9695 0.3468
3.1465 -42.9771 0.3481
3.8488 -39.4533 0.3210
4.7512 -38.9409 0.3185
4.9102 -33.4906 0.2757
2.7497 -16.0435 0.1331
6.2996 -32.0798 0.2683
6.7870 -30.6281 0.2586
2.3130 -9.3609 0.0799
3.5675 -13.0733 0.1128
3.9529 -13.2192 0.1155
3.9835 -12.2364 0.1083
4.2970 -12.1905 0.1095
4.5282 -11.9197 0.1087
4.8727 -11.9485 0.1108
5.0424 -11.5576 0.1090
5.1776 -11.1260 0.1069
5.4011 -10.9093 0.1069
5.4328 -10.3372 0.1033
5.5603 -9.9862 0.1020
6.0072 -10.2010 0.1065
6.4650 -10.3953 0.1111
6.6351 -10.1154 0.1108
5.7064 -8.2575 0.0928
5.8409 -8.0300 0.0926
5.9837 -7.8218 0.0928
6.1836 -7.6907 0.0939
6.3580 -7.5277 0.0947
6.5615 -7.3983 0.0960
6.7719 -7.2737 0.0974
6.9577 -7.1202 0.0986
7.1442 -6.9661 0.0999
7.3340 -6.8133 0.1013
7.5186 -6.6537 0.1027
7.7107 -6.4984 0.1042
9.3448 -7.4970 0.1252
9.4365 -7.2028 0.1254
9.5251 -6.9127 0.1257
9.6121 -6.6272 0.1261
9.7067 -6.3520 0.1267
9.8039 -6.0825 0.1274
9.8988 -5.8149 0.1282
9.9905 -5.5485 0.1291
10.0964 -5.2922 0.1302
10.2018 -5.0371 0.1314
8.8255 -4.0954 0.1136
7.0337 -3.0596 0.0906
6.2441 -2.5385 0.0805
6.1088 -2.3132 0.0789
5.9815 -2.1012 0.0774
5.8285 -1.8905 0.0757
5.6844 -1.6931 0.0740
5.6689 -1.5404 0.0741
5.6824 -1.3975 0.0747
5.7048 -1.2577 0.0753
5.7300 -1.1188 0.0761
5.7552 -0.9799 0.0769
5.7803 -0.8410 0.0778
5.8054 -0.7019 0.0787
5.8305 -0.5624 0.0796
5.8775 -0.4239 0.0809
5.8413 -0.2796 0.0811
5.6581 -0.1339 0.0793
5.5203 0.0028 0.0782
5.4218 0.1338 0.0775
5.3507 0.2615 0.0773
5.2812 0.3862 0.0772
5.2332 0.5101 0.0774
5.2534 0.6406 0.0786
5.2739 0.7728 0.0799
5.2947 0.9071 0.0813
5.3159 1.0435 0.0827
5.3349 1.1818 0.0842
5.3228 1.3148 0.0852
5.3105 1.4488 0.0863
5.4324 1.6241 0.0896
5.5864 1.8183 0.0936
5.7162 2.0145 0.0974
5.8545 2.2237 0.1014
7.3186 2.9841 0.1290
7.4184 3.2360 0.1332
7.5686 3.5216 0.1384
7.1229 3.5261 0.1327
6.9794 3.6677 0.1327
6.8580 3.8182 0.1330
6.7829 3.9940 0.1343
6.7072 4.1709 0.1357
6.6045 4.3318 0.1366
6.4074 4.4276 0.1356
6.2156 4.5209 0.1346
6.0287 4.6117 0.1338
5.8714 4.7206 0.1336
5.7946 4.8940 0.1353
5.7220 5.0747 0.1372
5.9195 5.5110 0.1459
7.2465 7.0810 0.1837
7.1058 7.2874 0.1855
8.0660 8.6823 0.2171
8.1256 9.1818 0.2257
8.0241 9.5212 0.2302
7.6883 9.5835 0.2282
7.4163 9.7165 0.2280
7.1469 9.8481 0.2279
6.8796 9.9785 0.2279
6.6313 10.1339 0.2286
6.4316 10.3672 0.2312
6.2888 10.7062 0.2361
6.2324 11.2227 0.2449
6.2096 11.8473 0.2560
7.5877 15.3688 0.3290
7.1920 15.5002 0.3290
6.7817 15.5921 0.3282
6.3985 15.7404 0.3288
6.2086 16.3986 0.3401
6.0243 17.1524 0.3534
5.9178 18.2483 0.3736
6.4207 21.5614 0.4389
5.8966 21.7058 0.4395
5.5237 22.4660 0.4527
5.2466 23.8066 0.4777
4.9765 25.4979 0.5096
5.6372 33.1213 0.6597
2.7007 18.5713 0.3687
5.7877 47.9004 0.9486
4.9223 51.0754 1.0092
3.1897 44.2817 0.8734
2.4515 51.3125 1.0107
1.2010 50.9405 1.0023
-2.2564 91.0903 1.7911
-3.3586 68.5810 1.3488
-5.0249 68.6158 1.3504
-10.5373 86.3432 1.7037
-14.4403 98.4714 1.9468
-10.9315 63.7675 1.2636
-18.0552 91.9246 1.8267
-17.3476 78.2695 1.5603
-10.7918 43.6676 0.8737
-20.6300 75.5846 1.5185
-21.7875 72.8470 1.4702
-23.1184 70.9998 1.4401
-24.5854 69.7337 1.4222
-14.2667 37.5469 0.7704
-25.7395 63.1038 1.3032
-18.4688 42.3241 0.8802
-21.4069 45.9920 0.9636
-13.3123 26.8830 0.5678
-37.9224 72.1428 1.5370
-37.9517 68.1473 1.4653
-20.1812 34.2630 0.7439
-41.2141 66.2565 1.4537
-17.1941 26.2075 0.5814
-45.8252 66.2970 1.4880
-27.5218 37.8285 0.8596
-44.7337 58.4626 1.3461
-17.3298 21.5487 0.5031
-19.3735 22.9324 0.5433
-51.9492 58.5608 1.4092
-54.5672 58.5964 1.4334
-22.2286 22.7424 0.5660
-31.9265 31.1229 0.7889
-16.1566 15.0059 0.3878
-33.0831 29.2699 0.7721
-40.3423 33.9904 0.9162
-21.4741 17.2232 0.4750
-40.4009 30.8290 0.8710
-40.4286 29.3319 0.8502
-40.4555 27.8845 0.8305
-19.5155 12.7669 0.3914
-19.7384 12.2420 0.3870
-45.7439 26.8626 0.8772
-48.4201 26.8822 0.9089
-51.3444 26.9037 0.9439
-19.4497 9.5996 0.3504
-19.8761 9.2197 0.3511
-63.3739 27.5555 1.0984
-23.4933 9.5469 0.3997
-71.4737 27.0514 1.1944
-15.1476 4.5090 0.2406
-38.6453 10.4940 0.6041
-38.6597 9.5011 0.5951
-38.2735 8.4310 0.5804
-38.2786 7.4672 0.5721
-38.6774 6.5791 0.5701
-38.6825 5.6219 0.5625
-15.7952 1.9071 0.2267
-37.1847 3.5804 0.5271
-37.1913 2.6759 0.5209
-37.1979 1.7742 0.5150
-37.2045 0.8742 0.5094
-37.2111 -0.0250 0.5041
-37.2177 -0.9246 0.4991
-37.6825 -1.8480 0.5005
-37.6875 -2.7625 0.4961
-38.2891 -3.7387 0.4997
-38.2946 -4.6758 0.4957
-16.9398 -2.4851 0.2176
-37.7120 -6.4669 0.4811
-38.3894 -7.5422 0.4866
-38.3965 -8.5121 0.4838
-38.4037 -9.4928 0.4813
-23.5085 -6.4174 0.2932
-38.8135 -11.6102 0.4820
-38.8210 -12.6422 0.4804
-38.4335 -13.5515 0.4742
-16.7151 -6.3518 0.2057
-38.8445 -15.8455 0.4773
-38.8527 -16.9551 0.4770
-38.4654 -17.9046 0.4721
-38.4738 -19.0528 0.4724
-26.6438 -14.0059 0.3275
-22.7039 -12.6443 0.2797
-71.1096 -41.8849 0.8784
-20.9470 -13.0300 0.2597
-59.6745 -39.1511 0.7431
-60.5016 -41.8191 0.7576
-23.2515 -16.9162 0.2930
-22.8526 -17.4858 0.2901
-22.4526 -18.0563 0.2874
-40.1177 -33.8940 1.1006
-11.7197 -10.3972 0.3267
-12.5935 -11.7280 0.3572
-44.4385 -43.4365 1.2837
-21.8624 -22.4276 0.6441
-40.3693 -43.4663 1.2145
-38.4636 -43.4754 1.1832
-36.6459 -43.4947 1.1544
-16.0633 -20.0282 0.5190
-33.2091 -43.5199 1.1021
-16.0327 -22.0979 0.5475
-13.5905 -19.7170 0.4785
-28.4938 -43.5545 1.0361
-27.0201 -43.5642 1.0170
-25.5899 -43.5747 0.9991
-24.1991 -43.5849 0.9825
-22.8445 -43.5949 0.9670
-21.5231 -43.6046 0.9527
-20.2205 -43.5883 0.9388
-18.9697 -43.6233 0.9269
-18.1835 -44.7414 0.9388
-18.2082 -48.1025 0.9975
-14.9569 -42.5943 0.8736
-13.8130 -42.6027 0.8650
-12.6865 -42.6110 0.8572
-11.5756 -42.6191 0.8501
-10.4788 -42.6271 0.8437
-9.3946 -42.6351 0.8380
-8.3214 -42.6430 0.8331
-7.2535 -42.6250 0.8283
-6.2028 -42.6585 0.8251
-5.1848 -42.9160 0.8269
-4.1363 -42.9237 0.8246
-3.0923 -42.9313 0.8229
-2.0515 -42.9390 0.8218
-1.0128 -42.9466 0.8213
0.0251 -42.9542 0.8215
1.0634 -42.9618 0.8223
2.1021 -42.9437 0.8232
3.1418 -42.9178 0.8246
3.9844 -40.8470 0.7872
4.6541 -38.1481 0.7380
4.9525 -33.7827 0.6566
2.7492 -16.0421 0.3135
6.1312 -31.2249 0.6139
6.9123 -31.1961 0.6175
2.3126 -9.3602 0.1867
3.6009 -13.1965 0.2655
3.9905 -13.3461 0.2710
4.0023 -12.2951 0.2522
4.3590 -12.3671 0.2564
4.5771 -12.0492 0.2528
4.7813 -11.7252 0.2491
4.9498 -11.3465 0.2442
2.0833 -4.4771 0.0977
2.1932 -4.4301 0.0982
2.3286 -4.4311 0.0998
5.5789 -10.0204 0.2294
5.9027 -10.0243 0.2336
6.5429 -10.5215 0.2498
5.6106 -8.5543 0.2071
5.6887 -8.2325 0.2034
5.8229 -8.0059 0.2021
5.9732 -7.8088 0.2016
6.1533 -7.6537 0.2023
6.3439 -7.5117 0.2034
6.5613 -7.3987 0.2056
6.7617 -7.2633 0.2073
6.9471 -7.1100 0.2087
7.1347 -6.9575 0.2102
7.3242 -6.8049 0.2120
7.5085 -6.6454 0.2137
7.6940 -6.4849 0.2156
9.1974 -7.3794 0.2539
9.2841 -7.0872 0.2529
9.3725 -6.8027 0.2521
9.4602 -6.5233 0.2515
9.5580 -6.2554 0.2514
9.6520 -5.9890 0.2514
9.7441 -5.7248 0.2515
9.8397 -5.4655 0.2519
9.9445 -5.2133 0.2527
10.0486 -4.9622 0.2537
7.9243 -3.6778 0.1989
6.8004 -2.9586 0.1698
6.2373 -2.5362 0.1551
6.1023 -2.3111 0.1511
5.9754 -2.0994 0.1475
5.8236 -1.8893 0.1435
5.6798 -1.6921 0.1397
5.5960 -1.5209 0.1375
5.6096 -1.3800 0.1377
5.6344 -1.2425 0.1384
5.6594 -1.1053 0.1391
5.6842 -0.9682 0.1399
5.7090 -0.8310 0.1408
5.7337 -0.6936 0.1417
5.7584 -0.5558 0.1428
5.7904 -0.4180 0.1441
5.7887 -0.2774 0.1447
5.6175 -0.1333 0.1411
5.4972 0.0024 0.1388
5.4242 0.1335 0.1377
5.3530 0.2613 0.1368
5.2835 0.3861 0.1360
5.2418 0.5106 0.1359
5.2621 0.6413 0.1375
5.2827 0.7738 0.1392
5.3036 0.9083 0.1411
5.3249 1.0449 0.1430
5.3232 1.1788 0.1444
5.3110 1.3115 0.1457
5.2987 1.4452 0.1470
5.3900 1.6110 0.1513
5.5875 1.8182 0.1588
5.7173 2.0146 0.1646
5.8558 2.2238 0.1709
7.0972 2.8934 0.2101
7.1888 3.1354 0.2160
7.2255 3.3615 0.2205
7.0863 3.5075 0.2197
6.9439 3.6485 0.2189
6.8124 3.7923 0.2186
6.7376 3.9669 0.2201
6.6395 4.1284 0.2210
6.5071 4.2675 0.2208
6.3176 4.3651 0.2188
6.1312 4.4590 0.2169
5.9493 4.5505 0.2151
5.8275 4.6849 0.2155
5.7563 4.8612 0.2179
5.6839 5.0404 0.2205
5.8618 5.4568 0.2332
6.9541 6.7947 0.2841
6.6636 6.8333 0.2798
6.3834 6.8705 0.2758
6.2192 7.0270 0.2768
7.9079 9.3826 0.3630
7.6589 9.5461 0.3630
7.3098 9.5762 0.3583
7.0447 9.7065 0.3576
6.7816 9.8356 0.3572
6.5755 10.0479 0.3599
6.3771 10.2785 0.3633
6.1756 10.5127 0.3670
6.1596 11.0908 0.3827
6.0861 11.6109 0.3963
6.4312 13.0255 0.4399
7.1637 15.4381 0.5164
6.7798 15.5866 0.5166
6.3966 15.7349 0.5170
6.1725 16.3022 0.5314
5.9389 16.9084 0.5471
5.8370 17.9982 0.5783
6.3868 21.4466 0.6847
5.8449 21.5145 0.6829
5.4919 22.3356 0.7052
5.2133 23.6541 0.7432
4.9416 25.3177 0.7920
5.5913 32.8503 1.0238
2.7009 18.5713 0.5768
5.7693 47.7467 1.4788
5.1174 53.0975 1.6407
3.1895 44.2777 1.3656
3.5669 74.6598 2.2993
1.8407 78.0854 2.4026
-0.0469 78.1217 2.4026
-1.9355 78.1204 2.4026
-3.3587 68.5750 2.1100
-5.0250 68.6098 2.1131
-7.2756 74.5532 2.2995
-9.0819 74.4106 2.2995
-10.9960 74.9772 2.3226
-10.9308 63.7581 1.9807
-14.5264 73.9520 2.3052
-16.3811 73.9027 2.3126
-10.7915 43.6626 1.3723
-19.5574 71.6491 2.2630
-19.3854 64.8102 2.0581
-20.4116 62.6817 2.0024
-21.4396 60.8062 1.9551
-14.2661 37.5422 1.2156
-24.2272 59.3918 1.9377
-18.4667 42.3159 1.3920
-21.4032 45.9804 1.5258
-13.3116 26.8796 0.9004
-36.0326 68.5422 2.3189
-37.8305 67.9242 2.3226
-20.1803 34.2587 1.1847
-41.2175 66.2565 2.3189
-17.1933 26.2041 0.9288
-44.6916 64.6516 2.3226
-27.5203 37.8233 1.3782
-44.7376 58.4627 2.1624
-17.3279 21.5445 0.8096
-19.3459 22.8977 0.8749
-31.1019 35.0571 1.3633
-30.6427 32.9023 1.3034
-22.2274 22.7390 0.9185
-30.4644 29.6947 1.2245
-16.1557 15.0036 0.6322
-31.5446 27.9059 1.2031
-32.1761 27.1071 1.1972
-21.4728 17.2203 0.7801
-34.5054 26.3274 1.2251
-40.4287 29.3286 1.4040
-40.4556 27.8813 1.3753
-19.5090 12.7611 0.6497
-19.7368 12.2395 0.6444
-45.7500 26.8626 1.4655
-48.4268 26.8822 1.5230
-51.3518 26.9037 1.5867
-19.4483 9.5975 0.5908
-19.8741 9.2173 0.5940
-63.3845 27.5556 1.8648
-23.4915 9.5445 0.6808
-71.2608 26.9658 2.0355
-71.2828 25.0222 2.0081
-71.3040 23.1100 1.9822
-15.1482 4.5082 0.4158
-38.6454 10.4914 1.0480
-38.6597 9.4985 1.0364
-38.2735 8.4285 1.0148
-38.2786 7.4646 1.0045
-38.6775 6.5766 1.0050
-38.6825 5.6193 0.9958
-15.7936 1.9059 0.4031
-37.1847 3.5780 0.9412
-37.1913 2.6735 0.9342
-37.1980 1.7718 0.9278
-37.2046 0.8718 0.9219
-37.2112 -0.0274 0.9166
-37.2178 -0.9270 0.9118
-37.6825 -1.8504 0.9188
-37.6875 -2.7649 0.9150
-38.2891 -3.7411 0.9261
-38.2946 -4.6783 0.9234
-16.9381 -2.4860 0.4074
-37.7120 -6.4694 0.9052
-38.3894 -7.5447 0.9202
-38.3965 -8.5146 0.9197
-38.4037 -9.4953 0.9198
-23.5058 -6.4182 0.5633
-38.8135 -11.6127 0.9311
-38.8210 -12.6447 0.9330
-38.4335 -13.5541 0.9259
-16.7128 -6.3521 0.4039
-38.8446 -15.8481 0.9424
-38.8527 -16.9577 0.9469
-38.4654 -17.9073 0.9424
-38.4739 -19.0555 0.9483
-26.6397 -14.0057 0.6611
-22.7000 -12.6437 0.5676
-71.2331 -41.9628 1.7963
-20.9443 -13.0298 0.5331
-59.6744 -39.1554 1.5343
-6.8743 -4.7521 0.1787
-6.5917 -4.7962 0.1734
-43.6971 -33.4385 1.1646
-41.5536 -33.4204 1.1230
-40.1178 -33.8973 1.6830
-11.7181 -10.3966 0.5004
-12.5916 -11.7273 0.5479
-44.4346 -43.4365 1.9727
-21.8586 -22.4257 0.9913
-40.3660 -43.4663 1.8722
-38.4619 -43.4770 1.8269
-36.6430 -43.4947 1.7850
-34.8920 -43.5076 1.7458
-33.2066 -43.5199 1.7091
-16.0289 -22.0943 0.8501
-13.5881 -19.7151 0.7439
-28.4918 -43.5545 1.6132
-27.0183 -43.5643 1.5854
-25.5882 -43.5747 1.5595
-24.1975 -43.5849 1.5353
-22.8430 -43.5949 1.5128
-21.5217 -43.6046 1.4919
-20.2192 -43.5884 1.4715
-18.9685 -43.6233 1.4544
-18.1835 -44.7441 1.4744
-11.1370 -29.4237 0.9590
-10.2116 -29.0823 0.9383
-9.3225 -28.7544 0.9190
-8.4665 -28.4386 0.9011
-7.6410 -28.1341 0.8844
-7.0037 -28.4919 0.8893
-6.5492 -29.7235 0.9217
-8.3210 -42.6430 1.3148
-7.2532 -42.6250 1.3077
-6.2025 -42.6585 1.3031
-5.1846 -42.9160 1.3063
-4.1362 -42.9237 1.3027
-3.0922 -42.9313 1.3001
-2.0515 -42.9390 1.2984
-1.0129 -42.9466 1.2976
0.0250 -42.9542 1.2977
1.0632 -42.9618 1.2988
2.1018 -42.9437 1.2999
3.1414 -42.9175 1.3017
3.8724 -39.7024 1.2075
4.8184 -39.4982 1.2053
5.2297 -35.6762 1.0932
2.7488 -16.0408 0.4939
6.2216 -31.6877 0.9810
6.7597 -30.5100 0.9505
2.3122 -9.3595 0.2936
3.6348 -13.3221 0.4211
4.0289 -13.4755 0.4296
4.4382 -13.6350 0.4387
4.4087 -12.5093 0.4064
4.6271 -12.1817 0.4000
4.6932 -11.5100 0.3823
5.0124 -11.4907 0.3863
2.0608 -4.4291 0.1509
2.1947 -4.4336 0.1531
2.3302 -4.4346 0.1554
2.4674 -4.4321 0.1577
5.8018 -9.8537 0.3564
6.5787 -10.5799 0.3893
5.5520 -8.4655 0.3172
5.6710 -8.2076 0.3134
5.8042 -7.9809 0.3109
5.9628 -7.7959 0.3101
6.1391 -7.6367 0.3105
6.3437 -7.5121 0.3125
6.5611 -7.3992 0.3152
6.7514 -7.2530 0.3169
6.9366 -7.0999 0.3184
7.1253 -6.9490 0.3203
7.3144 -6.7965 0.3224
7.4984 -6.6372 0.3245
7.6836 -6.4769 0.3267
9.0660 -7.2748 0.3792
9.1466 -6.9830 0.3768
9.2253 -6.6966 0.3746
9.3160 -6.4246 0.3732
9.4100 -6.1594 0.3722
9.5027 -5.8971 0.3715
9.5942 -5.6374 0.3710
9.6934 -5.3850 0.3711
9.7970 -5.1368 0.3716
9.8999 -4.8895 0.3724
7.2650 -3.3724 0.2712
6.5223 -2.8381 0.2417
6.2305 -2.5339 0.2295
6.0959 -2.3091 0.2233
5.9693 -2.0977 0.2176
5.8186 -1.8881 0.2112
5.6751 -1.6911 0.2052
5.5403 -1.5062 0.1998
5.5408 -1.3634 0.1993
5.5657 -1.2277 0.1999
5.5904 -1.0922 0.2006
5.6150 -0.9568 0.2014
5.6394 -0.8213 0.2023
5.6637 -0.6855 0.2033
5.6880 -0.5494 0.2044
5.7123 -0.4127 0.2057
5.7370 -0.2753 0.2071
5.5775 -0.1327 0.2019
5.4996 0.0021 0.1998
5.4265 0.1332 0.1980
5.3553 0.2611 0.1963
5.2857 0.3859 0.1948
5.2505 0.5111 0.1946
5.2708 0.6420 0.1966
5.2915 0.7747 0.1988
5.3126 0.9094 0.2011
5.3235 1.0443 0.2032
5.3115 1.1759 0.2045
5.2993 1.3083 0.2059
5.2870 1.4417 0.2074
5.3482 1.5982 0.2120
5.5886 1.8182 0.2240
5.7185 2.0146 0.2319
5.8570 2.2239 0.2404
6.8888 2.8079 0.2865
6.9729 3.0407 0.2939
7.1004 3.3028 0.3035
7.0144 3.4714 0.3043
6.8977 3.6237 0.3039
6.7693 3.7678 0.3031
6.6610 3.9213 0.3033
6.5302 4.0599 0.3027
6.4004 4.1970 0.3021
6.2286 4.3031 0.2997
6.0459 4.3965 0.2968
5.8975 4.5104 0.2955
5.7912 4.6552 0.2966
5.7185 4.8288 0.2995
5.6463 5.0065 0.3027
5.8052 5.4036 0.3190
6.8647 6.7067 0.3869
6.5795 6.7465 0.3808
6.2872 6.7664 0.3741
6.1798 6.9819 0.3785
7.7232 9.1626 0.4874
7.6338 9.5141 0.4971
7.2062 9.4398 0.4850
6.9453 9.5689 0.4838
6.7148 9.7381 0.4849
6.5205 9.9632 0.4889
6.3234 10.1913 0.4933
6.1232 10.4228 0.4980
6.0437 10.8814 0.5136
5.9975 11.4411 0.5338
6.0784 12.3102 0.5681
7.1466 15.4004 0.7035
6.7799 15.5860 0.7052
6.3968 15.7344 0.7055
6.1184 16.1585 0.7184
5.8772 16.7317 0.7381
5.6831 17.5227 0.7674
5.7082 19.1666 0.8338
5.8198 21.4209 0.9262
5.4569 22.1920 0.9542
5.1761 23.4840 1.0047
4.9071 25.1399 1.0707
5.5782 32.7718 1.3902
4.7901 32.9356 1.3923
5.7466 47.5567 2.0045
5.1169 53.0915 2.2323
3.1892 44.2737 1.8580
2.6214 54.8682 2.2993
1.3526 57.3846 2.4026
-0.0346 57.4084 2.4026
-1.4225 57.4032 2.4026
-2.8102 57.3693 2.4026
-4.1976 57.3064 2.4026
-5.5840 57.2145 2.4026
-6.6700 54.6439 2.2995
-7.9937 54.5007 2.2995
-9.3151 54.3296 2.2995
-3.6423 18.5408 0.7876
-4.0953 18.4741 0.7881
-4.5476 18.3982 0.7886
-4.9991 18.3130 0.7890
-5.4498 18.2186 0.7896
-17.2024 52.8226 2.3039
-18.2392 51.7254 2.2717
-14.2654 37.5375 1.6610
-20.3138 49.7944 2.2214
-18.4646 42.3078 1.9039
-21.3994 45.9687 2.0880
-13.3110 26.8762 1.2330
-24.4861 46.5743 2.1596
-25.3839 45.5728 2.1371
-20.1794 34.2544 1.6257
-25.8582 41.5633 1.9978
-17.1925 26.2007 1.2764
-25.7586 37.2596 1.8411
-26.2566 36.0835 1.8100
-27.2590 35.6188 1.8151
-17.3260 21.5402 1.1162
-19.3667 22.9203 1.2087
-23.3013 26.2621 1.4108
-23.6817 25.4256 1.3928
-22.2263 22.7357 1.2712
-24.6706 24.0450 1.3738
-16.1549 15.0013 0.8768
-25.8375 22.8548 1.3681
-26.6934 22.4858 1.3803
-21.4714 17.2174 1.0854
-28.7481 21.9322 1.4218
-30.1375 21.8605 1.4596
-36.4731 25.1337 1.7312
-19.5025 12.7553 0.9080
-19.7352 12.2369 0.9019
-45.7560 26.8626 2.0543
-48.4334 26.8823 2.1377
-19.4860 10.2075 0.8461
-19.4469 9.5953 0.8313
-19.8720 9.2149 0.8369
-55.9451 24.3174 2.3226
-23.4897 9.5421 0.9620
-57.4566 21.7381 2.3226
-27.1497 9.5284 1.0840
-27.0693 8.7714 1.0681
-15.1488 4.5073 0.5911
-28.2246 7.6605 1.0898
-38.2684 9.3998 1.4630
-38.2735 8.4259 1.4495
-38.2786 7.4621 1.4370
-38.2836 6.5071 1.4255
-38.2886 5.5596 1.4148
-15.7920 1.9046 0.5794
-37.1847 3.5755 1.3556
-37.1914 2.6710 1.3478
-37.1980 1.7694 1.3409
-37.2046 0.8694 1.3347
-37.2112 -0.0298 1.3293
-37.2178 -0.9294 1.3248
-37.6825 -1.8529 1.3372
-37.6875 -2.7673 1.3341
-38.2891 -3.7436 1.3528
-38.2947 -4.6807 1.3513
-16.9364 -2.4868 0.5972
-37.7120 -6.4718 1.3296
-38.3894 -7.5472 1.3542
-38.3966 -8.5171 1.3559
-38.4038 -9.4978 1.3586
-23.5030 -6.4190 0.8334
-38.4184 -11.4971 1.3664
-38.4259 -12.5186 1.3717
-38.4335 -13.5567 1.3779
-16.7105 -6.3523 0.6021
-38.4492 -15.6895 1.3934
-38.4572 -16.7878 1.4026
-38.4655 -17.9099 1.4130
-38.4739 -19.0582 1.4245
-26.6357 -14.0054 0.9948
-22.6960 -12.6431 0.8557
-62.3400 -36.7285 2.3745
-20.9416 -13.0296 0.8065
-58.9974 -38.7156 2.2995
-6.9337 -4.7937 0.2737
-6.5910 -4.7962 0.2638
-43.6926 -33.4384 1.7746
-41.5494 -33.4204 1.7142
-42.5364 -35.9444 2.4026
-11.7164 -10.3961 0.6742
-12.5896 -11.7266 0.7388
-38.3777 -37.5189 2.2995
-21.8548 -22.4237 1.3386
-36.6797 -39.5003 2.2995
-35.7598 -40.4259 2.2976
-34.8434 -41.3619 2.2976
-33.9008 -42.2749 2.2976
-32.9325 -43.1639 2.2976
-16.0252 -22.0908 1.1528
-13.5858 -19.7131 1.0095
-28.4898 -43.5545 2.1907
-27.0164 -43.5643 2.1542
-25.5865 -43.5748 2.1201
-24.1959 -43.5850 2.0884
-22.8415 -43.5949 2.0589
-21.5204 -43.6046 2.0314
-20.2179 -43.5884 2.0047
-18.9674 -43.6233 1.9822
-18.1836 -44.7469 2.0104
-11.1362 -29.4233 1.3081
-10.2109 -29.0819 1.2803
-9.3218 -28.7540 1.2544
-8.4660 -28.4383 1.2303
-7.6405 -28.1338 1.2079
-7.0028 -28.4901 1.2147
-6.5484 -29.7214 1.2594
-8.3206 -42.6430 1.7969
-7.2529 -42.6250 1.7874
-6.2022 -42.6585 1.7814
-5.1845 -42.9160 1.7859
-4.1361 -42.9237 1.7812
-3.0922 -42.9313 1.7777
-0.9995 -20.9203 0.8650
-0.4942 -20.9518 0.8656
0.0121 -20.9833 0.8668
0.5216 -21.0790 0.8712
2.1015 -42.9437 1.7770
3.1410 -42.9171 1.7792
4.4152 -45.2718 1.8816
4.8498 -39.7595 1.6577
5.1598 -35.2025 1.4734
2.7483 -16.0395 0.6744
6.0882 -31.0109 1.3108
6.6418 -29.9799 1.2747
2.3119 -9.3588 0.4006
3.6410 -13.3459 0.5754
4.0665 -13.6024 0.5912
4.3009 -13.2144 0.5793
4.4426 -12.6063 0.5579
4.7085 -12.3971 0.5542
4.9046 -12.0296 0.5437
1.9636 -4.5017 0.2059
2.0623 -4.4326 0.2052
2.1945 -4.4336 0.2080
2.3300 -4.4346 0.2110
2.4691 -4.4356 0.2142
5.9917 -10.1770 0.4992
6.6149 -10.6390 0.5305
5.5310 -8.4342 0.4279
5.6535 -8.1829 0.4228
5.7851 -7.9554 0.4190
5.9525 -7.7830 0.4183
6.1353 -7.6326 0.4190
6.3435 -7.5126 0.4216
6.5568 -7.3950 0.4247
6.7412 -7.2427 0.4262
6.9261 -7.0899 0.4279
7.1159 -6.9405 0.4302
7.3046 -6.7881 0.4327
7.4884 -6.6290 0.4350
7.6733 -6.4688 0.4377
8.9383 -7.1731 0.5011
9.0190 -6.8864 0.4975
9.0822 -6.5935 0.4933
9.1694 -6.3243 0.4909
9.2658 -6.0657 0.4894
9.3579 -5.8079 0.4881
9.4487 -5.5526 0.4871
9.5513 -5.3068 0.4870
9.6472 -5.0590 0.4869
9.7352 -4.8088 0.4867
7.0134 -3.2561 0.3476
6.3668 -2.7709 0.3131
6.2237 -2.5316 0.3038
6.0895 -2.3071 0.2953
5.9632 -2.0960 0.2875
5.8136 -1.8869 0.2788
5.6704 -1.6901 0.2707
5.5359 -1.5054 0.2633
5.4740 -1.3474 0.2595
5.4986 -1.2133 0.2600
5.5230 -1.0795 0.2606
5.5473 -0.9457 0.2614
5.5714 -0.8118 0.2623
5.5954 -0.6776 0.2634
5.6193 -0.5431 0.2646
5.6431 -0.4081 0.2660
5.6688 -0.2724 0.2676
5.5772 -0.1331 0.2638
5.5020 0.0017 0.2610
5.4289 0.1329 0.2584
5.3576 0.2608 0.2559
5.2880 0.3857 0.2537
5.2591 0.5116 0.2536
5.2796 0.6427 0.2560
5.3004 0.7757 0.2586
5.3215 0.9106 0.2614
5.3119 1.0417 0.2628
5.2998 1.1730 0.2643
5.2876 1.3051 0.2659
5.2753 1.4381 0.2677
5.3071 1.5855 0.2719
5.5490 1.8050 0.2872
5.7197 2.0146 0.2993
5.8583 2.2240 0.3101
6.6921 2.7273 0.3585
6.7694 2.9515 0.3673
6.8872 3.2031 0.3787
6.9310 3.4296 0.3866
6.8160 3.5804 0.3858
6.7196 3.7397 0.3863
6.5673 3.8656 0.3837
6.4243 3.9936 0.3817
6.2971 4.1288 0.3809
6.1420 4.2428 0.3784
5.9790 4.3473 0.3756
5.8618 4.4827 0.3757
5.7556 4.6261 0.3767
5.6811 4.7968 0.3801
5.6091 4.9731 0.3840
5.7496 5.3514 0.4031
6.7775 6.6209 0.4872
6.4911 6.6552 0.4789
6.1890 6.6602 0.4692
6.1408 6.9372 0.4789
6.0621 7.1914 0.4870
7.4802 9.3219 0.6199
7.1714 9.3934 0.6139
6.8501 9.4370 0.6066
6.6595 9.6571 0.6111
6.4665 9.8799 0.6160
6.2706 10.1055 0.6213
6.0716 10.3344 0.6269
5.9210 10.6598 0.6386
5.9197 11.2921 0.6684
5.9456 12.0405 0.7048
7.0349 15.1588 0.8780
6.7847 15.5961 0.8945
6.3753 15.6807 0.8911
6.0605 16.0046 0.9017
5.8089 16.5363 0.9242
5.5574 17.1339 0.9505
5.5921 18.7759 1.0344
5.8109 21.3869 1.1709
5.4223 22.0500 1.2003
5.1340 23.2919 1.2614
4.8536 24.8645 1.3403
5.2043 30.5737 1.6414
4.7760 32.8372 1.7567
5.2094 43.1097 2.2993
4.1653 43.2165 2.2993
2.6330 36.5518 1.9409
2.1647 45.3098 2.4026
1.0689 45.3508 2.4026
-0.0275 45.3684 2.4026
-1.1243 45.3623 2.4026
-2.2209 45.3325 2.4026
-3.3170 45.2791 2.4026
-4.4121 45.2024 2.4026
-5.5057 45.1017 2.4026
-6.3144 43.0477 2.2995
-7.3571 42.9062 2.2995
-3.4878 17.7532 0.9551
-3.5067 15.8179 0.8547
-3.7574 15.2001 0.8254
-4.1507 15.2040 0.8301
-4.5495 15.2078 0.8354
-4.9543 15.2118 0.8411
-5.3658 15.2158 0.8474
-14.2647 37.5328 2.1068
-16.7400 41.0308 2.3226
-17.7418 40.6485 2.3218
-18.6307 40.0180 2.3080
-6.4497 13.0215 0.7588
-20.0242 38.0844 2.2438
-20.6430 37.0582 2.2090
-20.1785 34.2500 2.0670
-21.9294 35.2454 2.1552
-17.1917 26.1973 1.6243
-20.6580 29.8792 1.8799
-20.5440 28.2305 1.8038
-20.7370 27.0943 1.7597
-17.3241 21.5360 1.4229
-19.4081 22.9673 1.5451
-21.5717 24.3105 1.6669
-22.0940 23.7188 1.6593
-22.2251 22.7323 1.6241
-23.2146 22.6237 1.6526
-16.1540 14.9990 1.1214
-24.3030 21.4953 1.6471
-24.9383 21.0051 1.6516
-21.4701 17.2144 1.3908
-26.6608 20.3375 1.6908
-27.5277 19.9651 1.7107
-28.5683 19.6841 1.7412
-19.4961 12.7495 1.1663
-19.7336 12.2344 1.1596
-39.2408 23.0346 2.2669
-26.6585 14.7944 1.5151
-19.4763 10.2009 1.0898
-19.4455 9.5932 1.0720
-19.8700 9.2125 1.0799
-25.9484 11.2770 1.3913
-23.4879 9.5397 1.2433
-25.3972 9.6070 1.3281
-25.4446 8.9282 1.3153
-25.5722 8.2846 1.3075
-15.1494 4.5065 0.7666
-26.2852 7.1324 1.3173
-26.8995 6.6055 1.3358
-27.8680 6.1333 1.3722
-38.2786 7.4595 1.8700
-38.2836 6.5045 1.8566
-38.2886 5.5571 1.8443
-15.7904 1.9034 0.7559
-37.1847 3.5731 1.7702
-37.1914 2.6686 1.7617
-37.1980 1.7670 1.7542
-37.2046 0.8670 1.7478
-37.2112 -0.0322 1.7424
-37.2178 -0.9318 1.7380
-37.6826 -1.8553 1.7560
-26.3175 -1.9341 1.2245
-26.0864 -2.5522 1.2126
-26.2258 -3.2073 1.2187
-16.9347 -2.4877 0.7871
-37.7121 -6.4743 1.7543
-38.3895 -7.5497 1.7885
-38.3966 -8.5197 1.7925
-38.4038 -9.5003 1.7977
-23.5003 -6.4199 1.1037
-38.4184 -11.4996 1.8115
-38.4259 -12.5212 1.8203
-38.4335 -13.5593 1.8303
-16.7082 -6.3526 0.8004
-38.4492 -15.6921 1.8543
-38.4572 -16.7904 1.8684
-38.4655 -17.9126 1.8839
-38.4739 -19.0609 1.9010
-26.6316 -14.0052 1.3286
-22.6920 -12.6425 1.1438
-44.0967 -25.9834 2.2477
-20.9388 -13.0295 1.0801
-45.9811 -30.1774 2.4026
-6.9329 -4.7937 0.3673
-6.5903 -4.7962 0.3542
-43.7940 -33.5194 2.3908
-43.2881 -34.8224 2.4026
-32.3720 -27.3578 2.2993
-11.7148 -10.3956 0.8481
-12.5877 -11.7259 0.9298
-31.8416 -31.1318 2.4026
-21.8511 -22.4217 1.6862
-30.4056 -32.7464 2.4026
-29.6548 -33.5270 2.4026
-28.8828 -34.2889 2.4026
-28.0899 -35.0314 2.4026
-27.2768 -35.7538 2.4026
-16.0214 -22.0872 1.4556
-13.5835 -19.7112 1.2752
-24.2061 -37.0083 2.3526
-22.9463 -37.0037 2.3133
-21.9408 -37.3686 2.2994
-21.0573 -37.9339 2.2995
-20.1578 -38.4754 2.2995
-19.2433 -38.9934 2.2995
-18.3146 -39.4874 2.2995
-17.3721 -39.9569 2.2995
-16.4168 -40.4015 2.2995
-11.1354 -29.4228 1.6574
-10.2102 -29.0816 1.6226
-9.3212 -28.7536 1.5901
-8.4654 -28.4380 1.5598
-7.6400 -28.1335 1.5316
-7.0020 -28.4882 1.5404
-6.5476 -29.7193 1.5972
-8.3202 -42.6430 2.2794
-7.2526 -42.6250 2.2676
-6.2020 -42.6585 2.2601
-5.1843 -42.9160 2.2660
-3.4015 -35.3021 1.8588
-3.0921 -42.9313 2.2557
-0.9995 -20.9205 1.0976
-0.4942 -20.9520 1.0984
0.0121 -20.9836 1.0998
0.5199 -21.0152 1.1020
2.1013 -42.9437 2.2545
3.1407 -42.9168 2.2571
4.2498 -43.5809 2.2976
4.8816 -40.0245 2.1166
5.1156 -34.9038 1.8527
2.7479 -16.0382 0.8551
6.0223 -30.6777 1.6439
6.5390 -29.5186 1.5909
2.3115 -9.3581 0.5076
3.7049 -13.5810 0.7419
4.0980 -13.7088 0.7547
4.3470 -13.3570 0.7416
4.4083 -12.5101 0.7010
4.7488 -12.5040 0.7076
4.8730 -11.9530 0.6836
1.9379 -4.4433 0.2570
2.0621 -4.4326 0.2595
2.1943 -4.4336 0.2629
2.3299 -4.4346 0.2666
2.4689 -4.4356 0.2706
6.0557 -10.2865 0.6371
5.5392 -8.9096 0.5608
5.5101 -8.4031 0.5379
5.6357 -8.1579 0.5316
5.7662 -7.9300 0.5266
5.9421 -7.7701 0.5262
6.1375 -7.6360 0.5279
6.3434 -7.5130 0.5308
6.5469 -7.3845 0.5337
6.7310 -7.2324 0.5353
6.9156 -7.0798 0.5373
7.1064 -6.9319 0.5399
7.2949 -6.7797 0.5427
7.4784 -6.6208 0.5454
7.8403 -6.6103 0.5611
8.8140 -7.0741 0.6197
8.8766 -6.7784 0.6137
8.9250 -6.4801 0.6073
9.0236 -6.2244 0.6049
9.1207 -5.9714 0.6029
9.2163 -5.7207 0.6012
9.3110 -5.4725 0.6000
9.4006 -5.2237 0.5988
9.4886 -4.9765 0.5979
7.5965 -3.7530 0.4739
6.7784 -3.1474 0.4190
6.3597 -2.7683 0.3898
6.2169 -2.5293 0.3781
6.0830 -2.3051 0.3673
5.9570 -2.0942 0.3574
5.8087 -1.8857 0.3465
5.6657 -1.6891 0.3362
5.5209 -1.5016 0.3262
5.3629 -1.3204 0.3156
5.3705 -1.1854 0.3150
5.3974 -1.0553 0.3158
5.4240 -0.9250 0.3167
5.4502 -0.7945 0.3178
5.4761 -0.6635 0.3191
5.5016 -0.5321 0.3205
5.5269 -0.4000 0.3221
5.5534 -0.2672 0.3240
5.5797 -0.1335 0.3260
5.5044 0.0014 0.3223
5.4312 0.1326 0.3188
5.3599 0.2606 0.3157
5.2902 0.3855 0.3128
5.2678 0.5121 0.3128
5.2884 0.6435 0.3156
5.3093 0.7766 0.3187
5.3123 0.9087 0.3208
5.3003 1.0391 0.3223
5.2881 1.1701 0.3239
5.2759 1.3019 0.3257
5.2636 1.4346 0.3277
5.2665 1.5731 0.3309
5.5044 1.7901 0.3492
5.7209 2.0146 0.3667
5.8595 2.2240 0.3798
6.5061 2.6511 0.4266
6.5773 2.8673 0.4366
6.6862 3.1092 0.4496
6.8495 3.3889 0.4669
6.7593 3.5501 0.4674
6.6690 3.7110 0.4682
6.5327 3.8448 0.4659
6.3683 3.9583 0.4617
6.2073 4.0694 0.4579
6.0596 4.1855 0.4552
5.9429 4.3207 0.4550
5.8266 4.4553 0.4550
5.7204 4.5974 0.4560
5.6446 4.7655 0.4598
5.5723 4.9400 0.4642
5.6950 5.3001 0.4858
6.6924 6.5372 0.5851
6.3890 6.5500 0.5731
6.1351 6.6016 0.5653
6.0968 6.8870 0.5777
6.0235 7.1450 0.5878
5.9422 7.4046 0.5980
7.1487 9.3629 0.7428
6.7702 9.3262 0.7276
6.5928 9.5597 0.7341
6.4123 9.7964 0.7410
6.2186 10.0210 0.7472
6.0209 10.2473 0.7538
5.8199 10.4770 0.7609
5.7966 11.0564 0.7933
5.8183 11.7820 0.8358
6.4425 13.8814 0.9742
6.7222 15.4514 1.0735
6.3537 15.6266 1.0756
6.0343 15.9344 1.0872
5.7429 16.3477 1.1063
5.4907 16.9274 1.1369
5.2287 17.5546 1.1708
5.8020 21.3530 1.4151
5.3929 21.9294 1.4448
5.1119 23.1906 1.5199
4.8309 24.7469 1.6144
4.5349 26.6397 1.7307
4.7566 32.7025 2.1169
4.3055 35.6280 2.2993
3.4426 35.7172 2.2993
2.5780 35.7874 2.2993
1.7891 37.4480 2.4026
0.8834 37.4817 2.4026
-0.0229 37.4954 2.4026
-0.9294 37.4892 2.4026
-1.8356 37.4631 2.4026
-2.7414 37.4171 2.4026
-3.6461 37.3511 2.4026
-4.5495 37.2652 2.4026
-5.4512 37.1595 2.4026
-6.0782 35.4448 2.2995
-3.4877 17.7510 1.1561
-3.5066 15.8161 1.0348
-3.7578 15.2004 0.9995
-4.1512 15.2043 1.0054
-4.5500 15.2081 1.0119
-4.9548 15.2121 1.0191
-5.3663 15.2161 1.0269
-12.9770 34.1419 2.3226
-13.8112 33.8494 2.3226
-14.6396 33.5382 2.3226
-15.4264 33.1325 2.3173
-6.4428 13.0067 0.9193
-16.8333 32.0132 2.2883
-17.2085 30.8902 2.2345
-17.5019 29.7045 2.1761
-17.7200 28.4777 2.1143
-17.1909 26.1939 1.9724
-18.1924 26.3108 2.0111
-18.5598 25.5017 1.9802
-18.9711 24.7849 1.9567
-17.3222 21.5317 1.7299
-19.4121 22.9699 1.8797
-20.2742 22.8462 1.9062
-20.7667 22.2919 1.8982
-21.3989 21.8852 1.9039
-22.0137 21.4513 1.9087
-16.1531 14.9967 1.3664
-23.0745 20.4067 1.9062
-23.6359 19.9061 1.9088
-21.4687 17.2115 1.6965
-24.6064 18.7683 1.9045
-24.9607 18.1013 1.8939
-25.2153 17.3718 1.8771
-19.4896 12.7438 1.4247
-19.7319 12.2318 1.4175
-24.7251 14.5119 1.7470
-24.4747 13.5806 1.7021
-19.4665 10.1943 1.3334
-19.4441 9.5911 1.3128
-19.8679 9.2101 1.3232
-23.9227 10.3949 1.5726
-23.4861 9.5373 1.5249
-24.1052 9.1165 1.5469
-24.2257 8.4988 1.5376
-24.4351 7.9145 1.5348
-15.1501 4.5056 0.9423
-25.1288 6.8169 1.5487
-25.5194 6.2649 1.5593
-25.6446 5.6422 1.5545
-25.8388 5.0336 1.5548
-26.1530 4.4418 1.5631
-26.4329 3.8347 1.5701
-15.7888 1.9022 0.9326
-26.4367 2.5386 1.5537
-26.6038 1.9072 1.5566
-25.9351 1.2303 1.5116
-25.0254 0.5816 1.4538
-24.6838 -0.0229 1.4301
-24.4198 -0.6129 1.4118
-24.2500 -1.1955 1.3998
-24.1495 -1.7764 1.3927
-24.2060 -2.3698 1.3955
-24.3389 -2.9781 1.4035
-16.9330 -2.4885 0.9772
-25.0769 -4.3067 1.4493
-25.7895 -5.0735 1.4935
-38.3966 -8.5222 2.2295
-38.4038 -9.5028 2.2372
-23.4975 -6.4206 1.3742
-38.0897 -11.4038 2.2378
-38.4259 -12.5237 2.2693
-38.4336 -13.5619 2.2831
-16.7058 -6.3528 0.9989
-16.8244 -6.8676 1.0133
-37.5234 -16.3853 2.2779
-37.5315 -17.4803 2.2982
-37.5397 -18.6007 2.3204
-26.6275 -14.0049 1.6626
-22.6880 -12.6419 1.4322
-35.6403 -21.0032 2.2762
-20.9361 -13.0293 1.3540
-34.7303 -22.7961 2.2762
-6.9322 -4.7937 0.4608
-6.5896 -4.7962 0.4447
-33.5257 -25.6628 2.2993
-32.9604 -26.5170 2.2993
-27.1353 -22.9344 2.3226
-11.7131 -10.3951 1.0222
-12.5858 -11.7252 1.1210
-25.5197 -24.9530 2.3226
-21.8473 -22.4198 2.0341
-24.1107 -25.9691 2.2993
-23.5088 -26.5806 2.2993
-22.8904 -27.1770 2.2993
-22.2576 -27.7599 2.2995
-21.6077 -28.3250 2.2995
-16.0177 -22.0837 1.7587
-13.5811 -19.7092 1.5412
-20.4458 -31.2615 2.4026
-19.7061 -31.7807 2.4026
-18.9523 -32.2809 2.4026
-18.1850 -32.7617 2.4026
-17.4047 -33.2228 2.4026
-16.6120 -33.6637 2.4026
-15.8074 -34.0840 2.4026
-14.9915 -34.4834 2.4026
-14.1648 -34.8617 2.4026
-11.0509 -29.2013 1.9921
-10.2094 -29.0812 1.9652
-9.3205 -28.7533 1.9261
-8.4402 -28.3551 1.8842
-7.6395 -28.1332 1.8557
-7.0012 -28.4864 1.8665
-6.5468 -29.7173 1.9355
-7.1444 -36.6183 2.3722
-6.1732 -36.2828 2.3395
-5.2196 -35.9033 2.3056
-4.3401 -35.9291 2.2995
-3.3993 -35.2802 2.2518
-2.6003 -36.1040 2.2995
-0.9996 -20.9207 1.3305
-0.4943 -20.9522 1.3314
0.0120 -20.9838 1.3332
0.5198 -21.0154 1.3358
1.7781 -36.3438 2.3126
2.6548 -36.2812 2.3126
3.5293 -36.1954 2.3126
4.4010 -36.0868 2.3126
5.1257 -34.9758 2.2496
2.7474 -16.0369 1.0359
6.6517 -33.8867 2.1998
6.4541 -29.1377 1.9022
2.3112 -9.3574 0.6147
5.4004 -19.7977 1.3096
5.8060 -19.4241 1.2947
3.9995 -12.2901 0.8260
4.4461 -12.6182 0.8558
4.7898 -12.6130 0.8638
4.8190 -11.8215 0.8180
1.9312 -4.4282 0.3099
2.0619 -4.4326 0.3139
2.1942 -4.4336 0.3179
2.3297 -4.4346 0.3223
2.4687 -4.4356 0.3270
6.3192 -10.7351 0.8034
5.3902 -8.6707 0.6593
5.4894 -8.3722 0.6473
5.6171 -8.1316 0.6398
5.7557 -7.9162 0.6345
5.9376 -7.7650 0.6346
6.1397 -7.6394 0.6372
6.3432 -7.5134 0.6402
6.5370 -7.3741 0.6425
6.7208 -7.2221 0.6443
6.9064 -7.0710 0.6465
7.0970 -6.9234 0.6495
7.2851 -6.7713 0.6526
7.4683 -6.6126 0.6556
7.9994 -6.7451 0.6889
8.6722 -6.9611 0.7334
8.7090 -6.6511 0.7240
8.7842 -6.3786 0.7185
8.8821 -6.1276 0.7155
8.9785 -5.8790 0.7129
9.0665 -5.6285 0.7102
9.1552 -5.3816 0.7081
9.2478 -5.1395 0.7067
9.3350 -4.8966 0.7055
7.2438 -3.5793 0.5418
6.5248 -3.0302 0.4833
6.3525 -2.7656 0.4664
6.2102 -2.5270 0.4522
6.0766 -2.3031 0.4392
5.9509 -2.0925 0.4272
5.8037 -1.8845 0.4141
5.6610 -1.6881 0.4017
5.3236 -1.4484 0.3759
5.2833 -1.3011 0.3715
5.2437 -1.1578 0.3674
5.2692 -1.0305 0.3680
5.2951 -0.9034 0.3690
5.3205 -0.7759 0.3701
5.3456 -0.6481 0.3714
5.3703 -0.5197 0.3729
5.3946 -0.3908 0.3746
5.4318 -0.2617 0.3774
5.5093 -0.1322 0.3832
5.5069 0.0010 0.3837
5.4336 0.1323 0.3795
5.3622 0.2604 0.3756
5.2924 0.3854 0.3720
5.2766 0.5126 0.3724
5.2973 0.6442 0.3756
5.3126 0.7768 0.3786
5.3007 0.9064 0.3800
5.2887 1.0364 0.3815
5.2766 1.1671 0.3833
5.2643 1.2986 0.3853
5.2520 1.4311 0.3876
5.2395 1.5646 0.3901
5.4603 1.7754 0.4103
5.7202 2.0140 0.4342
6.2717 2.3801 0.4812
6.3321 2.5798 0.4913
6.3955 2.7876 0.5022
6.4963 3.0205 0.5166
6.7982 3.3630 0.5479
6.7087 3.5230 0.5483
6.6191 3.6828 0.5490
6.4984 3.8241 0.5474
6.3352 3.9373 0.5424
6.1754 4.0481 0.5377
6.0095 4.1504 0.5327
5.9073 4.2943 0.5335
5.7917 4.4282 0.5334
5.6856 4.5689 0.5344
5.6100 4.7359 0.5387
5.5360 4.9074 0.5435
5.6414 5.2498 0.5670
6.5912 6.4378 0.6788
6.2900 6.4479 0.6644
6.0917 6.5544 0.6609
6.0528 6.8367 0.6752
5.9853 7.0992 0.6874
5.9040 7.3564 0.6991
5.8198 7.6219 0.7115
6.6981 9.2262 0.8468
6.4811 9.3970 0.8487
6.3027 9.6283 0.8564
6.1209 9.8630 0.8647
5.9355 10.1012 0.8735
5.7503 10.3510 0.8836
5.7308 10.9303 0.9217
5.7430 11.6287 0.9693
6.3888 13.7647 1.1350
6.6249 15.2269 1.2429
6.3322 15.5728 1.2591
6.0082 15.8647 1.2713
5.7177 16.2750 1.2935
5.4257 16.7260 1.3192
5.2457 17.6110 1.3792
5.7847 21.2884 1.6564
5.3837 21.8908 1.6933
5.0880 23.0810 1.7760
4.8084 24.6303 1.8862
4.5177 26.5374 2.0238
4.4015 30.2598 2.2993
3.6681 30.3527 2.2993
2.9330 30.4293 2.2993
2.1964 30.4895 2.2993
1.5242 31.9043 2.4026
0.7525 31.9328 2.4026
-0.0196 31.9441 2.4026
-0.7919 31.9381 2.4026
-1.5640 31.9150 2.4026
-2.3356 31.8746 2.4026
-3.1062 31.8170 2.4026
-3.8756 31.7422 2.4026
-4.6434 31.6503 2.4026
-5.4093 31.5411 2.4026
-3.4876 17.7489 1.3574
-3.5065 15.8143 1.2150
-3.7582 15.2007 1.1739
-4.1516 15.2046 1.1809
-4.5504 15.2085 1.1887
-4.9553 15.2124 1.1972
-5.3668 15.2164 1.2066
-11.0441 29.0541 2.3226
-11.7524 28.8012 2.3226
-12.4555 28.5323 2.3226
-13.1529 28.2474 2.3226
-6.4360 12.9919 1.0797
-14.3004 27.1939 2.2859
-14.7332 26.4447 2.2500
-15.2167 25.8239 2.2255
-15.6929 25.2178 2.2030
-16.2169 24.7078 2.1896
-16.7857 24.2742 2.1840
-17.3022 23.7717 2.1732
-17.8062 23.2609 2.1626
-17.3203 21.5274 2.0372
-18.6950 22.1194 2.1326
-19.1810 21.6123 2.1250
-19.6615 21.1034 2.1182
-20.1677 20.6241 2.1154
-20.7124 20.1813 2.1177
-16.1522 14.9943 1.6116
-21.8133 19.2893 2.1260
-22.3125 18.7895 2.1265
-21.4674 17.2086 2.0026
-23.0908 17.6103 2.1104
-23.2702 16.8734 2.0855
-23.3506 16.0852 2.0539
-19.4831 12.7380 1.6833
-19.7303 12.2293 1.6758
-23.1193 13.5676 1.9318
-23.0134 12.7680 1.8933
-19.4568 10.1877 1.5772
-19.4427 9.5890 1.5540
-19.8658 9.2077 1.5667
-22.8384 9.9221 1.7784
-22.8955 9.2958 1.7616
-23.0613 8.7201 1.7543
-23.2515 8.1554 1.7499
-23.4415 7.5911 1.7465
-15.1507 4.5048 1.1182
-24.0481 6.5221 1.7593
-24.2681 5.9561 1.7609
-24.4485 5.3774 1.7606
-24.5459 4.7801 1.7552
-24.5790 4.1728 1.7464
-24.5096 3.5540 1.7314
-15.7872 1.9010 1.1094
-23.9001 2.2935 1.6717
-23.7596 1.7018 1.6552
-23.5375 1.1150 1.6340
-23.3011 0.5400 1.6130
-23.1088 -0.0230 1.5960
-22.9578 -0.5777 1.5828
-22.8515 -1.1280 1.5737
-22.7906 -1.6779 1.5686
-22.8600 -2.2395 1.5734
-22.9398 -2.8084 1.5799
-16.9313 -2.4894 1.1675
-23.3977 -4.0199 1.6163
-23.6419 -4.6525 1.6372
-23.9857 -5.3252 1.6661
-24.6255 -6.0951 1.7168
-23.4948 -6.4215 1.6450
-31.8034 -9.5238 2.2378
-31.7404 -10.3469 2.2459
-31.7453 -11.2039 2.2603
-16.7035 -6.3530 1.1976
-16.8221 -6.8678 1.2153
-31.8835 -13.9247 2.3226
-31.5972 -14.7186 2.3226
-31.2906 -15.5065 2.3226
-26.6234 -14.0046 1.9970
-22.6840 -12.6413 1.7208
-30.2499 -17.8288 2.3226
-20.9334 -13.0292 1.6281
-29.4567 -19.3368 2.3226
-6.9314 -4.7937 0.5545
-6.5889 -4.7962 0.5354
-28.1207 -21.5277 2.3226
-27.6374 -22.2367 2.3226
-23.1843 -19.5969 2.3226
-11.7114 -10.3946 1.1964
-12.5839 -11.7245 1.3124
-21.7895 -21.3075 2.3226
-21.2948 -21.8547 2.3226
-20.7858 -22.3898 2.3226
-20.2628 -22.9123 2.3226
-19.7259 -23.4218 2.3226
-19.1757 -23.9180 2.3226
-18.6123 -24.4004 2.3226
-16.0139 -22.0802 2.0621
-13.5788 -19.7073 1.8076
-16.6798 -25.5051 2.2995
-16.0737 -25.9245 2.2995
-15.4565 -26.3285 2.2995
-14.8286 -26.7167 2.2995
-14.1904 -27.0889 2.2995
-13.5423 -27.4447 2.2995
-12.8848 -27.7839 2.2995
-12.2183 -28.1062 2.2995
-11.5432 -28.4112 2.2995
-10.8601 -28.6989 2.2995
-10.6289 -30.2777 2.4034
-9.9020 -30.5488 2.4040
-8.4554 -28.4077 2.2177
-7.6390 -28.1329 2.1803
-7.0004 -28.4845 2.1930
-6.9234 -31.4280 2.4052
-6.1650 -31.5998 2.4056
-5.4007 -31.7439 2.4053
-4.6324 -31.8652 2.4049
-3.8613 -31.9668 2.4044
-3.0878 -32.0480 2.4040
-2.3125 -32.1086 2.4035
-0.9996 -20.9209 1.5637
-0.4943 -20.9524 1.5648
0.0119 -20.9840 1.5668
0.5197 -21.0157 1.5699
1.5043 -30.7506 2.2995
2.2460 -30.6988 2.2995
2.9861 -30.6277 2.2995
3.7238 -30.5373 2.2995
4.4588 -30.4279 2.2995
2.7469 -16.0356 1.2170
6.3635 -32.4215 2.4726
6.4061 -28.9231 2.2180
2.3108 -9.3567 0.7220
5.3797 -19.7236 1.5324
5.7817 -19.3443 1.5142
4.0567 -12.4668 0.9839
4.4845 -12.7283 1.0135
4.6313 -12.1967 0.9805
4.8109 -11.8024 0.9586
1.9310 -4.4282 0.3637
2.0618 -4.4326 0.3683
2.1940 -4.4336 0.3730
2.3295 -4.4346 0.3781
2.4685 -4.4356 0.3835
6.2775 -10.6652 0.9359
5.3882 -8.6683 0.7727
5.4716 -8.3458 0.7564
5.5986 -8.1055 0.7475
5.7456 -7.9031 0.7422
5.9398 -7.7684 0.7437
6.1419 -7.6428 0.7466
6.3199 -7.4865 0.7470
6.5272 -7.3636 0.7512
6.7107 -7.2119 0.7530
6.8973 -7.0624 0.7556
7.0877 -6.9150 0.7590
7.2754 -6.7629 0.7624
7.4829 -6.6261 0.7683
8.4686 -7.1415 0.8527
8.5088 -6.8307 0.8412
8.5486 -6.5294 0.8305
8.6476 -6.2801 0.8264
8.7449 -6.0335 0.8228
8.8269 -5.7805 0.8184
8.9071 -5.5302 0.8145
9.0003 -5.2913 0.8124
9.0923 -5.0538 0.8108
9.1829 -4.8175 0.8096
7.0298 -3.4741 0.6132
6.4972 -3.0178 0.5611
6.3454 -2.7629 0.5430
6.2034 -2.5246 0.5264
6.0702 -2.3011 0.5111
5.9448 -2.0908 0.4970
5.7988 -1.8833 0.4816
5.5529 -1.6562 0.4585
5.2445 -1.4272 0.4309
5.2058 -1.2824 0.4258
5.1678 -1.1414 0.4210
5.1467 -1.0069 0.4179
5.1720 -0.8827 0.4188
5.1967 -0.7582 0.4200
5.2210 -0.6333 0.4213
5.2449 -0.5079 0.4229
5.2683 -0.3820 0.4247
5.3152 -0.2565 0.4286
5.3895 -0.1296 0.4349
5.4653 0.0006 0.4417
5.4360 0.1320 0.4402
5.3645 0.2601 0.4356
5.2947 0.3852 0.4313
5.2854 0.5132 0.4322
5.3061 0.6449 0.4358
5.3010 0.7747 0.4375
5.2891 0.9040 0.4389
5.2771 1.0338 0.4406
5.2650 1.1642 0.4426
5.2527 1.2954 0.4448
5.2404 1.4276 0.4472
5.2278 1.5608 0.4500
5.4170 1.7610 0.4706
5.6722 1.9967 0.4976
6.1111 2.3187 0.5417
6.1670 2.5120 0.5527
6.2243 2.7126 0.5644
6.3167 2.9365 0.5800
6.6218 3.2752 0.6160
6.6575 3.4957 0.6279
6.5699 3.6549 0.6287
6.4644 3.8037 0.6281
6.3025 3.9165 0.6223
6.1290 4.0172 0.6154
5.9488 4.1080 0.6079
5.8622 4.2611 0.6102
5.7572 4.4013 0.6110
5.6511 4.5408 0.6120
5.5758 4.7065 0.6167
5.5001 4.8751 0.6220
5.5990 5.2098 0.6480
6.4882 6.3366 0.7692
6.1938 6.3488 0.7532
6.0488 6.5077 0.7553
6.0093 6.7871 0.7714
5.9476 7.0538 0.7860
5.8661 7.3087 0.7991
5.7819 7.5716 0.8131
6.6541 9.1650 0.9675
6.3728 9.2394 0.9597
6.1966 9.4656 0.9681
6.0170 9.6949 0.9772
5.8338 9.9275 0.9869
5.7194 10.2948 1.0101
5.7021 10.8748 1.0540
5.7130 11.5671 1.1081
6.3358 13.6498 1.2934
6.3897 14.6854 1.3773
6.3109 15.5193 1.4416
5.9824 15.7955 1.4542
5.6935 16.2051 1.4795
5.4107 16.6787 1.5110
5.3109 17.8287 1.6037
5.7548 21.1770 1.8926
5.3749 21.8537 1.9415
5.0667 22.9831 2.0309
4.7872 24.5209 2.1565
4.4698 26.2552 2.2993
3.8331 26.3510 2.2993
2.2858 18.9135 1.6453
2.5543 26.4995 2.2993
1.9987 27.7445 2.4026
1.3274 27.7843 2.4026
0.6553 27.8090 2.4026
-0.0172 27.8186 2.4026
-0.6898 27.8130 2.4026
-1.3621 27.7922 2.4026
-2.0340 27.7563 2.4026
-2.7051 27.7052 2.4026
-3.3749 27.6390 2.4026
-4.0433 27.5577 2.4026
-4.7100 27.4613 2.4026
-3.4875 17.7468 1.5590
-3.5064 15.8125 1.3955
-3.7586 15.2011 1.3486
-4.1520 15.2049 1.3567
-4.5509 15.2088 1.3658
-4.9558 15.2127 1.3757
-5.3674 15.2168 1.3866
-9.5149 25.0292 2.2995
-10.2257 25.0579 2.3226
-10.8363 24.8212 2.3226
-11.4418 24.5706 2.3226
-6.4310 12.9806 1.2404
-12.6365 24.0278 2.3226
-13.2250 23.7357 2.3226
-13.8073 23.4302 2.3226
-14.3165 23.0040 2.3118
-14.8239 22.5835 2.3027
-15.2715 22.0827 2.2863
-15.7081 21.5797 2.2705
-16.2358 21.2075 2.2696
-16.8004 20.8794 2.2748
-17.2903 20.4555 2.2709
-17.7673 20.0176 2.2667
-18.2025 19.5357 2.2587
-18.6220 19.0416 2.2502
-19.0718 18.5809 2.2468
-16.1514 14.9920 1.8571
-20.0310 17.7114 2.2504
-20.4524 17.2213 2.2473
-20.8441 16.7070 2.2422
-21.1435 16.1234 2.2288
-21.3789 15.5002 2.2103
-21.5839 14.8665 2.1906
-19.4766 12.7322 1.9421
-19.7287 12.2267 1.9343
-21.7687 12.7734 2.1003
-21.8079 12.0975 2.0721
-19.4470 10.1812 1.8210
-19.4412 9.5868 1.7955
-19.8638 9.2053 1.8105
-21.9218 9.5223 1.9734
-22.0228 8.9400 1.9593
-22.1366 8.3689 1.9477
-22.2859 7.8152 1.9404
-22.4443 7.2666 1.9352
-15.1585 4.5061 1.2950
-22.9039 6.2102 1.9401
-23.1174 5.6721 1.9427
-23.2632 5.1152 1.9407
-23.2687 4.5299 1.9281
-23.1948 3.9363 1.9102
-23.1168 3.3505 1.8933
-15.7856 1.8997 1.2865
-22.7017 2.1770 1.8421
-22.5604 1.6144 1.8237
-22.4303 1.0611 1.8074
-22.2347 0.5139 1.7870
-22.0770 -0.0234 1.7707
-21.9293 -0.5533 1.7563
-21.8877 -1.0819 1.7515
-21.8355 -1.6090 1.7468
-21.7901 -2.1361 1.7437
-21.7617 -2.6655 1.7431
-16.9296 -2.4902 1.3581
-21.8930 -3.7628 1.7599
-22.0517 -4.3410 1.7775
-22.2357 -4.9381 1.7983
-22.4164 -5.5498 1.8201
-22.7708 -6.2251 1.8574
-23.0924 -6.9167 1.8934
-23.3863 -7.6252 1.9288
-23.9639 -8.4592 1.9894
-16.7012 -6.3533 1.3965
-16.8198 -6.8680 1.4175
-27.2595 -11.9071 2.3171
-27.0707 -12.6119 2.3226
-26.8009 -13.2834 2.3226
-26.5140 -13.9490 2.3226
-22.6800 -12.6407 2.0097
-25.8893 -15.2606 2.3226
-20.9306 -13.0290 1.9025
-25.1977 -16.5429 2.3226
-6.9141 -4.7822 0.6468
-6.5882 -4.7962 0.6261
-24.0375 -18.4036 2.3226
-23.6187 -19.0053 2.3226
-20.2331 -17.1040 2.3226
-11.7098 -10.3941 1.3710
-12.5820 -11.7237 1.5041
-19.0064 -18.5876 2.3226
-18.5719 -19.0619 2.3226
-18.1253 -19.5256 2.3226
-17.6665 -19.9782 2.3226
-17.1960 -20.4195 2.3226
-16.7139 -20.8490 2.3226
-16.2206 -21.2665 2.3226
-15.7166 -21.6718 2.3226
-13.5765 -19.7053 2.0743
-14.6768 -22.4439 2.3226
-14.1418 -22.8102 2.3226
-13.5973 -23.1630 2.3226
-13.0434 -23.5020 2.3226
-12.4808 -23.8269 2.3226
-11.9096 -24.1374 2.3226
-11.3303 -24.4335 2.3226
-10.6365 -24.4690 2.2995
-10.0480 -24.7326 2.2995
-9.4527 -24.9811 2.2995
-8.8509 -25.2142 2.2995
-8.2430 -25.4320 2.2995
-7.6294 -25.6341 2.2995
-7.3257 -26.9803 2.4028
-6.6753 -27.1630 2.4032
-6.0201 -27.3289 2.4036
-5.3606 -27.4782 2.4040
-4.6972 -27.6105 2.4045
-4.0304 -27.7259 2.4049
-3.3608 -27.8242 2.4054
-2.6881 -27.9003 2.4054
-2.0132 -27.9527 2.4049
-0.9996 -20.9212 1.7973
-0.4943 -20.9527 1.7985
0.0119 -20.9842 1.8009
0.5196 -21.0159 1.8043
1.3617 -27.8415 2.3928
1.9541 -26.7110 2.2995
2.5980 -26.6500 2.2995
3.2400 -26.5725 2.2995
3.8797 -26.4785 2.2995
2.7465 -16.0342 1.3983
5.1501 -26.2412 2.2995
5.8168 -26.2650 2.3142
2.3105 -9.3563 0.8294
5.3592 -19.6499 1.7538
5.7826 -19.3487 1.7398
4.1156 -12.6490 1.1466
4.5237 -12.8405 1.1743
4.7147 -12.4172 1.1464
5.0824 -12.4696 1.1630
1.9309 -4.4282 0.4175
2.0616 -4.4326 0.4228
2.1938 -4.4336 0.4282
2.3293 -4.4346 0.4340
2.4683 -4.4356 0.4401
5.5103 -9.3624 0.9428
5.3862 -8.6658 0.8863
5.4636 -8.3342 0.8665
5.5801 -8.0795 0.8546
5.7407 -7.8969 0.8505
5.9419 -7.7719 0.8532
6.0714 -7.5558 0.8462
6.2523 -7.4072 0.8472
6.5069 -7.3415 0.8583
6.7005 -7.2017 0.8617
6.8882 -7.0537 0.8646
7.0783 -6.9065 0.8683
7.2657 -6.7545 0.8721
7.6406 -6.7665 0.8984
8.3094 -7.0080 0.9580
8.3512 -6.7049 0.9451
8.4166 -6.4293 0.9359
8.5087 -6.1800 0.9305
8.5917 -5.9286 0.9249
8.6727 -5.6802 0.9198
8.7581 -5.4384 0.9159
8.8504 -5.2038 0.9135
8.9414 -4.9706 0.9115
7.5394 -3.9559 0.7597
6.8462 -3.3839 0.6824
6.4893 -3.0146 0.6403
6.3382 -2.7603 0.6195
6.1966 -2.5223 0.6005
6.0638 -2.2991 0.5829
5.9387 -2.0890 0.5667
5.7938 -1.8821 0.5492
5.3011 -1.5815 0.4995
5.1676 -1.4066 0.4843
5.1305 -1.2642 0.4786
5.0940 -1.1254 0.4732
5.0581 -0.9899 0.4683
5.0542 -0.8629 0.4666
5.0783 -0.7412 0.4677
5.1019 -0.6192 0.4691
5.1250 -0.4967 0.4707
5.1476 -0.3736 0.4725
5.2033 -0.2514 0.4777
5.2746 -0.1272 0.4846
5.3472 0.0003 0.4919
5.4213 0.1313 0.4996
5.3668 0.2599 0.4958
5.2970 0.3850 0.4908
5.2942 0.5137 0.4923
5.3013 0.6440 0.4950
5.2895 0.7727 0.4962
5.2776 0.9017 0.4977
5.2656 1.0312 0.4996
5.2535 1.1613 0.5017
5.2412 1.2922 0.5041
5.2288 1.4241 0.5068
5.2162 1.5570 0.5098
5.3742 1.7467 0.5299
5.6249 1.9797 0.5600
5.9583 2.2603 0.5993
6.0099 2.4477 0.6111
6.0627 2.6417 0.6236
6.1779 2.8716 0.6433
6.5292 3.2290 0.6887
6.5964 3.4631 0.7053
6.5185 3.6258 0.7071
6.4307 3.7834 0.7082
6.2609 3.8902 0.7005
6.0781 3.9834 0.6914
5.9001 4.0740 0.6830
5.8010 4.2162 0.6839
5.7166 4.3698 0.6870
5.6170 4.5129 0.6887
5.5422 4.6777 0.6940
5.4838 4.8602 0.7020
5.5664 5.1790 0.7291
6.3882 6.2384 0.8571
6.1036 6.2558 0.8398
6.0065 6.4616 0.8485
5.9664 6.7381 0.8664
5.9102 7.0089 0.8834
5.8287 7.2615 0.8980
5.7444 7.5219 0.9135
5.6608 7.7962 0.9307
6.2743 9.0958 1.0682
6.0939 9.3080 1.0763
5.9164 9.5321 1.0862
5.7890 9.8505 1.1070
5.6895 10.2403 1.1357
5.6736 10.8197 1.1852
5.6831 11.5059 1.2456
5.7485 12.3836 1.3260
6.1973 14.2423 1.5093
6.2022 15.2512 1.6007
5.9724 15.7682 1.6401
5.7005 16.2239 1.6734
5.4174 16.6985 1.7090
5.4103 18.1613 1.8454
5.7287 21.0800 2.1280
5.3660 21.8166 2.1893
5.0461 22.8883 2.2845
4.5194 23.1480 2.2993
3.9577 23.2461 2.2993
2.4420 16.7871 1.6544
2.8286 23.4039 2.2993
2.2617 23.4636 2.2993
1.7698 24.5660 2.4026
1.1753 24.6013 2.4026
0.5802 24.6231 2.4026
-0.0153 24.6314 2.4026
-0.6109 24.6261 2.4026
-1.2062 24.6074 2.4026
-1.8011 24.5750 2.4026
-2.3952 24.5292 2.4026
-2.9882 24.4698 2.4026
-3.5799 24.3970 2.4026
-4.1700 24.3107 2.4026
-3.4873 17.7446 1.7609
-3.5063 15.8106 1.5763
-3.7589 15.2014 1.5236
-4.1524 15.2052 1.5329
-4.5514 15.2091 1.5432
-4.9563 15.2131 1.5545
-5.3679 15.2171 1.5669
-6.2453 16.4271 1.7056
-6.2289 15.2626 1.5989
-9.4924 21.7413 2.2995
-10.1226 21.7360 2.3226
-6.4308 12.9792 1.4021
-11.1775 21.2518 2.3226
-11.6969 20.9914 2.3226
-12.2106 20.7190 2.3226
-12.7185 20.4346 2.3226
-13.2201 20.1384 2.3226
-13.7152 19.8305 2.3226
-14.2035 19.5110 2.3226
-14.6848 19.1800 2.3226
-15.1183 18.7873 2.3164
-15.5207 18.3602 2.3070
-15.9412 17.9585 2.3019
-16.4076 17.6076 2.3047
-16.8630 17.2413 2.3069
-17.2703 16.8242 2.3038
-16.1505 14.9897 2.1031
-18.0662 15.9725 2.2989
-18.4489 15.5327 2.2965
-18.8229 15.0854 2.2942
-19.1721 14.6184 2.2902
-19.5289 14.1574 2.2884
-19.9030 13.7071 2.2898
-19.4701 12.7264 2.2012
-19.7270 12.2242 2.1933
-20.5236 12.0411 2.2459
-20.6259 11.4403 2.2231
-19.4372 10.1746 2.0651
-19.4398 9.5847 2.0373
-19.8617 9.2028 2.0548
-20.9419 9.0952 2.1401
-21.0401 8.5396 2.1254
-21.1720 8.0027 2.1155
-21.3120 7.4721 2.1078
-21.4956 6.9579 2.1056
-15.1522 4.5031 1.4710
-21.8660 5.9273 2.1051
-22.0672 5.4129 2.1081
-22.1071 4.8595 2.0969
-22.1229 4.3053 2.0848
-22.0499 3.7405 2.0656
-21.9627 3.1818 2.0465
-15.7840 1.8985 1.4638
-21.7571 2.0850 2.0094
-21.6362 1.5469 1.9912
-21.4580 1.0137 1.9689
-21.3312 0.4916 1.9526
-21.2096 -0.0238 1.9379
-21.0819 -0.5332 1.9239
-20.9536 -1.0371 1.9109
-20.8058 -1.5344 1.8973
-20.7558 -2.0360 1.8938
-20.7199 -2.5393 1.8926
-16.9279 -2.4910 1.5489
-20.6929 -3.5579 1.8978
-20.7137 -4.0790 1.9053
-20.7235 -4.6037 1.9130
-20.8115 -5.1538 1.9291
-20.8962 -5.7140 1.9462
-20.9625 -6.2802 1.9630
-21.0821 -6.8753 1.9863
-21.3241 -7.5288 2.0226
-16.6989 -6.3535 1.5957
-16.8175 -6.8682 1.6201
-22.6018 -9.8742 2.1965
-23.0205 -10.7266 2.2585
-23.1909 -11.4958 2.2986
-23.1030 -12.1561 2.3151
-22.6759 -12.6401 2.2991
-22.6225 -13.3366 2.3226
-20.9279 -13.0288 2.1774
-22.0099 -14.4517 2.3226
-21.6822 -14.9984 2.3226
-6.5875 -4.7962 0.7169
-20.9850 -16.0682 2.3226
-20.6158 -16.5906 2.3226
-17.9443 -15.1707 2.3226
-11.7081 -10.3936 1.5459
-12.5801 -11.7230 1.6962
-16.8499 -16.4801 2.3226
-16.4627 -16.8985 2.3226
-16.0649 -17.3074 2.3226
-15.6565 -17.7066 2.3226
-15.2377 -18.0956 2.3226
-14.8090 -18.4742 2.3226
-14.3704 -18.8421 2.3226
-13.9223 -19.1991 2.3226
-13.4650 -19.5449 2.3226
