ply
format ascii 1.0
element vertex 1994
property float32 x
property float32 y
property float32 z
end_header
6.5141 3.4257 -0.8707
6.5241 3.6349 -0.8832
6.5225 3.8433 -0.8949
6.4729 4.0279 -0.9009
6.3731 4.1827 -0.9004
6.2732 4.3375 -0.9005
6.1732 4.4927 -0.9012
6.0730 4.6482 -0.9024
5.9484 4.7851 -0.9004
5.9150 4.9984 -0.9131
5.9246 5.2570 -0.9336
5.9350 5.5282 -0.9557
6.0329 5.8979 -0.9938
12.4396 12.7633 -2.0988
12.0028 12.9257 -2.0766
11.4614 12.9568 -2.0359
10.8249 12.8500 -1.9769
8.0970 10.0970 -1.5224
7.3753 9.6666 -1.4299
7.1029 9.7912 -1.4221
10.0947 14.6473 -2.0909
9.9525 15.2150 -2.1365
9.8079 15.8152 -2.1864
9.5206 16.2137 -2.2086
9.1473 16.4772 -2.2134
6.5255 12.4543 -1.6510
8.3264 16.8706 -2.2088
7.9496 17.1385 -2.2177
7.5286 17.3147 -2.2160
7.2999 17.9634 -2.2755
6.9263 18.2994 -2.2959
7.7194 21.9851 -2.7338
6.9115 21.3182 -2.6291
6.5301 21.9344 -2.6846
6.1003 22.4614 -2.7300
5.3444 21.7417 -2.6259
4.0241 18.2631 -2.1933
3.3906 17.3752 -2.0761
3.4499 20.2731 -2.4117
13.7101 94.2858 -11.1734
11.4880 95.0822 -11.2315
9.1975 95.4327 -11.2435
4.1243 57.2470 -6.7310
-8.8117 90.3739 -10.6540
-7.1997 59.0369 -6.9790
-8.2056 55.9920 -6.6414
-9.5730 55.8779 -6.6543
-8.9815 45.7544 -5.4738
-10.0353 45.3036 -5.4482
-11.6363 47.1106 -5.6987
-8.6629 31.7563 -3.8663
-11.4393 38.2681 -4.6923
-10.2085 31.3681 -3.8761
-10.6086 30.1056 -3.7515
-6.6156 17.4197 -2.1905
-11.8844 29.1510 -3.7016
-12.4935 28.6453 -3.6756
-13.1969 28.3673 -3.6807
-13.8860 28.0559 -3.6837
-14.5789 27.7487 -3.6896
-16.0199 28.7806 -3.8783
-15.5737 26.4542 -3.6155
-15.7849 25.3893 -3.5222
-15.9491 24.3225 -3.4277
-16.3203 23.6236 -3.3850
-17.0764 23.4839 -3.4242
-18.8146 24.6021 -3.6538
-20.1275 25.0412 -3.7914
-15.8380 18.7578 -2.8982
-16.3339 18.4231 -2.9077
-16.0166 17.2090 -2.7774
-17.0028 17.4059 -2.8758
-16.0909 15.6952 -2.6577
-15.9982 14.8676 -2.5833
-15.9099 14.0848 -2.5143
-15.4201 13.0003 -2.3876
-18.5958 14.9243 -2.8238
-18.3003 13.9738 -2.7280
-18.5823 13.4910 -2.7218
-14.8948 10.2736 -2.1456
-13.1084 8.5817 -1.8587
-13.4382 8.3408 -1.8772
-13.6768 8.0378 -1.8837
-13.9110 7.7294 -1.8905
-14.1126 7.4010 -1.8939
-14.2518 7.0403 -1.8901
-14.2288 6.6062 -1.8662
-14.6542 6.3779 -1.9021
-14.7104 5.9839 -1.8909
-14.7053 5.5717 -1.8733
-14.8579 5.2225 -1.8770
-15.7110 5.0994 -1.9696
-45.4137 11.1786 -5.5850
-44.6854 9.8606 -5.4671
-45.3124 8.8565 -5.5188
-45.2713 7.7178 -5.4921
-45.2366 6.5913 -5.4697
-16.9874 2.0573 -2.0484
-17.1631 1.6589 -2.0651
-27.4757 1.9869 -3.3008
-15.9304 0.7657 -1.9120
-10.1048 0.2411 -1.2123
-15.4845 -0.0048 -1.8581
-15.2702 -0.3738 -1.8338
-14.9521 -0.7279 -1.7981
-14.4942 -1.0572 -1.7464
-14.3662 -1.3976 -1.7354
-14.5748 -1.7744 -1.7661
-14.5491 -2.1292 -1.7695
-14.3774 -2.4603 -1.7562
-14.5048 -2.8445 -1.7805
-14.4862 -3.2062 -1.7880
-14.4699 -3.5715 -1.7969
-14.4560 -3.9410 -1.8073
-14.3544 -4.2886 -1.8079
-13.6215 -4.4309 -1.7293
-13.6506 -4.8082 -1.7480
-13.5981 -5.1623 -1.7575
-13.5530 -5.5235 -1.7692
-13.5154 -5.8930 -1.7831
-13.4852 -6.2720 -1.7993
-11.9215 -5.8992 -1.6099
-11.6183 -6.1031 -1.5890
-13.3407 -7.4246 -1.8493
-12.4863 -7.3499 -1.7557
-12.7910 -7.9516 -1.8257
-22.5063 -14.7570 -3.2636
-19.2938 -13.3283 -2.8447
-19.7782 -14.3813 -2.9676
-21.3778 -16.3486 -3.2671
-20.4884 -16.4683 -3.1921
-20.1170 -16.9867 -2.9027
-20.0689 -17.7946 -2.9580
-19.0473 -17.7293 -2.8708
-16.7361 -16.3505 -2.5821
-15.1906 -15.5758 -2.4018
-14.9062 -16.0421 -2.4182
-13.5089 -15.2621 -2.2515
-14.7022 -17.4422 -2.5206
-14.7286 -18.3560 -2.6012
-13.6252 -17.8480 -2.4825
-28.0649 -38.6660 -5.2835
-26.6727 -38.6811 -5.1972
-25.4554 -38.8949 -5.1430
-24.0453 -38.7532 -5.0470
-22.8937 -38.9691 -5.0027
-21.6428 -38.9667 -4.9348
-20.4252 -38.9644 -4.8714
-19.2382 -38.9622 -4.8124
-18.0794 -38.9600 -4.7576
-17.7857 -40.8874 -4.9398
-17.7804 -43.7358 -5.2312
-14.3982 -38.0260 -4.5058
-13.4295 -38.2335 -4.4912
-12.4176 -38.2881 -4.4615
-11.3709 -38.1820 -4.4162
-10.3991 -38.2781 -4.3973
-9.3873 -38.1783 -4.3588
-8.4139 -38.1765 -4.3343
-7.4736 -38.2914 -4.3258
-6.4969 -38.1729 -4.2935
-5.5082 -37.8780 -4.2442
-4.6418 -38.4194 -4.2910
-2.9737 -30.8603 -3.4377
-2.7749 -38.5326 -4.2835
-1.8345 -38.4142 -4.2640
-0.9053 -38.4405 -4.2631
0.0241 -38.5273 -4.2713
0.8695 -35.0542 -3.8871
1.7160 -35.0122 -3.8856
2.5167 -34.3465 -3.8170
3.2505 -33.2958 -3.7075
7.8430 -64.2397 -7.1712
4.7095 -32.1034 -3.5949
5.4508 -31.7861 -3.5726
6.1433 -31.2673 -3.5294
6.5580 -29.5795 -3.3552
2.8521 -11.5374 -1.3159
7.5765 -27.7511 -3.1844
7.8760 -26.3263 -3.0413
15.4845 -47.5423 -5.5326
9.1006 -25.8062 -3.0271
7.5491 -19.8625 -2.3501
3.3825 -8.2905 -0.9900
3.5623 -8.1615 -0.9844
3.7996 -8.1612 -0.9949
2.3779 -4.8008 -0.5919
3.8733 -7.3666 -0.9192
4.1152 -7.3875 -0.9337
4.3279 -7.3460 -0.9411
4.5848 -7.3688 -0.9576
4.6206 -7.0410 -0.9289
5.1214 -7.4074 -0.9930
4.5343 -6.2309 -0.8494
4.8275 -6.3075 -0.8752
4.9862 -6.1985 -0.8762
5.4131 -6.4059 -0.9234
5.4330 -6.1229 -0.9009
5.6512 -6.0668 -0.9121
5.4239 -5.5478 -0.8532
5.5222 -5.3817 -0.8476
6.4109 -5.9525 -0.9612
6.5599 -5.8021 -0.9618
6.7101 -5.6519 -0.9631
7.4173 -5.9471 -1.0432
7.5964 -5.7948 -1.0479
7.7098 -5.5918 -1.0441
7.9612 -5.4856 -1.0594
10.9873 -7.1853 -1.4378
10.9554 -6.7922 -1.4111
10.9371 -6.4203 -1.3877
6.9186 -3.8396 -0.8653
6.8686 -3.5976 -0.8475
6.8574 -3.3831 -0.8354
6.8677 -3.1842 -0.8266
6.9318 -3.0126 -0.8249
7.0046 -2.8450 -0.8247
7.1255 -2.6955 -0.8306
7.2575 -2.5467 -0.8381
7.4019 -2.3981 -0.8474
7.6192 -2.2666 -0.8653
7.8459 -2.1290 -0.8845
8.0820 -1.9847 -0.9050
11.5532 -2.5428 -1.2857
11.6617 -2.2727 -1.2906
11.7726 -2.0004 -1.2964
11.9065 -1.7282 -1.3055
12.0545 -1.4533 -1.3168
12.2068 -1.1732 -1.3292
12.3820 -0.8887 -1.3449
12.5959 -0.5985 -1.3654
12.8187 -0.2989 -1.3876
13.0511 0.0111 -1.4116
13.3231 0.3333 -1.4407
13.6858 0.6736 -1.4805
9.5164 0.6992 -1.0304
9.0520 0.8854 -0.9817
8.6287 1.0551 -0.9377
8.3751 1.2301 -0.9127
8.1746 1.4032 -0.8938
8.0051 1.5741 -0.8787
7.9292 1.7592 -0.8743
7.4488 1.8425 -0.8256
7.2431 1.9785 -0.8075
7.0461 2.1089 -0.7906
6.8841 2.2430 -0.7779
6.7343 2.3757 -0.7668
6.5886 2.5049 -0.7565
6.3961 2.6103 -0.7411
6.3790 2.7849 -0.7464
6.4145 2.9870 -0.7584
6.4373 3.1890 -0.7696
6.4638 3.3991 -0.7820
6.4998 3.6211 -0.7964
6.4978 3.8286 -0.8069
6.4671 4.0241 -0.8146
6.3673 4.1787 -0.8141
6.2676 4.3334 -0.8142
6.1677 4.4884 -0.8148
6.0675 4.6438 -0.8158
5.9163 4.7591 -0.8104
5.7830 4.8866 -0.8078
5.8542 5.1943 -0.8347
5.8628 5.4608 -0.8542
5.8723 5.7407 -0.8752
11.8919 12.2011 -1.8152
11.4796 12.3619 -1.7967
12.9937 14.6886 -2.0880
12.3909 14.7085 -2.0470
7.9396 9.9005 -1.3504
7.3744 9.6651 -1.2932
7.1021 9.7899 -1.2863
7.4057 10.7454 -1.3875
9.0460 13.8288 -1.7565
9.1783 14.7995 -1.8506
9.0419 15.3982 -1.8972
8.8852 16.0045 -1.9445
8.5379 16.2947 -1.9537
8.1091 16.4299 -1.9455
7.7610 16.7315 -1.9581
7.4561 17.1476 -1.9848
7.0962 17.4617 -2.0004
6.6450 17.5560 -1.9920
6.1764 17.5903 -1.9781
5.7156 17.6292 -1.9662
5.2552 17.6519 -1.9538
4.7546 17.5062 -1.9242
4.2144 17.1442 -1.8726
3.6591 16.6065 -1.8036
15.8299 81.1203 -8.7656
3.2614 19.1651 -2.0618
2.8705 19.7408 -2.1156
11.4716 94.9469 -10.1425
5.5178 57.2530 -6.1000
4.0861 56.7173 -6.0308
-6.8051 55.7975 -5.9654
-8.2629 56.3802 -6.0481
-9.6825 56.5144 -6.0868
-9.4175 47.9734 -5.1908
-9.8019 44.2481 -4.8128
-10.9345 44.2673 -4.8431
-8.8736 32.5274 -3.5818
-8.8558 29.6241 -3.2855
-9.6131 29.5374 -3.3014
-10.2556 29.1027 -3.2803
-6.6156 17.4192 -1.9814
-12.2041 29.9341 -3.4383
-12.8837 29.5389 -3.4286
-13.5504 29.1261 -3.4187
-13.3940 27.0608 -3.2143
-14.0550 26.7504 -3.2178
-14.5158 26.0773 -3.1792
-15.2850 25.9628 -3.2103
-15.3915 24.7555 -3.1072
-16.2663 24.8053 -3.1630
-16.8381 24.3721 -3.1598
-17.8086 24.4898 -3.2312
-15.7377 20.5779 -2.7654
-16.2969 20.2746 -2.7779
-15.0724 17.8503 -2.4959
-14.9824 16.8980 -2.4136
-15.2254 16.3583 -2.3894
-15.3141 15.6764 -2.3442
-13.6754 13.3385 -2.0443
-15.1671 14.0947 -2.2167
-14.7199 13.0307 -2.1056
-18.5142 15.6082 -2.5948
-17.6502 14.1647 -2.4262
-17.7709 13.5689 -2.3981
-18.0981 13.1389 -2.3998
-18.4162 12.7019 -2.4018
-12.8215 8.3934 -1.6460
-13.0887 8.1234 -1.6554
-13.3123 7.8231 -1.6601
-13.5391 7.5224 -1.6661
-13.7695 7.2206 -1.6733
-13.9870 6.9091 -1.6798
-15.6705 7.2750 -1.8613
-14.2945 6.2209 -1.6804
-14.3133 5.8220 -1.6664
-14.0735 5.3319 -1.6239
-15.6621 5.5048 -1.7923
-14.9454 4.8504 -1.6972
-15.7870 4.7051 -1.7803
-44.5596 12.1162 -4.9933
-44.5072 10.9542 -4.9589
-44.1334 9.7375 -4.8923
-44.4192 8.6807 -4.9019
-44.3834 7.5652 -4.8790
-44.3528 6.4613 -4.8596
-16.9842 2.0565 -1.8559
-17.1569 1.6578 -1.8709
-15.6391 1.1305 -1.7028
-15.4166 0.7405 -1.6770
-15.2009 0.3623 -1.6530
-10.8377 -0.0036 -1.1788
-14.5713 -0.3571 -1.5863
-14.2807 -0.6956 -1.5568
-14.0044 -1.0218 -1.5298
-14.0644 -1.3686 -1.5403
-14.2577 -1.7361 -1.5664
-14.3205 -2.0961 -1.5792
-14.3863 -2.4622 -1.5934
-14.4233 -2.8289 -1.6054
-14.4082 -3.1894 -1.6127
-14.0783 -3.4752 -1.5855
-14.0627 -3.8342 -1.5945
-14.0492 -4.1978 -1.6048
-16.4714 -5.3584 -1.8966
-17.7395 -6.2489 -2.0604
-16.7472 -6.3583 -1.9634
-16.9717 -6.9173 -2.0096
-16.6076 -7.2417 -1.9876
-16.2292 -7.5486 -1.9645
-11.9190 -5.8983 -1.4602
-11.6169 -6.1027 -1.4415
-12.2203 -6.8014 -1.5370
-12.2061 -7.1853 -1.5573
-12.1530 -7.5553 -1.5740
-21.4921 -14.8476 -2.8755
-21.2494 -15.4517 -2.8933
-20.7657 -15.8812 -2.8800
-20.1011 -16.1575 -2.8422
-19.7998 -16.7195 -2.5667
-19.7467 -17.5095 -2.6149
-17.0942 -15.9119 -2.3148
-19.9096 -19.4515 -2.7600
-15.9936 -16.3997 -2.2722
-14.3475 -15.4413 -2.0915
-13.5069 -15.2604 -2.0229
-14.4842 -17.1840 -2.2315
-14.4276 -17.9814 -2.2898
-29.7588 -38.9830 -4.8726
-28.2464 -38.9170 -4.7790
-26.8428 -38.9289 -4.7007
-25.4936 -38.9543 -4.6292
-24.1905 -38.9881 -4.5635
-23.0760 -39.2804 -4.5322
-21.8052 -39.2600 -4.4687
-20.5785 -39.2577 -4.4115
-19.4341 -39.3597 -4.3697
-18.0790 -38.9600 -4.2763
-17.7857 -40.8882 -4.4403
-17.7804 -43.7366 -4.7023
-14.4593 -38.1879 -4.0675
-13.4293 -38.2335 -4.0371
-12.4214 -38.3007 -4.0118
-11.3707 -38.1820 -3.9698
-10.4041 -38.2969 -3.9548
-9.3872 -38.1783 -3.9183
-8.4138 -38.1765 -3.8963
-7.4735 -38.2914 -3.8886
-6.4968 -38.1729 -3.8596
-5.5082 -37.8780 -3.8153
-4.6418 -38.4194 -3.8574
-2.9736 -30.8594 -3.0902
-2.7750 -38.5326 -3.8507
-1.8346 -38.4142 -3.8331
-0.9054 -38.4405 -3.8323
0.0240 -38.5273 -3.8396
0.9525 -38.4089 -3.8287
1.8843 -38.4512 -3.8359
2.8225 -38.5221 -3.8483
3.7489 -38.4037 -3.8439
4.0135 -32.8754 -3.2988
4.6463 -31.6738 -3.1881
5.3516 -31.2090 -3.1529
6.0340 -30.7127 -3.1161
6.0073 -27.0970 -2.7626
2.8516 -11.5358 -1.1826
7.2918 -26.7092 -2.7547
7.7938 -26.0527 -2.7050
10.5764 -32.4741 -3.3964
9.1999 -26.0886 -2.7503
13.4231 -35.3190 -3.7555
3.3987 -8.3306 -0.8940
3.5878 -8.2202 -0.8910
3.8271 -8.2206 -0.9005
2.3777 -4.8006 -0.5318
3.9154 -7.4470 -0.8350
4.0466 -7.2647 -0.8250
4.3233 -7.3384 -0.8447
4.5150 -7.2569 -0.8473
4.6704 -7.1171 -0.8436
4.6925 -6.7874 -0.8174
5.0679 -6.9643 -0.8529
4.7571 -6.2157 -0.7748
5.0626 -6.2937 -0.7992
5.3094 -6.2833 -0.8135
5.5978 -6.3089 -0.8338
5.6224 -6.0362 -0.8151
5.7408 -5.8721 -0.8111
5.7535 -5.6074 -0.7931
6.2758 -5.8274 -0.8450
6.4215 -5.6799 -0.8455
6.5683 -5.5327 -0.8466
7.3858 -5.9222 -0.9327
7.5641 -5.7704 -0.9369
7.7444 -5.6172 -0.9416
7.9269 -5.4622 -0.9470
10.7241 -7.0136 -1.2599
10.7042 -6.6369 -1.2377
6.9475 -4.0786 -0.7912
6.7758 -3.7606 -0.7607
6.7530 -3.5373 -0.7479
6.7549 -3.3327 -0.7386
6.7923 -3.1494 -0.7337
6.8756 -2.9884 -0.7343
6.9613 -2.8277 -0.7355
7.0835 -2.6798 -0.7409
7.2110 -2.5306 -0.7472
7.3783 -2.3906 -0.7579
7.5957 -2.2598 -0.7739
7.8207 -2.1224 -0.7909
8.0555 -1.9785 -0.8091
11.3234 -2.4926 -1.1303
11.4288 -2.2277 -1.1344
11.5363 -1.9606 -1.1394
11.6700 -1.6942 -1.1475
11.8129 -1.4245 -1.1571
11.9577 -1.1495 -1.1676
12.1083 -0.8693 -1.1792
12.2874 -0.5842 -1.1942
12.4995 -0.2918 -1.2130
12.7205 0.0105 -1.2334
12.9676 0.3241 -1.2570
13.2331 0.6510 -1.2831
9.3413 0.6861 -0.9066
9.0384 0.8839 -0.8785
8.6163 1.0533 -0.8392
8.3683 1.2289 -0.8172
8.1681 1.4019 -0.8003
8.0468 1.5821 -0.7915
7.9703 1.7681 -0.7875
7.5986 1.8794 -0.7546
7.1980 1.9660 -0.7189
7.0031 2.0959 -0.7039
6.8460 2.2304 -0.6929
6.6975 2.3625 -0.6831
6.5244 2.4803 -0.6710
6.3315 2.5837 -0.6571
6.3218 2.7598 -0.6624
6.3641 2.9633 -0.6738
6.3910 3.1659 -0.6842
6.4143 3.3729 -0.6949
6.4638 3.6009 -0.7091
6.4733 3.8140 -0.7197
6.4613 4.0203 -0.7286
6.3616 4.1748 -0.7282
6.2619 4.3293 -0.7282
6.1621 4.4842 -0.7287
6.0393 4.6221 -0.7269
5.8847 4.7335 -0.7215
5.7522 4.8604 -0.7191
5.7623 5.1126 -0.7353
5.7925 5.3951 -0.7553
5.8002 5.6700 -0.7736
5.9756 6.1307 -0.8163
8.1116 8.7348 -1.1361
13.9262 15.7423 -2.0025
8.1360 9.6574 -1.2027
7.7384 9.6493 -1.1777
7.3734 9.6636 -1.1570
7.1014 9.7887 -1.1507
7.2510 10.5206 -1.2155
11.4859 17.5582 -1.9954
7.9367 12.7972 -1.4317
8.0083 13.6375 -1.5033
8.0936 14.5784 -1.5846
8.1741 15.5998 -1.6733
7.9583 16.1240 -1.7080
7.5816 16.3443 -1.7111
7.2341 16.6366 -1.7226
6.7736 16.6675 -1.7081
6.2710 16.5676 -1.6816
5.7660 16.4211 -1.6518
5.2804 16.2866 -1.6248
4.8121 16.1632 -1.6003
4.3592 16.0502 -1.5780
3.9098 15.9049 -1.5539
14.9753 67.9626 -6.6021
13.4989 69.1746 -6.6859
2.7184 18.6949 -1.7920
11.4648 94.8907 -9.0666
5.4433 56.4805 -5.3825
4.0487 56.1998 -5.3450
-6.5803 67.4799 -6.4355
-10.9089 89.4418 -8.5538
-8.4157 57.4204 -5.5101
-9.3030 54.2967 -5.2313
-9.0754 46.2287 -4.4747
-10.0538 45.3832 -4.4159
-10.4386 42.2579 -4.1360
-11.0733 40.5892 -3.9986
-11.9200 39.8728 -3.9563
-9.2264 28.3479 -2.8348
-9.8695 28.0059 -2.8243
-6.6157 17.4186 -1.7727
-11.7816 28.8966 -2.9699
-12.7009 29.1187 -3.0243
-13.4255 28.8567 -3.0308
-14.5332 29.3614 -3.1209
-14.0613 26.7615 -2.8808
-14.5187 26.0816 -2.8455
-15.3535 26.0781 -2.8859
-15.3117 24.6262 -2.7664
-16.0266 24.4388 -2.7891
-16.6456 24.0927 -2.7958
-17.4844 24.0432 -2.8395
-19.0642 24.9265 -2.9986
-19.7162 24.5275 -3.0083
-16.3772 19.3948 -2.4277
-14.3448 16.1782 -2.0688
-14.5810 15.6653 -2.0486
-14.5258 14.8689 -1.9907
-17.4980 17.0662 -2.3420
-14.0620 13.0672 -1.8402
-15.0059 13.2833 -1.9221
-15.9671 13.4603 -2.0040
-16.5737 13.3001 -2.0402
-17.2073 13.1379 -2.0796
-17.6281 12.7970 -2.0936
-17.9494 12.3793 -2.0967
-14.0379 9.1892 -1.6143
-14.0760 8.7357 -1.5948
-14.2822 8.3926 -1.5956
-14.0967 7.8318 -1.5541
-14.7814 7.7508 -1.6094
-22.2644 10.9971 -2.3959
-15.1664 7.0406 -1.6142
-13.9341 6.0637 -1.4678
-14.7442 5.9968 -1.5384
-15.0355 5.6959 -1.5549
-15.2929 5.3746 -1.5685
-15.5566 5.0484 -1.5835
-16.6206 4.9531 -1.6801
-16.0261 4.3572 -1.6099
-16.5096 4.0629 -1.6491
-43.2906 9.5504 -4.3024
-16.9979 3.3214 -1.6818
-17.0584 2.9072 -1.6814
-36.6907 5.3441 -3.6049
-16.9811 2.0557 -1.6640
-17.1507 1.6568 -1.6772
-15.1441 1.0944 -1.4789
-14.8209 0.7115 -1.4461
-13.9005 0.3310 -1.3559
-26.1463 -0.0095 -2.5512
-11.7060 -0.2872 -1.1432
-12.4879 -0.6086 -1.2214
-13.1258 -0.9581 -1.2864
-13.7757 -1.3409 -1.3537
-13.9147 -1.6947 -1.3717
-13.9734 -2.0457 -1.3828
-14.0347 -2.4024 -1.3950
-14.0437 -2.7548 -1.4029
-14.0274 -3.1054 -1.4091
-14.0129 -3.4595 -1.4165
-14.0002 -3.8175 -1.4249
-13.9459 -4.1673 -1.4300
-13.7109 -4.4607 -1.4173
-19.9767 -7.0375 -2.0830
-16.6527 -6.3229 -1.7528
-16.2990 -6.6436 -1.7329
-15.9330 -6.9480 -1.7122
-15.2496 -7.0934 -1.6575
-11.8049 -5.8422 -1.2987
-11.2173 -5.8930 -1.2500
-10.6762 -5.9423 -1.2059
-12.4830 -7.3486 -1.4303
-14.8700 -9.2449 -1.7297
-17.8568 -11.7094 -2.1104
-18.2719 -12.6234 -2.1959
-19.8502 -14.4348 -2.4279
-19.8471 -15.1792 -2.4727
-20.6542 -16.6028 -2.6236
-19.8651 -16.7753 -2.2845
-17.0819 -15.1472 -2.0069
-19.1228 -17.8008 -2.2975
-19.0300 -18.5928 -2.3407
-15.4124 -15.8042 -1.9429
-15.0574 -16.2059 -1.9477
-13.5050 -15.2586 -1.7948
-14.2627 -16.9217 -1.9500
-14.0033 -17.4531 -1.9723
-14.1498 -18.5362 -2.0562
-28.5044 -39.2736 -4.2803
-27.0007 -39.1589 -4.1967
-25.7743 -39.3841 -4.1541
-24.3615 -39.2648 -4.0793
-23.1261 -39.3666 -4.0317
-21.8046 -39.2600 -3.9666
-20.5780 -39.2577 -3.9159
-19.4398 -39.3722 -3.8802
-18.0787 -38.9601 -3.7962
-17.7857 -40.8891 -3.9418
-17.7804 -43.7375 -4.1745
-14.4590 -38.1879 -3.6110
-13.4291 -38.2336 -3.5841
-12.4212 -38.3007 -3.5617
-11.3705 -38.1820 -3.5244
-10.4039 -38.2969 -3.5111
-9.3871 -38.1783 -3.4787
-8.4137 -38.1765 -3.4593
-7.4735 -38.2914 -3.4525
-6.4968 -38.1729 -3.4267
-5.5082 -37.8780 -3.3874
-4.6418 -38.4194 -3.4248
-2.9736 -30.8585 -2.7436
-2.7751 -38.5326 -3.4188
-1.8346 -38.4142 -3.4032
-0.9055 -38.4404 -3.4024
0.0239 -38.5273 -3.4089
0.7787 -31.4051 -2.7793
1.5635 -31.9072 -2.8260
2.3414 -31.9593 -2.8344
3.1140 -31.9013 -2.8347
3.8740 -31.7345 -2.8270
4.5633 -31.1096 -2.7798
5.2116 -30.3940 -2.7259
5.4143 -27.5594 -2.4821
6.0143 -27.1297 -2.4553
2.8511 -11.5343 -1.0496
7.0568 -25.8498 -2.3665
7.8662 -26.2959 -2.4234
8.4766 -26.0278 -2.4162
9.3011 -26.3767 -2.4680
10.4419 -27.4758 -2.5929
3.4151 -8.3711 -0.7973
3.6136 -8.2796 -0.7964
3.8549 -8.2807 -0.8050
2.3775 -4.8003 -0.4719
3.7784 -7.1866 -0.7150
4.0851 -7.3341 -0.7390
4.3251 -7.3418 -0.7498
4.6085 -7.4074 -0.7673
4.6485 -7.0840 -0.7450
5.4776 -7.9233 -0.8465
4.9683 -6.8277 -0.7418
5.0508 -6.5997 -0.7297
4.9876 -6.2007 -0.6984
5.1138 -6.0521 -0.6950
5.5689 -6.2766 -0.7357
6.1028 -6.5522 -0.7847
5.7722 -5.9045 -0.7232
6.0044 -5.8521 -0.7340
5.8371 -5.4203 -0.6970
6.7878 -6.0042 -0.7925
6.4327 -5.4187 -0.7351
7.3548 -5.8976 -0.8235
7.5321 -5.7463 -0.8271
7.7114 -5.5935 -0.8312
10.5020 -7.2369 -1.1121
10.4761 -6.8518 -1.0909
10.4710 -6.4926 -1.0730
6.8047 -3.9950 -0.6868
6.6392 -3.6850 -0.6605
6.6403 -3.4784 -0.6517
6.6582 -3.2852 -0.6450
6.7490 -3.1296 -0.6459
6.8317 -2.9695 -0.6463
6.9239 -2.8127 -0.6480
7.0451 -2.6654 -0.6527
7.1685 -2.5159 -0.6579
7.3561 -2.3837 -0.6692
7.5724 -2.2531 -0.6833
7.7958 -2.1159 -0.6981
8.0236 -1.9708 -0.7136
11.1234 -2.4489 -0.9830
11.2139 -2.1861 -0.9854
11.3098 -1.9224 -0.9888
11.4410 -1.6613 -0.9958
11.5756 -1.3962 -1.0036
11.7136 -1.1264 -1.0122
11.8602 -0.8518 -1.0221
12.0305 -0.5723 -1.0346
12.2066 -0.2853 -1.0482
12.4069 0.0099 -1.0644
12.6417 0.3156 -1.0841
10.0262 0.4929 -0.8600
9.2857 0.6818 -0.7971
9.0155 0.8814 -0.7750
8.6040 1.0516 -0.7411
8.3616 1.2277 -0.7221
8.1665 1.4014 -0.7075
8.0888 1.5902 -0.7035
8.0118 1.7771 -0.6999
7.8395 1.9388 -0.6883
7.1535 1.9537 -0.6316
6.9607 2.0830 -0.6185
6.8083 2.2180 -0.6091
6.6559 2.3477 -0.6000
6.4579 2.4549 -0.5870
6.2683 2.5578 -0.5749
6.2657 2.7351 -0.5802
6.3066 2.9364 -0.5900
6.3454 3.1432 -0.6002
6.3674 3.3480 -0.6094
6.4138 3.5729 -0.6216
6.4491 3.7995 -0.6334
6.4465 4.0109 -0.6421
6.3559 4.1708 -0.6426
6.2563 4.3253 -0.6426
6.1566 4.4800 -0.6430
6.0056 4.5961 -0.6383
5.8535 4.7082 -0.6337
5.7217 4.8345 -0.6316
5.5907 4.9602 -0.6299
5.7240 5.3311 -0.6590
5.7299 5.6011 -0.6748
5.7801 5.9300 -0.6970
8.0136 8.6290 -0.9908
8.1242 9.1834 -1.0312
7.7896 9.2460 -1.0164
7.4505 9.2901 -1.0008
7.2727 9.5314 -1.0072
7.1006 9.7874 -1.0155
7.0368 10.2095 -1.0410
11.1593 17.0585 -1.7109
10.5336 16.9840 -1.6769
9.5202 16.2119 -1.5770
9.3036 16.7574 -1.6073
8.6636 16.5337 -1.5650
8.2503 16.7152 -1.5624
8.0352 17.3218 -1.6002
7.7844 17.9019 -1.6356
7.4750 18.3932 -1.6632
7.1555 18.9040 -1.6929
6.8249 19.4365 -1.7251
7.0563 21.7637 -1.9157
6.2861 21.1138 -1.8443
6.1054 22.4790 -1.9499
5.7259 23.2925 -2.0077
5.2165 23.6738 -2.0290
4.6969 24.0687 -2.0524
14.6541 86.1113 -7.3103
13.5615 93.2630 -7.8871
11.4030 94.3795 -7.9559
5.5002 57.0713 -4.7984
4.0890 56.7596 -4.7626
-3.0478 62.2904 -5.2215
-5.9874 61.3958 -5.1662
-7.2879 59.7496 -5.0418
-8.0534 54.9451 -4.6523
-9.2986 54.2681 -4.6136
-9.3526 47.6388 -4.0689
-8.8560 39.9746 -3.4323
-8.2396 33.3545 -2.8808
-9.0574 33.1984 -2.8862
-9.7691 32.6767 -2.8613
-10.3349 31.7527 -2.8022
-14.0002 39.7262 -3.5358
-6.6157 17.4181 -1.5646
-12.1061 29.6914 -2.6934
-12.6491 28.9988 -2.6584
-13.1787 28.3251 -2.6260
-14.0513 28.3867 -2.6635
-13.7483 26.1649 -2.4864
-15.2985 27.4813 -2.6469
-13.9671 23.7223 -2.3177
-14.8627 23.9031 -2.3708
-15.5621 23.7297 -2.3912
-16.2763 23.5572 -2.4139
-17.0313 23.4192 -2.4423
-17.8339 23.3170 -2.4771
-14.3098 17.8011 -1.9282
-15.1463 17.9364 -1.9829
-13.7604 15.5185 -1.7528
-16.2358 17.4424 -2.0149
-16.6909 17.0844 -2.0206
-17.0124 16.5919 -2.0115
-17.1479 15.9340 -1.9825
-17.4638 15.4584 -1.9763
-14.4078 12.1453 -1.5977
-15.2058 12.2018 -1.6540
-16.0695 12.2686 -1.7162
-16.8955 12.2646 -1.7733
-17.4955 12.0657 -1.8062
-14.6253 9.5732 -1.4865
-14.1712 8.7944 -1.4192
-14.2837 8.3930 -1.4106
-14.2870 7.9370 -1.3925
-14.8626 7.7929 -1.4307
-14.9270 7.3724 -1.4202
-14.6543 6.8023 -1.3791
-14.2140 6.1850 -1.3241
-14.3273 5.8268 -1.3220
-14.6658 5.5554 -1.3414
-14.9303 5.2467 -1.3545
-15.1570 4.9182 -1.3648
-15.8172 4.7132 -1.4145
-42.8425 11.6469 -3.8075
-42.3351 10.4172 -3.7415
-42.3454 9.3407 -3.7238
-15.9772 3.1215 -1.3989
-16.3063 2.7785 -1.4224
-20.8018 3.0293 -1.8089
-16.9780 2.0548 -1.4726
-17.1446 1.6557 -1.4842
-23.0598 1.6657 -1.9935
-28.5688 1.3708 -2.4678
-16.3009 0.3877 -1.4078
-22.6739 -0.0088 -1.9590
-21.5619 -0.5296 -1.8647
-11.8679 -0.5787 -1.0279
-12.5494 -0.9163 -1.0893
-13.1980 -1.2850 -1.1487
-13.5885 -1.6554 -1.1866
-13.6434 -1.9977 -1.1960
-13.7006 -2.3456 -1.2064
-13.6843 -2.6847 -1.2111
-13.6671 -3.0260 -1.2165
-13.6513 -3.3705 -1.2228
-13.4969 -3.6806 -1.2173
-13.2722 -3.9663 -1.2061
-13.0545 -4.2475 -1.1960
-12.8432 -4.5248 -1.1870
-12.6380 -4.7989 -1.1791
-12.4177 -5.0619 -1.1703
-12.1020 -5.2777 -1.1529
-11.5081 -5.3534 -1.1090
-10.9483 -5.4186 -1.0680
-10.4321 -5.4808 -1.0308
-18.4236 -10.2550 -1.8454
-12.4814 -7.3480 -1.2683
-23.5776 -14.6591 -2.4324
-30.5727 -20.0488 -3.2047
-16.0569 -11.0937 -1.7116
-17.4594 -12.6968 -1.8942
-17.4914 -13.3781 -1.9331
-20.1091 -16.1652 -2.2660
-19.3514 -16.3421 -1.9429
-19.0855 -16.9244 -1.9577
-18.7446 -17.4493 -1.9664
-15.1307 -14.7836 -1.6251
-16.6202 -17.0433 -1.8296
-15.6357 -16.8288 -1.7663
-13.5031 -15.2569 -1.5673
-13.8973 -16.4886 -1.6595
-13.4245 -16.7322 -1.6515
-13.6494 -17.8812 -1.7325
-28.5036 -39.2736 -3.7388
-27.0007 -39.1599 -3.6661
-25.7736 -39.3841 -3.6289
-24.3609 -39.2648 -3.5637
-23.1255 -39.3666 -3.5223
-21.8041 -39.2600 -3.4655
-20.5775 -39.2577 -3.4214
-19.4394 -39.3722 -3.3903
-18.0783 -38.9600 -3.3169
-17.7857 -40.8899 -3.4444
-17.7804 -43.7384 -3.6478
-14.4587 -38.1879 -3.1554
-13.3937 -38.1336 -3.1238
-12.3615 -38.1172 -3.0975
-11.3703 -38.1820 -3.0799
-10.3653 -38.1553 -3.0570
-9.3863 -38.1754 -3.0398
-8.4136 -38.1765 -3.0231
-7.4506 -38.1747 -3.0080
-6.4968 -38.1729 -2.9947
-5.5082 -37.8780 -2.9603
-4.6418 -38.4194 -2.9930
-2.9735 -30.8576 -2.3976
-2.7667 -38.4159 -2.9787
-1.8347 -38.4142 -2.9741
-0.9050 -38.4124 -2.9712
0.0237 -38.4107 -2.9700
0.9522 -38.4089 -2.9704
1.8818 -38.4072 -2.9726
2.1340 -29.1305 -2.2576
3.5750 -36.6269 -2.8440
4.2646 -34.9362 -2.7195
4.3730 -29.8140 -2.3278
4.9983 -29.1515 -2.2844
5.3721 -27.3458 -2.1520
5.8896 -26.5685 -2.1009
2.8507 -11.5328 -0.9169
7.7238 -28.2941 -2.2630
7.9150 -26.4599 -2.1303
8.4776 -26.0319 -2.1111
9.3939 -26.6409 -2.1776
10.3184 -27.1519 -2.2383
12.6941 -31.1168 -2.5887
3.6397 -8.3398 -0.7007
3.8831 -8.3415 -0.7082
2.3773 -4.8001 -0.4121
3.8246 -7.2748 -0.6321
4.1064 -7.3725 -0.6487
4.3693 -7.4171 -0.6614
4.5455 -7.3064 -0.6609
4.5089 -6.8716 -0.6309
4.7881 -6.9262 -0.6460
4.8728 -6.6967 -0.6351
4.9552 -6.4751 -0.6249
4.9150 -6.1107 -0.6007
5.2266 -6.1858 -0.6200
5.5404 -6.2446 -0.6388
5.6659 -6.0833 -0.6358
5.9385 -6.0749 -0.6493
5.9088 -5.7592 -0.6303
6.0889 -5.6544 -0.6343
5.9178 -5.2349 -0.6028
6.9520 -5.8565 -0.6931
7.3240 -5.8732 -0.7153
7.5004 -5.7224 -0.7183
7.6788 -5.5702 -0.7218
10.2766 -7.0820 -0.9490
10.2745 -6.7202 -0.9329
6.8916 -4.2734 -0.6158
6.6714 -3.9169 -0.5871
6.5274 -3.6232 -0.5661
6.5499 -3.4313 -0.5603
6.5772 -3.2455 -0.5554
6.7063 -3.1100 -0.5594
6.7885 -2.9509 -0.5597
6.8869 -2.7978 -0.5616
7.0072 -2.6513 -0.5656
7.1484 -2.5090 -0.5716
7.3341 -2.3768 -0.5812
7.5492 -2.2464 -0.5933
7.7711 -2.1094 -0.6061
7.9898 -1.9628 -0.6188
10.9360 -2.4079 -0.8416
11.0240 -2.1494 -0.8435
11.1115 -1.8890 -0.8458
11.2236 -1.6300 -0.8504
11.3466 -1.3688 -0.8563
11.4798 -1.1042 -0.8634
11.6226 -0.8351 -0.8717
11.7865 -0.5610 -0.8820
11.9556 -0.2798 -0.8932
12.1287 0.0093 -0.9052
12.3296 0.3075 -0.9198
9.8670 0.4848 -0.7362
9.2308 0.6775 -0.6892
8.9636 0.8761 -0.6701
8.5917 1.0499 -0.6436
8.3548 1.2265 -0.6274
8.2095 1.4086 -0.6184
8.1312 1.5983 -0.6147
8.0535 1.7862 -0.6115
7.9763 1.9724 -0.6086
7.1097 1.9415 -0.5455
6.9214 2.0710 -0.5344
6.7712 2.2057 -0.5264
6.5875 2.3234 -0.5159
6.3929 2.4300 -0.5048
6.2065 2.5324 -0.4944
6.2106 2.7109 -0.4995
6.2503 2.9100 -0.5079
6.2915 3.1163 -0.5168
6.3217 3.3238 -0.5254
6.3647 3.5453 -0.5356
6.4136 3.7784 -0.5469
6.4222 3.9956 -0.5554
6.3502 4.1669 -0.5573
6.2507 4.3212 -0.5573
6.1303 4.4607 -0.5557
5.9724 4.5705 -0.5509
5.8227 4.6833 -0.5471
5.6917 4.8089 -0.5452
5.5615 4.9341 -0.5437
5.5734 5.1906 -0.5567
5.6615 5.5341 -0.5784
5.6662 5.8129 -0.5928
5.9193 6.3736 -0.6349
8.0628 9.1137 -0.8877
7.5959 9.0158 -0.8597
7.3338 9.1443 -0.8544
7.1335 9.3487 -0.8568
6.9633 9.5979 -0.8637
6.8780 9.9788 -0.8824
10.8513 16.5873 -1.4426
9.9820 16.0944 -1.3779
9.6262 16.3919 -1.3826
8.9817 16.1773 -1.3454
8.3011 15.8417 -1.3000
7.9429 16.0921 -1.3041
7.7684 16.7463 -1.3412
7.5447 17.3503 -1.3742
7.2785 17.9092 -1.4039
6.9641 18.3979 -1.4283
6.6389 18.9065 -1.4546
6.9072 21.3035 -1.6255
6.5585 22.0284 -1.6680
5.4634 20.1149 -1.5125
5.1686 21.0254 -1.5709
4.8521 22.0197 -1.6358
4.4842 22.9788 -1.6984
3.9748 23.3566 -1.7187
13.4416 92.4381 -6.7759
11.2298 92.9462 -6.7913
5.4124 56.1606 -4.0928
4.1019 56.9403 -4.1413
2.7573 57.6969 -4.1905
-6.6474 68.1595 -4.9718
-8.2832 67.9059 -4.9674
-7.0682 48.2218 -3.5397
-7.8412 45.7606 -3.3727
-8.8470 45.0613 -3.3367
-13.2269 59.7014 -4.4443
-10.8350 43.8593 -3.2845
-11.3538 41.6139 -3.1369
-12.3031 41.1511 -3.1245
-12.3420 37.9181 -2.9018
-10.6409 30.1927 -2.3304
-6.6158 17.4175 -1.3568
-11.9176 29.2280 -2.2994
-12.4666 28.5793 -2.2723
-13.2629 28.5050 -2.2922
-13.9547 28.1905 -2.2943
-15.0583 28.6570 -2.3623
-16.1437 28.9987 -2.4230
-15.6748 26.6218 -2.2565
-15.8897 25.5539 -2.1990
-15.0160 22.8961 -2.0019
-17.0517 24.6786 -2.1943
-18.0746 24.8528 -2.2492
-17.7782 23.2433 -2.1430
-17.9516 22.3305 -2.0994
-14.1232 16.7242 -1.6049
-14.6442 16.5146 -1.6192
-22.5653 24.2413 -2.4310
-19.1295 19.5797 -2.0105
-19.3569 18.8776 -1.9871
-19.1187 17.7645 -1.9193
-20.5602 18.1984 -2.0205
-17.0015 14.3310 -1.6374
-17.2786 13.8645 -1.6324
-17.4906 13.3529 -1.6226
-17.6888 12.8398 -1.6128
-17.8869 12.3349 -1.6043
-18.5323 12.1300 -1.6366
-14.1729 8.7949 -1.2333
-14.2851 8.3934 -1.2260
-14.4821 8.0449 -1.2267
-15.0995 7.9166 -1.2634
-14.4259 7.1245 -1.1931
-20.6823 9.5999 -1.6922
-14.4832 6.3017 -1.1730
-12.9435 5.2636 -1.0385
-14.2578 5.4004 -1.1340
-14.5851 5.1249 -1.1507
-14.8304 4.8118 -1.1615
-14.8483 4.4241 -1.1550
-14.7400 4.0067 -1.1396
-14.5095 3.5699 -1.1157
-14.1510 3.1211 -1.0828
-41.9498 8.1946 -3.1963
-36.6924 6.2513 -2.7856
-37.0006 5.3872 -2.8004
-16.9749 2.0540 -1.2816
-17.1384 1.6547 -1.2916
-17.5408 1.2666 -1.3202
-16.4110 0.7870 -1.2343
-22.5193 0.5349 -1.6936
-21.6209 -0.0090 -1.6268
-30.0192 -0.7381 -2.2612
-10.2676 -0.5009 -0.7747
-11.8876 -0.8683 -0.8989
-12.6153 -1.2286 -0.9566
-13.2753 -1.6176 -1.0101
-13.3293 -1.9521 -1.0182
-13.3626 -2.2881 -1.0255
-13.3434 -2.6182 -1.0293
-13.3074 -2.9467 -1.0325
-13.0852 -3.2311 -1.0217
-12.8702 -3.5101 -1.0120
-12.6616 -3.7842 -1.0032
-12.3832 -4.0294 -0.9892
-12.0653 -4.2511 -0.9724
-11.7617 -4.4665 -0.9570
-11.4713 -4.6764 -0.9430
-11.1928 -4.8816 -0.9301
-10.7028 -4.9790 -0.8997
-10.2090 -5.0529 -0.8688
-11.6127 -6.1014 -1.0011
-17.5532 -9.7710 -1.5341
-12.4797 -7.3474 -1.1066
-16.5683 -10.3017 -1.4916
-15.7716 -10.3430 -1.4428
-22.2313 -15.3602 -2.0683
-16.5543 -12.0391 -1.5676
-16.6956 -12.7699 -1.6107
-18.9164 -15.2070 -1.8608
-19.6489 -16.5939 -1.6864
-19.0843 -16.9239 -1.6735
-18.2082 -16.9505 -1.6331
-17.2813 -16.8854 -1.5870
-16.0236 -16.4320 -1.5083
-14.9807 -16.1244 -1.4472
-13.5011 -15.2552 -1.3402
-13.4308 -15.9357 -1.3717
-12.9140 -16.0963 -1.3589
-30.0076 -39.3121 -3.2581
-12.9808 -17.8860 -1.4566
-27.0007 -39.1609 -3.1363
-25.6785 -39.2398 -3.0932
-24.3189 -39.1980 -3.0438
-23.0513 -39.2412 -3.0041
-21.8036 -39.2600 -2.9653
-20.5771 -39.2577 -2.9276
-19.3813 -39.2555 -2.8925
-18.0779 -38.9600 -2.8385
-17.7857 -40.8907 -2.9478
-17.7804 -43.7392 -3.1219
-14.4584 -38.1879 -2.7006
-13.4118 -38.1859 -2.6772
-12.3829 -38.1839 -2.6558
-11.3701 -38.1820 -2.6362
-10.3719 -38.1802 -2.6183
-9.3868 -38.1783 -2.6021
-8.4135 -38.1765 -2.5876
-7.4505 -38.1747 -2.5747
-6.4967 -38.1729 -2.5634
-5.5082 -37.8780 -2.5340
-4.6418 -38.4194 -2.5619
-2.9735 -30.8567 -2.0522
-2.7668 -38.4159 -2.5497
-1.8348 -38.4142 -2.5457
-0.9051 -38.4124 -2.5432
0.0235 -38.4107 -2.5421
0.9521 -38.4089 -2.5425
1.8472 -37.7052 -2.4978
2.6837 -36.6357 -2.4301
3.3882 -34.7155 -2.3071
3.6068 -29.5487 -1.9685
4.4271 -30.1844 -2.0170
4.8021 -28.0085 -1.8783
5.3783 -27.3788 -1.8438
5.9402 -26.7978 -1.8133
2.8502 -11.5313 -0.7844
7.2961 -26.7282 -1.8292
7.9362 -26.5318 -1.8277
8.5208 -26.1655 -1.8154
9.5876 -27.1912 -1.9014
10.2332 -26.9287 -1.8990
12.9325 -31.7025 -2.2561
3.7193 -8.5224 -0.6124
3.9116 -8.4032 -0.6102
2.3771 -4.7999 -0.3525
3.8719 -7.3650 -0.5472
4.1278 -7.4113 -0.5577
4.3926 -7.4569 -0.5686
4.6684 -7.5042 -0.5803
4.5085 -6.8712 -0.5393
4.6965 -6.7939 -0.5417
4.7810 -6.5709 -0.5327
4.8633 -6.3552 -0.5242
4.9434 -6.1463 -0.5164
5.1493 -6.0946 -0.5220
5.4519 -6.1452 -0.5371
5.6622 -6.0797 -0.5428
5.7318 -5.8636 -0.5354
5.6185 -5.4765 -0.5119
6.3242 -5.8731 -0.5627
6.1705 -5.4587 -0.5368
6.8986 -5.8117 -0.5873
7.4719 -5.9921 -0.6231
7.4691 -5.6988 -0.6107
7.6465 -5.5470 -0.6136
10.2004 -7.0298 -0.8041
10.2110 -6.6791 -0.7913
6.7284 -4.1725 -0.5130
6.5435 -3.8420 -0.4913
6.4429 -3.5765 -0.4767
6.4707 -3.3900 -0.4722
6.5184 -3.2167 -0.4695
6.6643 -3.0907 -0.4741
6.7459 -2.9326 -0.4743
6.8504 -2.7832 -0.4763
6.9697 -2.6373 -0.4796
7.1372 -2.5053 -0.4864
7.3123 -2.3699 -0.4939
7.5261 -2.2397 -0.5041
7.7449 -2.1025 -0.5147
7.9563 -1.9548 -0.5250
10.7535 -2.3680 -0.7049
10.8359 -2.1130 -0.7061
10.9243 -1.8574 -0.7081
11.0333 -1.6027 -0.7118
11.1444 -1.3447 -0.7160
11.2577 -1.0832 -0.7208
11.3947 -0.8190 -0.7274
11.5502 -0.5501 -0.7356
11.7095 -0.2743 -0.7444
11.8740 0.0088 -0.7540
12.0594 0.3005 -0.7653
9.7130 0.4770 -0.6164
9.1767 0.6733 -0.5827
8.9124 0.8709 -0.5666
8.5795 1.0482 -0.5464
8.3481 1.2253 -0.5329
8.2529 1.4158 -0.5284
8.1740 1.6065 -0.5252
8.0957 1.7953 -0.5224
8.0179 1.9825 -0.5199
7.1444 1.9508 -0.4657
6.8833 2.0595 -0.4515
6.7204 2.1890 -0.4437
6.5206 2.2996 -0.4337
6.3294 2.4056 -0.4244
6.1460 2.5075 -0.4157
6.1567 2.6872 -0.4204
6.1950 2.8841 -0.4273
6.2349 3.0881 -0.4347
6.2765 3.2999 -0.4427
6.3164 3.5182 -0.4510
6.3639 3.7490 -0.4604
6.3981 3.9804 -0.4694
6.3445 4.1630 -0.4724
6.2451 4.3172 -0.4723
6.0963 4.4358 -0.4687
5.9395 4.5452 -0.4646
5.7922 4.6586 -0.4614
5.6620 4.7837 -0.4599
5.5325 4.9082 -0.4586
5.4097 5.0380 -0.4581
5.5564 5.4311 -0.4812
5.5977 5.7425 -0.4963
5.7233 6.1624 -0.5202
7.9810 9.0210 -0.7446
7.5193 8.9247 -0.7211
7.2328 9.0180 -0.7140
7.0337 9.2175 -0.7157
6.8596 9.4546 -0.7207
6.7309 9.7653 -0.7315
6.7615 10.3354 -0.7614
9.9457 16.0353 -1.1628
9.2963 15.8298 -1.1309
8.0905 14.5718 -1.0264
10.3279 19.7090 -1.3697
9.3016 18.8444 -1.2932
7.1158 15.3392 -1.0403
7.2968 16.7799 -1.1254
7.0642 17.3816 -1.1537
6.7829 17.9189 -1.1778
6.4631 18.4053 -1.1989
6.8536 21.1379 -1.3655
6.5175 21.8905 -1.4033
7.3502 27.0612 -1.7226
6.8069 27.6894 -1.7514
15.1028 68.5387 -4.3105
13.6925 70.1650 -4.3903
6.6141 38.8658 -2.4211
3.2999 22.6930 -1.4082
6.9914 57.8660 -3.5793
5.4506 56.5574 -3.4892
4.0548 56.2880 -3.4657
-8.5104 87.2569 -5.3889
-6.8904 56.4847 -3.4985
-8.2949 56.5874 -3.5171
-9.2968 54.2526 -3.3858
-11.3018 57.5621 -3.6094
-14.0531 63.4280 -3.9986
-11.5602 46.7931 -2.9676
-11.5136 42.1981 -2.6940
-12.0803 40.4042 -2.5983
-9.7252 29.8770 -1.9366
-10.3643 29.4069 -1.9226
-6.6158 17.4170 -1.1493
-11.0046 26.9879 -1.7988
-12.9339 29.6495 -1.9974
-12.8947 27.7127 -1.8882
-13.5184 27.3082 -1.8834
-14.2044 27.0309 -1.8883
-14.7701 26.5303 -1.8788
-15.1172 25.6739 -1.8445
-15.1748 24.4032 -1.7801
-16.5727 25.2687 -1.8730
-17.0185 24.6295 -1.8567
-17.5429 24.1209 -1.8510
-18.7278 24.4839 -1.9142
-19.6061 24.3877 -1.9445
-16.3729 19.3874 -1.5780
-21.8195 24.6053 -2.0464
-18.0532 19.3933 -1.6499
-17.7806 18.1983 -1.5855
-17.4474 17.0147 -1.5198
-23.3821 21.7250 -1.9919
-16.2994 14.4264 -1.3595
-16.5151 13.9204 -1.3500
-16.6700 13.3755 -1.3369
-16.6670 12.7236 -1.3127
-16.6731 12.1020 -1.2908
-16.7187 11.5288 -1.2734
-18.0720 11.8281 -1.3554
-14.1746 8.7955 -1.0477
-14.1116 8.2910 -1.0288
-14.6393 8.1318 -1.0536
-20.1002 10.5378 -1.4291
-29.3683 14.5032 -2.0643
-28.1657 13.0725 -1.9587
-29.5038 12.8364 -2.0313
-14.3967 5.8542 -0.9821
-14.5267 5.5018 -0.9824
-13.0120 4.5718 -0.8730
-14.6191 4.7428 -0.9738
-14.5133 4.3238 -0.9603
-14.3300 3.8948 -0.9426
-14.0776 3.4632 -0.9210
-18.3812 4.0536 -1.1969
-18.3464 3.5834 -1.1897
-18.3146 3.1197 -1.1835
-18.0416 2.6264 -1.1625
-16.9718 2.0532 -1.0910
-16.9295 1.6341 -1.0864
-16.4240 1.1855 -1.0528
-22.0024 1.0545 -1.4096
-21.6400 0.5135 -1.3864
-31.1425 -0.0138 -1.9965
-30.2430 -0.7444 -1.9411
-30.9744 -1.5120 -1.9916
-11.0593 -0.8081 -0.7128
-11.9124 -1.1604 -0.7700
-12.6854 -1.5460 -0.8229
-13.0298 -1.9085 -0.8487
-13.0394 -2.2330 -0.8533
-12.9180 -2.5350 -0.8499
-12.7056 -2.8138 -0.8409
-12.3863 -3.0589 -0.8251
-12.0648 -3.2907 -0.8094
-11.7585 -3.5146 -0.7950
-11.4662 -3.7313 -0.7817
-11.1864 -3.9417 -0.7695
-10.9181 -4.1464 -0.7583
-10.6603 -4.3461 -0.7481
-10.4120 -4.5413 -0.7387
-10.0038 -4.6541 -0.7181
-11.9090 -5.8947 -0.8655
-11.6113 -6.1010 -0.8549
-16.2978 -9.0726 -1.2166
-12.4781 -7.3468 -0.9452
-15.4151 -9.5851 -1.1857
-20.8396 -13.6672 -1.6289
-20.6745 -14.2852 -1.6436
-20.5096 -14.9161 -1.6598
-20.7638 -15.8822 -1.7120
-20.1521 -16.2009 -1.6944
-17.5767 -14.8445 -1.2527
-17.3720 -15.4060 -1.2652
-16.8555 -15.6918 -1.2557
-16.3204 -15.9471 -1.2450
-16.4809 -16.9015 -1.2889
-15.6089 -16.8011 -1.2528
-13.4992 -15.2535 -1.1135
-12.9837 -15.4056 -1.1020
-13.8183 -17.2240 -1.2085
-13.3582 -17.5007 -1.2055
-12.8399 -17.6924 -1.1976
-12.1720 -17.6542 -1.1754
-13.6436 -20.8495 -1.3664
-24.3597 -39.2648 -2.5351
-23.0632 -39.2624 -2.4993
-21.8031 -39.2600 -2.4658
-20.5766 -39.2577 -2.4347
-19.3809 -39.2555 -2.4056
-18.0775 -38.9600 -2.3608
-17.7857 -40.8916 -2.4519
-17.7804 -43.7401 -2.5969
-14.4582 -38.1879 -2.2464
-13.4135 -38.1914 -2.2274
-12.3867 -38.1961 -2.2100
-11.3700 -38.1820 -2.1931
-10.3782 -38.2039 -2.1796
-9.3867 -38.1783 -2.1649
-8.4134 -38.1765 -2.1528
-7.4577 -38.2119 -2.1442
-6.4967 -38.1729 -2.1327
-5.5082 -37.8780 -2.1082
-4.6418 -38.4194 -2.1315
-2.9734 -30.8558 -1.7074
-2.7687 -38.4423 -2.1227
-1.8349 -38.4142 -2.1180
-0.9058 -38.4403 -2.1174
0.0211 -34.6575 -1.9083
0.8579 -34.6144 -1.9062
1.6755 -34.2037 -1.8849
2.4636 -33.6341 -1.8559
3.2139 -32.9314 -1.8205
4.1654 -34.1267 -1.8911
4.0725 -27.7676 -1.5433
4.8824 -28.4781 -1.5884
5.3846 -27.4118 -1.5353
5.8162 -26.2395 -1.4766
2.8497 -11.5298 -0.6523
7.3362 -26.8762 -1.5294
7.9242 -26.4928 -1.5174
8.6640 -26.6063 -1.5348
9.2750 -26.3058 -1.5292
10.2725 -27.0330 -1.5847
12.6228 -30.9446 -1.8304
3.7377 -8.5650 -0.5116
3.9406 -8.4656 -0.5109
2.3769 -4.7997 -0.2929
3.9203 -7.4573 -0.4604
4.1495 -7.4505 -0.4657
4.4161 -7.4971 -0.4749
4.6813 -7.5252 -0.4834
4.5999 -7.0108 -0.4570
4.8784 -7.0573 -0.4673
4.6928 -6.4498 -0.4341
4.7749 -6.2399 -0.4273
5.2841 -6.5701 -0.4582
5.4566 -6.4586 -0.4592
5.4669 -6.1623 -0.4470
5.6779 -6.0968 -0.4517
5.7409 -5.8732 -0.4449
5.6270 -5.4850 -0.4253
6.3424 -5.8903 -0.4681
6.4453 -5.7020 -0.4650
6.2494 -5.2651 -0.4411
7.6770 -6.1569 -0.5308
7.4764 -5.7046 -0.5068
7.6146 -5.5241 -0.5065
10.1373 -6.9867 -0.6622
6.8571 -4.4855 -0.4403
6.5850 -4.0837 -0.4159
6.2850 -3.6904 -0.3909
6.3649 -3.5333 -0.3900
6.3935 -3.3497 -0.3863
6.4787 -3.1973 -0.3863
6.6228 -3.0717 -0.3899
6.7038 -2.9145 -0.3900
6.8143 -2.7688 -0.3920
6.9334 -2.6238 -0.3947
7.1247 -2.5011 -0.4016
7.2906 -2.3631 -0.4072
7.5030 -2.2331 -0.4155
7.7132 -2.0941 -0.4237
7.9232 -1.9468 -0.4321
10.5738 -2.3287 -0.5728
10.6543 -2.0779 -0.5736
10.7435 -1.8270 -0.5752
10.8496 -1.5763 -0.5781
10.9576 -1.3225 -0.5813
11.0645 -1.0649 -0.5848
11.1793 -0.8038 -0.5890
11.3190 -0.5394 -0.5949
11.4722 -0.2691 -0.6018
11.6301 0.0083 -0.6092
10.0266 0.2495 -0.5248
9.5639 0.4694 -0.5005
9.1232 0.6691 -0.4776
8.8619 0.8657 -0.4644
8.5674 1.0465 -0.4497
8.3769 1.2293 -0.4406
8.2966 1.4231 -0.4376
8.2171 1.6147 -0.4349
8.1382 1.8045 -0.4324
8.0599 1.9926 -0.4303
7.3572 2.0087 -0.3948
6.8458 2.0481 -0.3695
6.6514 2.1664 -0.3614
6.4551 2.2763 -0.3533
6.2671 2.3818 -0.3457
6.0867 2.4832 -0.3386
6.1037 2.6639 -0.3427
6.1408 2.8587 -0.3482
6.1735 3.0575 -0.3538
6.1979 3.2584 -0.3593
6.2537 3.4832 -0.3670
6.3150 3.7200 -0.3754
6.3633 3.9586 -0.3835
6.3389 4.1591 -0.3877
6.2211 4.3004 -0.3864
6.0628 4.4112 -0.3827
5.9071 4.5202 -0.3794
5.7621 4.6342 -0.3768
5.6327 4.7587 -0.3755
5.5039 4.8827 -0.3744
5.3758 5.0063 -0.3735
5.3902 5.2686 -0.3830
5.5310 5.6739 -0.4023
5.5401 5.9650 -0.4131
5.8633 6.6271 -0.4487
7.4444 8.8355 -0.5855
7.1582 8.9248 -0.5794
6.9437 9.0993 -0.5793
6.7869 9.3542 -0.5846
6.6464 9.6424 -0.5921
6.5551 10.0197 -0.6051
9.5182 15.3457 -0.9121
9.4170 16.0351 -0.9389
10.9002 19.6319 -1.1331
10.3257 19.7045 -1.1221
9.3006 18.8420 -1.0595
9.2057 19.8438 -1.1026
8.6754 19.9496 -1.0961
6.7577 16.6272 -0.9041
6.5923 17.4152 -0.9377
6.2965 17.9307 -0.9568
6.7010 20.6668 -1.0935
6.4205 21.5643 -1.1323
7.2912 26.8439 -1.3996
6.6650 27.1116 -1.4045
15.4250 70.0007 -3.6056
4.1013 21.0160 -1.0770
6.5446 38.4567 -1.9620
5.6742 39.0213 -1.9831
5.8298 48.2519 -2.4443
5.2910 54.9024 -2.7740
4.0771 56.5975 -2.8540
-5.0275 68.6837 -3.4667
-6.6652 68.3336 -3.4570
-7.1822 58.8738 -2.9872
-9.8016 66.8625 -3.4045
-11.3957 66.4982 -3.4001
-10.9821 55.9309 -2.8735
-12.1709 54.9304 -2.8375
-10.0525 40.6883 -2.1146
-9.5507 35.0023 -1.8313
-8.6663 28.9843 -1.5276
-9.3998 28.8765 -1.5342
-10.0274 28.4498 -1.5247
-6.6157 17.4160 -0.9422
-11.9252 29.2445 -1.5981
-12.7508 29.2286 -1.6145
-13.5392 29.0967 -1.6258
-13.1454 26.5536 -1.5020
-13.7807 26.2235 -1.5026
-17.1878 30.8719 -1.7935
-15.1999 25.8133 -1.5215
-15.7367 25.3060 -1.5147
-16.2022 24.7028 -1.5027
-16.8691 24.4124 -1.5105
-17.4670 24.0156 -1.5128
-19.6778 25.7248 -1.6512
-17.7343 22.0586 -1.4442
-15.9829 18.9248 -1.2650
-21.0381 23.7232 -1.6206
-21.1595 22.7292 -1.5885
-21.5565 22.0620 -1.5792
-17.4821 17.0478 -1.2513
-17.6109 16.3621 -1.2330
-17.6600 15.6300 -1.2107
-17.3337 14.6097 -1.1649
-25.0100 20.0664 -1.6493
-26.1437 19.9571 -1.6934
-19.4335 14.1048 -1.2375
-19.8300 13.6736 -1.2426
-17.5382 11.4781 -1.0823
-14.7586 9.1574 -0.8978
-14.2364 8.3639 -0.8544
-19.1197 10.6199 -1.1328
-19.3736 10.1563 -1.1342
-19.5694 9.6635 -1.1328
-19.7667 9.1737 -1.1323
-19.9657 8.6860 -1.1325
-19.8750 8.0812 -1.1172
-14.3139 5.4208 -0.7979
-14.3950 5.0573 -0.7962
-14.2651 4.6276 -0.7834
-14.0872 4.1965 -0.7687
-13.9172 3.7823 -0.7551
-13.6713 3.3629 -0.7379
-17.2742 3.8090 -0.9281
-17.3448 3.3873 -0.9283
-16.9754 2.8912 -0.9055
-16.6279 2.4201 -0.8846
-16.3001 1.9715 -0.8653
-15.8863 1.5329 -0.8420
-28.0020 2.0205 -1.4828
-26.9613 1.2915 -1.4272
-22.6959 0.5379 -1.2017
-30.5442 -0.0143 -1.6185
-31.0563 -0.7652 -1.6479
-31.3084 -1.5291 -1.6646
-23.5217 -1.7194 -1.2537
-11.0802 -1.0797 -0.5924
-11.9418 -1.4557 -0.6409
-12.7594 -1.8693 -0.6877
-13.4373 -2.3015 -0.7278
-12.0931 -2.3735 -0.6586
-11.7829 -2.6098 -0.6456
-11.4875 -2.8372 -0.6336
-11.2054 -3.0566 -0.6226
-10.9355 -3.2689 -0.6124
-10.6766 -3.4747 -0.6030
-10.4279 -3.6747 -0.5944
-10.1883 -3.8695 -0.5865
-9.9572 -4.0597 -0.5792
-9.7338 -4.2458 -0.5725
-16.6035 -7.7250 -0.9882
-11.9065 -5.8938 -0.7175
-11.6099 -6.1006 -0.7090
-16.5506 -9.2138 -1.0249
-12.4765 -7.3462 -0.7840
-21.5376 -13.3927 -1.3745
-19.0569 -12.4986 -1.2361
-19.3339 -13.3595 -1.2757
-19.6340 -14.2799 -1.3189
-19.4982 -14.9147 -1.3347
-20.0927 -16.1538 -1.4027
-16.8018 -14.1905 -0.9532
-19.5338 -17.3238 -1.1326
-18.7142 -17.4228 -1.1101
-19.7119 -19.2615 -1.1976
-15.7640 -16.1668 -0.9820
-15.2527 -16.4182 -0.9753
-13.4973 -15.2518 -0.8871
-14.2413 -16.8983 -0.9633
-13.9506 -17.3894 -0.9724
-30.0029 -39.3082 -2.1584
-15.1715 -20.9057 -1.1282
-27.0007 -39.1630 -2.0789
-25.7295 -39.3197 -2.0549
-24.3591 -39.2648 -2.0218
-23.1239 -39.3666 -1.9987
-21.8026 -39.2600 -1.9670
-20.5761 -39.2577 -1.9423
-19.4381 -39.3722 -1.9250
-18.0771 -38.9600 -1.8837
-17.7857 -40.8924 -1.9565
-17.7804 -43.7409 -2.0724
-14.4579 -38.1879 -1.7928
-13.4282 -38.2340 -1.7797
-12.4204 -38.3007 -1.7688
-11.3698 -38.1820 -1.7505
-10.4034 -38.2969 -1.7441
-9.3866 -38.1783 -1.7281
-8.4133 -38.1765 -1.7186
-7.4732 -38.2914 -1.7153
-6.4966 -38.1729 -1.7026
-5.5081 -37.8780 -1.6830
-4.6419 -38.4194 -1.7016
-2.9733 -30.8549 -1.3630
-2.7753 -38.5326 -1.6986
-1.8350 -38.4142 -1.6908
-0.9059 -38.4403 -1.6902
0.0233 -38.5273 -1.6934
0.9518 -38.4089 -1.6884
1.8834 -38.4509 -1.6913
2.8214 -38.5221 -1.6966
3.7478 -38.4037 -1.6944
3.9951 -32.7339 -1.4476
4.7077 -32.1004 -1.4237
4.8908 -28.5283 -1.2697
5.3874 -27.4276 -1.2257
5.9815 -26.9865 -1.2115
2.8492 -11.5284 -0.5203
7.2442 -26.5405 -1.2047
7.7264 -25.8323 -1.1801
8.5396 -26.2253 -1.2064
9.2346 -26.1922 -1.2141
11.3227 -29.7978 -1.3927
12.2520 -30.0367 -1.4164
3.7563 -8.6079 -0.4098
3.9699 -8.5290 -0.4102
2.3767 -4.7995 -0.2334
3.9698 -7.5519 -0.3715
4.1714 -7.4900 -0.3730
4.4399 -7.5377 -0.3803
4.2622 -6.8518 -0.3505
4.6949 -7.1559 -0.3714
4.9315 -7.1344 -0.3761
5.1765 -7.1149 -0.3812
5.5929 -7.3093 -0.3983
5.3991 -6.7134 -0.3725
5.4286 -6.4256 -0.3634
5.4625 -6.1576 -0.3552
5.6426 -6.0591 -0.3569
5.7500 -5.8827 -0.3543
5.6356 -5.4936 -0.3386
6.1117 -5.6762 -0.3584
6.2399 -5.5205 -0.3576
6.1158 -5.1528 -0.3429
6.3262 -5.0737 -0.3473
7.7888 -5.9433 -0.4191
10.0559 -7.2955 -0.5308
7.0159 -4.8357 -0.3637
6.7258 -4.3998 -0.3426
6.4250 -3.9847 -0.3219
6.1850 -3.6320 -0.3050
6.2820 -3.4875 -0.3051
6.3182 -3.3105 -0.3025
6.4395 -3.1782 -0.3042
6.5819 -3.0529 -0.3069
6.6628 -2.8969 -0.3070
6.7786 -2.7545 -0.3087
6.9335 -2.6240 -0.3124
7.1123 -2.4970 -0.3172
7.2773 -2.3590 -0.3215
7.4800 -2.2264 -0.3275
7.6819 -2.0859 -0.3336
7.8904 -1.9390 -0.3401
10.4002 -2.2908 -0.4451
10.4789 -2.0440 -0.4456
10.5688 -1.7976 -0.4468
10.6722 -1.5508 -0.4489
10.7707 -1.3002 -0.4509
10.8685 -1.0463 -0.4532
10.9815 -0.7899 -0.4563
11.1126 -0.5298 -0.4605
11.2471 -0.2641 -0.4650
11.3963 0.0079 -0.4704
9.8681 0.2453 -0.4069
9.4195 0.4621 -0.3882
9.0705 0.6650 -0.3738
8.8120 0.8606 -0.3634
8.5552 1.0448 -0.3533
8.4218 1.2357 -0.3485
8.3408 1.4305 -0.3460
8.2606 1.6231 -0.3437
8.1811 1.8138 -0.3417
8.1022 2.0029 -0.3398
7.5829 2.0701 -0.3196
6.7857 2.0299 -0.2876
6.5838 2.1442 -0.2808
6.3909 2.2535 -0.2745
6.2060 2.3584 -0.2686
6.0314 2.4605 -0.2632
6.0312 2.6321 -0.2656
6.0519 2.8171 -0.2691
6.0734 3.0077 -0.2728
6.0958 3.2045 -0.2769
6.1287 3.4134 -0.2817
6.2041 3.6545 -0.2889
6.3128 3.9270 -0.2979
6.3333 4.1553 -0.3032
6.1868 4.2765 -0.3007
6.0296 4.3869 -0.2978
5.8750 4.4955 -0.2952
5.7324 4.6101 -0.2932
5.6037 4.7341 -0.2921
5.4757 4.8574 -0.2912
5.3482 4.9804 -0.2904
5.2339 5.1156 -0.2906
5.3706 5.5092 -0.3052
5.4658 5.8848 -0.3183
5.6664 6.4043 -0.3387
7.3677 8.7442 -0.4525
7.0707 8.8155 -0.4468
6.8748 9.0089 -0.4477
6.7186 9.2598 -0.4517
6.5689 9.5297 -0.4567
6.4217 9.8156 -0.4625
9.4180 15.1838 -0.7041
9.0856 15.4703 -0.7066
8.9596 16.1365 -0.7265
10.3413 19.7337 -0.8764
9.2997 18.8397 -0.8261
9.2423 19.9223 -0.8631
8.7070 20.0219 -0.8577
8.1692 20.0999 -0.8520
7.6708 20.2639 -0.8505
6.1280 17.4505 -0.7258
6.6692 20.5686 -0.8483
6.3584 21.3554 -0.8739
6.5073 23.9573 -0.9734
6.6142 26.9048 -1.0862
6.0715 27.5529 -1.1059
9.6312 49.3526 -1.9708
6.5015 38.2033 -1.5187
5.6228 38.6674 -1.5313
4.9789 41.2090 -1.6266
5.3326 55.3339 -2.1785
4.0027 55.5658 -2.1834
2.6681 55.8378 -2.1911
-6.5569 89.5725 -3.5238
-6.4334 65.9537 -2.6008
-8.0752 66.1901 -2.6180
-9.6002 65.4853 -2.5995
-11.0521 64.4898 -2.5709
-14.4821 73.7528 -2.9546
-8.7651 39.5574 -1.5935
-8.2222 33.2784 -1.3488
-9.0349 33.1105 -1.3512
-9.7167 32.4962 -1.3361
-9.0873 27.9154 -1.1572
-12.9757 36.8132 -1.5396
-6.6155 17.4150 -0.7353
-10.9269 26.7953 -1.1429
-12.2976 28.1887 -1.2156
-13.2557 28.4863 -1.2428
-14.1437 28.5691 -1.2620
-14.8598 28.2759 -1.2656
-13.7281 24.6569 -1.1191
-14.5466 24.7030 -1.1378
-15.3443 24.6740 -1.1542
-19.1898 29.2569 -1.3912
-16.3869 23.7136 -1.1472
-16.5581 22.7650 -1.1214
-16.6133 21.7178 -1.0904
-14.9226 18.5605 -0.9507
-15.3894 18.2215 -0.9531
-15.8592 17.8826 -0.9562
-16.2133 17.4154 -0.9529
-16.4637 16.8490 -0.9445
-16.7046 16.2890 -0.9365
-16.8393 15.6446 -0.9237
-16.9200 14.9744 -0.9091
-19.7196 16.6199 -1.0388
-28.1382 22.5752 -1.4549
-43.8142 33.4445 -2.2257
-19.4313 14.1026 -0.9707
-19.8281 13.6715 -0.9750
-51.6943 33.8302 -2.5041
-14.8031 9.1846 -0.7070
-15.1766 8.9157 -0.7153
-18.4409 10.2422 -0.8584
-18.6163 9.7587 -0.8564
-18.6861 9.2267 -0.8503
-18.7571 8.7046 -0.8448
-18.8295 8.1912 -0.8400
-18.8984 7.6836 -0.8357
-18.6713 7.0705 -0.8190
-14.0232 4.9263 -0.6105
-13.8507 4.4928 -0.5990
-13.6858 4.0765 -0.5882
-13.5280 3.6761 -0.5782
-16.7043 4.1085 -0.7105
-16.3547 3.6058 -0.6927
-16.0256 3.1292 -0.6763
-15.7150 2.6761 -0.6612
-37.2908 5.4264 -1.5652
-16.9657 2.0515 -0.7108
-17.1200 1.6515 -0.7164
-26.9408 1.9432 -1.1266
-25.7417 1.2324 -1.0764
-29.6877 0.7029 -1.2420
-31.5417 -0.0156 -1.3210
-31.2513 -0.7708 -1.3111
-36.6774 -1.7923 -1.5422
-23.5122 -1.7193 -0.9914
-9.8083 -0.9560 -0.4150
-11.1044 -1.3539 -0.4717
-11.9750 -1.7547 -0.5110
-12.8371 -2.1991 -0.5506
-13.4190 -2.6340 -0.5789
-13.6772 -3.0297 -0.5938
-13.8557 -3.4225 -0.6057
-14.0334 -3.8284 -0.6181
-17.6884 -5.2880 -0.7855
-14.9066 -4.8517 -0.6678
-15.4772 -5.4544 -0.6999
-15.7661 -5.9884 -0.7202
-15.9175 -6.4902 -0.7349
-16.0707 -7.0103 -0.7505
-16.1532 -7.5159 -0.7635
-11.9040 -5.8929 -0.5699
-11.6085 -6.1002 -0.5632
-16.2224 -9.0316 -0.7983
-12.4748 -7.3456 -0.6231
-20.3630 -12.6628 -1.0332
-20.4484 -13.4118 -1.0548
-20.3337 -14.0509 -1.0672
-20.2193 -14.7062 -1.0806
-20.0716 -15.3539 -1.0932
-19.6819 -15.8241 -1.0935
-19.8480 -16.7638 -0.8377
-15.8793 -14.0832 -0.6852
-15.9199 -14.8218 -0.7030
-15.6784 -15.3207 -0.7093
-15.3985 -15.7925 -0.7145
-14.9128 -16.0527 -0.7105
-13.4953 -15.2500 -0.6610
-33.1048 -39.2823 -1.6691
-31.5108 -39.2793 -1.6377
-13.9215 -18.2397 -0.7469
-13.7408 -18.9348 -0.7622
-13.4518 -19.5115 -0.7727
-12.9571 -19.8015 -0.7722
-12.4166 -20.0150 -0.7692
-23.1233 -39.3666 -1.4920
-21.8021 -39.2600 -1.4686
-20.5757 -39.2577 -1.4504
-19.4377 -39.3722 -1.4377
-18.0767 -38.9600 -1.4071
-17.7857 -40.8932 -1.4617
-17.7804 -43.7418 -1.5484
-14.4576 -38.1879 -1.3396
-13.4280 -38.2340 -1.3300
-12.4202 -38.3007 -1.3219
-11.3696 -38.1820 -1.3084
-10.4032 -38.2969 -1.3037
-9.3865 -38.1783 -1.2918
-8.4132 -38.1765 -1.2847
-7.4731 -38.2914 -1.2823
-6.4966 -38.1729 -1.2728
-5.5081 -37.8780 -1.2582
-4.6419 -38.4194 -1.2722
-2.9732 -30.8536 -1.0189
-2.7753 -38.5326 -1.2698
-1.8350 -38.4142 -1.2640
-0.9060 -38.4402 -1.2635
0.0188 -31.2858 -1.0279
0.7862 -31.7338 -1.0426
1.5695 -32.0441 -1.0535
2.3487 -32.0697 -1.0555
3.1144 -31.9160 -1.0523
3.8766 -31.7645 -1.0496
4.5834 -31.2543 -1.0356
4.8780 -28.4552 -0.9461
5.4367 -27.6796 -0.9239
5.8767 -26.5146 -0.8890
2.8487 -11.5269 -0.3884
7.1703 -26.2708 -0.8902
7.9486 -26.5765 -0.9062
8.6313 -26.5081 -0.9101
9.1735 -26.0198 -0.8999
9.9561 -26.2023 -0.9136
12.1665 -29.8282 -1.0490
3.7751 -8.6512 -0.3071
6.9943 -15.0271 -0.5388
2.3765 -4.7992 -0.1739
4.0206 -7.6488 -0.2803
4.1934 -7.5299 -0.2793
4.4638 -7.5787 -0.2847
4.3233 -6.9503 -0.2647
4.7848 -7.2931 -0.2817
4.9850 -7.2121 -0.2829
5.1345 -7.0574 -0.2812
5.2826 -6.9040 -0.2798
5.9196 -7.3609 -0.3036
5.8145 -6.8828 -0.2892
5.3417 -6.0216 -0.2580
5.6560 -6.0737 -0.2657
5.7591 -5.8923 -0.2634
5.6441 -5.5022 -0.2516
6.1262 -5.6900 -0.2665
6.1884 -5.4752 -0.2630
6.0673 -5.1121 -0.2521
6.9560 -5.5791 -0.2829
7.7342 -5.9019 -0.3082
9.9818 -7.2422 -0.3901
6.9283 -4.7755 -0.2657
6.6096 -4.3240 -0.2490
6.0549 -3.7554 -0.2243
6.1057 -3.5856 -0.2225
6.2013 -3.4430 -0.2225
6.2447 -3.2722 -0.2208
6.4009 -3.1593 -0.2232
