ply
format ascii 1.0
element vertex 2173
property float32 x
property float32 y
property float32 z
end_header
-9.5782 -0.7152 2.2994
-9.5643 -0.9470 2.2994
-9.5447 -1.1786 2.2994
-9.5195 -1.4097 2.2994
-9.4887 -1.6403 2.2994
-9.4523 -1.8702 2.2994
-9.4103 -2.0994 2.2994
-9.3628 -2.3275 2.2994
-6.2766 -1.7223 1.5503
-9.2509 -2.7804 2.2994
-6.2549 -2.0459 1.5656
-6.2491 -2.2125 1.5761
-6.2424 -2.3813 1.5875
-6.2404 -2.5548 1.6012
-6.2448 -2.7345 1.6179
-6.2493 -2.9183 1.6359
-6.2610 -3.1101 1.6571
-6.2781 -3.3099 1.6814
-6.2937 -3.5149 1.7068
-6.2988 -3.7201 1.7311
-6.2966 -3.9269 1.7551
-6.2895 -4.1367 1.7795
-6.2849 -4.3546 1.8064
-6.2906 -4.5872 1.8384
-6.3293 -4.8537 1.8824
-7.5899 -6.1170 2.2994
-7.0907 -6.0034 2.2994
-6.9470 -6.1757 2.2994
-6.7990 -6.3445 2.2994
-6.6286 -6.4918 2.2931
-6.4906 -6.6711 2.2994
-5.6613 -6.1070 2.0564
-5.3988 -6.1134 2.0132
-5.1467 -6.1195 1.9729
-4.9042 -6.1254 1.9353
-4.6704 -6.1310 1.9002
-4.4447 -6.1365 1.8674
-4.2264 -6.1417 1.8368
-4.0148 -6.1468 1.8082
-3.8094 -6.1518 1.7815
-3.6098 -6.1566 1.7565
-3.5370 -6.3804 1.7950
-3.5462 -6.7778 1.8816
-3.4475 -6.9951 1.9177
-3.5677 -7.7023 2.0868
-3.8933 -8.9663 2.4025
-3.6766 -9.0598 2.4025
-3.4577 -9.1479 2.4025
-3.2367 -9.2306 2.4025
-3.0136 -9.3079 2.4025
-2.7886 -9.3796 2.4025
-2.5619 -9.4457 2.4025
-2.3336 -9.5062 2.4025
-2.1039 -9.5611 2.4025
-1.8728 -9.6102 2.4025
-1.6405 -9.6536 2.4025
-1.4073 -9.6913 2.4025
-1.1731 -9.7232 2.4025
-0.9382 -9.7493 2.4025
-0.7028 -9.7695 2.4025
-0.4669 -9.7840 2.4025
-0.2307 -9.7925 2.4025
0.0057 -9.7953 2.4025
0.2420 -9.7921 2.4025
0.4782 -9.7832 2.4025
0.7140 -9.7683 2.4025
0.9495 -9.7477 2.4025
1.1843 -9.7212 2.4025
1.4184 -9.6889 2.4025
1.6516 -9.6509 2.4025
1.8837 -9.6071 2.4025
2.0238 -9.1468 2.2993
2.2436 -9.0940 2.2993
2.4620 -9.0357 2.2993
2.1216 -7.1057 1.8210
2.1624 -6.6523 1.7180
2.1496 -6.1077 1.5906
2.4153 -6.3676 1.6734
3.5280 -8.6647 2.2993
3.7351 -8.5749 2.2993
3.9399 -8.4800 2.2993
4.1422 -8.3802 2.2993
4.3420 -8.2753 2.2993
4.5391 -8.1657 2.2993
4.7333 -8.0512 2.2993
4.9246 -7.9320 2.2993
5.1128 -7.8082 2.2993
5.2979 -7.6798 2.2993
5.3708 -7.3970 2.2536
5.2844 -6.9203 2.1474
5.2913 -6.5932 2.0858
5.3295 -6.3218 2.0409
5.3808 -6.0788 2.0046
5.4660 -5.8825 1.9836
5.5494 -5.6905 1.9643
5.6300 -5.5010 1.9462
5.5815 -5.1962 1.8863
5.5355 -4.9094 1.8310
5.4917 -4.6386 1.7798
5.4579 -4.3887 1.7349
5.4278 -4.1528 1.6938
5.4719 -3.9809 1.6779
5.6011 -3.8716 1.6892
5.7319 -3.7608 1.7017
5.8644 -3.6483 1.7152
5.9987 -3.5338 1.7300
6.1092 -3.4030 1.7386
6.1182 -3.2169 1.7195
6.1392 -3.0410 1.7052
5.8296 -2.7144 1.6014
5.7983 -2.5313 1.5764
5.7677 -2.3538 1.5531
5.7376 -2.1814 1.5312
5.7088 -2.0141 1.5110
5.6846 -1.8524 1.4932
5.6607 -1.6945 1.4766
5.6370 -1.5401 1.4612
5.6344 -1.3940 1.4522
5.6543 -1.2548 1.4500
5.6740 -1.1161 1.4486
5.6934 -0.9777 1.4480
5.7093 -0.8390 1.4473
5.7160 -0.6993 1.4452
5.7226 -0.5602 1.4439
5.7290 -0.4214 1.4434
5.7349 -0.2827 1.4437
5.7406 -0.1441 1.4447
5.7460 -0.0053 1.4465
5.7531 0.1337 1.4496
5.7737 0.2739 1.4569
5.7942 0.4155 1.4651
5.8148 0.5585 1.4741
5.8789 0.7084 1.4952
5.9646 0.8654 1.5228
6.0532 1.0282 1.5523
6.1450 1.1973 1.5837
6.2010 1.3646 1.6071
6.1943 1.5210 1.6155
6.1965 1.6813 1.6271
6.2008 1.8446 1.6404
6.1904 2.0056 1.6510
6.1770 2.1676 1.6619
6.1626 2.3314 1.6736
6.1473 2.4971 1.6864
6.1575 2.6764 1.7074
6.1795 2.8656 1.7331
6.1897 3.0542 1.7571
6.1902 3.2430 1.7800
6.2678 3.4793 1.8270
6.2077 3.6450 1.8356
6.1525 3.8156 1.8470
6.0759 3.9748 1.8533
5.9872 4.1269 1.8571
5.8983 4.2796 1.8620
5.8089 4.4331 1.8680
5.7191 4.5877 1.8751
5.6287 4.7434 1.8834
5.6092 4.9639 1.9174
5.6282 5.2288 1.9674
5.6203 5.4806 2.0113
5.6000 5.7317 2.0540
5.6404 6.0595 2.1228
5.7356 6.4688 2.2178
5.7800 6.8455 2.2993
5.6106 6.9807 2.2993
5.4380 7.1118 2.2993
5.2625 7.2387 2.2993
5.0841 7.3613 2.2993
4.9028 7.4797 2.2993
4.7189 7.5937 2.2993
4.5324 7.7033 2.2993
4.3434 7.8084 2.2993
4.1520 7.9089 2.2993
3.9584 8.0049 2.2993
3.7625 8.0963 2.2993
2.4498 5.6236 1.5801
2.4695 6.0657 1.6875
2.4627 6.4948 1.7901
2.9598 8.4146 2.2993
2.6791 8.2491 2.2361
2.5483 8.5448 2.2993
2.3404 8.6026 2.2993
2.2269 9.0441 2.4025
2.0071 9.0942 2.4025
1.7862 9.1390 2.4025
1.5644 9.1786 2.4025
1.3417 9.2130 2.4025
1.1182 9.2421 2.4025
0.8942 9.2659 2.4025
0.6696 9.2844 2.4025
0.4447 9.2976 2.4025
0.2196 9.3055 2.4025
-0.0057 9.3081 2.4025
-0.2309 9.3053 2.4025
-0.4561 9.2973 2.4025
-0.6810 9.2839 2.4025
-0.9055 9.2652 2.4025
-1.1295 9.2413 2.4025
-1.3530 9.2120 2.4025
-1.5757 9.1775 2.4025
-1.7975 9.1377 2.4025
-2.0184 9.0927 2.4025
-2.2381 9.0425 2.4025
-2.4567 8.9871 2.4025
-2.6739 8.9266 2.4025
-2.8897 8.8609 2.4025
-3.1039 8.7901 2.4025
-3.3164 8.7143 2.4025
-3.5271 8.6334 2.4025
-3.7359 8.5476 2.4025
-3.9426 8.4569 2.4025
-4.1472 8.3612 2.4025
-4.3495 8.2607 2.4025
-4.5494 8.1555 2.4025
-4.7469 8.0455 2.4025
-4.9417 7.9308 2.4025
-5.1339 7.8115 2.4025
-5.3232 7.6876 2.4025
-5.5096 7.5593 2.4025
-5.6929 7.4265 2.4025
-5.7868 7.1822 2.3672
-5.8039 6.8570 2.3048
-5.9567 6.7018 2.2994
-6.1196 6.5585 2.2994
-6.2791 6.4112 2.2994
-6.4352 6.2602 2.2994
-6.5876 6.1054 2.2994
-6.7365 5.9470 2.2994
-6.8815 5.7850 2.2994
-7.0228 5.6195 2.2994
-6.3484 4.8327 2.0388
-7.2934 5.2785 2.2994
-7.4226 5.1031 2.2994
-6.0832 3.9691 1.8533
-6.0840 3.7630 1.8243
-6.0894 3.5657 1.7986
-6.1046 3.3791 1.7775
-6.1190 3.1963 1.7577
-6.1321 3.0167 1.7390
-6.1365 2.8367 1.7194
-6.1402 2.6601 1.7009
-6.1347 2.4834 1.6813
-6.1299 2.3106 1.6633
-6.1258 2.1414 1.6467
-6.1282 1.9773 1.6330
-6.1322 1.8161 1.6210
-6.1361 1.6571 1.6100
-6.1400 1.4999 1.6001
-6.1461 1.3448 1.5918
-6.1559 1.1918 1.5854
-6.1650 1.0397 1.5799
-6.1733 0.8882 1.5751
-6.1809 0.7373 1.5711
-6.1877 0.5868 1.5678
-6.1939 0.4367 1.5652
-6.1993 0.2867 1.5634
-6.2040 0.1368 1.5624
-6.2080 -0.0131 1.5620
-6.2114 -0.1633 1.5625
-6.2140 -0.3137 1.5636
-6.2159 -0.4646 1.5655
-6.2172 -0.6161 1.5681
-6.2177 -0.7682 1.5715
-6.2175 -0.9212 1.5757
-6.2166 -1.0751 1.5806
-6.2150 -1.2302 1.5863
-6.2126 -1.3864 1.5928
-6.2154 -1.5455 1.6017
-6.2194 -1.7071 1.6119
-6.2234 -1.8709 1.6232
-6.2276 -2.0374 1.6357
-6.2352 -2.2080 1.6503
-6.2482 -2.3840 1.6675
-6.2621 -2.5642 1.6863
-6.2747 -2.7481 1.7061
-6.2793 -2.9328 1.7251
-6.2817 -3.1209 1.7450
-6.2767 -3.3097 1.7643
-6.2711 -3.5028 1.7850
-6.2688 -3.7029 1.8083
-6.2740 -3.9133 1.8356
-6.3012 -4.1448 1.8713
-7.6215 -5.2813 2.2994
-7.4955 -5.4665 2.2994
-6.5931 -5.0566 2.0584
-7.2301 -5.8277 2.2994
-6.7679 -5.7307 2.2994
-6.6305 -5.8950 2.2994
-6.4892 -6.0560 2.2994
-6.3438 -6.2136 2.2994
-6.1946 -6.3676 2.2994
-6.0799 -6.5592 2.3140
-6.0784 -6.8836 2.3750
-5.1456 -6.1188 2.0669
-4.9032 -6.1247 2.0275
-4.6695 -6.1303 1.9908
-4.4438 -6.1358 1.9565
-4.2255 -6.1411 1.9244
-4.0140 -6.1462 1.8945
-3.8087 -6.1511 1.8665
-3.6092 -6.1559 1.8404
-3.5371 -6.3811 1.8811
-3.5463 -6.7785 1.9719
-3.4374 -6.9751 2.0038
-3.9193 -8.4620 2.4025
-3.7149 -8.5562 2.4025
-3.5082 -8.6453 2.4025
-3.2993 -8.7293 2.4025
-3.0883 -8.8082 2.4025
-2.8754 -8.8818 2.4025
-2.6608 -8.9501 2.4025
-2.4444 -9.0132 2.4025
-2.2266 -9.0708 2.4025
-2.0074 -9.1231 2.4025
-1.7869 -9.1700 2.4025
-1.5653 -9.2114 2.4025
-1.3427 -9.2473 2.4025
-1.1193 -9.2776 2.4025
-0.8952 -9.3025 2.4025
-0.6705 -9.3218 2.4025
-0.4454 -9.3356 2.4025
-0.2201 -9.3437 2.4025
0.0054 -9.3463 2.4025
0.2309 -9.3434 2.4025
0.4562 -9.3348 2.4025
0.6813 -9.3207 2.4025
0.9059 -9.3010 2.4025
1.1299 -9.2758 2.4025
1.3533 -9.2450 2.4025
1.5758 -9.2088 2.4025
1.7973 -9.1670 2.4025
1.9402 -8.7694 2.3102
2.1444 -8.6924 2.3032
2.3490 -8.6220 2.2993
2.5560 -8.5613 2.2993
2.1422 -6.5908 1.7838
2.1620 -6.1435 1.6767
2.1720 -5.7265 1.5770
3.3664 -8.2684 2.2993
3.5640 -8.1828 2.2993
3.7595 -8.0923 2.2993
3.9526 -7.9971 2.2993
4.1433 -7.8972 2.2993
4.3314 -7.7927 2.2993
4.5168 -7.6835 2.2993
4.6994 -7.5699 2.2993
4.8791 -7.4519 2.2993
5.0558 -7.3294 2.2993
5.2293 -7.2028 2.2993
5.1940 -6.8025 2.2117
5.2616 -6.5567 2.1733
5.3217 -6.3132 2.1353
5.3857 -6.0848 2.1023
5.4710 -5.8885 2.0804
5.5592 -5.7011 2.0618
5.5962 -5.4685 2.0268
5.5490 -5.1665 1.9649
5.5042 -4.8822 1.9076
5.4616 -4.6136 1.8545
5.4265 -4.3640 1.8071
5.3973 -4.1300 1.7645
5.4559 -3.9697 1.7527
5.5847 -3.8607 1.7644
5.7150 -3.7502 1.7774
5.8469 -3.6379 1.7914
5.9910 -3.5298 1.8099
6.0838 -3.3893 1.8136
6.0738 -3.1941 1.7880
6.1006 -3.0224 1.7749
5.8034 -2.7027 1.6698
5.7726 -2.5206 1.6438
5.7425 -2.3440 1.6196
5.7130 -2.1725 1.5969
5.6869 -2.0067 1.5765
5.6630 -1.8458 1.5579
5.6394 -1.6885 1.5406
5.6161 -1.5348 1.5245
5.6167 -1.3901 1.5160
5.6367 -1.2513 1.5137
5.6563 -1.1130 1.5122
5.6757 -0.9751 1.5115
5.6948 -0.8373 1.5117
5.7029 -0.6981 1.5098
5.7095 -0.5593 1.5084
5.7158 -0.4208 1.5078
5.7218 -0.2825 1.5080
5.7274 -0.1441 1.5091
5.7329 -0.0057 1.5109
5.7382 0.1330 1.5136
5.7545 0.2726 1.5201
5.7749 0.4137 1.5286
5.7952 0.5562 1.5380
5.8577 0.7054 1.5596
5.9427 0.8618 1.5882
6.0305 1.0240 1.6188
6.1215 1.1923 1.6514
6.1334 1.3493 1.6639
6.1265 1.5039 1.6723
6.1267 1.6619 1.6838
6.1304 1.8232 1.6974
6.1320 1.9862 1.7116
6.1184 2.1466 1.7228
6.1038 2.3086 1.7348
6.0883 2.4726 1.7478
6.0928 2.6478 1.7680
6.1136 2.8345 1.7943
6.1342 3.0264 1.8223
6.1359 3.2140 1.8463
6.1892 3.4352 1.8878
6.1919 3.6352 1.9159
6.1368 3.8054 1.9277
6.0807 3.9774 1.9407
5.9933 4.1305 1.9450
5.9043 4.2834 1.9501
5.8149 4.4372 1.9564
5.7250 4.5919 1.9639
5.6345 4.7478 1.9725
5.6224 4.9750 2.0107
5.6418 5.2409 2.0633
5.6454 5.5046 2.1136
5.6256 5.7573 2.1586
5.6754 6.0966 2.2346
5.6841 6.4101 2.2993
5.5253 6.5433 2.2993
5.3634 6.6726 2.2993
5.1985 6.7980 2.2993
5.0308 6.9194 2.2993
4.8603 7.0367 2.2993
4.6871 7.1500 2.2993
4.5113 7.2591 2.2993
4.3331 7.3639 2.2993
4.1525 7.4645 2.2993
3.9695 7.5607 2.2993
3.7844 7.6526 2.2993
2.4530 5.2778 1.5678
2.4357 5.5907 1.6432
2.4658 6.0562 1.7623
3.0243 7.9753 2.2993
2.8299 8.0446 2.2993
2.6339 8.1093 2.2993
2.4364 8.1693 2.2993
2.2862 8.4027 2.3491
2.1292 8.6468 2.4025
1.9190 8.6947 2.4025
1.7079 8.7376 2.4025
1.4958 8.7755 2.4025
1.2828 8.8084 2.4025
1.0692 8.8362 2.4025
0.8550 8.8590 2.4025
0.6403 8.8767 2.4025
0.4252 8.8893 2.4025
0.2100 8.8969 2.4025
-0.0054 8.8993 2.4025
-0.2208 8.8967 2.4025
-0.4361 8.8890 2.4025
-0.6511 8.8762 2.4025
-0.8658 8.8583 2.4025
-1.0800 8.8354 2.4025
-1.2936 8.8074 2.4025
-1.5066 8.7744 2.4025
-1.7187 8.7363 2.4025
-1.9298 8.6932 2.4025
-2.1400 8.6451 2.4025
-2.3489 8.5921 2.4025
-2.5566 8.5342 2.4025
-2.7629 8.4713 2.4025
-2.9676 8.4036 2.4025
-3.1708 8.3310 2.4025
-3.3722 8.2536 2.4025
-3.5718 8.1715 2.4025
-3.7694 8.0847 2.4025
-3.9649 7.9931 2.4025
-4.1583 7.8970 2.4025
-4.3494 7.7962 2.4025
-4.5381 7.6910 2.4025
-4.7243 7.5812 2.4025
-4.9079 7.4671 2.4025
-5.0888 7.3486 2.4025
-5.2670 7.2258 2.4025
-5.4422 7.0987 2.4025
-5.6143 6.9675 2.4025
-5.7834 6.8322 2.4025
-5.8019 6.5270 2.3430
-5.8497 6.2685 2.2994
-6.0021 6.1277 2.2994
-6.1511 5.9832 2.2994
-6.2967 5.8351 2.2994
-6.4388 5.6836 2.2994
-6.5774 5.5287 2.2994
-6.7122 5.3704 2.2994
-6.3484 4.8322 2.1331
-6.9706 5.0442 2.2994
-7.0940 4.8765 2.2994
-7.2134 4.7058 2.2994
-7.3287 4.5323 2.2994
-7.4399 4.3559 2.2994
-6.1040 3.3783 1.8598
-6.0983 3.1850 1.8331
-6.1029 3.0018 1.8112
-6.1111 2.8244 1.7919
-6.1237 2.6525 1.7753
-6.1356 2.4833 1.7598
-6.1469 2.3165 1.7455
-6.1535 2.1506 1.7312
-6.1576 1.9863 1.7173
-6.1616 1.8244 1.7047
-6.1602 1.6631 1.6917
-6.1582 1.5038 1.6797
-6.1566 1.3467 1.6690
-6.1557 1.1913 1.6595
-6.1553 1.0376 1.6512
-6.1555 0.8852 1.6441
-6.1590 0.7342 1.6388
-6.1627 0.5840 1.6346
-6.1664 0.4343 1.6313
-6.1701 0.2849 1.6291
-6.1738 0.1357 1.6277
-6.1775 -0.0135 1.6273
-6.1812 -0.1629 1.6279
-6.1849 -0.3127 1.6294
-6.1886 -0.4630 1.6319
-6.1923 -0.6140 1.6354
-6.1961 -0.7660 1.6398
-6.2009 -0.9192 1.6455
-6.2085 -1.0742 1.6530
-6.2167 -1.2309 1.6616
-6.2256 -1.3898 1.6715
-6.2352 -1.5509 1.6827
-6.2456 -1.7147 1.6952
-6.2532 -1.8804 1.7081
-6.2574 -2.0477 1.7213
-6.2616 -2.2178 1.7357
-6.2611 -2.3893 1.7501
-6.2579 -2.5629 1.7650
-6.2541 -2.7396 1.7811
-6.2499 -2.9195 1.7985
-6.2540 -3.1076 1.8198
-6.2588 -3.3007 1.8429
-6.2893 -3.5135 1.8753
-7.6095 -4.4954 2.2994
-7.5025 -4.6802 2.2994
-7.3911 -4.8624 2.2994
-7.2751 -5.0419 2.2994
-7.1547 -5.2186 2.2994
-6.5931 -5.0572 2.1565
-6.9011 -5.5631 2.2994
-6.4715 -5.4804 2.2994
-6.3401 -5.6374 2.2994
-6.2048 -5.7913 2.2994
-6.0701 -5.9461 2.3011
-6.0650 -6.2349 2.3546
-6.0355 -6.5120 2.4025
-5.8789 -6.6583 2.4025
-5.7186 -6.8008 2.4025
-5.5548 -6.9393 2.4025
-4.6686 -6.1297 2.0818
-4.4430 -6.1351 2.0460
-4.2247 -6.1404 2.0125
-4.0133 -6.1455 1.9812
-3.8080 -6.1505 1.9520
-3.6085 -6.1553 1.9248
-3.5372 -6.3818 1.9678
-3.5464 -6.7793 2.0628
-3.4385 -6.9778 2.0968
-3.7467 -8.0900 2.4025
-3.5513 -8.1799 2.4025
-3.3536 -8.2651 2.4025
-3.1539 -8.3453 2.4025
-2.9522 -8.4206 2.4025
-2.7487 -8.4909 2.4025
-2.5435 -8.5562 2.4025
-2.3367 -8.6164 2.4025
-2.1284 -8.6714 2.4025
-1.9188 -8.7214 2.4025
-1.7081 -8.7661 2.4025
-1.4962 -8.8056 2.4025
-1.2835 -8.8399 2.4025
-1.0699 -8.8689 2.4025
-0.8557 -8.8927 2.4025
-0.6409 -8.9111 2.4025
-0.4258 -8.9242 2.4025
-0.2104 -8.9321 2.4025
0.0052 -8.9346 2.4025
0.2207 -8.9317 2.4025
0.4361 -8.9235 2.4025
0.6512 -8.9101 2.4025
0.8659 -8.8913 2.4025
1.0801 -8.8672 2.4025
1.2936 -8.8378 2.4025
1.5063 -8.8032 2.4025
1.7180 -8.7633 2.4025
1.9287 -8.7182 2.4025
2.0463 -8.2955 2.2993
2.2455 -8.2424 2.2993
2.4433 -8.1845 2.2993
2.6395 -8.1217 2.2993
2.1662 -6.1559 1.7573
2.1567 -5.6867 1.6381
2.1913 -5.3826 1.5657
3.4070 -7.8230 2.2993
3.5939 -7.7366 2.2993
3.7786 -7.6457 2.2993
3.9609 -7.5503 2.2993
4.1408 -7.4504 2.2993
4.3181 -7.3462 2.2993
4.4927 -7.2376 2.2993
4.6646 -7.1249 2.2993
4.8336 -7.0079 2.2993
4.9996 -6.8869 2.2993
5.1296 -6.7188 2.2846
5.2256 -6.5125 2.2575
5.3139 -6.3046 2.2301
5.3923 -6.0928 2.2014
5.4820 -5.9010 2.1802
5.5703 -5.7130 2.1606
5.5626 -5.4362 2.1070
5.5167 -5.1370 2.0429
5.4731 -4.8551 1.9836
5.4316 -4.5888 1.9287
5.3952 -4.3393 1.8789
5.3670 -4.1072 1.8348
5.4400 -3.9586 1.8274
5.5683 -3.8499 1.8396
5.6981 -3.7396 1.8530
5.8346 -3.6307 1.8693
5.9840 -3.5262 1.8902
6.0584 -3.3757 1.8884
6.0297 -3.1714 1.8560
6.0567 -3.0012 1.8424
5.7773 -2.6909 1.7380
5.7471 -2.5098 1.7111
5.7175 -2.3342 1.6859
5.6889 -2.1637 1.6624
5.6650 -1.9995 1.6418
5.6415 -1.8392 1.6225
5.6183 -1.6826 1.6045
5.5952 -1.5295 1.5878
5.5991 -1.3861 1.5798
5.6191 -1.2478 1.5773
5.6387 -1.1100 1.5757
5.6580 -0.9724 1.5750
5.6771 -0.8351 1.5751
5.6898 -0.6969 1.5744
5.6964 -0.5584 1.5729
5.7027 -0.4202 1.5723
5.7087 -0.2822 1.5725
5.7143 -0.1442 1.5735
5.7197 -0.0061 1.5754
5.7250 0.1323 1.5782
5.7354 0.2713 1.5833
5.7556 0.4119 1.5921
5.7757 0.5539 1.6018
5.8364 0.7024 1.6238
5.9207 0.8582 1.6535
6.0079 1.0197 1.6851
6.0730 1.1824 1.7119
6.0669 1.3342 1.7197
6.0598 1.4871 1.7283
6.0581 1.6429 1.7396
6.0613 1.8021 1.7535
6.0636 1.9636 1.7683
6.0606 2.1258 1.7829
6.0457 2.2862 1.7952
6.0299 2.4485 1.8085
6.0290 2.6197 1.8277
6.0487 2.8040 1.8546
6.0681 2.9933 1.8831
6.0823 3.1854 1.9118
6.1121 3.3919 1.9474
6.1761 3.6254 1.9962
6.1210 3.7951 2.0084
6.0650 3.9666 2.0219
5.9994 4.1342 2.0337
5.9103 4.2873 2.0390
5.8208 4.4412 2.0455
5.7309 4.5961 2.0533
5.6403 4.7521 2.0623
5.6358 4.9863 2.1051
5.6555 5.2531 2.1602
5.6709 5.5289 2.2174
5.6516 5.7833 2.2648
5.5917 6.0061 2.2993
5.4428 6.1373 2.2993
5.2907 6.2649 2.2993
5.1358 6.3889 2.2993
4.9780 6.5090 2.2993
4.8175 6.6254 2.2993
4.6543 6.7379 2.2993
4.4885 6.8464 2.2993
4.3202 6.9509 2.2993
4.1496 7.0514 2.2993
3.9766 7.1478 2.2993
2.5958 4.9437 1.5700
2.4706 4.9954 1.5674
2.4265 5.2205 1.6195
2.4670 5.6623 1.7379
2.4460 6.0069 1.8253
2.8964 7.6374 2.2993
2.7102 7.7039 2.2993
2.5225 7.7658 2.2993
2.3334 7.8234 2.2993
2.2393 8.2301 2.4025
2.0392 8.2807 2.4025
1.8380 8.3267 2.4025
1.6357 8.3678 2.4025
1.4326 8.4041 2.4025
1.2286 8.4356 2.4025
1.0240 8.4623 2.4025
0.8189 8.4842 2.4025
0.6132 8.5011 2.4025
0.4073 8.5133 2.4025
0.2011 8.5205 2.4025
-0.0052 8.5229 2.4025
-0.2115 8.5203 2.4025
-0.4177 8.5129 2.4025
-0.6236 8.5007 2.4025
-0.8292 8.4835 2.4025
-1.0344 8.4615 2.4025
-1.2390 8.4347 2.4025
-1.4429 8.4030 2.4025
-1.6461 8.3665 2.4025
-1.8483 8.3252 2.4025
-2.0495 8.2792 2.4025
-2.2496 8.2283 2.4025
-2.4485 8.1728 2.4025
-2.6460 8.1125 2.4025
-2.8421 8.0476 2.4025
-3.0367 7.9780 2.4025
-3.2295 7.9039 2.4025
-3.4206 7.8251 2.4025
-3.6098 7.7419 2.4025
-3.7971 7.6541 2.4025
-3.9822 7.5620 2.4025
-4.1652 7.4654 2.4025
-4.3459 7.3645 2.4025
-4.5241 7.2593 2.4025
-4.6999 7.1499 2.4025
-4.8731 7.0364 2.4025
-5.0436 6.9187 2.4025
-5.2113 6.7969 2.4025
-5.3761 6.6712 2.4025
-5.5379 6.5415 2.4025
-5.6967 6.4080 2.4025
-5.8068 6.2219 2.3838
-5.8177 5.9388 2.3277
-5.8896 5.7282 2.2994
-6.0289 5.5864 2.2994
-6.1649 5.4412 2.2994
-6.2974 5.2927 2.2994
-6.4264 5.1411 2.2994
-6.3484 4.8316 2.2281
-6.6735 4.8287 2.2994
-6.7915 4.6680 2.2994
-6.9057 4.5045 2.2994
-7.0159 4.3382 2.2994
-7.1223 4.1693 2.2994
-6.2675 3.4682 1.9948
-6.3855 3.3344 2.0051
-7.4169 3.6475 2.2994
-6.1364 2.8357 1.8797
-6.1145 2.6481 1.8519
-6.1159 2.4748 1.8327
-6.1201 2.3059 1.8157
-6.1242 2.1399 1.8001
-6.1342 1.9783 1.7875
-6.1439 1.8187 1.7760
-6.1531 1.6607 1.7656
-6.1617 1.5043 1.7561
-6.1698 1.3491 1.7476
-6.1771 1.1950 1.7401
-6.1809 1.0415 1.7326
-6.1847 0.8889 1.7261
-6.1885 0.7373 1.7207
-6.1922 0.5864 1.7163
-6.1959 0.4359 1.7130
-6.1996 0.2859 1.7106
-6.2034 0.1359 1.7093
-6.2071 -0.0140 1.7089
-6.2108 -0.1641 1.7096
-6.2145 -0.3146 1.7112
-6.2182 -0.4657 1.7139
-6.2220 -0.6174 1.7175
-6.2258 -0.7701 1.7222
-6.2296 -0.9239 1.7280
-6.2334 -1.0789 1.7348
-6.2364 -1.2353 1.7424
-6.2363 -1.3926 1.7503
-6.2358 -1.5515 1.7592
-6.2348 -1.7122 1.7691
-6.2333 -1.8748 1.7800
-6.2313 -2.0396 1.7920
-6.2318 -2.2077 1.8060
-6.2360 -2.3803 1.8224
-6.2404 -2.5562 1.8402
-6.2592 -2.7423 1.8637
-7.6425 -3.5707 2.2994
-6.4324 -3.1967 1.9570
-7.4689 -3.9395 2.2994
-7.3753 -4.1208 2.2994
-7.2773 -4.2998 2.2994
-7.1749 -4.4764 2.2994
-7.0681 -4.6505 2.2994
-6.9571 -4.8221 2.2994
-6.8419 -4.9910 2.2994
-6.5931 -5.0578 2.2552
-6.5990 -5.3202 2.2994
-6.1985 -5.2497 2.2994
-6.0725 -5.4000 2.2994
-6.0544 -5.6515 2.3426
-6.0587 -5.9355 2.3981
-5.9270 -6.0937 2.4025
-5.7804 -6.2373 2.4025
-5.6303 -6.3773 2.4025
-5.4767 -6.5137 2.4025
-5.3198 -6.6463 2.4025
-5.1596 -6.7750 2.4025
-4.9963 -6.8998 2.4025
-4.2239 -6.1397 2.1011
-4.0125 -6.1449 2.0685
-3.8073 -6.1498 2.0380
-3.6078 -6.1546 2.0096
-3.5373 -6.3825 2.0550
-3.5962 -6.8749 2.1844
-3.4549 -7.0117 2.2001
-3.5878 -7.7473 2.4025
-3.4006 -7.8334 2.4025
-3.2113 -7.9148 2.4025
-3.0200 -7.9916 2.4025
-2.8268 -8.0636 2.4025
-2.6320 -8.1309 2.4025
-2.4354 -8.1933 2.4025
-2.2374 -8.2509 2.4025
-2.0380 -8.3036 2.4025
-1.8373 -8.3514 2.4025
-1.6355 -8.3942 2.4025
-1.4327 -8.4320 2.4025
-1.2289 -8.4648 2.4025
-1.0244 -8.4926 2.4025
-0.8193 -8.5153 2.4025
-0.6137 -8.5329 2.4025
-0.4077 -8.5455 2.4025
-0.2014 -8.5530 2.4025
0.0049 -8.5553 2.4025
0.2113 -8.5526 2.4025
0.4175 -8.5448 2.4025
0.6235 -8.5319 2.4025
0.8291 -8.5140 2.4025
1.0342 -8.4909 2.4025
1.2386 -8.4628 2.4025
1.4423 -8.4297 2.4025
1.6450 -8.3916 2.4025
1.8467 -8.3484 2.4025
1.9599 -7.9458 2.2999
2.1588 -7.9250 2.3086
2.3395 -7.8375 2.2993
2.5275 -7.7774 2.2993
2.1464 -6.1001 1.8185
2.1844 -5.7603 1.7328
2.1657 -5.3202 1.6160
3.2625 -7.4916 2.2993
2.3136 -4.9807 1.5457
2.4648 -4.9877 1.5662
3.7929 -7.2307 2.2993
3.9652 -7.1352 2.2993
4.1351 -7.0354 2.2993
4.3024 -6.9316 2.2993
4.4670 -6.8237 2.2993
4.6289 -6.7118 2.2993
4.7879 -6.5960 2.2993
4.9440 -6.4763 2.2993
5.0971 -6.3529 2.2993
5.2470 -6.2258 2.2993
5.3938 -6.0952 2.2993
5.4932 -5.9136 2.2810
5.5815 -5.7251 2.2605
5.5024 -5.3780 2.1761
5.4846 -5.1076 2.1205
5.4422 -4.8282 2.0593
5.4017 -4.5641 2.0026
5.3642 -4.3149 1.9503
5.3368 -4.0846 1.9048
5.4240 -3.9475 1.9022
5.5518 -3.8390 1.9148
5.6816 -3.7292 1.9289
5.8278 -3.6270 1.9491
5.9769 -3.5225 1.9709
6.0331 -3.3621 1.9631
5.9929 -3.1525 1.9256
6.0132 -2.9801 1.9093
5.7512 -2.6793 1.8060
5.7215 -2.4991 1.7781
5.6925 -2.3244 1.7520
5.6666 -2.1557 1.7284
5.6432 -1.9922 1.7069
5.6200 -1.8326 1.6869
5.5971 -1.6767 1.6683
5.5744 -1.5242 1.6510
5.5815 -1.3822 1.6436
5.6014 -1.2443 1.6410
5.6210 -1.1069 1.6393
5.6403 -0.9698 1.6385
5.6593 -0.8329 1.6386
5.6766 -0.6958 1.6392
5.6832 -0.5576 1.6376
5.6896 -0.4197 1.6369
5.6955 -0.2820 1.6371
5.7011 -0.1443 1.6381
5.7065 -0.0065 1.6400
5.7117 0.1316 1.6429
5.7168 0.2700 1.6466
5.7363 0.4101 1.6555
5.7562 0.5516 1.6656
5.8152 0.6995 1.6879
5.8988 0.8546 1.7186
5.9852 1.0154 1.7514
6.0078 1.1693 1.7667
6.0014 1.3194 1.7746
5.9941 1.4705 1.7834
5.9905 1.6241 1.7945
5.9932 1.7815 1.8086
5.9949 1.9409 1.8237
5.9958 2.1026 1.8398
5.9884 2.2641 1.8548
5.9724 2.4247 1.8684
5.9663 2.5919 1.8865
5.9848 2.7739 1.9140
6.0031 2.9608 1.9431
6.0209 3.1528 1.9739
6.0364 3.3494 2.0059
6.1603 3.6156 2.0766
6.1052 3.7848 2.0892
6.0493 3.9558 2.1032
5.9924 4.1289 2.1184
5.9164 4.2912 2.1286
5.8268 4.4452 2.1354
5.7368 4.6003 2.1435
5.6462 4.7566 2.1529
5.6492 4.9977 2.2004
5.6693 5.2654 2.2581
5.6391 5.4974 2.2993
5.5024 5.6300 2.2993
5.3626 5.7594 2.2993
5.2198 5.8853 2.2993
5.0741 6.0078 2.2993
4.9255 6.1267 2.2993
4.7743 6.2421 2.2993
4.6204 6.3537 2.2993
4.4639 6.4617 2.2993
4.3049 6.5658 2.2993
4.1436 6.6662 2.2993
3.9799 6.7626 2.2993
3.8141 6.8552 2.2993
2.5958 4.9433 1.6369
2.4183 4.8893 1.5995
2.4577 5.2873 1.7102
2.4397 5.5992 1.7918
2.7674 6.7957 2.1531
2.7782 7.3252 2.2993
2.5996 7.3889 2.2993
2.4196 7.4484 2.2993
2.2735 7.6217 2.3354
2.1480 7.8938 2.4025
1.9560 7.9424 2.4025
1.7630 7.9865 2.4025
1.5690 8.0260 2.4025
1.3742 8.0609 2.4025
1.1785 8.0911 2.4025
0.9823 8.1168 2.4025
0.7855 8.1377 2.4025
0.5882 8.1540 2.4025
0.3907 8.1656 2.4025
0.1929 8.1726 2.4025
-0.0050 8.1749 2.4025
-0.2029 8.1724 2.4025
-0.4006 8.1653 2.4025
-0.5982 8.1536 2.4025
-0.7954 8.1371 2.4025
-0.9922 8.1160 2.4025
-1.1885 8.0902 2.4025
-1.3841 8.0598 2.4025
-1.5789 8.0248 2.4025
-1.7729 7.9851 2.4025
-1.9659 7.9409 2.4025
-2.1579 7.8921 2.4025
-2.3486 7.8387 2.4025
-2.5381 7.7809 2.4025
-2.7261 7.7186 2.4025
-2.9127 7.6518 2.4025
-3.0977 7.5806 2.4025
-3.2810 7.5050 2.4025
-3.4624 7.4251 2.4025
-3.6420 7.3409 2.4025
-3.8195 7.2524 2.4025
-3.9950 7.1597 2.4025
-4.1682 7.0628 2.4025
-4.3391 6.9619 2.4025
-4.5077 6.8569 2.4025
-4.6737 6.7479 2.4025
-4.8372 6.6349 2.4025
-4.9979 6.5181 2.4025
-5.1559 6.3974 2.4025
-5.3110 6.2729 2.4025
-5.4632 6.1448 2.4025
-5.6124 6.0130 2.4025
-5.7584 5.8777 2.4025
-5.8184 5.6584 2.3688
-5.8308 5.4022 2.3190
-5.9118 5.2172 2.2994
-6.0388 5.0748 2.2994
-6.1624 4.9293 2.2994
-6.2825 4.7809 2.2994
-6.3991 4.6295 2.2994
-6.5121 4.4754 2.2994
-6.6215 4.3186 2.2994
-6.7271 4.1591 2.2994
-6.8289 3.9970 2.2994
-6.2675 3.4677 2.0805
-6.3855 3.3339 2.0913
-7.1110 3.4965 2.2994
-7.1970 3.3252 2.2994
-7.2790 3.1518 2.2994
-7.3567 2.9764 2.2994
-7.4304 2.7990 2.2994
-7.4997 2.6199 2.2994
-6.1468 1.9819 1.8684
-6.1327 1.8149 1.8493
-6.1362 1.6557 1.8367
-6.1401 1.4985 1.8256
-6.1439 1.3430 1.8156
-6.1477 1.1889 1.8067
-6.1517 1.0361 1.7990
-6.1584 0.8847 1.7932
-6.1646 0.7340 1.7883
-6.1703 0.5838 1.7844
-6.1755 0.4341 1.7814
-6.1802 0.2845 1.7793
-6.1845 0.1351 1.7781
-6.1884 -0.0144 1.7778
-6.1918 -0.1641 1.7784
-6.1947 -0.3141 1.7799
-6.1972 -0.4645 1.7824
-6.1993 -0.6156 1.7857
-6.2009 -0.7675 1.7900
-6.2020 -0.9202 1.7953
-6.2037 -1.0742 1.8018
-6.2076 -1.2300 1.8100
-6.2115 -1.3875 1.8194
-6.2154 -1.5469 1.8300
-6.2194 -1.7085 1.8418
-6.2317 -1.8748 1.8573
-6.2552 -2.0479 1.8776
-7.6019 -2.6937 2.2994
-7.5385 -2.8780 2.2994
-7.4707 -3.0608 2.2994
-7.3983 -3.2419 2.2994
-7.3216 -3.4213 2.2994
-6.4324 -3.1973 2.0428
-7.1549 -3.7745 2.2994
-7.0651 -3.9481 2.2994
-6.9711 -4.1195 2.2994
-6.8729 -4.2886 2.2994
-6.7705 -4.4553 2.2994
-6.6640 -4.6196 2.2994
-6.5535 -4.7812 2.2994
-6.4390 -4.9402 2.2994
-6.3207 -5.0964 2.2994
-6.0446 -5.1200 2.3376
-6.0472 -5.3781 2.3871
-5.9561 -5.5603 2.4025
-5.8224 -5.7046 2.4025
-5.6852 -5.8457 2.4025
-5.5445 -5.9833 2.4025
-5.4004 -6.1176 2.4025
-5.2531 -6.2483 2.4025
-5.1025 -6.3754 2.4025
-4.9488 -6.4988 2.4025
-4.7921 -6.6184 2.4025
-4.6324 -6.7341 2.4025
-4.4699 -6.8460 2.4025
-4.3047 -6.9538 2.4025
-3.6071 -6.1540 2.0949
-3.9663 -7.1572 2.4025
-3.6324 -6.9447 2.3005
-3.6183 -7.3438 2.4025
-3.4408 -7.4307 2.4025
-3.2613 -7.5131 2.4025
-3.0797 -7.5912 2.4025
-2.8963 -7.6647 2.4025
-2.7110 -7.7338 2.4025
-2.5241 -7.7982 2.4025
-2.3356 -7.8581 2.4025
-2.1457 -7.9132 2.4025
-1.9544 -7.9637 2.4025
-1.7620 -8.0095 2.4025
-1.5684 -8.0505 2.4025
-1.3739 -8.0867 2.4025
-1.1785 -8.1182 2.4025
-0.9824 -8.1448 2.4025
-0.7857 -8.1665 2.4025
-0.5885 -8.1834 2.4025
-0.3910 -8.1955 2.4025
-0.1932 -8.2026 2.4025
0.0047 -8.2049 2.4025
0.2026 -8.2023 2.4025
0.4004 -8.1949 2.4025
0.5979 -8.1825 2.4025
0.7951 -8.1653 2.4025
0.9917 -8.1432 2.4025
1.1878 -8.1163 2.4025
1.3831 -8.0846 2.4025
1.5775 -8.0480 2.4025
1.7710 -8.0067 2.4025
1.9482 -7.8991 2.3840
2.0619 -7.5699 2.2993
2.2436 -7.5168 2.2993
2.4239 -7.4593 2.2993
2.6026 -7.3973 2.2993
2.1620 -5.7015 1.7882
2.1936 -5.3891 1.7067
2.1739 -4.9922 1.5975
2.2589 -4.8635 1.5736
2.4295 -4.9167 1.6097
3.6377 -6.9353 2.2993
3.8030 -6.8438 2.2993
3.9659 -6.7482 2.2993
4.1264 -6.6487 2.2993
4.2843 -6.5452 2.2993
4.4397 -6.4380 2.2993
4.5923 -6.3270 2.2993
4.7420 -6.2123 2.2993
4.8889 -6.0941 2.2993
5.0328 -5.9722 2.2993
5.1736 -5.8470 2.2993
5.3113 -5.7183 2.2993
5.4457 -5.5864 2.2993
5.4386 -5.3162 2.2423
5.4302 -5.0575 2.1887
5.4114 -4.8014 2.1346
5.3720 -4.5395 2.0761
5.3343 -4.2914 2.0218
5.3068 -4.0621 1.9744
5.4080 -3.9364 1.9770
5.5354 -3.8281 1.9901
5.6750 -3.7254 2.0082
5.8209 -3.6232 2.0293
5.9698 -3.5188 2.0519
6.0079 -3.3485 2.0375
5.9683 -3.1401 1.9988
5.9699 -2.9591 1.9757
5.7252 -2.6676 1.8738
5.6961 -2.4885 1.8449
5.6678 -2.3148 1.8180
5.6444 -2.1477 1.7943
5.6214 -1.9849 1.7721
5.5986 -1.8260 1.7513
5.5760 -1.6708 1.7320
5.5536 -1.5189 1.7141
5.5639 -1.3782 1.7074
5.5838 -1.2408 1.7046
5.6034 -1.1038 1.7029
5.6226 -0.9672 1.7020
5.6415 -0.8307 1.7021
5.6602 -0.6942 1.7030
5.6701 -0.5567 1.7023
5.6764 -0.4191 1.7016
5.6823 -0.2817 1.7018
5.6879 -0.1444 1.7028
5.6933 -0.0069 1.7048
5.6985 0.1308 1.7077
5.7035 0.2690 1.7115
5.7169 0.4083 1.7189
5.7367 0.5493 1.7293
5.7940 0.6965 1.7520
5.8770 0.8510 1.7838
5.9490 1.0088 1.8134
5.9435 1.1563 1.8207
5.9369 1.3047 1.8288
5.9294 1.4542 1.8377
5.9241 1.6057 1.8485
5.9262 1.7611 1.8628
5.9274 1.9186 1.8782
5.9277 2.0783 1.8946
5.9270 2.2404 1.9121
5.9156 2.4011 1.9275
5.9044 2.5646 1.9444
5.9219 2.7443 1.9724
5.9390 2.9287 2.0021
5.9557 3.1182 2.0335
5.9857 3.3208 2.0715
6.1444 3.6058 2.1570
6.0894 3.7745 2.1701
6.0335 3.9450 2.1845
5.9767 4.1175 2.2003
5.9188 4.2924 2.2176
5.8329 4.4494 2.2260
5.7428 4.6046 2.2344
5.6521 4.7610 2.2442
5.6628 5.0092 2.2968
5.5438 5.1483 2.2993
5.4156 5.2789 2.2993
5.2844 5.4064 2.2993
5.1502 5.5307 2.2993
5.0131 5.6517 2.2993
4.8732 5.7694 2.2993
4.7306 5.8837 2.2993
4.5854 5.9946 2.2993
4.4376 6.1019 2.2993
4.2874 6.2056 2.2993
4.1347 6.3057 2.2993
3.9798 6.4022 2.2993
3.8227 6.4949 2.2993
3.6634 6.5838 2.2993
2.4178 4.6039 1.5873
2.4364 4.9255 1.6778
2.4424 5.2540 1.7694
3.0071 6.9009 2.2993
2.7676 6.7957 2.2417
2.6686 7.0356 2.2993
2.4970 7.0969 2.2993
2.3242 7.1541 2.2993
2.2465 7.5308 2.4025
2.0633 7.5819 2.4025
1.8789 7.6287 2.4025
1.6935 7.6711 2.4025
1.5072 7.7090 2.4025
1.3200 7.7426 2.4025
1.1321 7.7717 2.4025
0.9435 7.7963 2.4025
0.7545 7.8165 2.4025
0.5650 7.8321 2.4025
0.3753 7.8433 2.4025
0.1853 7.8500 2.4025
-0.0048 7.8521 2.4025
-0.1949 7.8498 2.4025
-0.3849 7.8430 2.4025
-0.5746 7.8317 2.4025
-0.7641 7.8158 2.4025
-0.9531 7.7955 2.4025
-1.1416 7.7708 2.4025
-1.3295 7.7415 2.4025
-1.5167 7.7078 2.4025
-1.7030 7.6697 2.4025
-1.8884 7.6272 2.4025
-2.0728 7.5803 2.4025
-2.2560 7.5290 2.4025
-2.4380 7.4734 2.4025
-2.6186 7.4135 2.4025
-2.7978 7.3493 2.4025
-2.9754 7.2808 2.4025
-3.1514 7.2082 2.4025
-3.3257 7.1313 2.4025
-3.4981 7.0504 2.4025
-3.6687 6.9653 2.4025
-3.8371 6.8763 2.4025
-4.0035 6.7832 2.4025
-4.1676 6.6861 2.4025
-4.3294 6.5852 2.4025
-4.4889 6.4804 2.4025
-4.6458 6.3718 2.4025
-4.8002 6.2596 2.4025
-4.9518 6.1436 2.4025
-5.1008 6.0240 2.4025
-5.2469 5.9008 2.4025
-5.3900 5.7742 2.4025
-5.5302 5.6442 2.4025
-5.6672 5.5108 2.4025
-5.8011 5.3741 2.4025
-5.8291 5.1437 2.3609
-5.8416 4.9086 2.3163
-5.9177 4.7330 2.2994
-6.0335 4.5908 2.2996
-6.1449 4.4450 2.2994
-6.2533 4.2970 2.2994
-6.3582 4.1463 2.2994
-6.4595 3.9931 2.2994
-6.5571 3.8374 2.2994
-6.2675 3.4672 2.1668
-6.3855 3.3334 2.1781
-6.8276 3.3566 2.2994
-6.9101 3.1921 2.2994
-6.9886 3.0255 2.2994
-7.0632 2.8570 2.2994
-7.1337 2.6867 2.2994
-7.2002 2.5147 2.2994
-7.2625 2.3411 2.2994
-7.3207 2.1659 2.2994
-7.3747 1.9893 2.2994
-6.3152 1.5408 1.9559
-6.2461 1.3648 1.9227
-6.2498 1.2081 1.9133
-7.5479 1.2707 2.2994
-6.1797 0.8873 1.8746
-6.1758 0.7349 1.8664
-6.1733 0.5837 1.8599
-6.1722 0.4334 1.8549
-6.1726 0.2837 1.8514
-6.1745 0.1344 1.8495
-6.1778 -0.0148 1.8491
-6.1825 -0.1643 1.8501
-6.1887 -0.3142 1.8527
-6.1963 -0.4649 1.8569
-6.2055 -0.6167 1.8626
-6.2162 -0.7698 1.8698
-6.2285 -0.9246 1.8787
-7.5978 -1.3162 2.2994
-7.5677 -1.5001 2.2994
-7.5332 -1.6834 2.2994
-7.4942 -1.8658 2.2994
-6.3968 -1.7577 1.9741
-7.4030 -2.2278 2.2994
-7.3508 -2.4071 2.2994
-7.2942 -2.5852 2.2994
-7.2332 -2.7620 2.2994
-7.1680 -2.9373 2.2994
-7.0984 -3.1111 2.2994
-7.0247 -3.2831 2.2994
-6.4324 -3.1978 2.1292
-6.8645 -3.6219 2.2994
-6.7783 -3.7883 2.2994
-6.6879 -3.9527 2.2994
-6.5936 -4.1148 2.2994
-6.4952 -4.2747 2.2994
-6.3930 -4.4322 2.2994
-6.2869 -4.5872 2.2994
-6.1769 -4.7397 2.2994
-6.0633 -4.8894 2.2994
-5.9678 -5.0555 2.4025
-5.8463 -5.2001 2.4025
-5.7213 -5.3417 2.4025
-5.5928 -5.4802 2.4025
-5.4610 -5.6156 2.4025
-5.3257 -5.7478 2.4025
-5.1873 -5.8767 2.4025
-5.0457 -6.0022 2.4025
-4.9010 -6.1242 2.4025
-4.7533 -6.2426 2.4025
-4.6027 -6.3574 2.4025
-4.4493 -6.4685 2.4025
-4.2932 -6.5759 2.4025
-4.1344 -6.6794 2.4025
-3.9731 -6.7790 2.4025
-3.8094 -6.8746 2.4025
-3.6433 -6.9662 2.4025
-3.4750 -7.0537 2.4025
-3.3046 -7.1370 2.4025
-3.1321 -7.2162 2.4025
-2.9577 -7.2911 2.4025
-2.7815 -7.3617 2.4025
-2.6036 -7.4279 2.4025
-2.4241 -7.4898 2.4025
-2.2430 -7.5472 2.4025
-2.0606 -7.6002 2.4025
-1.8769 -7.6486 2.4025
-1.6921 -7.6925 2.4025
-1.5062 -7.7319 2.4025
-1.3194 -7.7667 2.4025
-1.1318 -7.7968 2.4025
-0.9435 -7.8223 2.4025
-0.7546 -7.8432 2.4025
-0.5652 -7.8595 2.4025
-0.3755 -7.8710 2.4025
-0.1855 -7.8779 2.4025
0.0045 -7.8801 2.4025
0.1946 -7.8776 2.4025
0.3845 -7.8704 2.4025
0.5742 -7.8586 2.4025
0.7635 -7.8420 2.4025
0.9524 -7.8209 2.4025
1.1407 -7.7950 2.4025
1.3282 -7.7646 2.4025
1.5150 -7.7295 2.4025
1.7008 -7.6899 2.4025
1.8855 -7.6457 2.4025
1.9802 -7.2704 2.2993
2.1704 -7.2721 2.3160
2.3278 -7.1643 2.2993
2.4995 -7.1048 2.2993
2.4143 -6.3676 2.0793
2.1811 -5.3589 1.7669
2.1887 -5.0266 1.6746
2.1877 -4.7106 1.5869
2.4293 -4.9167 1.6759
3.4938 -6.6615 2.2993
3.6525 -6.5736 2.2993
3.8090 -6.4818 2.2993
3.9632 -6.3863 2.2993
4.1150 -6.2870 2.2993
4.2642 -6.1841 2.2993
4.4108 -6.0776 2.2993
4.5547 -5.9675 2.2993
4.6959 -5.8540 2.2993
4.8341 -5.7370 2.2993
4.9695 -5.6168 2.2993
5.1018 -5.4933 2.2993
5.2309 -5.3666 2.2993
5.3569 -5.2369 2.2993
5.3690 -5.0011 2.2528
5.3616 -4.7578 2.2018
5.3424 -4.5151 2.1493
5.3058 -4.2689 2.0934
5.2769 -4.0398 2.0437
5.3921 -3.9252 2.0519
5.5253 -3.8216 2.0678
5.6683 -3.7215 2.0880
5.8140 -3.6194 2.1097
5.9626 -3.5151 2.1332
5.9827 -3.3350 2.1119
5.9437 -3.1276 2.0718
5.9271 -2.9384 2.0416
5.7368 -2.6735 1.9542
5.6707 -2.4778 1.9116
5.6453 -2.3060 1.8846
5.6223 -2.1397 1.8600
5.5996 -1.9777 1.8371
5.5771 -1.8195 1.8157
5.5549 -1.6649 1.7957
5.5328 -1.5137 1.7771
5.5463 -1.3743 1.7712
5.5662 -1.2373 1.7683
5.5857 -1.1008 1.7664
5.6049 -0.9645 1.7655
5.6238 -0.8285 1.7656
5.6424 -0.6924 1.7665
5.6569 -0.5558 1.7672
5.6632 -0.4186 1.7665
5.6691 -0.2815 1.7666
5.6747 -0.1445 1.7676
5.6801 -0.0073 1.7696
5.6852 0.1301 1.7726
5.6902 0.2679 1.7766
5.6976 0.4065 1.7823
5.7173 0.5470 1.7930
5.7728 0.6935 1.8161
5.8551 0.8474 1.8488
5.8858 0.9977 1.8665
5.8801 1.1436 1.8739
5.8734 1.2903 1.8821
5.8657 1.4381 1.8912
5.8587 1.5875 1.9016
5.8603 1.7411 1.9162
5.8610 1.8966 1.9318
5.8607 2.0544 1.9485
5.8594 2.2144 1.9662
5.8571 2.3769 1.9851
5.8434 2.5376 2.0016
5.8599 2.7150 2.0301
5.8759 2.8971 2.0603
5.9739 3.1272 2.1215
6.0382 3.3494 2.1734
6.1286 3.5960 2.2376
6.0736 3.7641 2.2511
6.0178 3.9341 2.2660
5.9610 4.1062 2.2823
5.9009 4.2789 2.2993
5.7934 4.4186 2.2993
5.6825 4.5557 2.2993
5.5685 4.6900 2.2993
5.4513 4.8215 2.2993
5.3310 4.9501 2.2993
5.2078 5.0758 2.2993
5.0817 5.1985 2.2993
4.9527 5.3181 2.2993
4.8209 5.4345 2.2993
4.6865 5.5478 2.2993
4.5494 5.6578 2.2993
4.4098 5.7644 2.2993
4.2677 5.8677 2.2993
4.1232 5.9675 2.2993
3.9765 6.0639 2.2993
3.8275 6.1567 2.2993
3.6765 6.2459 2.2993
2.4194 4.3477 1.5789
2.4128 4.5940 1.6470
2.4444 4.9412 1.7501
2.4265 5.2192 1.8276
2.8922 6.6366 2.2993
2.7301 6.7034 2.2993
2.5666 6.7663 2.2993
2.4017 6.8253 2.2993
2.2620 6.9624 2.3267
2.1607 7.2427 2.4025
1.9845 7.2919 2.4025
1.8072 7.3369 2.4025
1.6288 7.3777 2.4025
1.4496 7.4143 2.4025
1.2696 7.4465 2.4025
1.0889 7.4745 2.4025
0.9075 7.4982 2.4025
0.7257 7.5176 2.4025
0.5435 7.5327 2.4025
0.3609 7.5435 2.4025
0.1782 7.5499 2.4025
-0.0046 7.5520 2.4025
-0.1875 7.5498 2.4025
-0.3702 7.5432 2.4025
-0.5527 7.5323 2.4025
-0.7349 7.5171 2.4025
-0.9168 7.4975 2.4025
-1.0981 7.4737 2.4025
-1.2788 7.4455 2.4025
-1.4588 7.4131 2.4025
-1.6380 7.3764 2.4025
-1.8163 7.3354 2.4025
-1.9936 7.2903 2.4025
-2.1698 7.2409 2.4025
-2.3449 7.1874 2.4025
-2.5186 7.1297 2.4025
-2.6909 7.0679 2.4025
-2.8617 7.0021 2.4025
-3.0310 6.9321 2.4025
-3.1986 6.8582 2.4025
-3.3644 6.7803 2.4025
-3.5284 6.6984 2.4025
-3.6904 6.6127 2.4025
-3.8503 6.5231 2.4025
-4.0081 6.4297 2.4025
-4.1637 6.3326 2.4025
-4.3170 6.2317 2.4025
-4.4679 6.1273 2.4025
-4.6163 6.0192 2.4025
-4.7621 5.9076 2.4025
-4.9053 5.7925 2.4025
-5.0457 5.6740 2.4025
-5.1833 5.5522 2.4025
-5.3180 5.4271 2.4025
-5.4497 5.2987 2.4025
-5.5784 5.1673 2.4025
-5.7039 5.0327 2.4025
-5.8263 4.8951 2.4025
-5.8389 4.6695 2.3595
-5.8505 4.4510 2.3190
-5.9085 4.2735 2.2994
-6.0127 4.1311 2.2994
-6.1134 3.9861 2.2994
-6.2108 3.8388 2.2994
-6.3046 3.6890 2.2994
-6.2675 3.4667 2.2537
-6.3855 3.3329 2.2654
-6.5643 3.2266 2.2994
-6.6435 3.0684 2.2994
-6.7189 2.9082 2.2994
-6.7904 2.7462 2.2994
-6.8581 2.5824 2.2994
-6.9219 2.4170 2.2994
-6.9817 2.2500 2.2994
-7.0375 2.0816 2.2994
-7.0892 1.9118 2.2994
-6.3152 1.5403 2.0347
-6.2429 1.3637 1.9992
-6.2466 1.2071 1.9894
-7.2552 1.2209 2.2994
-7.2863 1.0457 2.2994
-7.3132 0.8697 2.2994
-7.3358 0.6930 2.2994
-7.3542 0.5158 2.2994
-7.3683 0.3381 2.2994
-6.3499 0.1378 1.9790
-7.3836 -0.0183 2.2994
-7.3848 -0.1968 2.2994
-7.3817 -0.3753 2.2994
-7.3742 -0.5538 2.2994
-7.3625 -0.7322 2.2994
-7.3464 -0.9103 2.2994
-7.3260 -1.0881 2.2994
-7.3013 -1.2654 2.2994
-7.2722 -1.4421 2.2994
-7.2389 -1.6181 2.2994
-7.2013 -1.7934 2.2994
-6.3968 -1.7581 2.0545
-7.1134 -2.1412 2.2994
-7.0631 -2.3135 2.2994
-7.0086 -2.4846 2.2994
-6.9499 -2.6543 2.2994
-6.8871 -2.8227 2.2994
-6.8202 -2.9896 2.2994
-6.7492 -3.1549 2.2994
-6.4324 -3.1983 2.2162
-6.5951 -3.4802 2.2994
-6.5121 -3.6401 2.2994
-6.4252 -3.7979 2.2994
-6.3344 -3.9537 2.2994
-6.2399 -4.1072 2.2994
-6.1415 -4.2584 2.2994
-6.0395 -4.4073 2.2994
-6.0343 -4.6307 2.3384
-6.0366 -4.8685 2.3832
-5.7401 -4.8632 2.4025
-5.6232 -5.0022 2.4025
-5.5029 -5.1383 2.4025
-5.3792 -5.2715 2.4025
-5.2523 -5.4017 2.4025
-5.1222 -5.5287 2.4025
-4.9890 -5.6526 2.4025
-4.8527 -5.7732 2.4025
-4.7135 -5.8905 2.4025
-4.5714 -6.0043 2.4025
-4.4266 -6.1147 2.4025
-4.2790 -6.2215 2.4025
-4.1288 -6.3246 2.4025
-3.9761 -6.4241 2.4025
-3.8209 -6.5198 2.4025
-3.6635 -6.6117 2.4025
-3.5037 -6.6998 2.4025
-3.3418 -6.7839 2.4025
-3.1779 -6.8640 2.4025
-3.0120 -6.9400 2.4025
-2.8443 -7.0120 2.4025
-2.6748 -7.0798 2.4025
-2.5037 -7.1435 2.4025
-2.3311 -7.2029 2.4025
-2.1570 -7.2581 2.4025
-1.9815 -7.3090 2.4025
-1.8049 -7.3556 2.4025
-1.6272 -7.3978 2.4025
-1.4484 -7.4356 2.4025
-1.2688 -7.4690 2.4025
-1.0883 -7.4980 2.4025
-0.9072 -7.5225 2.4025
-0.7256 -7.5426 2.4025
-0.5435 -7.5582 2.4025
-0.3611 -7.5693 2.4025
-0.1784 -7.5759 2.4025
0.0043 -7.5780 2.4025
0.1871 -7.5756 2.4025
0.3697 -7.5687 2.4025
0.5522 -7.5573 2.4025
0.7342 -7.5415 2.4025
0.9158 -7.5211 2.4025
1.0969 -7.4963 2.4025
1.2772 -7.4670 2.4025
1.4568 -7.4333 2.4025
1.6355 -7.3952 2.4025
1.8132 -7.3528 2.4025
1.9626 -7.2062 2.3697
2.0720 -6.9430 2.2993
2.2385 -6.8899 2.2993
2.4036 -6.8328 2.2993
2.4141 -6.3675 2.1621
2.1657 -5.3214 1.8244
2.1979 -5.0483 1.7488
2.1824 -4.6995 1.6461
2.2014 -4.4557 1.5792
3.3599 -6.4067 2.2993
3.5126 -6.3223 2.2993
3.6632 -6.2341 2.2993
3.8115 -6.1423 2.2993
3.9574 -6.0469 2.2993
4.1010 -5.9480 2.2993
4.2421 -5.8456 2.2993
4.3805 -5.7398 2.2993
4.5163 -5.6307 2.2993
4.6493 -5.5183 2.2993
4.7795 -5.4027 2.2993
4.9068 -5.2840 2.2993
5.0311 -5.1622 2.2993
5.1524 -5.0375 2.2993
5.2705 -4.9099 2.2993
5.3029 -4.7062 2.2640
5.2963 -4.4766 2.2153
5.2773 -4.2465 2.1647
5.2509 -4.0204 2.1142
5.3785 -3.9158 2.1278
5.5189 -3.8177 2.1471
5.6616 -3.7177 2.1680
5.8071 -3.6156 2.1906
5.9555 -3.5114 2.2149
5.9575 -3.3215 2.1862
5.9192 -3.1152 2.1448
5.8845 -2.9178 2.1070
5.7710 -2.6899 2.0434
5.6456 -2.4673 1.9783
5.6227 -2.2973 1.9511
5.6001 -2.1317 1.9258
5.5778 -1.9704 1.9021
5.5557 -1.8129 1.8799
5.5338 -1.6590 1.8593
5.5120 -1.5084 1.8401
5.5287 -1.3703 1.8350
5.5485 -1.2338 1.8320
5.5680 -1.0977 1.8301
5.5872 -0.9619 1.8291
5.6060 -0.8263 1.8291
5.6246 -0.6906 1.8301
5.6429 -0.5549 1.8320
5.6500 -0.4180 1.8314
5.6559 -0.2813 1.8315
5.6615 -0.1445 1.8326
5.6668 -0.0077 1.8346
5.6719 0.1294 1.8377
5.6769 0.2669 1.8418
5.6817 0.4049 1.8469
5.6978 0.5447 1.8567
5.7517 0.6905 1.8801
5.8284 0.8431 1.9123
5.8236 0.9867 1.9189
5.8177 1.1310 1.9263
5.8108 1.2761 1.9346
5.8029 1.4223 1.9438
5.7942 1.5696 1.9540
5.7954 1.7213 1.9688
5.7956 1.8750 1.9846
5.7948 2.0308 2.0015
5.7929 2.1888 2.0195
5.7900 2.3492 2.0386
5.7860 2.5122 2.0590
5.8570 2.7132 2.1079
5.9609 2.9385 2.1712
6.0593 3.1714 2.2353
6.0921 3.3787 2.2779
6.0623 3.5566 2.2993
5.9720 3.7006 2.2993
5.8783 3.8424 2.2993
5.7813 3.9819 2.2993
5.6810 4.1189 2.2993
5.5775 4.2535 2.2993
5.4708 4.3855 2.2993
5.3611 4.5149 2.2993
5.2484 4.6415 2.2993
5.1327 4.7654 2.2993
5.0141 4.8865 2.2993
4.8927 5.0047 2.2993
4.7685 5.1199 2.2993
4.6417 5.2321 2.2993
4.5123 5.3412 2.2993
4.3804 5.4471 2.2993
4.2460 5.5499 2.2993
4.1093 5.6494 2.2993
3.9702 5.7455 2.2993
3.8289 5.8384 2.2993
3.6855 5.9278 2.2993
2.4202 4.1113 1.5719
2.4042 4.3200 1.6294
2.4419 4.6492 1.7311
2.4188 4.8891 1.7985
2.9394 6.3222 2.2993
2.7850 6.3902 2.2993
2.6290 6.4546 2.2993
2.4715 6.5152 2.2993
2.3127 6.5720 2.2993
2.2493 6.9226 2.4025
2.0807 6.9740 2.4025
1.9110 7.0214 2.4025
1.7403 7.0648 2.4025
1.5686 7.1041 2.4025
1.3960 7.1393 2.4025
1.2226 7.1704 2.4025
1.0486 7.1974 2.4025
0.8740 7.2203 2.4025
0.6989 7.2390 2.4025
0.5234 7.2535 2.4025
0.3476 7.2638 2.4025
0.1716 7.2700 2.4025
-0.0044 7.2721 2.4025
-0.1805 7.2699 2.4025
-0.3565 7.2636 2.4025
-0.5323 7.2531 2.4025
-0.7078 7.2384 2.4025
-0.8828 7.2195 2.4025
-1.0575 7.1965 2.4025
-1.2315 7.1694 2.4025
-1.4048 7.1382 2.4025
-1.5774 7.1028 2.4025
-1.7491 7.0634 2.4025
-1.9198 7.0198 2.4025
-2.0895 6.9723 2.4025
-2.2580 6.9207 2.4025
-2.4253 6.8651 2.4025
-2.5912 6.8056 2.4025
-2.7557 6.7421 2.4025
-2.9187 6.6747 2.4025
-3.0800 6.6035 2.4025
-3.2397 6.5284 2.4025
-3.3975 6.4495 2.4025
-3.5535 6.3669 2.4025
-3.7075 6.2806 2.4025
-3.8594 6.1906 2.4025
-4.0092 6.0970 2.4025
-4.1568 5.9999 2.4025
-4.3020 5.8992 2.4025
-4.4448 5.7951 2.4025
-4.5852 5.6876 2.4025
-4.7230 5.5767 2.4025
-4.8581 5.4626 2.4025
-4.9905 5.3452 2.4025
-5.1202 5.2247 2.4025
-5.2470 5.1011 2.4025
-5.3708 4.9744 2.4025
-5.4916 4.8448 2.4025
-5.6093 4.7123 2.4025
-5.7239 4.5769 2.4025
-5.8352 4.4389 2.4025
-5.8481 4.2293 2.3640
-5.8575 4.0240 2.3269
-5.8853 3.8369 2.2994
-5.9789 3.6950 2.2994
-6.0691 3.5508 2.2994
-6.1559 3.4044 2.2994
-6.2392 3.2560 2.2994
-6.3189 3.1055 2.2994
-6.3950 2.9531 2.2994
-6.4675 2.7988 2.2994
-6.5363 2.6429 2.2994
-6.6013 2.4852 2.2994
-6.6626 2.3259 2.2994
-6.7200 2.1652 2.2994
-6.7736 2.0030 2.2994
-6.8233 1.8396 2.2994
-6.3152 1.5398 2.1140
-6.2397 1.3625 2.0761
-6.2433 1.2060 2.0660
-6.9826 1.1745 2.2994
-7.0124 1.0058 2.2994
-7.0381 0.8365 2.2994
-7.0598 0.6664 2.2994
-7.0773 0.4959 2.2994
-7.0908 0.3249 2.2994
-6.3499 0.1373 2.0565
-7.1053 -0.0181 2.2994
-7.1063 -0.1899 2.2994
-7.1032 -0.3617 2.2994
-7.0959 -0.5335 2.2994
-7.0844 -0.7051 2.2994
-7.0688 -0.8765 2.2994
-7.0491 -1.0475 2.2994
-7.0252 -1.2180 2.2994
-6.9971 -1.3881 2.2994
-6.9650 -1.5574 2.2994
-6.9287 -1.7260 2.2994
-6.3968 -1.7586 2.1354
-6.8438 -2.0605 2.2994
-6.7953 -2.2263 2.2994
-6.7428 -2.3908 2.2994
-6.6862 -2.5542 2.2994
-6.6257 -2.7161 2.2994
-6.5612 -2.8766 2.2994
-6.4927 -3.0356 2.2994
-6.4205 -3.1929 2.2994
-6.3443 -3.3484 2.2994
-6.2644 -3.5022 2.2994
-6.1807 -3.6539 2.2994
-6.0933 -3.8037 2.2994
-6.0273 -3.9678 2.3090
-6.0234 -4.1771 2.3445
-6.0269 -4.3986 2.3856
-5.9635 -4.5770 2.4025
-5.8536 -4.7214 2.4025
-5.5277 -4.6837 2.4025
-5.4151 -4.8175 2.4025
-5.2991 -4.9486 2.4025
-5.1800 -5.0768 2.4025
-5.0577 -5.2021 2.4025
-4.9324 -5.3243 2.4025
-4.8040 -5.4436 2.4025
-4.6728 -5.5597 2.4025
-4.5387 -5.6725 2.4025
-4.4018 -5.7821 2.4025
-4.2623 -5.8883 2.4025
-4.1202 -5.9911 2.4025
-3.9755 -6.0903 2.4025
-3.8284 -6.1861 2.4025
-3.6790 -6.2782 2.4025
-3.5273 -6.3666 2.4025
-3.3735 -6.4513 2.4025
-3.2176 -6.5322 2.4025
-3.0598 -6.6093 2.4025
-2.9000 -6.6825 2.4025
-2.7385 -6.7517 2.4025
-2.5753 -6.8170 2.4025
-2.4106 -6.8783 2.4025
-2.2443 -6.9355 2.4025
-2.0767 -6.9886 2.4025
-1.9078 -7.0375 2.4025
-1.7377 -7.0823 2.4025
-1.5666 -7.1229 2.4025
-1.3945 -7.1593 2.4025
-1.2215 -7.1915 2.4025
-1.0478 -7.2194 2.4025
-0.8735 -7.2430 2.4025
-0.6986 -7.2623 2.4025
-0.5233 -7.2773 2.4025
-0.3476 -7.2880 2.4025
-0.1718 -7.2943 2.4025
0.0042 -7.2963 2.4025
0.1801 -7.2940 2.4025
0.3560 -7.2874 2.4025
0.5316 -7.2765 2.4025
0.7069 -7.2612 2.4025
0.8817 -7.2416 2.4025
1.0560 -7.2177 2.4025
1.2297 -7.1896 2.4025
1.4026 -7.1572 2.4025
1.5746 -7.1205 2.4025
1.7457 -7.0796 2.4025
1.9157 -7.0346 2.4025
1.9949 -6.6852 2.2993
2.1552 -6.6341 2.2993
2.3142 -6.5791 2.2993
2.4139 -6.3675 2.2454
2.6279 -6.4576 2.2993
2.1749 -4.9957 1.7973
2.2092 -4.7577 1.7307
2.1878 -4.4286 1.6300
2.2131 -4.2204 1.5729
3.3821 -6.0879 2.2993
3.5271 -6.0031 2.2993
3.6699 -5.9147 2.2993
3.8105 -5.8229 2.2993
3.9488 -5.7277 2.2993
4.0846 -5.6292 2.2993
4.2180 -5.5274 2.2993
4.3488 -5.4223 2.2993
4.4770 -5.3142 2.2993
4.6024 -5.2029 2.2993
4.7250 -5.0887 2.2993
4.8448 -4.9715 2.2993
4.9616 -4.8515 2.2993
5.0754 -4.7286 2.2993
5.1861 -4.6031 2.2993
5.2397 -4.4293 2.2758
5.2338 -4.2120 2.2293
5.2353 -4.0089 2.1889
5.3723 -3.9118 2.2069
5.5124 -3.8137 2.2269
5.6549 -3.7138 2.2485
5.8002 -3.6118 2.2719
5.9483 -3.5077 2.2970
5.9324 -3.3080 2.2603
5.8947 -3.1028 2.2177
5.8581 -2.9052 2.1779
5.8553 -2.7297 2.1526
5.6226 -2.4578 2.0456
5.6002 -2.2885 2.0176
5.5780 -2.1238 1.9914
5.5560 -1.9632 1.9670
5.5343 -1.8064 1.9442
5.5127 -1.6531 1.9229
5.4912 -1.5031 1.9031
5.5111 -1.3664 1.8989
5.5309 -1.2303 1.8958
5.5503 -1.0946 1.8937
5.5694 -0.9593 1.8927
5.5882 -0.8241 1.8927
5.6067 -0.6888 1.8937
5.6250 -0.5535 1.8957
5.6367 -0.4175 1.8966
5.6426 -0.2810 1.8967
5.6482 -0.1446 1.8977
5.6535 -0.0081 1.8998
5.6586 0.1287 1.9029
5.6635 0.2658 1.9071
5.6683 0.4035 1.9123
5.6783 0.5425 1.9205
5.7305 0.6876 1.9441
5.7672 0.8338 1.9638
5.7621 0.9758 1.9705
5.7561 1.1186 1.9780
5.7491 1.2622 1.9864
5.7410 1.4067 1.9958
5.7319 1.5523 2.0060
5.7315 1.7019 2.0206
5.7312 1.8537 2.0366
5.7299 2.0076 2.0537
5.7499 2.1721 2.0801
5.8051 2.3549 2.1210
5.8495 2.5393 2.1600
5.9504 2.7560 2.2222
6.0589 2.9863 2.2900
6.0066 3.1433 2.2993
5.9263 3.2863 2.2993
5.8426 3.4272 2.2993
5.7557 3.5661 2.2993
5.6654 3.7028 2.2993
5.5720 3.8373 2.2993
5.4754 3.9694 2.2993
5.3757 4.0991 2.2993
5.2730 4.2264 2.2993
5.1673 4.3512 2.2993
5.0587 4.4733 2.2993
4.9473 4.5928 2.2993
4.8330 4.7095 2.2993
4.7160 4.8235 2.2993
4.5964 4.9346 2.2993
4.4743 5.0428 2.2993
4.3495 5.1480 2.2993
4.2224 5.2502 2.2993
4.0929 5.3493 2.2993
3.9611 5.4452 2.2993
3.8271 5.5380 2.2993
3.6910 5.6275 2.2993
2.4202 3.8922 1.5663
2.3981 4.0734 1.6157
2.4352 4.3752 1.7120
2.4210 4.6089 1.7803
2.9810 6.0250 2.2993
2.8337 6.0942 2.2993
2.6848 6.1598 2.2993
2.5344 6.2219 2.2993
2.3827 6.2804 2.2993
2.2515 6.3977 2.3219
2.1684 6.6732 2.4025
2.0059 6.7228 2.4025
1.8423 6.7685 2.4025
1.6777 6.8104 2.4025
1.5122 6.8483 2.4025
1.3458 6.8823 2.4025
1.1787 6.9123 2.4025
1.0109 6.9383 2.4025
0.8425 6.9603 2.4025
0.6737 6.9784 2.4025
0.5046 6.9924 2.4025
0.3351 7.0024 2.4025
0.1654 7.0083 2.4025
-0.0043 7.0103 2.4025
-0.1740 7.0082 2.4025
-0.3437 7.0021 2.4025
-0.5131 6.9919 2.4025
-0.6823 6.9778 2.4025
-0.8511 6.9596 2.4025
-1.0195 6.9374 2.4025
-1.1872 6.9113 2.4025
-1.3543 6.8811 2.4025
-1.5207 6.8470 2.4025
-1.6862 6.8089 2.4025
-1.8508 6.7670 2.4025
-2.0144 6.7211 2.4025
-2.1768 6.6713 2.4025
-2.3381 6.6177 2.4025
-2.4980 6.5603 2.4025
-2.6566 6.4990 2.4025
-2.8137 6.4340 2.4025
-2.9692 6.3653 2.4025
-3.1231 6.2929 2.4025
-3.2752 6.2168 2.4025
-3.4256 6.1371 2.4025
-3.5740 6.0539 2.4025
-3.7204 5.9671 2.4025
-3.8647 5.8768 2.4025
-4.0069 5.7831 2.4025
-4.1469 5.6860 2.4025
-4.2845 5.5856 2.4025
-4.4198 5.4819 2.4025
-4.5526 5.3750 2.4025
-4.6828 5.2649 2.4025
-4.8104 5.1517 2.4025
-4.9353 5.0355 2.4025
-5.0574 4.9163 2.4025
-5.1767 4.7941 2.4025
-5.2931 4.6691 2.4025
-5.4065 4.5414 2.4025
-5.5168 4.4109 2.4025
-5.6241 4.2777 2.4025
-5.7281 4.1420 2.4025
-5.8290 4.0038 2.4025
-5.8566 3.8176 2.3742
-5.8629 3.6227 2.3396
-5.8738 3.4360 2.3091
-5.9327 3.2805 2.2994
-6.0128 3.1374 2.2994
-6.0896 2.9923 2.2994
-6.1629 2.8454 2.2994
-6.2326 2.6967 2.2994
-6.2988 2.5463 2.2994
-6.3614 2.3944 2.2994
-6.4203 2.2408 2.2994
-6.4756 2.0859 2.2994
-6.5271 1.9296 2.2994
-6.5749 1.7721 2.2994
-6.3152 1.5393 2.1939
-6.2364 1.3613 2.1535
-6.2401 1.2049 2.1430
-6.7280 1.1311 2.2994
-6.7566 0.9686 2.2994
-6.7813 0.8054 2.2994
-6.8020 0.6416 2.2994
-6.8188 0.4773 2.2994
-6.8317 0.3125 2.2994
-6.3499 0.1368 2.1345
-6.8454 -0.0179 2.2994
-6.8463 -0.1834 2.2994
-6.8431 -0.3489 2.2994
-6.8360 -0.5144 2.2994
-6.8249 -0.6798 2.2994
-6.8097 -0.8448 2.2994
-6.7906 -1.0096 2.2994
-6.7674 -1.1739 2.2994
-6.7403 -1.3376 2.2994
-6.7092 -1.5007 2.2994
-6.6742 -1.6631 2.2994
-6.3968 -1.7591 2.2168
-6.5922 -1.9853 2.2994
-6.5454 -2.1449 2.2994
-6.4947 -2.3034 2.2994
-6.4401 -2.4606 2.2994
-6.3817 -2.6166 2.2994
-6.3194 -2.7712 2.2994
-6.2535 -2.9242 2.2994
-6.1918 -3.0797 2.3024
-6.1103 -3.2254 2.2994
-6.0332 -3.3734 2.2994
-6.0154 -3.5567 2.3237
-6.0135 -3.7544 2.3563
-6.0178 -3.9621 2.3938
-5.9443 -4.1228 2.4025
-5.8454 -4.2667 2.4025
-5.7429 -4.4082 2.4025
-5.6370 -4.5473 2.4025
-5.3291 -4.5159 2.4025
-5.2204 -4.6449 2.4025
-5.1086 -4.7711 2.4025
-4.9937 -4.8947 2.4025
-4.8757 -5.0154 2.4025
-4.7548 -5.1332 2.4025
-4.6311 -5.2481 2.4025
-4.5045 -5.3599 2.4025
-4.3752 -5.4687 2.4025
-4.2432 -5.5742 2.4025
-4.1087 -5.6766 2.4025
-3.9716 -5.7756 2.4025
-3.8321 -5.8712 2.4025
-3.6903 -5.9635 2.4025
-3.5463 -6.0522 2.4025
-3.4001 -6.1374 2.4025
-3.2518 -6.2190 2.4025
-3.1015 -6.2969 2.4025
-2.9493 -6.3712 2.4025
-2.7953 -6.4417 2.4025
-2.6396 -6.5084 2.4025
-2.4823 -6.5713 2.4025
-2.3235 -6.6303 2.4025
-2.1632 -6.6854 2.4025
-2.0017 -6.7365 2.4025
-1.8389 -6.7837 2.4025
-1.6749 -6.8269 2.4025
-1.5100 -6.8660 2.4025
-1.3441 -6.9010 2.4025
-1.1774 -6.9320 2.4025
-1.0099 -6.9589 2.4025
-0.8419 -6.9816 2.4025
-0.6733 -7.0002 2.4025
-0.5043 -7.0147 2.4025
-0.3351 -7.0249 2.4025
-0.1656 -7.0311 2.4025
0.0040 -7.0330 2.4025
0.1736 -7.0308 2.4025
0.3431 -7.0244 2.4025
0.5124 -7.0139 2.4025
0.6813 -6.9992 2.4025
0.8498 -6.9803 2.4025
1.0178 -6.9573 2.4025
1.1852 -6.9302 2.4025
1.3519 -6.8990 2.4025
1.5177 -6.8637 2.4025
1.6826 -6.8243 2.4025
1.8464 -6.7809 2.4025
1.9748 -6.6182 2.3614
2.0773 -6.3949 2.2993
2.2306 -6.3420 2.2993
2.3825 -6.2853 2.2993
2.5330 -6.2249 2.2993
2.6818 -6.1608 2.2993
2.1904 -4.7174 1.7801
2.2160 -4.4860 1.7128
2.1938 -4.1840 1.6176
2.2232 -4.0022 1.5680
3.3999 -5.7870 2.2993
3.5376 -5.7019 2.2993
3.6731 -5.6135 2.2993
3.8064 -5.5218 2.2993
3.9374 -5.4268 2.2993
4.0660 -5.3287 2.2993
4.1922 -5.2275 2.2993
4.3158 -5.1233 2.2993
4.4367 -5.0161 2.2993
