ply
format ascii 1.0
element vertex 2027
property float32 x
property float32 y
property float32 z
end_header
7.8777 -20.7267 -1.2922
8.7425 -21.4278 -1.3474
9.2547 -21.2029 -1.3456
9.6151 -20.6520 -1.3236
3.0026 -6.0620 -0.3926
13.0821 -24.8803 -1.6294
13.6476 -24.4991 -1.6235
13.0794 -22.1995 -1.4897
20.4814 -32.9168 -2.2385
6.8833 -10.4886 -0.7234
6.9402 -10.0376 -0.7026
7.0866 -9.7375 -0.6923
7.2710 -9.4996 -0.6866
7.4823 -9.3009 -0.6840
7.7285 -9.1453 -0.6850
7.9748 -8.9868 -0.6862
8.2161 -8.8198 -0.6872
8.7024 -8.9005 -0.7084
26.3527 -25.6805 -2.0901
15.3310 -14.2340 -1.1860
4.5044 -3.9838 -0.3403
4.4057 -3.7106 -0.3253
4.3148 -3.4593 -0.3117
4.2309 -3.2273 -0.2993
5.7665 -4.1820 -0.3998
4.9523 -3.4120 -0.3368
4.6706 -3.0541 -0.3118
4.0797 -2.5292 -0.2676
4.4090 -2.5879 -0.2844
4.0875 -2.2682 -0.2594
4.6820 -2.4520 -0.2926
4.3102 -2.1262 -0.2655
4.6922 -2.1753 -0.2850
4.7669 -2.0714 -0.2857
4.8588 -1.9732 -0.2876
4.7299 -1.7890 -0.2766
4.3690 -1.5328 -0.2526
4.3822 -1.4195 -0.2507
5.2451 -1.5600 -0.2970
5.3472 -1.4507 -0.2999
5.4518 -1.3385 -0.3031
5.4851 -1.2069 -0.3024
5.4452 -1.0609 -0.2980
5.7582 -0.9781 -0.3128
5.7749 -0.8379 -0.3117
5.4885 -0.6614 -0.2945
5.5006 -0.5283 -0.2936
5.3735 -0.3853 -0.2854
5.7398 -0.2724 -0.3036
5.6970 -0.1325 -0.3003
5.6548 0.0051 -0.2971
5.6133 0.1408 -0.2942
6.1343 0.3023 -0.3209
7.4100 0.5449 -0.3872
7.0116 0.6863 -0.3661
6.9204 0.8467 -0.3613
6.7954 0.9985 -0.3549
6.6741 1.1461 -0.3490
6.5736 1.2931 -0.3443
2.3625 0.5243 -0.1240
2.3692 0.5862 -0.1247
6.2365 1.7040 -0.3295
6.2885 1.8826 -0.3336
6.3577 2.0720 -0.3390
6.5876 2.3244 -0.3531
6.7063 2.5501 -0.3617
7.0114 2.8619 -0.3808
7.7410 3.3801 -0.4236
11.6146 5.4093 -0.6408
11.9319 5.9120 -0.6643
12.3091 6.4739 -0.6920
12.8768 7.1748 -0.7316
9.8785 5.8213 -0.5677
9.5814 5.9627 -0.5573
9.2355 6.0618 -0.5442
9.0099 6.2303 -0.5383
8.7881 6.3961 -0.5329
8.5204 6.5219 -0.5248
8.3136 6.6882 -0.5207
8.1997 6.9295 -0.5227
8.0900 7.1789 -0.5255
7.9784 7.4321 -0.5286
7.6171 7.4472 -0.5153
7.2117 7.3999 -0.4988
6.9281 7.4613 -0.4905
6.7404 7.6204 -0.4891
6.5301 7.7523 -0.4864
6.3145 7.8749 -0.4835
6.1366 8.0437 -0.4837
6.2428 8.6064 -0.5074
6.3475 9.2109 -0.5329
6.2862 9.6109 -0.5462
6.1157 9.8622 -0.5511
5.8850 10.0231 -0.5511
5.6664 10.2078 -0.5528
5.4544 10.4108 -0.5557
5.7092 11.5688 -0.6091
6.8661 14.8038 -0.7695
6.6416 15.2762 -0.7846
8.2754 20.3659 -1.0342
9.1716 24.2342 -1.2178
8.8706 25.2664 -1.2572
7.0881 21.8653 -1.0782
6.7931 22.8207 -1.1159
6.3858 23.5155 -1.1411
6.5283 26.5616 -1.2800
6.4445 29.2523 -1.4008
6.3735 32.6670 -1.5556
12.5880 73.9862 -3.5061
6.4279 44.2149 -2.0864
5.3697 44.4547 -2.0903
5.9445 61.7000 -2.8928
4.3602 60.5461 -2.8324
2.9760 62.3008 -2.9099
-5.4134 73.9596 -3.4617
-7.1892 73.7118 -3.4583
-7.8407 64.2782 -3.0250
-10.5717 72.1246 -3.4069
-10.4955 61.2531 -2.9061
-11.9877 61.0608 -2.9117
-11.8327 53.4117 -2.5617
-8.5831 34.7455 -1.6772
-9.4405 34.6037 -1.6823
-6.7960 22.7326 -1.1139
-10.9705 33.7070 -1.6657
-12.2482 34.7561 -1.7335
-13.0503 34.3609 -1.7310
-12.9925 31.8675 -1.6227
-13.9367 31.9526 -1.6458
-14.5992 31.3804 -1.6361
-16.1280 32.5844 -1.7211
-16.1089 30.6597 -1.6419
-16.6892 29.9818 -1.6292
-17.4717 29.6771 -1.6377
-18.8916 30.3852 -1.7043
-20.2633 30.9009 -1.7632
-19.5836 28.3465 -1.6469
-20.3431 27.9757 -1.6564
-21.6876 28.3583 -1.7128
-21.7536 27.0639 -1.6691
-18.1854 21.5375 -1.3576
-17.8252 20.1048 -1.2967
-25.4507 27.3452 -1.8066
-25.5550 26.1606 -1.7724
-14.3228 13.9704 -0.9718
-14.5991 13.5673 -0.9702
-18.6405 16.5021 -1.2146
-19.1278 16.1262 -1.2234
-19.6120 15.7398 -1.2326
-14.3871 10.9858 -0.8894
-14.5351 10.5528 -0.8846
-14.5274 10.0203 -0.8713
-14.2619 9.3369 -0.8437
-13.8495 8.5962 -0.8088
-29.0317 17.0621 -1.6751
-16.8921 9.3861 -0.9638
-17.5344 9.1957 -0.9900
-17.8312 8.8088 -0.9971
-9.7717 4.5370 -0.5416
-10.2190 4.4478 -0.5617
-10.6995 4.3526 -0.5838
-11.0900 4.2021 -0.6010
-11.4571 4.0274 -0.6171
-11.8436 3.8444 -0.6344
-12.2516 3.6521 -0.6532
-12.6387 3.4372 -0.6710
-12.9932 3.1986 -0.6875
-13.3646 2.9495 -0.7051
-13.5797 2.6546 -0.7148
-13.7717 2.3482 -0.7237
-13.9217 2.0289 -0.7309
-14.0563 1.7028 -0.7376
-14.1934 1.3723 -0.7449
-14.3600 1.0389 -0.7542
-14.7276 0.7083 -0.7745
-15.1145 0.3612 -0.7964
-15.4540 -0.0042 -0.8163
-15.7588 -0.3852 -0.8350
-15.9312 -0.7750 -0.8472
-11.5647 -0.8431 -0.6176
-11.6413 -1.1321 -0.6246
-16.2741 -1.9806 -0.8779
-16.3367 -2.3901 -0.8865
-12.3949 -2.1205 -0.6770
-16.4015 -3.2158 -0.9022
-16.3470 -3.6174 -0.9061
-16.2932 -4.0208 -0.9106
-16.2399 -4.4266 -0.9157
-17.9452 -5.3605 -1.0215
-23.2188 -7.5516 -1.3351
-20.7293 -7.3004 -1.2047
-20.9304 -7.9448 -1.2303
-21.0904 -8.5943 -1.2546
-20.9792 -9.1462 -1.2638
-20.7901 -9.6683 -1.2691
-18.9186 -9.3605 -1.1711
-17.1585 -9.0122 -1.0778
-16.9584 -9.4369 -1.0817
-16.5405 -9.7352 -1.0722
-16.1344 -10.0289 -1.0636
-15.7383 -10.3182 -1.0559
-18.5952 -12.8443 -1.2707
-15.4633 -11.2426 -1.0772
-13.2818 -10.1561 -0.9440
-14.3857 -11.5617 -1.0441
-13.4387 -11.3471 -0.8015
-13.3150 -11.8056 -0.8129
-12.9099 -12.0161 -0.8075
-14.0234 -13.6997 -0.8996
-33.3978 -34.2431 -2.1998
-31.8334 -34.2578 -2.1553
-30.2781 -34.2059 -2.1097
-28.9080 -34.2937 -2.0756
-27.1830 -33.8760 -2.0138
-26.0751 -34.1548 -1.9961
-24.8569 -34.2444 -1.9692
-23.5319 -34.1245 -1.9324
-22.4021 -34.2277 -1.9103
-21.1570 -34.0962 -1.8768
-20.0556 -34.1361 -1.8547
-18.9570 -34.1289 -1.8316
-17.6993 -33.7620 -1.7909
-17.3984 -35.2337 -1.8486
-17.3722 -37.4334 -1.9439
-14.2088 -32.6619 -1.6798
-13.3946 -32.9452 -1.6791
-12.5157 -33.0514 -1.6704
-11.5654 -32.9234 -1.6510
-10.6753 -32.9128 -1.6385
-9.8344 -33.0195 -1.6329
-8.9369 -32.8921 -1.6167
-8.0860 -32.8819 -1.6073
-7.2715 -32.9889 -1.6044
-6.4246 -32.9119 -1.5936
-5.5923 -32.8522 -1.5844
-4.7707 -32.7995 -1.5765
-3.9980 -33.0833 -1.5856
-3.1980 -33.1778 -1.5864
-2.3905 -33.1808 -1.5836
-1.5794 -33.0544 -1.5754
-0.7791 -33.0449 -1.5737
0.0159 -26.5292 -1.2630
0.6670 -26.9221 -1.2820
1.6173 -33.0164 -1.5733
2.4262 -33.1234 -1.5803
2.6788 -27.4473 -1.3118
3.3330 -27.3056 -1.3080
3.9846 -27.1669 -1.3049
4.5766 -26.6922 -1.2863
5.1412 -26.1706 -1.2660
5.0815 -22.9225 -1.1138
5.6675 -22.9285 -1.1195
6.1266 -22.4426 -1.1018
6.4248 -21.4774 -1.0607
6.7581 -20.7511 -1.0316
7.4409 -21.1015 -1.0566
7.7718 -20.4497 -1.0319
8.6296 -21.1525 -1.0762
9.1364 -20.9334 -1.0746
9.5388 -20.4898 -1.0620
3.0022 -6.0615 -0.3174
13.0817 -24.8814 -1.3171
12.9261 -23.2059 -1.2426
19.4373 -32.9934 -1.7885
19.9491 -32.0639 -1.7608
6.7345 -10.2627 -0.5714
6.8909 -9.9672 -0.5630
7.0494 -9.6873 -0.5556
7.2332 -9.4509 -0.5509
7.4651 -9.2804 -0.5502
7.7105 -9.1248 -0.5507
7.9542 -8.9645 -0.5513
8.1899 -8.7925 -0.5515
9.0720 -9.2794 -0.5943
25.1310 -24.4923 -1.6034
13.6548 -12.6789 -0.8494
4.5032 -3.9831 -0.2734
4.4046 -3.7100 -0.2612
4.2460 -3.4046 -0.2462
4.2300 -3.2269 -0.2401
4.0781 -2.9579 -0.2268
4.9015 -3.3774 -0.2672
4.6334 -3.0302 -0.2478
4.1797 -2.5915 -0.2195
4.5242 -2.6559 -0.2335
4.1042 -2.2778 -0.2084
4.6532 -2.4373 -0.2325
4.3700 -2.1560 -0.2150
4.7188 -2.1879 -0.2288
4.7810 -2.0779 -0.2286
4.8734 -1.9795 -0.2300
4.6330 -1.7527 -0.2159
4.5242 -1.5876 -0.2083
4.3429 -1.4071 -0.1977
5.2615 -1.5653 -0.2370
5.3641 -1.4557 -0.2392
5.4321 -1.3340 -0.2399
5.5534 -1.2224 -0.2431
5.4248 -1.0573 -0.2355
5.9811 -1.0164 -0.2576
5.4692 -0.7939 -0.2338
5.6554 -0.6818 -0.2402
5.2401 -0.5037 -0.2212
5.4560 -0.3916 -0.2291
5.3311 -0.2534 -0.2227
5.7015 -0.1330 -0.2372
5.6593 0.0048 -0.2345
5.6177 0.1405 -0.2321
6.1078 0.3006 -0.2516
7.0441 0.5176 -0.2896
6.9646 0.6812 -0.2859
6.8764 0.8408 -0.2821
6.7528 0.9918 -0.2769
6.6329 1.1386 -0.2721
6.5163 1.2814 -0.2675
2.3624 0.5241 -0.0971
2.3690 0.5860 -0.0976
6.1304 1.6746 -0.2533
6.1587 1.8434 -0.2554
6.2775 2.0454 -0.2614
6.4239 2.2662 -0.2687
6.6443 2.5261 -0.2794
7.0054 2.8589 -0.2964
7.6238 3.3284 -0.3248
11.2689 5.2475 -0.4837
11.5460 5.7199 -0.4997
11.8816 6.2481 -0.5189
10.0954 5.6243 -0.4453
9.7924 5.7698 -0.4365
9.4991 5.9107 -0.4283
9.1982 6.0366 -0.4199
8.9738 6.2046 -0.4150
8.7531 6.3700 -0.4106
8.5139 6.5163 -0.4054
8.3526 6.7189 -0.4041
8.2443 6.9665 -0.4057
8.1343 7.2175 -0.4076
8.0225 7.4724 -0.4098
7.6785 7.5065 -0.4002
7.2680 7.4571 -0.3871
6.8962 7.4263 -0.3757
6.6962 7.5699 -0.3737
6.4804 7.6927 -0.3710
6.2666 7.8145 -0.3686
6.0546 7.9355 -0.3664
6.1419 8.4666 -0.3831
6.2583 9.0808 -0.4030
6.2803 9.6011 -0.4183
6.0842 9.8108 -0.4201
5.8547 9.9707 -0.4199
5.6366 10.1534 -0.4209
5.4255 10.3550 -0.4230
5.4871 11.1179 -0.4478
6.7834 14.6245 -0.5813
6.5449 15.0527 -0.5909
10.2310 25.1770 -0.9769
9.1709 24.2308 -0.9300
8.9053 25.3635 -0.9637
8.2681 25.5038 -0.9600
7.6317 25.6362 -0.9567
6.2058 22.8511 -0.8460
5.7809 23.5192 -0.8645
6.0859 27.6229 -1.0088
6.3240 32.4114 -1.1769
9.3169 54.7570 -1.9783
6.3591 43.7393 -1.5734
5.3151 44.0003 -1.5770
4.5172 46.8834 -1.6753
4.3819 60.8450 -2.1692
2.9116 60.9510 -2.1695
1.5411 65.3668 -2.3246
-6.9218 70.9649 -2.5380
-8.6984 71.3035 -2.5583
-10.3562 70.6486 -2.5446
-10.9042 63.6332 -2.3024
-10.1673 51.7847 -1.8836
-8.5913 38.7771 -1.4189
-9.5300 38.5759 -1.4210
-9.1328 33.4732 -1.2422
-6.7960 22.7312 -0.8504
-11.8594 36.4354 -1.3752
-11.6003 32.9153 -1.2543
-12.8554 33.8451 -1.3031
-13.7814 33.7997 -1.3159
-13.5032 30.9564 -1.2196
-14.0760 30.2533 -1.2070
-14.9863 30.2754 -1.2242
-15.7687 30.0097 -1.2308
-16.3966 29.4539 -1.2264
-16.9502 28.7889 -1.2179
-17.1843 27.6369 -1.1889
-15.5868 23.7674 -1.0407
-16.1355 23.3536 -1.0417
-16.6714 22.9244 -1.0427
-16.9774 22.1974 -1.0305
-17.1597 21.3466 -1.0125
-17.3225 20.5138 -0.9951
-24.4974 27.6277 -1.3721
-25.3358 27.2192 -1.3856
-27.4306 28.0779 -1.4666
-16.0496 15.6532 -0.8400
-15.2315 14.1537 -0.7813
-18.2224 16.1303 -0.9171
-18.6514 15.7230 -0.9221
-18.8657 15.1392 -0.9171
-19.0274 14.5274 -0.9104
-14.2790 10.3657 -0.6731
-13.9836 9.6441 -0.6501
-13.7002 8.9680 -0.6286
-25.0904 15.5713 -1.1374
-17.2180 10.1178 -0.7717
-17.0681 9.4825 -0.7570
-16.4326 8.6166 -0.7218
-15.8608 7.8342 -0.6905
-30.5532 14.1835 -1.3192
-9.9094 4.3123 -0.4247
-10.3638 4.2153 -0.4412
-10.7576 4.0754 -0.4552
-11.1057 3.9031 -0.4674
-11.4715 3.7228 -0.4806
-11.8567 3.5335 -0.4947
-12.2634 3.3343 -0.5100
-12.6749 3.1194 -0.5257
-13.0299 2.8747 -0.5392
-13.3690 2.6125 -0.5524
-13.5559 2.3105 -0.5597
-13.7159 1.9980 -0.5661
-13.8472 1.6765 -0.5717
-13.9808 1.3508 -0.5778
-23.2241 1.6787 -0.9612
-14.4353 0.6933 -0.5987
-14.8070 0.3528 -0.6157
-15.1712 -0.0052 -0.6329
-15.4647 -0.3791 -0.6476
-15.6173 -0.7607 -0.6568
-11.5631 -0.8438 -0.4887
-11.6401 -1.1327 -0.4947
-15.8973 -1.9358 -0.6797
-15.9519 -2.3349 -0.6866
-12.3926 -2.1209 -0.5372
-16.0660 -3.1510 -0.7019
-16.0453 -3.5517 -0.7069
-15.9917 -3.9475 -0.7108
-15.9385 -4.3455 -0.7152
-22.7569 -7.4030 -1.0427
-25.3678 -8.9358 -1.1756
-19.9815 -7.5861 -0.9371
-18.6535 -7.6025 -0.8859
-19.7800 -8.6248 -0.9519
-19.6710 -9.1493 -0.9599
-19.5633 -9.6809 -0.9686
-19.4566 -10.2207 -0.9781
-20.2574 -11.2742 -1.0346
-20.0243 -11.7872 -1.0399
-19.3468 -12.0272 -1.0223
-15.8642 -10.4020 -0.8536
-15.5150 -10.7180 -0.8508
-13.6398 -9.9179 -0.7628
-13.2799 -10.1558 -0.7581
-13.5632 -10.9018 -0.7911
-40.6519 -34.3285 -1.8342
-38.8208 -34.4233 -1.7942
-13.5653 -12.6273 -0.6428
-13.4928 -13.1826 -0.6562
-13.2710 -13.6081 -0.6632
-12.9929 -13.9837 -0.6678
-12.6378 -14.2785 -0.6690
-12.1789 -14.4491 -0.6647
-27.1807 -33.8760 -1.5317
-26.0730 -34.1548 -1.5191
-24.8641 -34.2570 -1.5000
-23.5301 -34.1245 -1.4723
-22.4004 -34.2277 -1.4561
-21.1554 -34.0962 -1.4314
-20.0544 -34.1366 -1.4152
-18.9552 -34.1282 -1.3981
-17.6980 -33.7620 -1.3678
-17.3984 -35.2362 -1.4125
-17.3722 -37.4360 -1.4859
-14.2078 -32.6619 -1.2844
-13.3937 -32.9452 -1.2844
-12.5149 -33.0514 -1.2781
-11.5646 -32.9234 -1.2636
-10.6746 -32.9128 -1.2544
-9.8338 -33.0195 -1.2505
-8.9363 -32.8921 -1.2383
-8.0855 -32.8819 -1.2314
-7.2711 -32.9889 -1.2294
-6.4242 -32.9117 -1.2213
-5.5919 -32.8522 -1.2145
-4.7704 -32.7995 -1.2086
-3.9978 -33.0833 -1.2156
-3.1978 -33.1778 -1.2163
-2.3903 -33.1808 -1.2143
-1.5794 -33.0544 -1.2081
-0.7791 -33.0449 -1.2068
0.0198 -33.1521 -1.2103
0.6387 -25.7830 -0.9414
1.2811 -26.1557 -0.9556
1.9234 -26.2612 -0.9606
2.5644 -26.2778 -0.9628
3.2070 -26.2757 -0.9648
3.8343 -26.1440 -0.9624
4.4557 -25.9888 -0.9597
5.0021 -25.4644 -0.9438
5.1536 -23.2495 -0.8653
5.6074 -22.6870 -0.8483
6.0784 -22.2676 -0.8369
6.3030 -21.0718 -0.7965
6.8814 -21.1311 -0.8038
7.1807 -20.3649 -0.7800
7.9593 -20.9447 -0.8081
8.4220 -20.6452 -0.8029
9.1043 -20.8615 -0.8183
9.5335 -20.4800 -0.8107
3.0018 -6.0611 -0.2423
12.4427 -23.6679 -0.9560
12.9860 -23.3153 -0.9522
39.0829 -66.3454 -2.7416
6.5434 -10.5179 -0.4401
6.6422 -10.1228 -0.4292
6.8424 -9.8979 -0.4255
7.0126 -9.6376 -0.4204
7.2288 -9.4460 -0.4185
7.4480 -9.2600 -0.4170
7.6924 -9.1042 -0.4171
7.9290 -8.9369 -0.4170
8.1638 -8.7653 -0.4168
9.1195 -9.3289 -0.4527
13.8280 -13.4779 -0.6680
12.5552 -11.6591 -0.5908
3.9959 -3.5348 -0.1834
4.4034 -3.7095 -0.1973
4.3128 -3.4584 -0.1888
4.2290 -3.2265 -0.1810
4.1770 -3.0300 -0.1750
4.8518 -3.3435 -0.1991
4.5897 -3.0019 -0.1846
4.2846 -2.6569 -0.1691
4.6567 -2.7340 -0.1805
4.1211 -2.2875 -0.1569
4.0549 -2.1242 -0.1518
4.4314 -2.1867 -0.1632
4.7073 -2.1830 -0.1707
4.7953 -2.0845 -0.1713
4.8881 -1.9858 -0.1721
4.5401 -1.7178 -0.1577
4.4821 -1.5731 -0.1537
5.1774 -1.6778 -0.1753
5.2781 -1.5705 -0.1766
5.3812 -1.4607 -0.1780
5.4020 -1.3270 -0.1768
5.6234 -1.2381 -0.1822
5.5278 -1.0777 -0.1774
5.4362 -0.9241 -0.1729
5.5000 -0.7987 -0.1735
5.6735 -0.6844 -0.1776
5.4287 -0.5221 -0.1687
5.5411 -0.3981 -0.1710
5.4122 -0.2576 -0.1660
5.7060 -0.1335 -0.1740
5.6637 0.0044 -0.1719
5.6221 0.1403 -0.1698
6.0815 0.2989 -0.1830
6.9969 0.5136 -0.2098
6.9183 0.6763 -0.2069
6.8330 0.8350 -0.2039
6.7108 0.9852 -0.1999
6.5922 1.1311 -0.1962
6.4173 1.2615 -0.1909
2.3624 0.5240 -0.0703
2.3688 0.5858 -0.0705
6.0279 1.6462 -0.1798
6.0343 1.8057 -0.1803
6.1758 2.0118 -0.1851
6.2298 2.1973 -0.1873
6.5835 2.5025 -0.1988
6.9714 2.8446 -0.2115
7.5102 3.2783 -0.2291
10.9793 5.1118 -0.3369
11.1941 5.5448 -0.3459
11.4827 6.0375 -0.3576
10.0091 5.5755 -0.3143
9.7148 5.7234 -0.3080
9.4295 5.8667 -0.3020
9.1577 6.0093 -0.2965
8.9352 6.1772 -0.2927
8.7163 6.3425 -0.2892
8.5006 6.5054 -0.2860
8.3979 6.7547 -0.2867
8.2893 7.0038 -0.2875
8.1791 7.2565 -0.2885
8.0670 7.5132 -0.2897
7.7409 7.5668 -0.2834
7.3253 7.5151 -0.2737
6.9340 7.4664 -0.2647
6.6452 7.5115 -0.2596
6.4313 7.6337 -0.2574
6.2193 7.7549 -0.2555
6.0091 7.8752 -0.2537
5.9942 8.2623 -0.2606
6.0499 8.7776 -0.2713
6.2744 9.5913 -0.2908
6.0531 9.7599 -0.2905
5.8247 9.9189 -0.2901
5.6072 10.0997 -0.2906
5.3970 10.2999 -0.2917
5.1840 10.5030 -0.2931
6.7160 14.4782 -0.3984
6.4601 14.8567 -0.4035
6.2036 15.2650 -0.4095
9.1703 24.2274 -0.6426
8.9402 25.4612 -0.6681
8.2887 25.5658 -0.6642
7.6476 25.6878 -0.6613
7.0001 25.7745 -0.6580
5.6095 22.8204 -0.5782
6.0739 27.5666 -0.6937
6.1897 31.7210 -0.7934
5.6073 32.9529 -0.8198
5.3721 36.9483 -0.9150
5.2680 43.6079 -1.0757
4.4300 45.9758 -1.1306
4.4212 61.3874 -1.5059
2.8862 60.4166 -1.4796
1.4827 62.8865 -1.5387
-6.8827 94.0179 -2.3085
-9.2415 94.7401 -2.3325
-11.4803 94.1008 -2.3247
-12.1730 83.0361 -2.0599
-8.4418 49.2600 -1.2280
-9.5457 48.6148 -1.2188
-8.2241 37.1170 -0.9365
-14.5990 59.0902 -1.5016
-12.2817 45.0116 -1.1529
-6.7961 22.7299 -0.5872
-11.2646 34.6055 -0.9025
-12.3429 35.0197 -0.9227
-12.9916 34.2012 -0.9111
-13.9708 34.2616 -0.9235
-15.1655 34.7645 -0.9489
-17.0738 36.6939 -1.0151
-17.7296 35.8146 -1.0049
-21.5467 41.0029 -1.1680
-22.1230 39.7374 -1.1501
-22.8474 38.8020 -1.1421
-25.9729 41.7680 -1.2513
-15.0355 22.9248 -0.6997
-15.3808 22.2594 -0.6928
-15.6891 21.5719 -0.6853
-15.9904 20.9051 -0.6786
-16.2855 20.2573 -0.6725
-26.9313 30.3699 -1.0581
-60.4238 64.9095 -2.3206
-26.6346 27.2605 -1.0012
-19.6562 19.1688 -0.7242
-14.9485 13.8893 -0.5404
-18.2219 16.1282 -0.6471
-17.7313 14.9457 -0.6193
-17.8136 14.2934 -0.6125
-17.8952 13.6614 -0.6064
-17.9763 13.0481 -0.6010
-18.0569 12.4519 -0.5961
-23.8731 15.6252 -0.7789
-16.3405 10.1398 -0.5274
-25.1667 14.7866 -0.8041
-25.7157 14.2849 -0.8142
-31.6872 16.6131 -0.9949
-29.9204 14.7764 -0.9323
-31.2797 14.5185 -0.9680
-9.6182 4.1849 -0.2958
-10.0489 4.0864 -0.3074
-10.4448 3.9561 -0.3181
-10.7756 3.7863 -0.3268
-11.1223 3.6087 -0.3362
-11.4867 3.4225 -0.3463
-11.8707 3.2267 -0.3572
-12.2764 3.0204 -0.3689
-12.7062 2.8024 -0.3815
-13.0673 2.5526 -0.3923
-13.3470 2.2739 -0.4008
-13.5163 1.9680 -0.4063
-13.6444 1.6510 -0.4109
-22.4266 2.1653 -0.6768
-22.3340 1.6128 -0.6759
-21.9471 1.0526 -0.6664
-14.5121 0.3448 -0.4424
-14.8882 -0.0061 -0.4559
-15.1817 -0.3731 -0.4672
-15.3158 -0.7471 -0.4740
-11.5616 -0.8444 -0.3600
-11.6390 -1.1334 -0.3649
-15.5342 -1.8926 -0.4905
-15.5851 -2.2822 -0.4960
-12.3903 -2.1214 -0.3976
-15.6909 -3.0786 -0.5081
-15.7460 -3.4865 -0.5147
-15.7015 -3.8769 -0.5185
-15.6484 -4.2675 -0.5222
-22.6974 -7.9967 -0.7848
-23.2801 -8.8400 -0.8155
-23.4697 -9.5672 -0.8334
-19.0471 -8.3066 -0.6860
-22.8969 -10.6513 -0.8370
-19.8327 -9.8157 -0.7364
-19.9093 -10.4600 -0.7512
-15.4518 -8.6009 -0.5930
-15.5276 -9.1414 -0.6064
-15.3965 -9.5726 -0.6124
-15.2651 -10.0104 -0.6188
-15.0457 -10.3950 -0.6221
-13.6369 -9.9169 -0.5756
-13.2781 -10.1555 -0.5725
-15.6105 -12.5488 -0.6882
-19.9170 -16.8205 -0.6095
-19.8315 -17.5868 -0.6226
-19.4863 -18.1406 -0.6282
-19.1386 -18.7003 -0.6341
-33.3917 -34.2430 -1.1383
-12.3256 -13.2667 -0.4327
-12.0399 -13.6042 -0.4359
-11.7253 -13.9121 -0.4382
-27.1785 -33.8760 -1.0499
-26.0708 -34.1547 -1.0425
-24.8621 -34.2570 -1.0305
-23.5282 -34.1244 -1.0125
-22.3987 -34.2277 -1.0024
-21.1538 -34.0961 -0.9863
-20.0532 -34.1370 -0.9761
-18.9534 -34.1275 -0.9651
-17.6967 -33.7620 -0.9449
-17.3984 -35.2386 -0.9767
-17.3722 -37.4386 -1.0282
-14.2068 -32.6619 -0.8893
-13.3928 -32.9452 -0.8899
-12.5092 -33.0388 -0.8857
-11.5638 -32.9234 -0.8765
-10.6739 -32.9128 -0.8706
-9.8294 -33.0068 -0.8680
-8.9358 -32.8921 -0.8603
-8.0850 -32.8819 -0.8558
-7.2679 -32.9763 -0.8544
-6.4238 -32.9115 -0.8493
-5.5916 -32.8522 -0.8448
-4.7701 -32.7995 -0.8409
-3.9976 -33.0833 -0.8460
-3.1976 -33.1778 -0.8466
-2.3893 -33.1682 -0.8450
-1.5793 -33.0544 -0.8410
-0.7791 -33.0449 -0.8401
0.0197 -33.1395 -0.8422
0.6127 -24.7371 -0.6288
1.2191 -24.8938 -0.6331
1.8239 -24.9048 -0.6340
2.4314 -24.9170 -0.6352
3.0426 -24.9307 -0.6368
3.6583 -24.9458 -0.6387
4.2793 -24.9624 -0.6409
5.5265 -28.1359 -0.7248
5.1760 -23.3524 -0.6038
5.5462 -22.4410 -0.5827
6.0806 -22.2773 -0.5812
6.3208 -21.1330 -0.5542
6.8815 -21.1332 -0.5574
7.3515 -20.8510 -0.5533
7.8961 -20.7801 -0.5552
8.5226 -20.8936 -0.5623
9.0656 -20.7744 -0.5635
9.4933 -20.3953 -0.5578
3.0013 -6.0606 -0.1673
12.0441 -22.9115 -0.6383
34.8756 -62.6211 -1.7625
36.2227 -61.4950 -1.7496
6.4502 -10.3691 -0.2984
6.6094 -10.0737 -0.2934
6.7946 -9.8295 -0.2900
6.9763 -9.5884 -0.2868
7.2177 -9.4324 -0.2862
7.4355 -9.2453 -0.2848
7.6710 -9.0798 -0.2842
7.9039 -8.9095 -0.2836
8.1379 -8.7384 -0.2831
9.1675 -9.3789 -0.3096
12.5165 -12.2008 -0.4108
11.6915 -10.8582 -0.3733
3.9605 -3.5038 -0.1231
4.4023 -3.7090 -0.1334
4.3117 -3.4580 -0.1274
3.9039 -2.9788 -0.1126
5.6557 -4.1030 -0.1595
4.8031 -3.3104 -0.1324
4.0627 -2.6576 -0.1096
4.3949 -2.7256 -0.1161
4.6223 -2.7142 -0.1197
4.1382 -2.2973 -0.1051
4.1083 -2.1525 -0.1024
4.4946 -2.2182 -0.1100
4.6959 -2.1780 -0.1129
4.8096 -2.0911 -0.1137
4.8310 -1.9630 -0.1123
4.4509 -1.6844 -0.1018
4.4408 -1.5590 -0.1001
5.1935 -1.6834 -0.1153
5.2947 -1.5759 -0.1159
5.3696 -1.4579 -0.1160
5.3923 -1.3250 -0.1149
5.4150 -1.1926 -0.1140
5.5968 -1.0916 -0.1164
5.5026 -0.9358 -0.1132
5.4122 -0.7864 -0.1101
5.6917 -0.6870 -0.1146
5.6312 -0.5420 -0.1122
5.1855 -0.3729 -0.1024
5.4956 -0.2619 -0.1075
5.3689 -0.1260 -0.1042
5.6682 0.0040 -0.1092
5.6265 0.1400 -0.1076
6.0554 0.2972 -0.1150
6.9503 0.5097 -0.1312
6.8727 0.6713 -0.1290
6.7901 0.8294 -0.1268
6.6694 0.9787 -0.1240
6.5520 1.1238 -0.1213
6.2961 1.2372 -0.1162
2.3623 0.5238 -0.0435
2.3686 0.5856 -0.0435
5.9289 1.6187 -0.1087
5.9149 1.7695 -0.1083
6.0498 1.9704 -0.1107
6.1522 2.1695 -0.1126
6.5238 2.4794 -0.1196
6.9377 2.8303 -0.1274
7.4071 3.2327 -0.1363
10.7057 4.9837 -0.1976
10.8940 5.3953 -0.2018
11.1227 5.8474 -0.2070
10.0062 5.5731 -0.1873
9.7120 5.7210 -0.1829
9.4269 5.8643 -0.1788
9.1012 5.9715 -0.1740
8.8805 6.1386 -0.1712
8.6633 6.3032 -0.1687
8.4421 6.4599 -0.1662
8.3929 6.7500 -0.1671
8.3348 7.0416 -0.1681
8.2243 7.2960 -0.1682
8.1120 7.5544 -0.1684
7.8042 7.6280 -0.1647
7.3833 7.5740 -0.1586
6.8069 7.3289 -0.1490
6.5943 7.4533 -0.1473
6.3823 7.5749 -0.1457
6.1721 7.6954 -0.1442
6.0007 7.8636 -0.1437
5.8532 8.0673 -0.1440
5.8842 8.5366 -0.1489
5.9765 9.1352 -0.1559
6.0223 9.7095 -0.1624
5.7950 9.8676 -0.1618
5.5781 10.0465 -0.1617
5.3688 10.2453 -0.1620
5.1584 10.4505 -0.1624
5.2461 11.3086 -0.1730
6.4060 14.7312 -0.2220
6.1029 15.0161 -0.2232
7.8231 20.6668 -0.3032
8.2352 23.4520 -0.3399
8.3088 25.6259 -0.3671
6.3707 21.3975 -0.3034
6.9989 25.7684 -0.3619
6.3464 25.8168 -0.3594
5.9823 27.1495 -0.3750
6.2321 31.9362 -0.4381
5.1939 30.5215 -0.4161
5.3250 36.6222 -0.4966
5.1932 42.9864 -0.5804
4.2122 43.7131 -0.5881
4.4342 61.5648 -0.8260
2.9652 62.0676 -0.8312
-0.0378 64.0730 -0.8571
-7.0499 96.2942 -1.2940
-9.2905 95.2343 -1.2839
-11.2304 92.0457 -1.2460
-12.0720 82.3411 -1.1201
-10.9028 63.6156 -0.8704
-15.6769 79.8337 -1.0996
-11.6498 52.5743 -0.7296
-10.1810 41.2049 -0.5766
-10.9519 40.1348 -0.5668
-6.7962 22.7285 -0.3242
-11.3603 34.8968 -0.5033
-11.9372 33.8661 -0.4942
-13.8897 36.5627 -0.5404
-18.5459 45.4781 -0.6814
-14.7320 33.7683 -0.5133
-16.1175 34.6358 -0.5346
-17.2330 34.8086 -0.5461
-18.2792 34.7820 -0.5552
-19.1337 34.3650 -0.5586
-31.4114 53.3420 -0.8838
-30.9989 49.8465 -0.8426
-32.6870 49.8342 -0.8604
-24.1428 34.9369 -0.6166
-24.4159 33.5680 -0.6063
-38.2695 50.0275 -0.9257
-21.7325 27.0304 -0.5129
-26.9297 30.3652 -0.6080
-55.3292 59.4312 -1.2246
-34.4258 35.2314 -0.7480
-19.6552 19.1660 -0.4197
-15.1510 14.0760 -0.3184
-17.1045 15.1376 -0.3542
-18.7699 15.8195 -0.3834
-19.5582 15.6916 -0.3945
-47.6901 36.4032 -0.9509
-21.7281 15.7696 -0.4287
-22.5915 15.5770 -0.4415
-23.2907 15.2422 -0.4512
-23.9813 14.8792 -0.4610
-24.6923 14.5060 -0.4714
-25.2424 14.0200 -0.4790
-30.9552 16.2270 -0.5844
-31.1489 15.3808 -0.5854
-31.1261 14.4448 -0.5828
-38.5064 16.7513 -0.7188
-9.7527 3.9653 -0.1816
-10.1499 3.8437 -0.1887
-10.4646 3.6763 -0.1944
-10.7940 3.5014 -0.2005
-11.1394 3.3182 -0.2070
-11.5026 3.1259 -0.2139
-11.8855 2.9234 -0.2214
-12.2902 2.7098 -0.2294
-12.7190 2.4837 -0.2381
-13.1054 2.2319 -0.2462
-13.3225 1.9389 -0.2512
-13.4477 1.6263 -0.2547
-21.2883 2.0540 -0.4053
-20.9358 1.5105 -0.4008
-20.5973 0.9865 -0.3968
-20.2716 0.4804 -0.3931
-14.5904 -0.0069 -0.2850
-14.9090 -0.3674 -0.2935
-15.0259 -0.7339 -0.2982
-11.5601 -0.8451 -0.2314
-11.6378 -1.1341 -0.2352
-15.1875 -1.8514 -0.3099
-15.2350 -2.2320 -0.3141
-12.3880 -2.1218 -0.2582
-15.3333 -3.0094 -0.3232
-15.1118 -3.3471 -0.3224
-15.4218 -3.8089 -0.3331
-15.3689 -4.1923 -0.3363
-24.2324 -7.8864 -0.5450
-24.0054 -8.4593 -0.5478
-21.2281 -8.0623 -0.4918
-22.0722 -8.9991 -0.5194
-22.6550 -9.8817 -0.5419
-18.2761 -8.5031 -0.4446
-18.8373 -9.3244 -0.4663
-19.0712 -10.0210 -0.4807
-18.8689 -10.5043 -0.4846
-18.3402 -10.7987 -0.4803
-17.6935 -11.0022 -0.4727
-16.9099 -11.0903 -0.4612
-15.5325 -10.7326 -0.4329
-13.6339 -9.9159 -0.3885
-13.2763 -10.1552 -0.3871
-15.6082 -12.5482 -0.4661
-18.8284 -15.9028 -0.3031
-18.7691 -16.6463 -0.3112
-18.7080 -17.4177 -0.3198
-18.4763 -18.0549 -0.3258
-33.3886 -34.2430 -0.6080
-31.7450 -34.1718 -0.5975
-30.2339 -34.1649 -0.5888
-28.7863 -34.1580 -0.5807
-27.1762 -33.8759 -0.5685
-26.0173 -34.0874 -0.5650
-24.7269 -34.0734 -0.5583
-23.5264 -34.1244 -0.5530
-22.2870 -34.0597 -0.5462
-21.1261 -34.0541 -0.5408
-19.9981 -34.0458 -0.5357
-18.9028 -34.0389 -0.5310
-17.6954 -33.7619 -0.5223
-17.3983 -35.2411 -0.5410
-17.3721 -37.4411 -0.5707
-14.2058 -32.6619 -0.4945
-13.3919 -32.9452 -0.4956
-12.4688 -32.9342 -0.4925
-11.5631 -32.9234 -0.4897
-10.6732 -32.9128 -0.4871
-9.7977 -32.9024 -0.4846
-8.9352 -32.8921 -0.4824
-8.0845 -32.8819 -0.4804
-7.2444 -32.8719 -0.4785
-6.4137 -32.8620 -0.4769
-5.5913 -32.8522 -0.4754
-4.7698 -32.7995 -0.4735
-3.9974 -33.0833 -0.4766
-3.1874 -33.0736 -0.4756
-2.3817 -33.0640 -0.4748
-1.5793 -33.0544 -0.4742
-0.7791 -33.0449 -0.4737
0.0196 -33.0354 -0.4734
0.8180 -33.0259 -0.4732
1.5860 -32.3882 -0.4642
2.3138 -31.5974 -0.4531
2.9983 -30.7284 -0.4411
3.6343 -29.7810 -0.4281
4.2678 -29.1043 -0.4190
4.4207 -25.7890 -0.3721
5.4837 -27.9202 -0.4038
6.1586 -27.7876 -0.4029
5.5773 -22.5687 -0.3283
6.1241 -22.4385 -0.3275
6.4412 -21.5370 -0.3156
6.8505 -21.0396 -0.3096
7.4089 -21.0153 -0.3107
7.9233 -20.8531 -0.3098
8.4645 -20.7526 -0.3100
9.2476 -21.1931 -0.3185
9.6602 -20.7555 -0.3139
3.0009 -6.0602 -0.0923
19.6704 -37.4220 -0.5739
31.2377 -56.0936 -0.8670
6.1860 -10.5028 -0.1637
6.3431 -10.1976 -0.1603
6.5770 -10.0251 -0.1591
6.7562 -9.7748 -0.1567
6.9752 -9.5877 -0.1553
7.2067 -9.4189 -0.1543
7.4242 -9.2320 -0.1530
7.6469 -9.0520 -0.1519
7.8791 -8.8822 -0.1511
8.1123 -8.7116 -0.1503
9.2141 -9.4274 -0.1651
11.5753 -11.2844 -0.2007
10.9965 -10.2137 -0.1847
3.9257 -3.4734 -0.0639
4.4012 -3.7084 -0.0696
4.3107 -3.4575 -0.0662
3.9960 -3.0494 -0.0596
5.5569 -4.0319 -0.0806
4.7554 -3.2779 -0.0671
4.1632 -2.7237 -0.0572
4.6914 -2.9098 -0.0628
4.1629 -2.4448 -0.0543
4.1553 -2.3071 -0.0528
4.1632 -2.1816 -0.0516
4.5317 -2.2368 -0.0549
4.6846 -2.1731 -0.0554
4.8240 -2.0977 -0.0557
4.7293 -1.9220 -0.0534
4.5886 -1.7369 -0.0506
5.1103 -1.7944 -0.0551
5.2097 -1.6890 -0.0550
5.3114 -1.5812 -0.0549
5.3500 -1.4529 -0.0541
5.3726 -1.3206 -0.0532
5.3496 -1.1786 -0.0519
5.6674 -1.1057 -0.0539
5.4290 -0.9236 -0.0506
5.4776 -0.7962 -0.0501
5.7099 -0.6896 -0.0512
5.8467 -0.5631 -0.0514
5.3695 -0.3865 -0.0463
5.5817 -0.2664 -0.0473
5.4509 -0.1282 -0.0454
5.6727 0.0036 -0.0464
5.6309 0.1397 -0.0452
6.0295 0.2955 -0.0476
6.9043 0.5059 -0.0536
6.8276 0.6665 -0.0521
6.7479 0.8237 -0.0506
6.6284 0.9722 -0.0489
6.4292 1.1023 -0.0467
6.1794 1.2139 -0.0442
2.3622 0.5236 -0.0166
2.3684 0.5853 -0.0164
5.8311 1.5916 -0.0399
5.8007 1.7350 -0.0391
5.9289 1.9306 -0.0394
6.0658 2.1386 -0.0398
6.4653 2.4566 -0.0418
6.9044 2.8162 -0.0441
7.3757 3.2185 -0.0465
10.4372 4.8579 -0.0651
10.6097 5.2537 -0.0654
10.8045 5.6793 -0.0658
10.0033 5.5707 -0.0603
9.7092 5.7186 -0.0579
9.3979 5.8456 -0.0556
9.0453 5.9341 -0.0530
8.8264 6.1006 -0.0513
8.6110 6.2645 -0.0497
8.3804 6.4120 -0.0480
8.2330 6.6206 -0.0469
8.3061 7.0166 -0.0470
8.2701 7.3358 -0.0466
8.1575 7.5960 -0.0458
7.8685 7.6901 -0.0441
6.9578 7.1368 -0.0390
6.7561 7.2736 -0.0378
6.5443 7.3961 -0.0367
6.3340 7.5170 -0.0356
6.1309 7.6433 -0.0346
5.9965 7.8575 -0.0341
5.8502 8.0625 -0.0335
5.7297 8.3118 -0.0331
5.7860 8.8434 -0.0338
5.9761 9.6343 -0.0355
5.7657 9.8169 -0.0348
5.5493 9.9939 -0.0341
5.3409 10.1914 -0.0336
5.1608 10.4546 -0.0333
5.2234 11.2589 -0.0347
6.3533 14.6090 -0.0437
6.0026 14.7685 -0.0428
5.7143 15.0949 -0.0426
7.2023 20.5092 -0.0563
6.6653 20.5558 -0.0551
6.2141 20.8702 -0.0546
6.9759 25.6819 -0.0657
6.3212 25.7127 -0.0645
5.8754 26.6625 -0.0657
5.8370 29.9101 -0.0725
5.4736 32.1635 -0.0769
4.9297 33.9019 -0.0801
5.1776 42.8549 -0.1002
4.1823 43.4001 -0.1007
4.3877 60.9162 -0.1405
2.9354 61.4427 -0.1412
1.4493 61.4713 -0.1410
-0.0372 62.9613 -0.1445
-6.8159 93.0900 -0.2166
-9.1464 93.7491 -0.2200
-11.3905 93.3503 -0.2215
-11.6409 79.3943 -0.1908
-10.9021 63.6067 -0.1551
-9.9973 50.9069 -0.1262
-11.8308 53.3870 -0.1348
-14.5850 59.0251 -0.1521
-16.0252 58.7221 -0.1547
-6.7963 22.7271 -0.0613
-15.3687 47.2065 -0.1306
-19.5160 55.3634 -0.1574
-13.8890 36.5582 -0.1069
-19.3384 47.4180 -0.1429
-18.8972 43.3124 -0.1347
-20.0837 43.1557 -0.1386
-17.7281 35.8059 -0.1190
-21.5421 40.9876 -0.1411
-18.3480 32.9513 -0.1177
-44.3578 75.3212 -0.2792
-32.4081 52.1083 -0.2008
-31.3594 47.8063 -0.1917
-51.9900 75.2284 -0.3144
-54.6984 75.1953 -0.3277
-21.7255 27.0194 -0.1285
-26.9280 30.3606 -0.1582
-41.0342 44.0722 -0.2408
-41.0440 42.0005 -0.2409
-19.6541 19.1631 -0.1155
-15.2465 14.1634 -0.0898
-15.7932 13.9757 -0.0933
-17.6516 14.8754 -0.1047
-19.2213 15.4196 -0.1146
-46.9717 35.8508 -0.2817
-31.1019 22.5702 -0.1878
-22.0875 15.2277 -0.1343
-22.7364 14.8776 -0.1394
-23.4027 14.5183 -0.1447
-24.0881 14.1491 -0.1503
-24.7863 13.7648 -0.1561
-30.3951 15.9311 -0.1934
-30.4965 15.0564 -0.1962
-30.4671 14.1368 -0.1982
-38.4627 16.7294 -0.2531
-9.4737 3.8511 -0.0631
-9.8714 3.7375 -0.0666
-10.1713 3.5725 -0.0695
-10.4846 3.4003 -0.0726
-10.8126 3.2201 -0.0758
-11.1568 3.0311 -0.0793
-11.5189 2.8325 -0.0831
-11.9007 2.6231 -0.0871
-12.3044 2.4019 -0.0914
-12.7324 2.1675 -0.0960
-13.1248 1.9092 -0.1005
-37.6814 4.5545 -0.2931
-37.6711 3.6321 -0.2977
-37.6607 2.7145 -0.3025
-38.2833 1.8309 -0.3127
-38.2721 0.9043 -0.3179
-38.2609 -0.0208 -0.3233
-14.6461 -0.3619 -0.1259
-14.7264 -0.7203 -0.1289
-11.5585 -0.8457 -0.1030
-11.6367 -1.1347 -0.1056
-14.8560 -1.8120 -0.1373
-14.9005 -2.1840 -0.1403
-12.3858 -2.1223 -0.1189
-14.9917 -2.9434 -0.1467
-15.0386 -3.3319 -0.1501
-15.0864 -3.7271 -0.1536
-15.0993 -4.1198 -0.1569
-15.0463 -4.4987 -0.1596
-23.8086 -7.7501 -0.2579
-23.5861 -8.3132 -0.2610
-23.2706 -8.8397 -0.2632
-22.9037 -9.3398 -0.2649
-22.4723 -9.8037 -0.2658
-22.0278 -10.2502 -0.2666
-17.5519 -8.6895 -0.2174
-17.8166 -9.3631 -0.2260
-18.0297 -10.0385 -0.2343
-17.8171 -10.4920 -0.2374
-17.1991 -10.6961 -0.2350
-18.1032 -11.8744 -0.2538
-15.1790 -10.4895 -0.2185
-13.6310 -9.9149 -0.2016
-13.2744 -10.1549 -0.2018
-15.6058 -12.5476 -0.2440
-40.2876 -34.0311 -0.0640
-38.3410 -34.0079 -0.0678
-36.5014 -33.9871 -0.0712
-34.7558 -33.9663 -0.0744
-17.4778 -17.9266 -0.0408
-31.5154 -33.9277 -0.0801
-30.0054 -33.9097 -0.0826
-28.5601 -33.8924 -0.0850
-27.1739 -33.8759 -0.0872
-25.8409 -33.8590 -0.0892
-24.5582 -33.8437 -0.0911
-23.3208 -33.8290 -0.0928
-22.1251 -33.8147 -0.0945
-20.9674 -33.8009 -0.0960
-19.8449 -33.7876 -0.0974
-18.7547 -33.7746 -0.0987
-17.6941 -33.7619 -0.0999
-17.3983 -35.2435 -0.1055
-17.3721 -37.4436 -0.1133
-14.2048 -32.6619 -0.0998
-13.2713 -32.6508 -0.1006
-12.3566 -32.6399 -0.1014
-11.4590 -32.6292 -0.1021
-10.5771 -32.6186 -0.1027
-9.7095 -32.6083 -0.1032
-8.8548 -32.5981 -0.1037
-8.0118 -32.5881 -0.1042
-7.1792 -32.5781 -0.1046
-6.3560 -32.5683 -0.1049
-5.5410 -32.5586 -0.1051
-4.7696 -32.7995 -0.1062
-3.9617 -32.7898 -0.1063
-3.1590 -32.7803 -0.1064
-2.3605 -32.7708 -0.1065
-1.5652 -32.7613 -0.1065
-0.7722 -32.7518 -0.1064
0.0194 -32.7424 -0.1063
0.7992 -32.2733 -0.1046
1.5421 -31.4935 -0.1019
2.2429 -30.6313 -0.0989
2.9086 -29.8122 -0.0960
3.9896 -32.6951 -0.1049
3.8964 -26.5736 -0.0850
4.9432 -28.8392 -0.0918
5.6346 -28.6910 -0.0909
6.1451 -27.7288 -0.0873
5.5792 -22.5780 -0.0707
5.9695 -21.8737 -0.0680
6.6428 -22.2127 -0.0685
7.0791 -21.7432 -0.0665
7.3948 -20.9769 -0.0636
7.8210 -20.5854 -0.0618
8.4072 -20.6136 -0.0612
9.3677 -21.4699 -0.0630
10.2108 -21.9401 -0.0636
3.0004 -6.0598 -0.0173
19.6671 -37.4186 -0.1054
5.9276 -10.6450 -0.0295
6.1005 -10.3585 -0.0282
6.2933 -10.1184 -0.0270
6.5449 -9.9770 -0.0261
6.7219 -9.7260 -0.0249
6.9750 -9.5882 -0.0239
7.1958 -9.4054 -0.0228
7.4132 -9.2191 -0.0217
7.6288 -9.0314 -0.0206
7.8543 -8.8551 -0.0194
8.0867 -8.6850 -0.0183
11.4563 -11.7227 -0.0236
10.8367 -10.5655 -0.0202
10.4774 -9.7325 -0.0175
3.8915 -3.4435 -0.0058
4.4001 -3.7079 -0.0058
3.7380 -2.9985 -0.0043
4.0926 -3.1235 -0.0040
5.4283 -3.9390 -0.0044
4.7087 -3.2461 -0.0031
4.4634 -2.9205 -0.0022
4.6613 -2.8915 -0.0016
4.6196 -2.7133 -0.0009
4.1726 -2.3170 -0.0002
4.2196 -2.2115 0.0005
4.5051 -2.2240 0.0011
5.0090 -2.3240 0.0020
4.7688 -2.0740 0.0026
4.6317 -1.8827 0.0031
4.5450 -1.7207 0.0037
5.1261 -1.8003 0.0049
5.2260 -1.6947 0.0057
5.3046 -1.5795 0.0065
5.3305 -1.4480 0.0073
5.3383 -1.3125 0.0080
5.3143 -1.1712 0.0087
5.3982 -1.0536 0.0096
5.6402 -0.9600 0.0108
5.5447 -0.8064 0.0114
5.4531 -0.6589 0.0120
5.8515 -0.5640 0.0137
5.5670 -0.4011 0.0138
5.1318 -0.2453 0.0134
5.5354 -0.1306 0.0153
5.6771 0.0033 0.0165
5.6353 0.1395 0.0172
6.0039 0.2939 0.0192
6.8565 0.5019 0.0230
6.7831 0.6617 0.0238
6.7061 0.8182 0.0245
6.5670 0.9628 0.0251
6.3082 1.0811 0.0251
6.0670 1.1914 0.0251
2.3622 0.5234 0.0102
2.3681 0.5851 0.0106
5.7654 1.5733 0.0268
5.7770 1.7275 0.0279
5.8825 1.9151 0.0294
5.9938 2.1128 0.0311
6.4078 2.4343 0.0345
6.8714 2.8023 0.0383
7.3446 3.2044 0.0425
10.1871 4.7408 0.0610
10.3399 5.1193 0.0642
10.5100 5.5237 0.0675
10.0004 5.5683 0.0666
9.7065 5.7162 0.0669
9.3419 5.8100 0.0667
8.9902 5.8973 0.0665
8.7731 6.0630 0.0672
8.5620 6.2281 0.0680
8.3196 6.3648 0.0684
8.0791 6.4962 0.0689
8.1464 6.8810 0.0720
8.2177 7.2886 0.0754
8.2035 7.6381 0.0781
7.1078 6.9460 0.0703
6.9061 7.0831 0.0710
6.7054 7.2183 0.0716
6.4949 7.3397 0.0722
6.2865 7.4600 0.0728
6.1267 7.6374 0.0739
5.9923 7.8514 0.0754
5.8471 8.0576 0.0768
5.6938 8.2591 0.0782
5.6168 8.5842 0.0808
5.7071 9.1999 0.0861
5.7366 9.7667 0.0909
5.5208 9.9419 0.0921
5.3306 10.1710 0.0937
5.1632 10.4587 0.0959
5.2216 11.2542 0.1028
6.2859 14.4531 0.1315
5.9389 14.6108 0.1324
5.6355 14.8857 0.1344
6.9954 19.9187 0.1792
6.5287 20.1334 0.1806
6.1076 20.5113 0.1835
5.9405 21.8688 0.1951
6.3122 25.6744 0.2286
5.8347 26.4764 0.2352
5.6270 28.8322 0.2556
5.4229 31.8636 0.2820
4.8440 33.3103 0.2943
5.1691 42.7822 0.3775
4.1703 43.2734 0.3814
2.0555 28.5367 0.2512
2.8903 60.4967 0.5322
1.4647 62.1224 0.5461
-0.0365 61.5884 0.5412
-12.3042 83.9115 0.7382
-10.9014 63.5978 0.5600
-11.8303 53.3809 0.4711
-14.3369 58.0166 0.5127
-15.6995 57.5243 0.5092
-6.7964 22.7257 0.2015
-15.3676 47.1995 0.4194
-18.8984 53.6072 0.4775
-13.8883 36.5536 0.3264
-22.5773 55.3555 0.4957
-19.9056 45.6202 0.4097
-39.4574 84.7794 0.7639
-17.7273 35.8016 0.3237
-21.5398 40.9800 0.3719
-42.1917 75.7665 0.6905
-44.3790 75.3512 0.6897
-32.4051 52.0992 0.4791
-49.3977 75.2987 0.6959
-52.2934 75.6609 0.7030
-54.7376 75.2429 0.7032
-21.7185 27.0083 0.2556
-26.9263 30.3559 0.2915
-41.0716 44.1083 0.4269
-41.5496 42.5138 0.4149
-19.6531 19.1602 0.1887
-15.2470 14.1624 0.1408
-41.0646 36.3351 0.3650
-16.2853 13.7226 0.1394
-23.7378 19.0407 0.1957
-47.0259 35.8881 0.3735
-49.4205 35.8596 0.3783
-27.1375 18.7070 0.2002
-27.8955 18.2512 0.1984
-57.6530 35.7615 0.3954
-31.1350 18.2860 0.2059
-24.1931 13.4335 0.1542
-29.7387 15.5848 0.1828
-29.8175 14.7189 0.1767
-38.5126 17.8670 0.2200
-17.1548 7.4603 0.0944
-17.0419 6.9264 0.0904
-9.6047 3.6358 0.0490
-9.8940 3.4744 0.0486
-10.1925 3.3048 0.0482
-10.5045 3.1276 0.0478
-10.8313 2.9419 0.0473
-11.1743 2.7470 0.0469
-11.5352 2.5418 0.0465
-11.9160 2.3253 0.0460
-16.7066 2.8429 0.0618
-23.4978 3.4165 0.0832
-38.2791 4.6242 0.1295
-37.6711 3.6296 0.1216
-37.6607 2.7120 0.1159
-38.3197 1.8301 0.1122
-38.3087 0.9026 0.1065
-38.2976 -0.0234 0.1008
-17.3938 -0.4310 0.0433
-38.2756 -1.8747 0.0898
-11.5570 -0.8464 0.0255
-11.6355 -1.1354 0.0240
-14.5388 -1.7743 0.0280
-14.5804 -2.1381 0.0260
-12.3835 -2.1227 0.0204
-14.6651 -2.8803 0.0221
-14.7083 -3.2597 0.0202
-14.7522 -3.6455 0.0182
-14.7968 -4.0383 0.0162
-14.7861 -4.4220 0.0142
-23.3995 -7.6186 0.0192
-23.1253 -8.1524 0.0158
-22.7649 -8.6493 0.0124
-22.4091 -9.1397 0.0091
-22.0495 -9.6208 0.0058
-21.6177 -10.0610 0.0026
-20.8528 -10.3251 -0.0005
-64.1192 -33.7014 -0.0107
-19.6469 -10.9403 -0.0062
-19.1577 -11.2829 -0.0089
-18.4100 -11.4505 -0.0113
-17.4620 -11.4551 -0.0134
-16.5595 -11.4448 -0.0153
-13.6281 -9.9139 -0.0148
-13.2726 -10.1546 -0.0166
-15.6035 -12.5470 -0.0221
-40.6352 -34.3283 0.5249
-38.6720 -34.3049 0.5045
-36.8154 -34.2828 0.4856
-35.0560 -34.2629 0.4682
-33.3825 -34.2429 0.4519
-31.7878 -34.2239 0.4368
-30.2648 -34.2057 0.4228
-28.8070 -34.1884 0.4097
-27.4088 -34.1717 0.3975
-26.0644 -34.1547 0.3861
-24.7707 -34.1392 0.3755
-23.5227 -34.1244 0.3656
-22.3165 -34.1100 0.3564
-21.1489 -34.0961 0.3478
-19.8434 -33.7875 0.3368
-18.7533 -33.7746 0.3294
-17.6928 -33.7619 0.3225
-17.3983 -35.2460 0.3301
-17.3721 -37.4462 0.3442
-14.3319 -32.9564 0.2976
-13.2704 -32.6508 0.2900
-12.3557 -32.6398 0.2854
-11.4582 -32.6291 0.2812
-10.5764 -32.6186 0.2773
-9.7088 -32.6083 0.2738
-8.8542 -32.5981 0.2706
-8.0113 -32.5880 0.2677
-7.1788 -32.5781 0.2651
-6.3556 -32.5683 0.2628
-5.5407 -32.5586 0.2608
-4.7693 -32.7994 0.2611
-3.9615 -32.7898 0.2597
-3.1588 -32.7803 0.2585
-2.3604 -32.7708 0.2576
-1.5651 -32.7613 0.2570
-0.7722 -32.7518 0.2566
0.0194 -32.7424 0.2565
0.8105 -32.7330 0.2567
1.6021 -32.7235 0.2572
2.3952 -32.7141 0.2579
3.1906 -32.7046 0.2588
3.9893 -32.6951 0.2601
4.3149 -29.4301 0.2355
4.9785 -29.0471 0.2341
5.5688 -28.3578 0.2304
5.2261 -23.5837 0.1934
5.5811 -22.5873 0.1871
6.1797 -22.6455 0.1897
6.6645 -22.2870 0.1890
6.7197 -20.6411 0.1774
7.2878 -20.6750 0.1802
7.8511 -20.6663 0.1829
8.3506 -20.4765 0.1842
9.2676 -21.2422 0.1945
9.9616 -21.4062 0.1996
3.0000 -6.0593 0.0576
19.6637 -37.4151 0.3630
5.9079 -10.6105 0.1052
6.0748 -10.3156 0.1046
6.2641 -10.0723 0.1045
6.5082 -9.9219 0.1055
6.7217 -9.7265 0.1062
6.9674 -9.5787 0.1074
7.1849 -9.3919 0.1083
7.4034 -9.2078 0.1093
7.6187 -9.0202 0.1103
7.8309 -8.8295 0.1114
8.0920 -8.6915 0.1133
10.6856 -10.9351 0.1474
10.3009 -10.0440 0.1402
10.0181 -9.3069 0.1348
3.8579 -3.4141 0.0513
4.3990 -3.7074 0.0580
3.8240 -3.0678 0.0500
4.1940 -3.2012 0.0544
4.9399 -3.5851 0.0636
4.6629 -3.2149 0.0597
6.1467 -4.0224 0.0784
4.6316 -2.8735 0.0588
4.5909 -2.6968 0.0581
4.1900 -2.3270 0.0530
4.2775 -2.2421 0.0540
4.4788 -2.2114 0.0565
4.9771 -2.3096 0.0628
4.7044 -2.0464 0.0594
4.5381 -1.8450 0.0574
4.5022 -1.7048 0.0570
5.1350 -1.8038 0.0652
5.1835 -1.6813 0.0661
5.2321 -1.5583 0.0670
5.2809 -1.4349 0.0679
5.3029 -1.3041 0.0685
5.2794 -1.1638 0.0686
5.2563 -1.0263 0.0687
5.7116 -0.9725 0.0752
5.6016 -0.8150 0.0743
5.5193 -0.6673 0.0737
5.4289 -0.5236 0.0731
5.7796 -0.4168 0.0785
5.3117 -0.2542 0.0728
5.6226 -0.1330 0.0779
5.6816 0.0029 0.0795
5.6397 0.1392 0.0797
5.9785 0.2922 0.0855
6.8080 0.4979 0.0985
6.7371 0.6567 0.0986
6.6649 0.8127 0.0988
6.4413 0.9439 0.0967
6.1916 1.0607 0.0942
5.9628 1.1705 0.0920
2.3621 0.5233 0.0370
2.3679 0.5849 0.0376
5.7287 1.5629 0.0924
5.7535 1.7201 0.0943
5.8580 1.9067 0.0976
5.9681 2.1033 0.1011
6.3458 2.4104 0.1094
6.8387 2.7885 0.1200
7.3132 3.1901 0.1307
7.8449 3.6502 0.1429
10.1007 5.0002 0.1876
10.2432 5.3827 0.1941
9.9975 5.5660 0.1933
9.7018 5.7127 0.1916
9.2865 5.7749 0.1875
8.9357 5.8608 0.1845
8.7204 6.0259 0.1843
8.5148 6.1931 0.1843
8.2597 6.3183 0.1832
7.9421 6.3854 0.1807
7.9927 6.7504 0.1866
8.0581 7.1463 0.1933
8.1274 7.5665 0.2005
7.0551 6.8939 0.1791
6.8551 7.0303 0.1793
6.6550 7.1634 0.1795
6.4464 7.2842 0.1794
6.2544 7.4213 0.1799
6.1224 7.6315 0.1823
5.9881 7.8452 0.1847
5.8441 8.0528 0.1871
5.6908 8.2541 0.1893
5.5352 8.4587 0.1917
5.5267 8.9085 0.1996
5.6241 9.5745 0.2122
5.4955 9.8956 0.2171
5.3330 10.1749 0.2211
5.1656 10.4627 0.2253
5.1996 11.2060 0.2393
2.4049 5.5292 0.1171
2.2147 5.4482 0.1146
2.0920 5.5255 0.1154
5.9772 17.0183 0.3531
6.4443 19.8716 0.4098
6.0491 20.3136 0.4166
5.7922 21.3215 0.4351
6.3104 25.6654 0.5214
5.7946 26.2928 0.5320
5.4531 27.9393 0.5632
5.3731 31.5691 0.6343
4.7917 32.9487 0.6602
4.3049 35.6276 0.7121
4.1571 43.1348 0.8605
2.0556 28.5367 0.5684
3.3488 70.0903 1.3943
1.4357 60.8944 1.2105
-4.4110 90.0726 1.7908
-4.1360 42.3863 0.8445
-5.1714 42.3753 0.8457
-6.2125 42.3643 0.8473
-10.9007 63.5888 1.2750
-11.8299 53.3748 1.0770
-21.6940 87.7817 1.7780
-22.5431 82.5940 1.6801
-6.7965 22.7243 0.4644
-15.3664 47.1925 0.9695
-22.6147 64.1441 1.3252
-13.8877 36.5491 0.7597
-22.5763 55.3488 1.1582
-38.8082 88.9349 1.8742
-39.4247 84.7025 1.7987
-17.7265 35.7972 0.7664
-21.5374 40.9723 0.8849
-41.9777 75.3763 1.6432
-44.3826 75.3512 1.6590
-32.4021 52.0901 1.1590
-44.2979 67.5193 1.5191
-46.6609 67.5059 1.5368
-49.1033 67.4921 1.5558
-51.6320 67.4779 1.5762
-21.7115 26.9972 0.6395
-32.5068 38.4781 0.9250
-26.9246 30.3512 0.7411
-34.3338 36.8689 0.9152
-41.5496 42.5097 1.0737
-19.6521 19.1574 0.4928
-15.2474 14.1614 0.3714
-41.0646 36.3313 0.9727
-42.6567 35.9402 0.9833
-23.7360 19.0372 0.5329
-6.5421 4.9921 0.1432
-49.4261 35.8595 1.0551
-51.9820 35.8291 1.0832
-54.7603 35.8236 1.1147
-57.6602 35.7615 1.1474
-31.1326 18.2822 0.6060
-38.5621 21.4090 0.7347
-38.5452 20.1969 0.7192
-38.9183 19.2084 0.7116
-38.5125 17.8641 0.6905
-17.1492 7.4566 0.3016
-17.0404 6.9246 0.2942
-9.3364 3.5336 0.1583
-9.6314 3.3815 0.1605
-9.9163 3.2146 0.1624
-37.3070 11.1051 0.6011
-37.2954 10.1273 0.5913
-37.2839 9.1628 0.5820
-28.0422 6.1771 0.4312
-16.6723 3.2523 0.2526
-16.7052 2.8415 0.2496
-23.4939 3.4143 0.3463
-38.2791 4.6216 0.5568
-37.6711 3.6270 0.5410
-37.6606 2.7095 0.5343
-38.3197 1.8275 0.5373
-38.3086 0.9000 0.5311
-38.2976 -0.0259 0.5252
-17.3869 -0.4320 0.2360
-38.6695 -1.8966 0.5197
-11.5554 -0.8471 0.1539
-11.6344 -1.1361 0.1535
-38.2423 -4.6696 0.5005
-22.4598 -3.2950 0.2916
-12.3812 -2.1232 0.1596
-38.6018 -7.5841 0.4942
-38.1970 -8.4681 0.4859
-38.1854 -9.4390 0.4830
-14.4732 -3.9510 0.1821
-14.5145 -4.3417 0.1818
-22.9842 -7.4850 0.2867
-22.6301 -7.9794 0.2814
-22.2807 -8.4669 0.2762
-21.9353 -8.9480 0.2714
-21.5936 -9.4234 0.2668
-21.2226 -9.8786 0.2620
-67.8409 -33.5961 0.8375
-62.9152 -33.0732 0.7772
-19.3591 -10.7816 0.2395
-18.6947 -11.0116 0.2318
-17.7128 -11.0182 0.2203
-16.8028 -11.0240 0.2098
-15.8459 -10.9529 0.1988
-13.6252 -9.9128 0.1719
-13.2708 -10.1543 0.1686
-15.6012 -12.5465 0.1997
-40.6311 -34.3282 1.1144
-38.6386 -34.2787 1.0766
-36.8118 -34.2827 1.0432
-35.0527 -34.2628 1.0115
-33.3794 -34.2429 0.9820
-31.7849 -34.2239 0.9545
-30.2621 -34.2057 0.9290
-28.7826 -34.1623 0.9045
-27.4066 -34.1717 0.8830
-26.0623 -34.1546 0.8623
-24.7687 -34.1392 0.8430
-23.5208 -34.1244 0.8250
-22.3148 -34.1100 0.8082
-21.1473 -34.0961 0.7925
-20.0152 -34.0826 0.7778
-18.9012 -34.0435 0.7636
-17.8461 -34.0567 0.7515
-17.3983 -35.2484 0.7658
-17.3720 -37.4488 0.8017
-14.3309 -32.9564 0.6959
-13.3891 -32.9452 0.6867
-12.4663 -32.9342 0.6783
-11.5608 -32.9234 0.6705
-10.6711 -32.9128 0.6633
-9.7958 -32.9023 0.6568
-8.9335 -32.8921 0.6508
-8.0830 -32.8819 0.6454
-7.2421 -32.8676 0.6405
-6.4075 -32.8361 0.6358
-5.5903 -32.8522 0.6325
-4.8943 -33.6609 0.6450
-3.9967 -33.0832 0.6314
-3.1869 -33.0736 0.6291
-2.3814 -33.0640 0.6273
-1.5791 -33.0544 0.6261
-0.7791 -33.0449 0.6253
0.0195 -33.0354 0.6250
0.8176 -33.0259 0.6252
1.6163 -33.0164 0.6258
2.4164 -33.0068 0.6270
3.2115 -32.9221 0.6272
4.0247 -32.9877 0.6307
4.3163 -29.4415 0.5654
5.0142 -29.2580 0.5648
5.5238 -28.1308 0.5463
5.2094 -23.5102 0.4597
5.8673 -23.7476 0.4679
6.2079 -22.7505 0.4520
6.5941 -22.0534 0.4422
6.9708 -21.4139 0.4336
7.2635 -20.6075 0.4218
7.9128 -20.8302 0.4314
8.4972 -20.8375 0.4369
9.3691 -21.4765 0.4563
10.2904 -22.1145 0.4765
2.9995 -6.0589 0.1325
19.3142 -36.7529 0.8168
5.8884 -10.5763 0.2390
6.0546 -10.2821 0.2365
6.2530 -10.0552 0.2356
6.4697 -9.8640 0.2357
6.7215 -9.7270 0.2372
6.9568 -9.5649 0.2383
7.1740 -9.3785 0.2390
7.3937 -9.1965 0.2399
7.6085 -9.0090 0.2409
7.8204 -8.8185 0.2419
8.1666 -8.7725 0.2472
10.1183 -10.3556 0.3001
9.8390 -9.5946 0.2863
9.6275 -8.9449 0.2752
3.8249 -3.3853 0.1075
3.5799 -3.0173 0.0991
3.9141 -3.1405 0.1068
4.2241 -3.2246 0.1137
4.5665 -3.3144 0.1214
4.5266 -3.1213 0.1189
4.4887 -2.9377 0.1167
4.6023 -2.8557 0.1185
4.5625 -2.6805 0.1164
4.2076 -2.3371 0.1065
4.3371 -2.2737 0.1090
4.4528 -2.1989 0.1112
4.9063 -2.2771 0.1218
4.6418 -2.0195 0.1147
4.6563 -1.8933 0.1146
5.0182 -1.9005 0.1231
5.0660 -1.7799 0.1239
5.1138 -1.6590 0.1248
5.1616 -1.5377 0.1258
5.2096 -1.4159 0.1268
5.2577 -1.2934 0.1279
5.2450 -1.1566 0.1277
5.2224 -1.0200 0.1273
5.3817 -0.9167 0.1313
5.6194 -0.8180 0.1374
5.5873 -0.6759 0.1370
5.4944 -0.5303 0.1352
5.4051 -0.3901 0.1335
5.5046 -0.2638 0.1366
5.7127 -0.1355 0.1425
5.6861 0.0025 0.1426
5.6441 0.1389 0.1424
5.9533 0.2906 0.1512
6.7601 0.4940 0.1729
6.6902 0.6517 0.1725
6.5666 0.8003 0.1707
6.3139 0.9248 0.1656
6.0781 1.0409 0.1609
5.8646 1.1509 0.1568
2.3621 0.5231 0.0638
2.3677 0.5847 0.0647
5.6925 1.5526 0.1573
5.7302 1.7127 0.1602
5.8336 1.8983 0.1652
5.9421 2.0937 0.1705
6.1714 2.3437 0.1796
6.8063 2.7748 0.2009
7.2770 3.1738 0.2181
7.7659 3.6129 0.2364
9.8799 4.8902 0.3057
10.0134 5.2613 0.3151
9.9946 5.5636 0.3201
9.6429 5.6773 0.3145
9.2318 5.7402 0.3069
8.8819 5.8248 0.3012
8.6695 5.9901 0.3000
8.4682 6.1585 0.2993
8.2006 6.2724 0.2963
7.8864 6.3400 0.2916
7.8446 6.6247 0.2970
7.9045 7.0094 0.3067
7.2033 6.7055 0.2868
7.0032 6.8425 0.2863
6.8049 6.9781 0.2860
6.6053 7.1093 0.2857
6.3985 7.2295 0.2852
6.2502 7.4155 0.2873
6.1182 7.6256 0.2905
5.9840 7.8391 0.2939
5.8410 8.0479 0.2972
5.6878 8.2491 0.3003
5.5322 8.4535 0.3036
5.3479 8.6197 0.3056
5.3578 9.1205 0.3194
5.4980 9.8993 0.3427
5.3355 10.1787 0.3486
5.1763 10.4837 0.3554
5.1777 11.1582 0.3747
2.4051 5.5292 0.1840
2.2146 5.4475 0.1797
2.0921 5.5255 0.1809
5.9109 16.8283 0.5469
6.3840 19.6845 0.6354
5.9917 20.1195 0.6454
5.6150 20.6681 0.6593
6.3122 25.6713 0.8147
5.7305 26.0001 0.8213
5.2756 27.0283 0.8502
5.3461 31.4089 0.9844
4.7643 32.7585 1.0234
4.2712 35.3471 1.1013
4.1395 42.9492 1.3352
4.6450 64.4807 2.0011
3.3766 70.6711 2.1904
1.7504 74.2421 2.2993
-0.0463 77.6018 2.4025
-1.9221 77.5906 2.4025
-3.7977 77.5430 2.4025
-5.6729 77.4590 2.4025
-4.1366 42.3891 1.3168
-5.1722 42.3781 1.3192
-6.2134 42.3671 1.3221
-10.9000 63.5799 1.9901
-14.5244 73.9424 2.3225
-11.8294 53.3687 1.6830
-18.0415 72.9968 2.3123
-19.3955 71.0562 2.2621
-6.7966 22.7229 0.7274
-15.3653 47.1855 1.5196
-22.6137 64.1366 2.0791
-13.8870 36.5446 1.1931
-22.5753 55.3421 1.8208
-29.4127 67.3985 2.2358
-31.4516 67.5675 2.2613
-17.7257 35.7929 1.2092
-21.5351 40.9647 1.3979
-28.4958 51.1638 1.7648
-28.9637 49.1696 1.7153
-29.5894 47.5644 1.6794
-24.5292 37.3846 1.3369
-24.6756 35.6960 1.2938
-25.3620 34.8569 1.2815
-26.1122 34.1231 1.2735
-21.7046 26.9862 1.0232
-27.6687 32.7484 1.2626
-26.9229 30.3466 1.1908
-30.3860 32.6266 1.3042
-34.0363 34.8195 1.4194
-19.6511 19.1545 0.7971
-15.2479 14.1604 0.6021
-41.0646 36.3276 1.5805
-42.6612 35.9401 1.6018
-23.7342 19.0337 0.8701
-6.5473 4.9955 0.2346
-6.8761 4.9881 0.2410
-51.9881 35.8290 1.7833
-54.7255 35.7964 1.8390
-57.6675 35.7614 1.8998
-31.1303 18.2783 1.0062
-38.5620 21.4060 1.2236
-38.5451 20.1940 1.2016
-38.9183 19.2055 1.1927
-38.5125 17.8612 1.1611
-17.1436 7.4529 0.5088
-17.0390 6.9228 0.4981
-38.8626 14.7057 1.1196
-37.0840 13.0173 1.0536
-37.3188 12.0950 1.0462
-37.3070 11.1025 1.0326
-37.2954 10.1247 1.0197
-37.2839 9.1603 1.0076
-27.9822 6.1620 0.7479
-16.6693 3.2506 0.4409
-16.7039 2.8402 0.4374
-23.4899 3.4122 0.6094
-38.2791 4.6190 0.9842
-37.6711 3.6245 0.9606
-37.6606 2.7070 0.9529
-38.3197 1.8250 0.9626
-38.3086 0.8975 0.9559
-38.2976 -0.0285 0.9498
-17.3835 -0.4331 0.4287
-38.6695 -1.8992 0.9489
-11.5539 -0.8477 0.2823
-11.6332 -1.1367 0.2831
-38.2422 -4.6721 0.9275
-22.4574 -3.2962 0.5432
-12.3789 -2.1236 0.2988
-38.6017 -7.5867 0.9302
-38.1970 -8.4707 0.9196
-38.1854 -9.4416 0.9190
-32.3338 -8.8290 0.7784
-95.4290 -28.5525 2.2994
-85.1915 -32.3796 2.0665
-78.4686 -32.0150 1.9103
-65.5309 -28.6023 1.6022
-71.2711 -33.1803 1.7513
-49.4970 -24.5155 1.2233
-47.1516 -24.7902 1.1730
-47.1158 -26.2435 1.1807
-56.5565 -33.3175 1.4288
-17.0447 -10.6039 0.4345
-16.1914 -10.6242 0.4168
-49.4482 -34.1832 1.2867
-13.6222 -9.9118 0.3586
-13.2690 -10.1540 0.3538
-15.5988 -12.5459 0.4216
-40.6269 -34.3282 1.7042
-38.6348 -34.2786 1.6493
-36.8082 -34.2827 1.6009
-35.0494 -34.2628 1.5549
-33.3763 -34.2428 1.5122
-31.7821 -34.2238 1.4724
-30.2595 -34.2057 1.4354
-28.7801 -34.1623 1.3998
-27.4043 -34.1716 1.3687
-26.0601 -34.1546 1.3387
-24.7667 -34.1392 1.3107
-23.5189 -34.1243 1.2845
-22.3131 -34.1100 1.2601
-21.1457 -34.0961 1.2373
-20.0137 -34.0826 1.2161
-18.8999 -34.0435 1.1954
-17.8448 -34.0567 1.1778
-17.3982 -35.2508 1.2017
-17.3720 -37.4513 1.2596
-14.3299 -32.9564 1.0944
-13.3882 -32.9452 1.0811
-12.4654 -32.9342 1.0687
-11.5600 -32.9234 1.0574
-10.6704 -32.9128 1.0469
-9.7951 -32.9023 1.0374
-8.9329 -32.8920 1.0287
-8.0825 -32.8819 1.0209
-7.2416 -32.8671 1.0137
-6.4071 -32.8361 1.0068
-5.5900 -32.8522 1.0021
-4.8942 -33.6626 1.0222
-3.9965 -33.0832 1.0009
-3.1868 -33.0736 0.9975
-2.3813 -33.0640 0.9949
-1.5790 -33.0544 0.9930
-0.7791 -33.0449 0.9918
