ply
format ascii 1.0
element vertex 2179
property float32 x
property float32 y
property float32 z
end_header
5.6095 -2.7749 1.7131
5.6276 -2.6167 1.6993
5.6358 -2.4567 1.6839
5.6440 -2.2997 1.6698
5.6125 -2.1303 1.6452
5.6072 -1.9747 1.6297
5.5946 -1.8196 1.6133
5.5823 -1.6676 1.5981
5.5678 -1.5178 1.5835
5.5761 -1.3762 1.5764
5.5899 -1.2371 1.5719
5.6033 -1.0988 1.5682
5.6163 -0.9611 1.5654
5.6542 -0.8275 1.5704
5.7177 -0.6962 1.5834
5.7822 -0.5626 1.5976
5.8860 -0.4294 1.6234
6.1542 -0.2997 1.6955
6.7969 -0.1666 1.8714
7.0029 -0.0024 1.9282
7.0726 0.1686 1.9486
7.1830 0.3450 1.9813
7.0781 0.5117 1.9559
6.9644 0.6730 1.9290
6.8566 0.8302 1.9047
6.7779 0.9874 1.8895
6.7456 1.1498 1.8883
6.7192 1.3132 1.8899
6.7215 1.4831 1.9006
6.7559 1.6629 1.9218
6.8534 1.8637 1.9624
7.3378 2.1872 2.1162
7.2184 2.3430 2.0982
6.7566 2.3751 1.9806
7.5685 2.8679 2.2390
7.5669 3.0785 2.2606
7.5645 3.2928 2.2836
7.5611 3.5111 2.3082
7.5533 3.7320 2.3334
7.5083 3.9384 2.3489
7.4618 4.1470 2.3657
7.4136 4.3581 2.3838
7.3318 4.5520 2.3928
7.1370 4.6738 2.3661
6.9452 4.7921 2.3408
6.7561 4.9069 2.3170
6.6024 5.0434 2.3061
6.4492 5.1781 2.2962
6.2936 5.3084 2.2864
3.0988 2.7447 1.1498
2.9806 2.7714 1.1308
2.9806 2.9090 1.1574
5.7800 5.9206 2.2999
5.6339 6.0573 2.2999
5.4846 6.1904 2.2999
5.3322 6.3199 2.2999
5.1764 6.4453 2.2997
5.0181 6.5672 2.2997
4.8569 6.6854 2.2997
4.6929 6.7996 2.2997
4.5263 6.9099 2.2997
4.3571 7.0161 2.2997
4.1855 7.1182 2.2997
4.0115 7.2162 2.2997
3.8352 7.3100 2.2997
3.6567 7.3995 2.2997
3.4762 7.4847 2.2997
3.2938 7.5656 2.2997
3.1094 7.6421 2.2997
2.9234 7.7141 2.2997
2.7356 7.7817 2.2997
2.5464 7.8447 2.2997
2.3557 7.9033 2.2997
2.1636 7.9572 2.2997
1.9849 8.0654 2.3166
1.8558 8.4127 2.4030
1.6517 8.4546 2.4030
1.4466 8.4915 2.4030
1.2407 8.5236 2.4030
1.0342 8.5507 2.4030
0.8270 8.5729 2.4030
0.6194 8.5901 2.4030
0.4115 8.6024 2.4030
0.2033 8.6097 2.4030
-0.0050 8.6120 2.4030
-0.2133 8.6094 2.4030
-0.4215 8.6018 2.4030
-0.6294 8.5892 2.4030
-0.8370 8.5717 2.4030
-1.0441 8.5492 2.4030
-1.2506 8.5217 2.4030
-1.4564 8.4894 2.4030
-1.6614 8.4521 2.4030
-1.8655 8.4100 2.4030
-2.0685 8.3630 2.4030
-2.2703 8.3111 2.4030
-2.4708 8.2545 2.4030
-2.6700 8.1931 2.4030
-2.8676 8.1269 2.4030
-3.0637 8.0560 2.4030
-3.2580 7.9804 2.4030
-3.4504 7.9002 2.4030
-3.6410 7.8155 2.4030
-3.8294 7.7262 2.4030
-4.0157 7.6324 2.4030
-4.1997 7.5341 2.4030
-3.8698 6.5638 2.1224
-3.6759 5.9038 1.9369
-3.7556 5.7187 1.9051
-3.8437 5.5552 1.8807
-3.8362 5.2675 1.8139
-3.8292 4.9993 1.7526
-3.8227 4.7483 1.6962
-3.8166 4.5128 1.6442
-3.8109 4.2911 1.5962
-3.8054 4.0818 1.5518
-3.8003 3.8836 1.5107
-3.7954 3.6955 1.4724
-3.7908 3.5164 1.4369
-3.7863 3.3457 1.4038
-3.7821 3.1825 1.3730
-3.7780 3.0261 1.3442
-3.7741 2.8760 1.3174
-3.7704 2.7316 1.2923
-3.7668 2.5925 1.2689
-3.7633 2.4582 1.2470
-3.7599 2.3282 1.2265
-3.7567 2.2024 1.2074
-3.8953 2.1589 1.2345
-4.1170 2.1534 1.2875
-4.3590 2.1473 1.3462
-4.6243 2.1407 1.4113
-4.9170 2.1335 1.4840
-5.2419 2.1254 1.5657
-5.6051 2.1163 1.6579
-7.8467 2.7479 2.2999
-7.9132 2.5582 2.2999
-7.9751 2.3669 2.2999
-8.0324 2.1741 2.2999
-8.0851 1.9800 2.2999
-8.1331 1.7845 2.2999
-8.1764 1.5879 2.2999
-8.2150 1.3903 2.2999
-8.2488 1.1917 2.2999
-8.2778 0.9924 2.2999
-8.3020 0.7923 2.2999
-8.3213 0.5916 2.2999
-8.3359 0.3905 2.2999
-8.3455 0.1890 2.2999
-8.3503 -0.0127 2.2999
-8.3502 -0.2146 2.2999
-8.3453 -0.4164 2.2999
-8.3354 -0.6181 2.2999
-8.3207 -0.8196 2.2999
-8.3011 -1.0207 2.2999
-8.2767 -1.2214 2.2999
-8.2474 -1.4214 2.2999
-8.2132 -1.6208 2.2999
-8.1742 -1.8193 2.2999
-8.1304 -2.0169 2.2999
-8.0818 -2.2134 2.2999
-8.0285 -2.4088 2.2999
-7.9704 -2.6028 2.2999
-7.9076 -2.7954 2.2999
-7.8401 -2.9865 2.2999
-7.7680 -3.1760 2.2999
-7.6913 -3.3637 2.2999
-7.6101 -3.5495 2.2999
-7.5243 -3.7334 2.2999
-7.4341 -3.9152 2.2999
-7.3394 -4.0948 2.2999
-7.2404 -4.2720 2.2999
-7.1371 -4.4469 2.2999
-7.0295 -4.6192 2.2999
-6.9178 -4.7889 2.2999
-6.8019 -4.9559 2.2999
-6.6820 -5.1201 2.2999
-6.5580 -5.2813 2.2999
-6.1822 -5.2300 2.3080
-6.0343 -5.3602 2.2999
-6.0444 -5.6361 2.3544
-6.0298 -5.9011 2.4030
-5.8871 -6.0465 2.4031
-5.7409 -6.1886 2.4032
-5.5913 -6.3271 2.4034
-5.4384 -6.4620 2.4035
-5.2821 -6.5932 2.4037
-5.1227 -6.7205 2.4038
-4.9601 -6.8439 2.4039
-4.7946 -6.9633 2.4041
-4.6262 -7.0787 2.4042
-4.4549 -7.1900 2.4043
-4.2810 -7.2970 2.4045
-4.1044 -7.3999 2.4046
-3.9254 -7.4984 2.4048
-3.7440 -7.5925 2.4049
-3.5603 -7.6822 2.4050
-3.3744 -7.7674 2.4052
-3.1865 -7.8480 2.4053
-2.9966 -7.9241 2.4055
-2.8049 -7.9955 2.4056
-2.6115 -8.0622 2.4058
-2.4165 -8.1242 2.4059
-2.2200 -8.1814 2.4061
-2.0219 -8.2329 2.4060
-1.8226 -8.2794 2.4058
-1.6222 -8.3210 2.4056
-1.4209 -8.3577 2.4055
-1.2187 -8.3894 2.4053
-1.0158 -8.4162 2.4052
-0.8123 -8.4381 2.4050
-0.6083 -8.4549 2.4049
-0.4040 -8.4668 2.4047
-0.1995 -8.4737 2.4046
0.0051 -8.4755 2.4044
0.2097 -8.4724 2.4042
0.4142 -8.4643 2.4041
0.6183 -8.4512 2.4039
0.8221 -8.4331 2.4038
1.0253 -8.4100 2.4037
1.2279 -8.3820 2.4035
1.4298 -8.3490 2.4034
1.6307 -8.3111 2.4032
1.8307 -8.2683 2.4031
2.0295 -8.2209 2.4030
2.1661 -7.9447 2.3370
2.3196 -7.7641 2.2999
2.5062 -7.7051 2.2999
2.6912 -7.6417 2.2999
2.8746 -7.5737 2.2999
3.0563 -7.5013 2.2999
3.2361 -7.4244 2.2999
3.4140 -7.3432 2.2999
3.5898 -7.2577 2.2999
3.7634 -7.1679 2.2999
3.9348 -7.0740 2.2999
4.1038 -6.9758 2.2999
4.2704 -6.8736 2.2999
4.4344 -6.7674 2.2999
4.5957 -6.6573 2.2999
4.7543 -6.5432 2.2999
4.9100 -6.4253 2.2999
5.0627 -6.3037 2.2999
5.2124 -6.1784 2.2999
5.3590 -6.0496 2.2999
5.5024 -5.9172 2.2999
5.6425 -5.7814 2.2999
5.7792 -5.6422 2.2999
5.9124 -5.4998 2.2999
6.0421 -5.3542 2.2999
6.1195 -5.1644 2.2818
6.1832 -4.9675 2.2606
6.2430 -4.7721 2.2402
6.3005 -4.5793 2.2211
5.8289 -4.0251 2.0205
5.6659 -3.7137 1.9328
5.6351 -3.5019 1.8934
5.5864 -3.2873 1.8502
5.5753 -3.1020 1.8217
5.5790 -2.9299 1.7997
5.5922 -2.7667 1.7824
5.6123 -2.6098 1.7687
5.6335 -2.4560 1.7567
5.6473 -2.3013 1.7436
5.6144 -2.1312 1.7176
5.6037 -1.9737 1.6997
5.5912 -1.8187 1.6826
5.5701 -1.6642 1.6641
5.5545 -1.5143 1.6485
5.5604 -1.3725 1.6404
5.5660 -1.2321 1.6333
5.5760 -1.0937 1.6285
5.5890 -0.9566 1.6256
5.6381 -0.8254 1.6341
5.7013 -0.6944 1.6476
5.7654 -0.5612 1.6622
5.8566 -0.4275 1.6855
6.1581 -0.3002 1.7702
6.7508 -0.1657 1.9395
6.8952 -0.0026 1.9810
7.0009 0.1666 2.0126
7.1089 0.3412 2.0460
7.2196 0.5216 2.0815
7.0101 0.6771 2.0259
6.8878 0.8337 1.9964
6.8027 0.9908 1.9787
6.7655 1.1530 1.9760
6.7486 1.3187 1.9804
6.7655 1.4926 1.9960
6.8027 1.6742 2.0189
6.9066 1.8779 2.0632
7.3396 2.1875 2.2084
7.2505 2.3531 2.1987
7.5087 2.6392 2.2963
7.5075 2.8445 2.3170
7.5054 3.0531 2.3391
7.5023 3.2654 2.3627
7.4984 3.4816 2.3880
7.4834 3.6971 2.4116
7.4384 3.9014 2.4275
7.3846 4.1038 2.4423
7.2877 4.2838 2.4444
7.1873 4.4620 2.4469
7.0376 4.6084 2.4338
6.8495 4.7257 2.4082
6.6668 4.8416 2.3850
6.5158 4.9770 2.3739
6.3646 5.1098 2.3637
6.2090 5.2368 2.3529
3.0983 2.7440 1.1992
2.9803 2.7710 1.1794
2.9799 2.9080 1.2069
5.5415 5.6759 2.2999
5.4015 5.8070 2.2999
5.2584 5.9347 2.2999
5.1123 6.0589 2.2999
4.9632 6.1795 2.2999
4.8114 6.2965 2.2999
4.6566 6.4094 2.2997
4.4995 6.5190 2.2997
4.3397 6.6247 2.2997
4.1776 6.7266 2.2997
4.0130 6.8246 2.2997
3.8462 6.9186 2.2997
3.6772 7.0085 2.2997
3.5061 7.0944 2.2997
3.3331 7.1762 2.2997
3.1581 7.2537 2.2997
2.9814 7.3271 2.2997
2.8030 7.3962 2.2997
2.6230 7.4610 2.2997
2.4416 7.5215 2.2997
2.2587 7.5777 2.2997
2.0746 7.6294 2.2997
1.9741 8.0214 2.4030
1.7794 8.0662 2.4030
1.5837 8.1064 2.4030
1.3871 8.1418 2.4030
1.1897 8.1726 2.4030
0.9916 8.1986 2.4030
0.7930 8.2199 2.4030
0.5939 8.2364 2.4030
0.3945 8.2482 2.4030
0.1949 8.2552 2.4030
-0.0048 8.2574 2.4030
-0.2045 8.2549 2.4030
-0.4041 8.2476 2.4030
-0.6035 8.2355 2.4030
-0.8026 8.2187 2.4030
-1.0011 8.1972 2.4030
-1.1992 8.1708 2.4030
-1.3965 8.1398 2.4030
-1.5931 8.1041 2.4030
-1.7887 8.0636 2.4030
-1.9833 8.0185 2.4030
-2.1769 7.9688 2.4030
-2.3692 7.9145 2.4030
-2.5601 7.8555 2.4030
-2.7496 7.7920 2.4030
-2.9376 7.7240 2.4030
-3.1239 7.6516 2.4030
-3.3084 7.5746 2.4030
-3.4910 7.4933 2.4030
-3.6717 7.4077 2.4030
-3.8503 7.3177 2.4030
-4.0267 7.2235 2.4030
-4.2009 7.1250 2.4030
-3.6655 5.8868 2.0144
-3.7447 5.7019 1.9812
-3.8436 5.5549 1.9616
-3.8362 5.2672 1.8918
-3.8292 4.9990 1.8279
-3.8227 4.7481 1.7691
-3.8166 4.5126 1.7150
-3.8108 4.2909 1.6649
-3.8054 4.0816 1.6186
-3.8003 3.8834 1.5757
-3.7954 3.6953 1.5358
-3.7907 3.5162 1.4988
-3.7863 3.3455 1.4643
-3.7821 3.1823 1.4321
-3.7780 3.0259 1.4021
-3.7741 2.8758 1.3741
-3.7704 2.7314 1.3480
-3.7668 2.5923 1.3236
-3.7633 2.4580 1.3008
-3.7599 2.3281 1.2794
-3.7566 2.2022 1.2595
-3.8960 2.1591 1.2880
-4.1178 2.1536 1.3434
-4.3599 2.1476 1.4046
-4.6253 2.1410 1.4726
-4.9181 2.1337 1.5485
-5.2431 2.1256 1.6337
-5.6064 2.1166 1.7300
-7.5214 2.6337 2.2999
-7.5851 2.4518 2.2999
-7.6444 2.2684 2.2999
-7.6992 2.0836 2.2999
-7.7496 1.8975 2.2999
-7.7955 1.7101 2.2999
-7.8370 1.5217 2.2999
-7.8738 1.3323 2.2999
-7.9061 1.1419 2.2999
-7.9338 0.9508 2.2999
-7.9569 0.7590 2.2999
-7.9754 0.5667 2.2999
-7.9892 0.3739 2.2999
-7.9983 0.1808 2.2999
-8.0028 -0.0125 2.2999
-8.0027 -0.2060 2.2999
-7.9978 -0.3994 2.2999
-7.9883 -0.5927 2.2999
-7.9741 -0.7858 2.2999
-7.9552 -0.9785 2.2999
-7.9317 -1.1708 2.2999
-7.9035 -1.3625 2.2999
-7.8706 -1.5535 2.2999
-7.8332 -1.7438 2.2999
-7.7911 -1.9331 2.2999
-7.7445 -2.1213 2.2999
-7.6932 -2.3085 2.2999
-7.6375 -2.4944 2.2999
-7.5772 -2.6790 2.2999
-7.5125 -2.8620 2.2999
-7.4433 -3.0436 2.2999
-7.3697 -3.2234 2.2999
-7.2918 -3.4014 2.2999
-7.2095 -3.5776 2.2999
-7.1230 -3.7517 2.2999
-7.0322 -3.9237 2.2999
-6.9373 -4.0935 2.2999
-6.8382 -4.2610 2.2999
-6.7351 -4.4261 2.2999
-6.6280 -4.5886 2.2999
-6.5169 -4.7486 2.2999
-6.4019 -4.9058 2.2999
-6.2831 -5.0602 2.2999
-5.9812 -5.0603 2.3272
-6.0046 -5.3341 2.3852
-5.9193 -5.5198 2.4030
-5.7856 -5.6624 2.4030
-5.6486 -5.8019 2.4031
-5.5083 -5.9381 2.4032
-5.3649 -6.0712 2.4035
-5.2181 -6.2006 2.4036
-5.0681 -6.3264 2.4037
-4.9151 -6.4485 2.4039
-4.7591 -6.5668 2.4040
-4.6003 -6.6814 2.4042
-4.4386 -6.7921 2.4043
-4.2743 -6.8988 2.4044
-4.1073 -7.0014 2.4046
-3.9379 -7.1000 2.4047
-3.7661 -7.1945 2.4048
-3.5920 -7.2847 2.4050
-3.4158 -7.3707 2.4051
-3.2374 -7.4524 2.4052
-3.0571 -7.5297 2.4054
-2.8749 -7.6027 2.4055
-2.6910 -7.6711 2.4057
-2.5054 -7.7351 2.4058
-2.3183 -7.7945 2.4060
-2.1298 -7.8493 2.4061
-1.9397 -7.8985 2.4059
-1.7485 -7.9431 2.4058
-1.5563 -7.9831 2.4056
-1.3631 -8.0183 2.4055
-1.1691 -8.0488 2.4053
-0.9745 -8.0745 2.4052
-0.7793 -8.0955 2.4051
-0.5836 -8.1117 2.4049
-0.3876 -8.1231 2.4048
-0.1914 -8.1296 2.4046
0.0049 -8.1315 2.4045
0.2012 -8.1285 2.4043
0.3973 -8.1207 2.4042
0.5932 -8.1081 2.4040
0.7887 -8.0908 2.4039
0.9837 -8.0687 2.4037
1.1781 -8.0418 2.4036
1.3717 -8.0103 2.4035
1.5645 -7.9739 2.4033
1.7563 -7.9330 2.4032
1.9471 -7.8873 2.4031
2.1367 -7.8372 2.4030
2.2254 -7.4489 2.2999
2.4404 -7.5034 2.3345
2.5818 -7.3315 2.2999
2.7578 -7.2663 2.2999
2.9321 -7.1968 2.2999
3.1046 -7.1231 2.2999
3.2753 -7.0453 2.2999
3.4440 -6.9633 2.2999
3.6106 -6.8772 2.2999
3.7751 -6.7870 2.2999
3.9372 -6.6929 2.2999
4.0971 -6.5949 2.2999
4.2544 -6.4931 2.2999
4.4092 -6.3874 2.2999
4.5614 -6.2780 2.2999
4.7108 -6.1650 2.2999
4.8574 -6.0483 2.2999
5.0011 -5.9282 2.2999
5.1417 -5.8046 2.2999
5.2793 -5.6776 2.2999
5.4138 -5.5474 2.2999
5.5450 -5.4139 2.2999
5.6729 -5.2773 2.2999
5.7974 -5.1376 2.2999
5.9015 -4.9807 2.2933
5.9670 -4.7942 2.2736
6.0285 -4.6085 2.2545
6.0970 -4.4318 2.2400
5.7129 -3.9453 2.0638
5.5925 -3.6659 1.9882
5.5636 -3.4577 1.9481
5.5324 -3.2558 1.9096
5.5427 -3.0842 1.8874
5.5620 -2.9212 1.8699
5.5816 -2.7616 1.8540
5.6020 -2.6052 1.8398
5.6326 -2.4558 1.8303
5.6503 -2.3027 1.8179
5.6164 -2.1322 1.7904
5.6002 -1.9727 1.7700
5.5818 -1.8159 1.7503
5.5502 -1.6584 1.7279
5.5412 -1.5109 1.7137
5.5471 -1.3695 1.7053
5.5527 -1.2294 1.6979
5.5581 -1.0904 1.6915
5.5635 -0.9525 1.6861
5.6220 -0.8232 1.6978
5.6849 -0.6926 1.7117
5.7487 -0.5598 1.7269
5.8272 -0.4256 1.7474
6.1619 -0.3006 1.8456
6.7050 -0.1649 2.0071
6.8266 -0.0029 2.0434
6.9301 0.1646 2.0756
7.0359 0.3374 2.1098
7.1442 0.5159 2.1460
7.2229 0.6973 2.1747
6.9129 0.8365 2.0875
6.8279 0.9942 2.0690
6.7962 1.1579 2.0679
6.7824 1.3250 2.0735
6.8075 1.5016 2.0923
6.8823 1.6935 2.1278
7.4390 2.0223 2.3151
7.3415 2.1877 2.3011
7.4873 2.4297 2.3653
7.4488 2.6178 2.3731
7.4471 2.8213 2.3942
7.4444 3.0280 2.4169
7.4408 3.2383 2.4411
7.4363 3.4524 2.4669
7.4144 3.6627 2.4890
7.3323 3.8454 2.4926
7.2394 4.0227 2.4940
7.1443 4.1991 2.4961
7.0451 4.3733 2.4983
6.9404 4.5444 2.5001
6.7559 4.6608 2.4741
6.5795 4.7780 2.4517
6.4310 4.9119 2.4405
5.9455 4.7730 2.2999
5.8270 4.9142 2.2999
3.0977 2.7434 1.2488
2.9801 2.7706 1.2283
2.9791 2.9071 1.2568
5.3205 5.4493 2.2999
5.1861 5.5752 2.2999
5.0487 5.6978 2.2999
4.9085 5.8171 2.2999
4.7655 5.9329 2.2999
4.6197 6.0453 2.2999
4.4713 6.1541 2.2999
4.3204 6.2593 2.2999
4.1669 6.3606 2.2997
4.0112 6.4585 2.2997
3.8532 6.5526 2.2997
3.6931 6.6428 2.2997
3.5308 6.7293 2.2997
3.3666 6.8117 2.2997
3.2004 6.8903 2.2997
3.0325 6.9648 2.2997
2.8628 7.0353 2.2997
2.6915 7.1017 2.2997
2.5187 7.1639 2.2997
2.3445 7.2221 2.2997
2.1689 7.2760 2.2997
2.0001 7.3551 2.3090
1.8956 7.7021 2.4030
1.7087 7.7452 2.4030
1.5207 7.7837 2.4030
1.3319 7.8178 2.4030
1.1424 7.8473 2.4030
0.9522 7.8723 2.4030
0.7615 7.8928 2.4030
0.5703 7.9087 2.4030
0.3789 7.9200 2.4030
0.1872 7.9267 2.4030
-0.0046 7.9289 2.4030
-0.1964 7.9264 2.4030
-0.3881 7.9194 2.4030
-0.5795 7.9078 2.4030
-0.7707 7.8917 2.4030
-0.9613 7.8710 2.4030
-1.1515 7.8457 2.4030
-1.3410 7.8159 2.4030
-1.5297 7.7815 2.4030
-1.7176 7.7427 2.4030
-1.9045 7.6994 2.4030
-2.0903 7.6516 2.4030
-2.2749 7.5994 2.4030
-2.4583 7.5428 2.4030
-2.6402 7.4818 2.4030
-2.8207 7.4165 2.4030
-2.9996 7.3468 2.4030
-3.1767 7.2730 2.4030
-3.3521 7.1948 2.4030
-3.5256 7.1126 2.4030
-3.6971 7.0261 2.4030
-3.8664 6.9356 2.4030
-4.0336 6.8410 2.4030
-3.6701 5.8939 2.1006
-3.7433 5.6995 2.0626
-3.8436 5.5546 2.0429
-3.8362 5.2669 1.9703
-3.8292 4.9987 1.9038
-3.8227 4.7478 1.8426
-3.8166 4.5123 1.7861
-3.8108 4.2906 1.7340
-3.8054 4.0813 1.6858
-3.8003 3.8832 1.6411
-3.7954 3.6950 1.5996
-3.7907 3.5160 1.5610
-3.7863 3.3453 1.5251
-3.7821 3.1821 1.4916
-3.7780 3.0257 1.4604
-3.7741 2.8756 1.4313
-3.7704 2.7312 1.4041
-3.7668 2.5921 1.3786
-3.7633 2.4578 1.3549
-3.7599 2.3279 1.3327
-3.7566 2.2020 1.3119
-3.8967 2.1593 1.3419
-4.1186 2.1538 1.3996
-4.3607 2.1478 1.4634
-4.6263 2.1412 1.5343
-4.9192 2.1340 1.6134
-5.2444 2.1259 1.7022
-5.6078 2.1169 1.8026
-7.2202 2.5279 2.2999
-7.2812 2.3533 2.2999
-7.3381 2.1772 2.2999
-7.3907 1.9998 2.2999
-7.4390 1.8211 2.2999
-7.4830 1.6413 2.2999
-7.5226 1.4604 2.2999
-7.5579 1.2785 2.2999
-7.5888 1.0958 2.2999
-7.6153 0.9123 2.2999
-7.6374 0.7282 2.2999
-7.6550 0.5436 2.2999
-7.6682 0.3586 2.2999
-7.6769 0.1732 2.2999
-7.6812 -0.0123 2.2999
-7.6809 -0.1980 2.2999
-7.6762 -0.3836 2.2999
-7.6669 -0.5692 2.2999
-7.6532 -0.7545 2.2999
-7.6350 -0.9395 2.2999
-7.6123 -1.1240 2.2999
-7.5852 -1.3079 2.2999
-7.5536 -1.4913 2.2999
-7.5175 -1.6738 2.2999
-7.4771 -1.8555 2.2999
-7.4322 -2.0361 2.2999
-7.3830 -2.2157 2.2999
-7.3294 -2.3941 2.2999
-7.2715 -2.5712 2.2999
-7.2093 -2.7469 2.2999
-7.1429 -2.9210 2.2999
-7.0722 -3.0936 2.2999
-6.9973 -3.2644 2.2999
-6.9183 -3.4333 2.2999
-6.8352 -3.6004 2.2999
-6.7480 -3.7654 2.2999
-6.6568 -3.9283 2.2999
-6.5617 -4.0890 2.2999
-6.4627 -4.2474 2.2999
-6.3598 -4.4033 2.2999
-6.2532 -4.5567 2.2999
-6.1428 -4.7076 2.2999
-6.0288 -4.8557 2.2999
-5.9342 -5.0209 2.4030
-5.8125 -5.1639 2.4030
-5.6875 -5.3040 2.4031
-5.5591 -5.4410 2.4031
-5.4273 -5.5749 2.4032
-5.2923 -5.7057 2.4032
-5.1541 -5.8331 2.4033
-5.0132 -5.9575 2.4035
-4.8693 -6.0785 2.4037
-4.7224 -6.1959 2.4039
-4.5725 -6.3097 2.4041
-4.4198 -6.4197 2.4042
-4.2645 -6.5260 2.4044
-4.1066 -6.6285 2.4045
-3.9462 -6.7271 2.4046
-3.7834 -6.8218 2.4048
-3.6183 -6.9125 2.4049
-3.4511 -6.9992 2.4050
-3.2817 -7.0817 2.4052
-3.1103 -7.1602 2.4053
-2.9371 -7.2344 2.4054
-2.7620 -7.3044 2.4056
-2.5853 -7.3701 2.4057
-2.4070 -7.4315 2.4058
-2.2272 -7.4886 2.4060
-2.0461 -7.5410 2.4061
-1.8635 -7.5883 2.4059
-1.6798 -7.6312 2.4058
-1.4951 -7.6695 2.4056
-1.3095 -7.7033 2.4055
-1.1232 -7.7326 2.4053
-0.9362 -7.7574 2.4052
-0.7486 -7.7775 2.4051
-0.5606 -7.7931 2.4049
-0.3724 -7.8041 2.4048
-0.1839 -7.8104 2.4046
0.0047 -7.8122 2.4045
0.1933 -7.8093 2.4044
0.3817 -7.8019 2.4042
0.5699 -7.7898 2.4041
0.7577 -7.7732 2.4040
0.9450 -7.7520 2.4038
1.1318 -7.7262 2.4037
1.3178 -7.6959 2.4035
1.5031 -7.6610 2.4034
1.6873 -7.6216 2.4033
1.8706 -7.5778 2.4031
2.0527 -7.5295 2.4030
2.1860 -7.3173 2.3516
2.3098 -7.1021 2.2999
2.4804 -7.0437 2.2999
2.6494 -6.9811 2.2999
2.8169 -6.9143 2.2999
2.9827 -6.8436 2.2999
3.1466 -6.7688 2.2999
3.3087 -6.6901 2.2999
3.4688 -6.6074 2.2999
3.6268 -6.5208 2.2999
3.7827 -6.4305 2.2999
3.9362 -6.3363 2.2999
4.0874 -6.2385 2.2999
4.2362 -6.1370 2.2999
4.3824 -6.0320 2.2999
4.5260 -5.9234 2.2999
4.6668 -5.8114 2.2999
4.8049 -5.6960 2.2999
4.9401 -5.5773 2.2999
5.0724 -5.4553 2.2999
5.2016 -5.3302 2.2999
5.3277 -5.2020 2.2999
5.4506 -5.0708 2.2999
5.5703 -4.9366 2.2999
5.6866 -4.7997 2.2999
5.7659 -4.6328 2.2865
5.8323 -4.4588 2.2700
5.7247 -4.1614 2.1889
5.6007 -3.8681 2.1056
5.5205 -3.6190 2.0425
5.5045 -3.4213 2.0059
5.5003 -3.2372 1.9758
5.5320 -3.0785 1.9604
5.5514 -2.9159 1.9422
5.5709 -2.7566 1.9257
5.5988 -2.6040 1.9135
5.6317 -2.4557 1.9044
5.6531 -2.3041 1.8928
5.6187 -2.1333 1.8640
5.5932 -1.9705 1.8397
5.5615 -1.8095 1.8148
5.5303 -1.6527 1.7916
5.5278 -1.5075 1.7789
5.5337 -1.3664 1.7702
5.5395 -1.2267 1.7625
5.5454 -1.0882 1.7560
5.5669 -0.9533 1.7555
5.6192 -0.8231 1.7657
5.6722 -0.6913 1.7771
5.7319 -0.5584 1.7916
5.7980 -0.4237 1.8090
6.1658 -0.3011 1.9215
6.6594 -0.1640 2.0741
6.7589 -0.0031 2.1051
6.8603 0.1627 2.1379
6.9639 0.3336 2.1727
7.0699 0.5102 2.2095
7.1477 0.6898 2.2391
7.2196 0.8733 2.2682
6.9290 1.0086 2.1845
6.8647 1.1693 2.1732
6.9003 1.3477 2.1947
6.9953 1.5427 2.2368
7.1156 1.7506 2.2888
7.4288 2.0192 2.4052
7.3704 2.1960 2.4034
7.3514 2.3852 2.4160
7.3171 2.5712 2.4251
7.3179 2.7720 2.4475
7.3160 2.9754 2.4709
7.3113 3.1816 2.4952
7.3040 3.3907 2.5206
7.2789 3.5955 2.5419
7.1899 3.7704 2.5426
7.0988 3.9443 2.5440
7.0055 4.1172 2.5461
6.9075 4.2876 2.5481
6.8070 4.4567 2.5506
6.0375 4.1649 2.2999
5.9336 4.3086 2.2999
5.8264 4.4498 2.2999
5.7158 4.5883 2.2999
5.6019 4.7241 2.2999
3.0972 2.7427 1.2987
2.9799 2.7702 1.2775
2.9783 2.9062 1.3069
5.1151 5.2386 2.2999
4.9860 5.3597 2.2999
4.8539 5.4777 2.2999
4.7192 5.5924 2.2999
4.5817 5.7038 2.2999
4.4416 5.8119 2.2999
4.2990 5.9165 2.2999
4.1539 6.0177 2.2999
4.0065 6.1154 2.2999
3.8568 6.2095 2.2998
3.7049 6.3000 2.2998
3.5508 6.3866 2.2997
3.3948 6.4697 2.2997
3.2369 6.5490 2.2997
3.0772 6.6246 2.2997
2.9157 6.6963 2.2997
2.7526 6.7641 2.2997
2.5879 6.8279 2.2997
2.4217 6.8878 2.2997
2.2542 6.9437 2.2997
2.0854 6.9956 2.2997
1.9903 7.3189 2.3897
1.8227 7.4054 2.4030
1.6429 7.4468 2.4030
1.4622 7.4839 2.4030
1.2807 7.5166 2.4030
1.0984 7.5451 2.4030
0.9156 7.5691 2.4030
0.7322 7.5888 2.4030
0.5484 7.6041 2.4030
0.3643 7.6149 2.4030
0.1800 7.6214 2.4030
-0.0044 7.6235 2.4030
-0.1888 7.6212 2.4030
-0.3731 7.6144 2.4030
-0.5572 7.6033 2.4030
-0.7410 7.5877 2.4030
-0.9243 7.5678 2.4030
-1.1072 7.5435 2.4030
-1.2894 7.5148 2.4030
-1.4708 7.4818 2.4030
-1.6515 7.4444 2.4030
-1.8312 7.4027 2.4030
-2.0098 7.3568 2.4030
-2.1874 7.3066 2.4030
-2.3636 7.2521 2.4030
-2.5386 7.1934 2.4030
-2.7121 7.1306 2.4030
-2.8841 7.0636 2.4030
-3.0544 6.9926 2.4030
-3.2230 6.9174 2.4030
-3.3898 6.8383 2.4030
-3.5546 6.7552 2.4030
-3.7175 6.6681 2.4030
-3.8782 6.5771 2.4030
-3.7025 5.9456 2.2040
-3.7536 5.7148 2.1512
-3.8436 5.5544 2.1248
-3.8362 5.2666 2.0493
-3.8292 4.9985 1.9801
-3.8227 4.7476 1.9165
-3.8166 4.5121 1.8578
-3.8108 4.2904 1.8036
-3.8054 4.0811 1.7535
-3.8003 3.8829 1.7070
-3.7954 3.6948 1.6638
-3.7907 3.5158 1.6237
-3.7863 3.3451 1.5864
-3.7821 3.1819 1.5516
-3.7780 3.0255 1.5191
-3.7741 2.8754 1.4888
-3.7704 2.7310 1.4605
-3.7668 2.5919 1.4341
-3.7633 2.4576 1.4094
-3.7599 2.3277 1.3863
-3.7566 2.2019 1.3647
-3.8975 2.1595 1.3962
-4.1194 2.1540 1.4562
-4.3616 2.1480 1.5226
-4.6272 2.1415 1.5964
-4.9203 2.1342 1.6788
-5.2456 2.1262 1.7712
-5.6092 2.1172 1.8757
-6.9404 2.4297 2.2999
-6.9990 2.2618 2.2999
-7.0536 2.0925 2.2999
-7.1040 1.9220 2.2999
-7.1504 1.7502 2.2999
-7.1926 1.5773 2.2999
-7.2307 1.4034 2.2999
-7.2645 1.2286 2.2999
-7.2942 1.0529 2.2999
-7.3196 0.8766 2.2999
-7.3407 0.6996 2.2999
-7.3576 0.5222 2.2999
-7.3702 0.3443 2.2999
-7.3785 0.1662 2.2999
-7.3824 -0.0122 2.2999
-7.3821 -0.1906 2.2999
-7.3775 -0.3690 2.2999
-7.3685 -0.5473 2.2999
-7.3553 -0.7254 2.2999
-7.3377 -0.9032 2.2999
-7.3158 -1.0805 2.2999
-7.2897 -1.2573 2.2999
-7.2592 -1.4335 2.2999
-7.2245 -1.6089 2.2999
-7.1856 -1.7834 2.2999
-7.1424 -1.9570 2.2999
-7.0950 -2.1296 2.2999
-7.0434 -2.3010 2.2999
-6.9877 -2.4711 2.2999
-6.9279 -2.6399 2.2999
-6.8639 -2.8073 2.2999
-6.7959 -2.9730 2.2999
-6.7239 -3.1371 2.2999
-6.6479 -3.2995 2.2999
-6.5680 -3.4600 2.2999
-6.4842 -3.6185 2.2999
-6.3965 -3.7750 2.2999
-6.3051 -3.9294 2.2999
-6.2098 -4.0815 2.2999
-6.1109 -4.2313 2.2999
-6.0084 -4.3787 2.2999
-5.9231 -4.5395 2.3080
-5.9445 -4.7882 2.3602
-5.7091 -4.8307 2.4030
-5.5921 -4.9684 2.4031
-5.4718 -5.1031 2.4031
-5.3482 -5.2349 2.4032
-5.2214 -5.3637 2.4032
-5.0915 -5.4894 2.4033
-4.9585 -5.6120 2.4033
-4.8226 -5.7312 2.4034
-4.6839 -5.8474 2.4035
-4.5425 -5.9603 2.4037
-4.3984 -6.0698 2.4039
-4.2517 -6.1757 2.4041
-4.1023 -6.2781 2.4043
-3.9505 -6.3768 2.4045
-3.7962 -6.4717 2.4047
-3.6396 -6.5628 2.4048
-3.4808 -6.6500 2.4050
-3.3199 -6.7334 2.4051
-3.1569 -6.8128 2.4052
-2.9920 -6.8882 2.4054
-2.8254 -6.9596 2.4055
-2.6570 -7.0269 2.4056
-2.4870 -7.0900 2.4058
-2.3154 -7.1491 2.4059
-2.1425 -7.2039 2.4060
-1.9681 -7.2541 2.4060
-1.7925 -7.2996 2.4059
-1.6158 -7.3409 2.4058
-1.4381 -7.3778 2.4056
-1.2596 -7.4103 2.4055
-1.0804 -7.4385 2.4054
-0.9005 -7.4623 2.4052
-0.7201 -7.4817 2.4051
-0.5393 -7.4967 2.4049
-0.3582 -7.5072 2.4048
-0.1769 -7.5133 2.4047
0.0046 -7.5151 2.4045
0.1859 -7.5123 2.4044
0.3672 -7.5052 2.4043
0.5482 -7.4936 2.4041
0.7289 -7.4776 2.4040
0.9091 -7.4572 2.4039
1.0887 -7.4324 2.4037
1.2677 -7.4033 2.4036
1.4459 -7.3698 2.4035
1.6231 -7.3319 2.4033
1.7994 -7.2897 2.4032
1.9746 -7.2433 2.4031
2.1487 -7.1928 2.4030
2.2226 -6.8341 2.3006
2.3860 -6.7758 2.2999
2.5486 -6.7156 2.2999
2.7097 -6.6515 2.2999
2.8692 -6.5835 2.2999
3.0269 -6.5115 2.2999
3.1828 -6.4358 2.2999
3.3369 -6.3563 2.2999
3.4889 -6.2731 2.2999
3.6388 -6.1862 2.2999
3.7865 -6.0957 2.2999
3.9320 -6.0016 2.2999
4.0751 -5.9040 2.2999
4.2158 -5.8030 2.2999
4.3539 -5.6986 2.2999
4.4895 -5.5908 2.2999
4.6224 -5.4799 2.2999
4.7524 -5.3657 2.2999
4.8797 -5.2484 2.2999
5.0040 -5.1281 2.2999
5.1254 -5.0048 2.2999
5.2437 -4.8786 2.2999
5.3589 -4.7496 2.2999
5.4708 -4.6178 2.2999
5.5775 -4.4818 2.2991
5.6732 -4.3375 2.2952
5.6094 -4.0778 2.2293
5.5026 -3.8005 2.1503
5.4817 -3.5938 2.1081
5.4783 -3.4052 2.0750
5.4745 -3.2223 2.0440
5.5142 -3.0688 2.0310
5.5407 -2.9106 2.0148
5.5602 -2.7516 1.9976
5.5955 -2.6028 1.9876
5.6308 -2.4555 1.9790
5.6559 -2.3055 1.9682
5.6155 -2.1324 1.9361
5.5725 -1.9634 1.9049
5.5412 -1.8031 1.8793
5.5104 -1.6470 1.8553
5.5144 -1.5041 1.8443
5.5204 -1.3634 1.8353
5.5272 -1.2242 1.8277
5.5393 -1.0872 1.8229
5.5718 -0.9544 1.8260
5.6242 -0.8240 1.8366
5.6773 -0.6922 1.8485
5.7312 -0.5586 1.8616
5.7867 -0.4231 1.8763
6.1697 -0.3015 1.9981
6.5945 -0.1627 2.1344
6.6921 -0.0034 2.1659
6.7915 0.1608 2.1993
6.8929 0.3300 2.2347
6.9966 0.5046 2.2722
7.0736 0.6824 2.3026
7.1438 0.8638 2.3322
7.2146 1.0499 2.3635
7.1687 1.2208 2.3581
7.1688 1.3999 2.3692
7.1890 1.5851 2.3885
7.3000 1.7956 2.4398
7.2657 1.9746 2.4442
7.2288 2.1535 2.4493
7.1901 2.3326 2.4552
7.1537 2.5135 2.4635
7.1464 2.7067 2.4834
7.1430 2.9047 2.5065
7.1368 3.1053 2.5307
7.1306 3.3099 2.5567
7.1305 3.5218 2.5871
7.0521 3.6978 2.5910
6.9626 3.8683 2.5924
6.8708 4.0377 2.5944
6.0011 3.7246 2.2999
5.9079 3.8677 2.2999
5.8113 4.0085 2.2999
5.7114 4.1469 2.2999
5.6082 4.2828 2.2999
5.5018 4.4162 2.2999
5.3922 4.5470 2.2999
3.0966 2.7420 1.3490
2.9796 2.7698 1.3271
2.9775 2.9052 1.3573
4.9238 5.0424 2.2999
4.7995 5.1590 2.2999
4.6724 5.2725 2.2999
4.5427 5.3830 2.2999
4.4104 5.4903 2.2999
4.2756 5.5944 2.2999
4.1383 5.6952 2.2999
3.9987 5.7926 2.2999
3.8568 5.8867 2.2999
3.7127 5.9773 2.2999
3.5665 6.0644 2.2998
3.4183 6.1480 2.2998
3.2681 6.2280 2.2998
3.1161 6.3042 2.2997
2.9623 6.3770 2.2997
2.8068 6.4460 2.2997
2.6498 6.5113 2.2997
2.4913 6.5728 2.2997
2.3313 6.6305 2.2997
2.1701 6.6843 2.2997
2.0124 6.7503 2.3052
1.9268 7.0847 2.4030
1.7547 7.1288 2.4030
1.5816 7.1686 2.4030
1.4077 7.2044 2.4030
1.2329 7.2359 2.4030
1.0575 7.2633 2.4030
0.8814 7.2865 2.4030
0.7049 7.3054 2.4030
0.5279 7.3201 2.4030
0.3507 7.3306 2.4030
0.1733 7.3369 2.4030
-0.0043 7.3388 2.4030
-0.1818 7.3366 2.4030
-0.3592 7.3301 2.4030
-0.5364 7.3194 2.4030
-0.7134 7.3044 2.4030
-0.8899 7.2852 2.4030
-1.0659 7.2618 2.4030
-1.2413 7.2342 2.4030
-1.4160 7.2024 2.4030
-1.5899 7.1664 2.4030
-1.7629 7.1262 2.4030
-1.9348 7.0820 2.4030
-2.1057 7.0336 2.4030
-2.2754 6.9812 2.4030
-2.4438 6.9247 2.4030
-2.6109 6.8642 2.4030
-2.7764 6.7997 2.4030
-2.9404 6.7313 2.4030
-3.1027 6.6589 2.4030
-3.2632 6.5827 2.4030
-3.4219 6.5026 2.4030
-3.5786 6.4188 2.4030
-3.7334 6.3312 2.4030
-3.8859 6.2399 2.4030
-3.7833 5.7598 2.2524
-3.8436 5.5541 2.2073
-3.8361 5.2664 2.1289
-3.8292 4.9982 2.0570
-3.8227 4.7473 1.9909
-3.8166 4.5118 1.9299
-3.8108 4.2902 1.8737
-3.8054 4.0809 1.8216
-3.8002 3.8827 1.7733
-3.7954 3.6946 1.7285
-3.7907 3.5156 1.6868
-3.7863 3.3449 1.6480
-3.7821 3.1816 1.6119
-3.7780 3.0253 1.5782
-3.7741 2.8752 1.5467
-3.7704 2.7308 1.5173
-3.7667 2.5917 1.4899
-3.7633 2.4574 1.4642
-3.7599 2.3275 1.4403
-3.7566 2.2017 1.4179
-3.8982 2.1598 1.4508
-4.1202 2.1543 1.5132
-4.3625 2.1483 1.5823
-4.6282 2.1417 1.6590
-4.9214 2.1345 1.7446
-5.2468 2.1264 1.8408
-5.6106 2.1175 1.9494
-6.6798 2.3381 2.2999
-6.7361 2.1765 2.2999
-6.7886 2.0136 2.2999
-6.8371 1.8494 2.2999
-6.8816 1.6841 2.2999
-6.9222 1.5177 2.2999
-6.9587 1.3503 2.2999
-6.9913 1.1821 2.2999
-7.0197 1.0130 2.2999
-7.0441 0.8433 2.2999
-7.0644 0.6730 2.2999
-7.0805 0.5022 2.2999
-7.0926 0.3311 2.2999
-7.1005 0.1596 2.2999
-7.1042 -0.0120 2.2999
-7.1039 -0.1837 2.2999
-7.0993 -0.3554 2.2999
-7.0906 -0.5270 2.2999
-7.0778 -0.6983 2.2999
-7.0608 -0.8694 2.2999
-7.0397 -1.0400 2.2999
-7.0145 -1.2101 2.2999
-6.9851 -1.3796 2.2999
-6.9516 -1.5484 2.2999
-6.9141 -1.7163 2.2999
-6.8725 -1.8834 2.2999
-6.8268 -2.0494 2.2999
-6.7771 -2.2143 2.2999
-6.7235 -2.3780 2.2999
-6.6658 -2.5404 2.2999
-6.6042 -2.7013 2.2999
-6.5388 -2.8608 2.2999
-6.4694 -3.0187 2.2999
-6.3963 -3.1749 2.2999
-6.3193 -3.3293 2.2999
-6.2386 -3.4818 2.2999
-6.1542 -3.6323 2.2999
-6.0734 -3.7853 2.3026
-5.9745 -3.9271 2.2999
-5.8952 -4.0822 2.3061
-5.8908 -4.2933 2.3438
-5.9093 -4.5293 2.3934
-5.8228 -4.6904 2.4030
-5.4991 -4.6534 2.4031
-5.3864 -4.7859 2.4032
-5.2705 -4.9156 2.4032
-5.1514 -5.0426 2.4032
-5.0292 -5.1666 2.4033
-4.9040 -5.2876 2.4033
-4.7759 -5.4056 2.4034
-4.6450 -5.5205 2.4035
-4.5112 -5.6321 2.4035
-4.3748 -5.7405 2.4036
-4.2359 -5.8458 2.4037
-4.0946 -5.9478 2.4039
-3.9507 -6.0463 2.4041
-3.8044 -6.1414 2.4043
-3.6559 -6.2328 2.4045
-3.5051 -6.3206 2.4047
-3.3522 -6.4046 2.4049
-3.1972 -6.4850 2.4050
-3.0403 -6.5615 2.4052
-2.8816 -6.6342 2.4054
-2.7211 -6.7030 2.4055
-2.5589 -6.7678 2.4057
-2.3952 -6.8287 2.4058
-2.2300 -6.8855 2.4059
-2.0634 -6.9383 2.4060
-1.8954 -6.9865 2.4060
-1.7263 -7.0303 2.4059
-1.5561 -7.0700 2.4057
-1.3850 -7.1055 2.4056
-1.2131 -7.1369 2.4055
-1.0405 -7.1640 2.4054
-0.8672 -7.1869 2.4052
-0.6935 -7.2056 2.4051
-0.5194 -7.2201 2.4050
-0.3449 -7.2302 2.4048
-0.1703 -7.2361 2.4047
0.0044 -7.2378 2.4046
0.1791 -7.2352 2.4044
0.3536 -7.2283 2.4043
0.5280 -7.2172 2.4042
0.7020 -7.2018 2.4040
0.8755 -7.1822 2.4039
1.0485 -7.1583 2.4038
1.2209 -7.1302 2.4036
1.3925 -7.0980 2.4035
1.5632 -7.0615 2.4034
1.7330 -7.0210 2.4032
1.9018 -6.9763 2.4031
2.0693 -6.9275 2.4030
2.1995 -6.7635 2.3640
2.2979 -6.5259 2.2999
2.4790 -6.5325 2.3229
2.6097 -6.4062 2.2999
2.7633 -6.3407 2.2999
2.9152 -6.2715 2.2999
3.0654 -6.1986 2.2999
3.2137 -6.1220 2.2999
3.3601 -6.0419 2.2999
3.5045 -5.9582 2.2999
3.6469 -5.8711 2.2999
3.7870 -5.7805 2.2999
3.9248 -5.6866 2.2999
4.0603 -5.5893 2.2999
4.1934 -5.4888 2.2999
4.3240 -5.3850 2.2999
4.4520 -5.2782 2.2999
4.5773 -5.1682 2.2999
4.6999 -5.0553 2.2999
4.8197 -4.9394 2.2999
4.9366 -4.8207 2.2999
5.0506 -4.6992 2.2999
5.1615 -4.5750 2.2999
5.2694 -4.4481 2.2999
5.3742 -4.3187 2.2999
5.4757 -4.1868 2.2999
5.5336 -4.0230 2.2832
5.4477 -3.7629 2.2101
5.4490 -3.5726 2.1755
5.4521 -3.3893 2.1439
5.4488 -3.2074 2.1120
5.4882 -3.0546 2.0986
5.5278 -2.9040 2.0868
5.5494 -2.7465 2.0698
5.5923 -2.6015 2.0622
5.6311 -2.4559 2.0546
5.6465 -2.3019 2.0398
5.5956 -2.1251 2.0028
5.5546 -1.9574 1.9711
5.5209 -1.7968 1.9437
5.4946 -1.6425 1.9204
5.5009 -1.5007 1.9099
5.5087 -1.3607 1.9011
5.5210 -1.2230 1.8951
5.5331 -1.0862 1.8902
5.5768 -0.9555 1.8972
5.6293 -0.8250 1.9082
5.6824 -0.6930 1.9205
5.7366 -0.5594 1.9342
5.8070 -0.4249 1.9544
6.1737 -0.3020 2.0753
6.5304 -0.1614 2.1939
6.6261 -0.0036 2.2259
6.7235 0.1589 2.2599
6.8228 0.3263 2.2959
6.9243 0.4991 2.3340
7.0005 0.6750 2.3652
7.0690 0.8545 2.3953
7.1381 1.0384 2.4271
7.2079 1.2271 2.4609
7.2293 1.4114 2.4798
7.1735 1.5814 2.4737
7.1423 1.7565 2.4775
7.1085 1.9316 2.4819
7.0721 2.1065 2.4869
7.0368 2.2826 2.4938
7.0007 2.4594 2.5020
6.9816 2.6440 2.5179
6.9768 2.8368 2.5408
6.9693 3.0321 2.5647
6.9666 3.2335 2.5924
6.9646 3.4395 2.6224
6.0319 3.1625 2.2999
5.9523 3.3067 2.2999
5.8692 3.4488 2.2999
5.7828 3.5889 2.2999
5.6930 3.7268 2.2999
5.5999 3.8625 2.2999
5.5037 3.9958 2.2999
5.4043 4.1269 2.2999
5.3018 4.2554 2.2999
5.1962 4.3814 2.2999
3.0960 2.7414 1.3996
2.9794 2.7694 1.3770
2.9767 2.9043 1.4081
4.7450 4.8590 2.2999
4.6252 4.9714 2.2999
4.5028 5.0808 2.2999
4.3778 5.1873 2.2999
4.2504 5.2908 2.2999
4.1205 5.3911 2.2999
3.9882 5.4883 2.2999
3.8537 5.5822 2.2999
3.7170 5.6729 2.2999
3.5781 5.7603 2.2999
3.4372 5.8443 2.2999
3.2944 5.9248 2.2998
3.1497 6.0020 2.2998
3.0032 6.0756 2.2998
2.8550 6.1457 2.2998
2.7052 6.2122 2.2998
2.5538 6.2751 2.2998
2.4010 6.3344 2.2997
2.2469 6.3900 2.2997
2.0915 6.4419 2.2997
2.0016 6.7140 2.3791
1.8570 6.8278 2.4030
1.6911 6.8703 2.4030
1.5243 6.9087 2.4030
1.3567 6.9432 2.4030
1.1883 6.9736 2.4030
1.0192 7.0000 2.4030
0.8495 7.0223 2.4030
0.6794 7.0406 2.4030
0.5088 7.0548 2.4030
0.3380 7.0649 2.4030
0.1670 7.0709 2.4030
-0.0041 7.0728 2.4030
-0.1752 7.0707 2.4030
-0.3462 7.0644 2.4030
-0.5170 7.0541 2.4030
-0.6875 7.0396 2.4030
-0.8576 7.0211 2.4030
-1.0273 6.9985 2.4030
-1.1963 6.9719 2.4030
-1.3647 6.9412 2.4030
-1.5323 6.9066 2.4030
-1.6990 6.8679 2.4030
-1.8648 6.8252 2.4030
-2.0295 6.7786 2.4030
-2.1930 6.7280 2.4030
-2.3553 6.6736 2.4030
-2.5163 6.6152 2.4030
-2.6758 6.5530 2.4030
-2.8338 6.4871 2.4030
-2.9902 6.4173 2.4030
-3.1449 6.3438 2.4030
-3.2979 6.2666 2.4030
-3.4489 6.1858 2.4030
-3.5980 6.1014 2.4030
-3.7450 6.0134 2.4030
-3.8899 5.9219 2.4030
-4.0326 5.8269 2.4030
-3.8361 5.2661 2.2090
-3.8292 4.9979 2.1344
-3.8227 4.7470 2.0658
-3.8166 4.5116 2.0026
-3.8108 4.2899 1.9442
-3.8054 4.0806 1.8902
-3.8002 3.8825 1.8401
-3.7954 3.6944 1.7936
-3.7907 3.5154 1.7504
-3.7863 3.3446 1.7102
-3.7820 3.1814 1.6727
-3.7780 3.0251 1.6377
-3.7741 2.8750 1.6050
-3.7703 2.7306 1.5746
-3.7667 2.5915 1.5461
-3.7632 2.4572 1.5195
-3.7599 2.3273 1.4946
-3.7566 2.2015 1.4714
-3.8989 2.1600 1.5059
-4.1210 2.1545 1.5707
-4.3634 2.1485 1.6424
-4.6292 2.1420 1.7221
-4.9225 2.1347 1.8110
-5.2481 2.1267 1.9108
-5.6121 2.1178 2.0236
-6.4363 2.2526 2.2999
-6.4906 2.0969 2.2999
-6.5410 1.9399 2.2999
-6.5877 1.7817 2.2999
-6.6306 1.6224 2.2999
-6.6696 1.4620 2.2999
-6.7048 1.3007 2.2999
-6.7360 1.1386 2.2999
-6.7634 0.9757 2.2999
-6.7868 0.8122 2.2999
-6.8063 0.6481 2.2999
-6.8218 0.4836 2.2999
-6.8333 0.3187 2.2999
-6.8409 0.1535 2.2999
-6.8445 -0.0118 2.2999
-6.8440 -0.1773 2.2999
-6.8396 -0.3427 2.2999
-6.8312 -0.5080 2.2999
-6.8187 -0.6731 2.2999
-6.8023 -0.8378 2.2999
-6.7819 -1.0022 2.2999
-6.7575 -1.1661 2.2999
-6.7292 -1.3294 2.2999
-6.6969 -1.4919 2.2999
-6.6607 -1.6537 2.2999
-6.6205 -1.8146 2.2999
-6.5765 -1.9745 2.2999
-6.5285 -2.1334 2.2999
-6.4768 -2.2910 2.2999
-6.4212 -2.4474 2.2999
-6.3618 -2.6025 2.2999
-6.2987 -2.7561 2.2999
-6.2318 -2.9081 2.2999
-6.1613 -3.0585 2.2999
-6.0871 -3.2072 2.2999
-6.0093 -3.3541 2.2999
-5.9280 -3.4991 2.2999
-5.8911 -3.6720 2.3188
-5.8872 -3.8700 2.3528
-5.8834 -4.0744 2.3894
-5.8175 -4.2402 2.4030
-5.7147 -4.3804 2.4030
-5.6086 -4.5182 2.4031
-5.3027 -4.4874 2.4032
-5.1939 -4.6151 2.4032
-5.0821 -4.7402 2.4033
-4.9672 -4.8626 2.4033
-4.8494 -4.9821 2.4034
-4.7286 -5.0988 2.4034
-4.6051 -5.2125 2.4035
-4.4788 -5.3232 2.4035
-4.3498 -5.4309 2.4036
-4.2182 -5.5353 2.4036
-4.0841 -5.6366 2.4037
-3.9476 -5.7346 2.4037
-3.8089 -5.8296 2.4039
-3.6678 -5.9211 2.4041
-3.5246 -6.0092 2.4043
-3.3792 -6.0938 2.4045
-3.2317 -6.1748 2.4046
-3.0823 -6.2522 2.4048
-2.9311 -6.3260 2.4050
-2.7780 -6.3960 2.4051
-2.6233 -6.4623 2.4053
-2.4669 -6.5248 2.4054
-2.3091 -6.5835 2.4056
-2.1498 -6.6383 2.4057
-1.9892 -6.6892 2.4059
-1.8273 -6.7357 2.4058
-1.6643 -6.7782 2.4058
-1.5003 -6.8166 2.4057
-1.3353 -6.8508 2.4056
-1.1696 -6.8811 2.4055
-1.0031 -6.9072 2.4053
-0.8361 -6.9293 2.4052
-0.6686 -6.9473 2.4051
-0.5007 -6.9613 2.4049
-0.3326 -6.9711 2.4048
-0.1642 -6.9768 2.4047
0.0042 -6.9784 2.4046
0.1727 -6.9759 2.4044
0.3410 -6.9693 2.4043
0.5090 -6.9585 2.4042
0.6768 -6.9437 2.4040
0.8441 -6.9248 2.4039
1.0109 -6.9018 2.4038
1.1771 -6.8748 2.4037
1.3425 -6.8437 2.4035
1.5072 -6.8086 2.4034
1.6709 -6.7695 2.4033
1.8336 -6.7265 2.4032
1.9952 -6.6794 2.4030
2.1556 -6.6287 2.4030
2.2330 -6.3420 2.3181
2.3665 -6.2363 2.2999
2.5161 -6.1768 2.2999
2.6642 -6.1137 2.2999
2.8107 -6.0469 2.2999
2.9555 -5.9766 2.2999
3.0985 -5.9029 2.2999
3.2397 -5.8256 2.2999
3.3790 -5.7450 2.2999
3.5162 -5.6610 2.2999
3.6513 -5.5737 2.2999
3.7842 -5.4831 2.2999
3.9149 -5.3894 2.2999
4.0432 -5.2925 2.2999
4.1692 -5.1925 2.2999
4.2926 -5.0895 2.2999
4.4135 -4.9835 2.2999
4.5317 -4.8746 2.2999
4.6472 -4.7630 2.2999
4.7600 -4.6485 2.2999
4.8699 -4.5314 2.2999
4.9769 -4.4116 2.2999
5.0810 -4.2893 2.2999
5.1820 -4.1645 2.2999
5.2800 -4.0374 2.2999
5.3748 -3.9079 2.2999
5.3935 -3.7257 2.2692
5.4072 -3.5455 2.2388
5.4260 -3.3733 2.2127
5.4231 -3.1925 2.1799
5.4623 -3.0405 2.1660
5.5019 -2.8907 2.1539
5.5432 -2.7436 2.1440
5.5870 -2.5993 2.1365
5.6113 -2.4475 2.1231
5.6238 -2.2929 2.1068
5.5757 -2.1178 2.0695
5.5371 -1.9514 2.0376
5.5009 -1.7905 2.0082
5.4811 -1.6387 1.9864
5.4900 -1.4979 1.9765
5.5025 -1.3594 1.9691
5.5148 -1.2219 1.9628
5.5299 -1.0858 1.9588
5.5818 -0.9566 1.9690
5.6343 -0.8260 1.9804
5.6876 -0.6939 1.9931
5.7487 -0.5608 2.0098
5.8293 -0.4267 2.0342
6.1411 -0.3006 2.1405
6.4599 -0.1599 2.2502
6.5609 -0.0038 2.2853
6.6564 0.1570 2.3198
6.7537 0.3227 2.3563
6.8529 0.4937 2.3951
6.9284 0.6678 2.4270
6.9953 0.8453 2.4575
7.0627 1.0272 2.4898
7.1307 1.2137 2.5241
7.0809 1.3821 2.5182
7.0209 1.5474 2.5101
6.9901 1.7188 2.5138
6.9569 1.8901 2.5182
6.9219 2.0615 2.5235
6.8887 2.2342 2.5310
6.8530 2.4072 2.5391
6.8231 2.5836 2.5511
6.8170 2.7716 2.5738
6.0286 2.6226 2.2999
5.9620 2.7669 2.2999
5.8919 2.9095 2.2999
5.8185 3.0504 2.2999
5.7417 3.1894 2.2999
5.6616 3.3266 2.2999
5.5783 3.4617 2.2999
5.4917 3.5947 2.2999
5.4020 3.7257 2.2999
5.3092 3.8544 2.2999
5.2134 3.9808 2.2999
5.1145 4.1048 2.2999
5.0127 4.2264 2.2999
3.0955 2.7407 1.4505
2.9791 2.7690 1.4273
2.9759 2.9033 1.4592
4.5775 4.6872 2.2999
4.4620 4.7957 2.2999
4.3439 4.9013 2.2999
4.2234 5.0041 2.2999
4.1004 5.1039 2.2999
3.9752 5.2007 2.2999
3.8476 5.2945 2.2999
3.7178 5.3852 2.2999
3.5860 5.4727 2.2999
3.4520 5.5570 2.2999
3.3161 5.6381 2.2999
3.1783 5.7158 2.2999
3.0387 5.7903 2.2998
2.8974 5.8613 2.2998
2.7545 5.9290 2.2998
2.6099 5.9932 2.2998
2.4639 6.0539 2.2998
2.3165 6.1111 2.2998
2.1678 6.1648 2.2998
2.0228 6.2301 2.3054
1.9506 6.5424 2.4030
1.7916 6.5872 2.4030
1.6316 6.6281 2.4030
1.4707 6.6652 2.4030
1.3089 6.6985 2.4030
1.1465 6.7279 2.4030
0.9833 6.7533 2.4030
0.8196 6.7749 2.4030
0.6555 6.7925 2.4030
0.4909 6.8062 2.4030
0.3261 6.8160 2.4030
0.1611 6.8218 2.4030
-0.0040 6.8236 2.4030
-0.1690 6.8215 2.4030
-0.3340 6.8155 2.4030
-0.4988 6.8055 2.4030
-0.6633 6.7916 2.4030
-0.8274 6.7737 2.4030
-0.9911 6.7519 2.4030
-1.1542 6.7262 2.4030
-1.3166 6.6966 2.4030
-1.4783 6.6632 2.4030
-1.6392 6.6258 2.4030
-1.7991 6.5846 2.4030
-1.9580 6.5396 2.4030
-2.1158 6.4908 2.4030
-2.2724 6.4383 2.4030
-2.4277 6.3820 2.4030
-2.5816 6.3220 2.4030
-2.7340 6.2583 2.4030
-2.8849 6.1910 2.4030
-3.0342 6.1201 2.4030
-3.1817 6.0456 2.4030
-3.3274 5.9676 2.4030
-3.4712 5.8861 2.4030
-3.6130 5.8012 2.4030
-3.7528 5.7129 2.4030
-3.8905 5.6212 2.4030
-4.0259 5.5263 2.4030
-3.8292 4.9976 2.2124
-3.8227 4.7468 2.1413
-3.8166 4.5113 2.0758
-3.8108 4.2897 2.0153
-3.8054 4.0804 1.9593
-3.8002 3.8822 1.9074
-3.7953 3.6941 1.8592
-3.7907 3.5151 1.8144
-3.7863 3.3444 1.7727
-3.7820 3.1812 1.7339
-3.7780 3.0249 1.6976
-3.7741 2.8748 1.6638
-3.7703 2.7304 1.6322
-3.7667 2.5913 1.6027
-3.7632 2.4570 1.5752
-3.7599 2.3271 1.5494
-3.7566 2.2013 1.5253
-3.8996 2.1602 1.5614
-4.1218 2.1547 1.6286
-4.3643 2.1488 1.7030
-4.6302 2.1422 1.7856
-4.9236 2.1350 1.8779
-5.2493 2.1270 1.9814
-5.6135 2.1180 2.0984
-6.2084 2.1726 2.2999
-6.2606 2.0224 2.2999
-6.3093 1.8709 2.2999
-6.3542 1.7183 2.2999
-6.3955 1.5646 2.2999
-6.4331 1.4099 2.2999
-6.4670 1.2543 2.2999
-6.4971 1.0980 2.2999
-6.5234 0.9408 2.2999
-6.5460 0.7831 2.2999
-6.5647 0.6249 2.2999
-6.5796 0.4661 2.2999
-6.5907 0.3071 2.2999
-6.5979 0.1478 2.2999
-6.6013 -0.0117 2.2999
-6.6008 -0.1712 2.2999
-6.5965 -0.3308 2.2999
-6.5883 -0.4902 2.2999
-6.5762 -0.6494 2.2999
-6.5603 -0.8083 2.2999
-6.5406 -0.9668 2.2999
-6.5170 -1.1249 2.2999
-6.4897 -1.2823 2.2999
-6.4584 -1.4391 2.2999
-6.4234 -1.5951 2.2999
-6.3847 -1.7502 2.2999
-6.3421 -1.9045 2.2999
-6.2959 -2.0576 2.2999
-6.2459 -2.2096 2.2999
-6.1923 -2.3604 2.2999
-6.1350 -2.5099 2.2999
-6.0740 -2.6580 2.2999
-6.0095 -2.8046 2.2999
-5.9414 -2.9497 2.2999
-5.8896 -3.1034 2.3076
-5.8864 -3.2858 2.3363
-5.8837 -3.4732 2.3672
-5.8804 -3.6656 2.4003
-5.7980 -3.8117 2.4030
-5.7055 -3.9514 2.4030
-5.6096 -4.0889 2.4030
-5.5104 -4.2241 2.4030
-5.4081 -4.3570 2.4031
-5.1180 -4.3314 2.4030
-5.0132 -4.4548 2.4032
-4.9054 -4.5757 2.4033
-4.7944 -4.6938 2.4034
-4.6807 -4.8091 2.4034
-4.5641 -4.9217 2.4035
-4.4448 -5.0315 2.4035
-4.3229 -5.1383 2.4036
-4.1984 -5.2421 2.4036
-4.0714 -5.3429 2.4037
-3.9419 -5.4406 2.4037
-3.8101 -5.5351 2.4038
-3.6759 -5.6264 2.4038
-3.5397 -5.7146 2.4039
-3.4015 -5.7996 2.4041
-3.2611 -5.8812 2.4043
-3.1188 -5.9593 2.4044
-2.9746 -6.0340 2.4046
-2.8286 -6.1051 2.4047
-2.6809 -6.1727 2.4049
-2.5315 -6.2366 2.4050
-2.3806 -6.2969 2.4052
-2.2283 -6.3535 2.4053
-2.0746 -6.4064 2.4055
-1.9196 -6.4553 2.4056
-1.7634 -6.5002 2.4055
-1.6060 -6.5412 2.4055
-1.4478 -6.5784 2.4055
-1.2886 -6.6117 2.4054
-1.1287 -6.6411 2.4054
-0.9681 -6.6664 2.4053
-0.8069 -6.6877 2.4052
-0.6453 -6.7051 2.4051
-0.4832 -6.7186 2.4049
-0.3209 -6.7281 2.4048
-0.1585 -6.7336 2.4047
0.0041 -6.7351 2.4046
0.1666 -6.7327 2.4044
0.3291 -6.7264 2.4043
0.4913 -6.7160 2.4042
0.6532 -6.7017 2.4041
0.8147 -6.6835 2.4039
0.9756 -6.6614 2.4038
1.1360 -6.6353 2.4037
1.2957 -6.6053 2.4036
1.4546 -6.5715 2.4035
1.6126 -6.5338 2.4033
1.7697 -6.4922 2.4032
1.9256 -6.4469 2.4031
2.0804 -6.3977 2.4030
2.2107 -6.2788 2.3779
2.2839 -6.0191 2.2999
2.4283 -5.9616 2.2999
2.5713 -5.9007 2.2999
2.7127 -5.8363 2.2999
2.8524 -5.7685 2.2999
2.9905 -5.6973 2.2999
3.1268 -5.6228 2.2999
3.2612 -5.5450 2.2999
3.3936 -5.4640 2.2999
3.5241 -5.3797 2.2999
3.6524 -5.2924 2.2999
3.7785 -5.2019 2.2999
3.9024 -5.1084 2.2999
4.0240 -5.0119 2.2999
4.1431 -4.9125 2.2999
4.2598 -4.8103 2.2999
4.3739 -4.7052 2.2999
4.4855 -4.5974 2.2999
4.5943 -4.4870 2.2999
4.7005 -4.3740 2.2999
4.8038 -4.2584 2.2999
4.9042 -4.1404 2.2999
5.0018 -4.0200 2.2999
5.0964 -3.8972 2.2999
5.1879 -3.7723 2.2999
5.2764 -3.6452 2.2999
5.3618 -3.5159 2.2999
5.3863 -3.3488 2.2755
5.3975 -3.1777 2.2477
5.4365 -3.0263 2.2333
5.4948 -2.8873 2.2285
5.5402 -2.7424 2.2199
5.5807 -2.5966 2.2108
5.5984 -2.4422 2.1944
5.6011 -2.2840 2.1737
5.5563 -2.1106 2.1364
5.5196 -1.9455 2.1041
5.4838 -1.7852 2.0739
5.4710 -1.6360 2.0540
5.4837 -1.4964 2.0451
5.4962 -1.3581 2.0374
5.5085 -1.2207 2.0310
5.5349 -1.0870 2.0309
5.5869 -0.9577 2.0414
5.6395 -0.8270 2.0533
5.6994 -0.6956 2.0689
5.7609 -0.5622 2.0862
5.8518 -0.4286 2.1153
6.1083 -0.2993 2.2053
6.3570 -0.1576 2.2936
6.4965 -0.0041 2.3439
6.5901 0.1552 2.3789
6.6854 0.3192 2.4160
6.7825 0.4883 2.4553
6.8571 0.6606 2.4880
6.9225 0.8362 2.5189
6.9883 1.0160 2.5517
6.9948 1.1903 2.5645
6.9374 1.3538 2.5553
6.8781 1.5157 2.5469
6.8432 1.6824 2.5489
6.8104 1.8500 2.5533
6.0911 1.8138 2.2999
6.0440 1.9600 2.2999
5.9934 2.1050 2.2999
5.9393 2.2487 2.2999
5.8818 2.3911 2.2999
5.8209 2.5320 2.2999
5.7566 2.6713 2.2999
5.6891 2.8091 2.2999
5.6182 2.9451 2.2999
5.5441 3.0794 2.2999
5.4668 3.2118 2.2999
5.3864 3.3423 2.2999
5.3028 3.4708 2.2999
5.2162 3.5973 2.2999
5.1267 3.7216 2.2999
5.0341 3.8437 2.2999
4.9387 3.9635 2.2999
4.8405 4.0809 2.2999
3.0949 2.7400 1.5019
2.9789 2.7686 1.4779
2.9751 2.9024 1.5107
4.4203 4.5260 2.2999
4.3088 4.6307 2.2999
4.1948 4.7328 2.2999
4.0784 4.8320 2.2999
3.9597 4.9284 2.2999
3.8387 5.0220 2.2999
3.7156 5.1126 2.2999
3.5903 5.2002 2.2999
3.4630 5.2847 2.2999
3.3336 5.3662 2.2999
3.2024 5.4445 2.2999
3.0694 5.5196 2.2999
2.9346 5.5915 2.2999
2.7981 5.6601 2.2998
2.6600 5.7255 2.2998
2.5205 5.7875 2.2998
2.3795 5.8462 2.2998
2.2454 5.9231 2.3083
2.0935 5.9533 2.2998
2.0101 6.1906 2.3722
1.8837 6.3179 2.4030
1.7302 6.3612 2.4030
1.5757 6.4008 2.4030
1.4203 6.4366 2.4030
1.2641 6.4687 2.4030
1.1072 6.4971 2.4030
0.9496 6.5217 2.4030
0.7915 6.5425 2.4030
0.6330 6.5596 2.4030
0.4741 6.5728 2.4030
0.3150 6.5822 2.4030
0.1556 6.5878 2.4030
-0.0038 6.5896 2.4030
-0.1632 6.5876 2.4030
-0.3226 6.5818 2.4030
-0.4817 6.5721 2.4030
-0.6406 6.5587 2.4030
-0.7991 6.5414 2.4030
-0.9572 6.5204 2.4030
-1.1147 6.4955 2.4030
-1.2715 6.4670 2.4030
-1.4277 6.4346 2.4030
-1.5830 6.3985 2.4030
-1.7375 6.3588 2.4030
-1.8909 6.3153 2.4030
-2.0433 6.2682 2.4030
-2.1945 6.2174 2.4030
-2.3445 6.1630 2.4030
-2.4931 6.1050 2.4030
-2.6403 6.0435 2.4030
-2.7860 5.9785 2.4030
-2.9301 5.9100 2.4030
-3.0726 5.8380 2.4030
-3.2133 5.7627 2.4030
-3.3522 5.6839 2.4030
-3.4891 5.6019 2.4030
-3.6241 5.5166 2.4030
-3.7570 5.4281 2.4030
-3.8878 5.3364 2.4030
-4.0163 5.2416 2.4030
-4.1425 5.1437 2.4030
-3.8165 4.5111 2.1496
-3.8108 4.2894 2.0870
-3.8054 4.0801 2.0290
-3.8002 3.8820 1.9753
-3.7953 3.6939 1.9254
-3.7907 3.5149 1.8790
-3.7863 3.3442 1.8358
-3.7820 3.1810 1.7956
-3.7395 2.9939 1.7402
-3.7712 2.8724 1.7217
-3.7703 2.7302 1.6903
-3.7667 2.5911 1.6598
-3.7632 2.4568 1.6313
-3.7599 2.3269 1.6046
-3.7566 2.2011 1.5797
-3.9004 2.1604 1.6173
-4.1226 2.1550 1.6870
-4.3652 2.1490 1.7641
-4.6312 2.1425 1.8497
-4.9248 2.1353 1.9453
-5.2506 2.1273 2.0526
-5.6149 2.1183 2.1738
-5.9944 2.0974 2.2999
-6.0448 1.9524 2.2999
-6.0917 1.8061 2.2999
-6.1415 1.6605 2.3023
-6.1749 1.5104 2.2999
-6.2112 1.3610 2.2999
-6.2438 1.2108 2.2999
-6.2729 1.0598 2.2999
-6.2982 0.9081 2.2999
-6.3199 0.7558 2.2999
-6.3380 0.6030 2.2999
-6.3523 0.4498 2.2999
-6.3629 0.2962 2.2999
-6.3699 0.1424 2.2999
-6.3731 -0.0116 2.2999
-6.3726 -0.1656 2.2999
-6.3683 -0.3196 2.2999
-6.3604 -0.4735 2.2999
-6.3487 -0.6272 2.2999
-6.3333 -0.7806 2.2999
-6.3142 -0.9336 2.2999
-6.2914 -1.0862 2.2999
-6.2649 -1.2382 2.2999
-6.2347 -1.3895 2.2999
-6.2009 -1.5401 2.2999
-6.1634 -1.6899 2.2999
-6.1223 -1.8387 2.2999
-6.0776 -1.9865 2.2999
-6.0293 -2.1333 2.2999
-5.9775 -2.2788 2.2999
-5.9221 -2.4231 2.2999
-5.8867 -2.5763 2.3091
-5.8847 -2.7467 2.3331
-5.8826 -2.9207 2.3590
-5.8802 -3.0988 2.3868
-5.8443 -3.2625 2.4030
-5.7651 -3.4035 2.4030
-5.6825 -3.5425 2.4030
-5.5965 -3.6795 2.4030
-5.5072 -3.8144 2.4030
-5.4146 -3.9471 2.4030
-5.3188 -4.0775 2.4030
-5.2199 -4.2056 2.4030
-4.9445 -4.1849 2.4030
-4.8430 -4.3039 2.4030
-4.7388 -4.4206 2.4032
-4.6318 -4.5348 2.4033
-4.5221 -4.6464 2.4034
-4.4095 -4.7553 2.4035
-4.2942 -4.8612 2.4035
-4.1764 -4.9644 2.4036
-4.0561 -5.0647 2.4036
-3.9333 -5.1621 2.4037
-3.8082 -5.2564 2.4037
-3.6809 -5.3477 2.4038
-3.5513 -5.4359 2.4038
-3.4196 -5.5209 2.4039
-3.2858 -5.6027 2.4039
-3.1502 -5.6814 2.4041
-3.0127 -5.7569 2.4042
-2.8734 -5.8289 2.4044
-2.7323 -5.8976 2.4045
-2.5896 -5.9629 2.4047
-2.4453 -6.0246 2.4048
-2.2996 -6.0828 2.4050
-2.1524 -6.1374 2.4051
-2.0039 -6.1884 2.4052
-1.8542 -6.2356 2.4053
-1.7032 -6.2789 2.4053
-1.5513 -6.3185 2.4052
-1.3984 -6.3544 2.4052
-1.2447 -6.3866 2.4052
-1.0902 -6.4149 2.4051
-0.9351 -6.4395 2.4051
-0.7795 -6.4603 2.4050
-0.6233 -6.4773 2.4050
-0.4668 -6.4904 2.4049
-0.3100 -6.4997 2.4048
-0.1531 -6.5050 2.4047
0.0040 -6.5065 2.4046
0.1610 -6.5042 2.4045
0.3179 -6.4981 2.4043
0.4746 -6.4881 2.4042
0.6310 -6.4743 2.4041
0.7870 -6.4567 2.4040
0.9425 -6.4354 2.4039
1.0975 -6.4102 2.4037
1.2517 -6.3813 2.4036
1.4052 -6.3486 2.4035
1.5579 -6.3122 2.4034
1.7096 -6.2721 2.4033
1.8602 -6.2283 2.4032
2.0098 -6.1808 2.4030
2.1581 -6.1299 2.4030
2.2399 -5.9033 2.3349
2.3459 -5.7594 2.2999
2.5025 -5.7431 2.3170
2.6206 -5.6384 2.2999
2.7556 -5.5729 2.2999
2.8890 -5.5042 2.2999
3.0206 -5.4322 2.2999
3.1505 -5.3571 2.2999
3.2785 -5.2788 2.2999
3.4045 -5.1974 2.2999
3.5285 -5.1130 2.2999
3.6503 -5.0257 2.2999
3.7700 -4.9354 2.2999
3.8875 -4.8422 2.2999
4.0026 -4.7462 2.2999
4.1153 -4.6474 2.2999
4.2256 -4.5459 2.2999
4.3334 -4.4419 2.2999
4.4386 -4.3352 2.2999
4.5412 -4.2260 2.2999
4.6410 -4.1144 2.2999
4.7381 -4.0004 2.2999
4.8324 -3.8841 2.2999
4.9238 -3.7655 2.2999
5.0123 -3.6448 2.2999
5.0978 -3.5220 2.2999
5.1803 -3.3972 2.2999
5.2597 -3.2704 2.2999
5.3360 -3.1418 2.2999
5.4092 -3.0114 2.2999
5.4791 -2.8792 2.2999
5.5407 -2.7430 2.2978
5.5743 -2.5939 2.2856
5.5855 -2.4368 2.2659
5.5784 -2.2750 2.2406
5.5307 -2.1012 2.2009
5.4773 -1.9308 2.1610
5.4369 -1.7702 2.1280
5.4486 -1.6295 2.1171
5.4774 -1.4950 2.1141
5.4899 -1.3568 2.1062
5.5022 -1.2196 2.0995
5.5399 -1.0883 2.1038
5.5920 -0.9588 2.1146
5.6510 -0.8289 2.1293
5.7116 -0.6973 2.1457
5.7760 -0.5639 2.1646
5.8748 -0.4306 2.1977
6.0756 -0.2979 2.2700
6.2564 -0.1554 2.3361
6.4053 -0.0043 2.3915
6.5245 0.1533 2.4373
6.6179 0.3157 2.4749
6.7130 0.4830 2.5147
6.7868 0.6535 2.5482
6.1080 0.7375 2.2999
6.0868 0.8847 2.2999
6.0622 1.0313 2.2999
6.0340 1.1772 2.2999
6.0023 1.3224 2.2999
5.9672 1.4667 2.2999
5.9285 1.6102 2.2999
5.8865 1.7526 2.2999
5.8410 1.8939 2.2999
5.7921 2.0340 2.2999
5.7399 2.1730 2.2999
5.6844 2.3105 2.2999
5.6256 2.4467 2.2999
5.5635 2.5814 2.2999
5.4982 2.7146 2.2999
5.4298 2.8461 2.2999
5.3582 2.9759 2.2999
5.2835 3.1039 2.2999
5.2058 3.2300 2.2999
5.1251 3.3542 2.2999
5.0415 3.4765 2.2999
4.9549 3.5966 2.2999
4.8655 3.7146 2.2999
4.7733 3.8305 2.2999
4.6784 3.9440 2.2999
3.0943 2.7393 1.5536
2.9786 2.7682 1.5290
2.9743 2.9014 1.5626
4.2724 4.3743 2.2999
4.1646 4.4755 2.2999
4.0545 4.5742 2.2999
3.9420 4.6701 2.2999
3.8273 4.7634 2.2999
3.7104 4.8538 2.2999
3.5914 4.9414 2.2999
3.4703 5.0261 2.2999
3.3472 5.1078 2.2999
3.2222 5.1866 2.2999
3.0954 5.2623 2.2999
2.9668 5.3349 2.2999
2.8365 5.4045 2.2999
2.7046 5.4708 2.2999
2.5712 5.5340 2.2998
2.4363 5.5940 2.2998
2.3000 5.6507 2.2998
2.1625 5.7041 2.2998
2.0324 5.7792 2.3098
1.9682 6.0613 2.4030
1.8208 6.1067 2.4030
1.6724 6.1485 2.4030
1.5231 6.1868 2.4030
1.3729 6.2215 2.4030
1.2219 6.2525 2.4030
1.0702 6.2800 2.4030
0.9179 6.3038 2.4030
0.7651 6.3239 2.4030
0.6119 6.3404 2.4030
0.4583 6.3532 2.4030
0.3044 6.3623 2.4030
0.1504 6.3677 2.4030
-0.0037 6.3694 2.4030
-0.1578 6.3675 2.4030
-0.3118 6.3619 2.4030
-0.4656 6.3525 2.4030
-0.6192 6.3395 2.4030
-0.7724 6.3228 2.4030
-0.9252 6.3025 2.4030
-1.0774 6.2785 2.4030
-1.2291 6.2508 2.4030
-1.3800 6.2196 2.4030
-1.5302 6.1847 2.4030
-1.6795 6.1462 2.4030
-1.8278 6.1042 2.4030
-1.9751 6.0586 2.4030
-2.1212 6.0095 2.4030
