ply
format ascii 1.0
element vertex 2117
property float32 x
property float32 y
property float32 z
end_header
5.8981 0.4288 0.6761
5.9760 0.5800 0.6871
6.1772 0.7506 0.7128
6.4810 0.9469 0.7510
6.7394 1.1516 0.7847
6.9837 1.3679 0.8175
7.2707 1.6074 0.8562
7.5686 1.8662 0.8972
8.3171 2.2653 0.9931
7.1440 2.1326 0.8597
6.9703 2.2656 0.8459
6.8588 2.4141 0.8400
6.7611 2.5649 0.8361
6.6687 2.7161 0.8334
6.5597 2.8584 0.8289
6.4460 2.9962 0.8241
6.3852 3.1578 0.8266
6.3744 3.3466 0.8361
7.3597 4.0938 0.9789
7.0740 4.1619 0.9548
6.8023 4.2266 0.9324
7.0439 4.6164 0.9813
6.9248 4.7815 0.9813
6.9046 5.0183 0.9962
6.9067 5.2795 1.0154
6.9294 5.5673 1.0390
6.9485 5.8646 1.0636
6.9596 6.1681 1.0886
7.0247 6.5357 1.1239
7.1259 6.9587 1.1675
6.8403 7.0108 1.1490
7.1854 7.7298 1.2388
6.4410 7.2739 1.1412
6.3169 7.4911 1.1517
6.1898 7.7111 1.1628
6.0595 7.9343 1.1748
5.3203 7.3271 1.0661
5.2126 7.5565 1.0814
3.0219 4.6156 0.6502
4.7450 7.6444 1.0610
4.1309 7.0288 0.9619
4.4616 8.0297 1.0843
4.3150 8.2284 1.0973
4.1649 8.4317 1.1111
5.4602 11.7619 1.5327
5.4101 12.4324 1.6032
5.3864 13.2442 1.6913
6.7800 17.8989 2.2649
6.4061 18.2306 2.2873
6.0075 18.5158 2.3049
5.5433 18.6061 2.2995
5.0905 18.7296 2.2995
4.6351 18.8426 2.2995
4.1772 18.9448 2.2995
3.7173 19.0363 2.2995
3.2554 19.1171 2.2995
2.7917 19.1872 2.2995
2.3267 19.2464 2.2995
1.8852 19.5501 2.3299
1.4559 20.2003 2.4028
0.9671 20.2282 2.4028
0.4777 20.2446 2.4028
-0.0118 20.2497 2.4028
-0.5014 20.2435 2.4028
-0.9907 20.2258 2.4028
-1.4795 20.1968 2.4028
-1.9675 20.1564 2.4028
-2.4544 20.1047 2.4028
-2.9400 20.0417 2.4028
-3.4242 19.9673 2.4028
-3.9065 19.8817 2.4028
-4.3868 19.7850 2.4028
-4.8648 19.6770 2.4028
-5.3403 19.5580 2.4028
-5.8130 19.4279 2.4028
-3.8108 11.6988 1.4574
-3.8084 10.7977 1.3559
-3.8063 10.0131 1.2682
-3.8045 9.3232 1.1917
-3.8028 8.7109 1.1245
-3.8014 8.1635 1.0650
-3.8000 7.6704 1.0119
-3.7988 7.2235 0.9644
-3.9878 7.1573 0.9677
-4.2174 7.1568 0.9807
-4.4536 7.1562 0.9946
-4.6969 7.1556 1.0096
-4.9481 7.1550 1.0255
-5.2077 7.1543 1.0426
-5.4766 7.1537 1.0609
-5.7556 7.1530 1.0805
-12.7479 15.0815 2.3228
-13.1167 14.7778 2.3228
-13.4785 14.4654 2.3228
-13.8330 14.1445 2.3228
-14.1802 13.8150 2.3228
-14.5198 13.4773 2.3228
-14.8515 13.1314 2.3228
-11.5412 9.7177 1.7665
-12.0132 9.6286 1.8013
-15.7981 12.0468 2.3228
-16.0968 11.6701 2.3228
-12.3565 8.5106 1.7515
-12.7047 8.3050 1.7705
-16.9395 10.4977 2.3228
-17.2022 10.0933 2.3228
-17.4554 9.6825 2.3228
-17.6990 9.2654 2.3228
-17.9328 8.8424 2.3228
-18.1568 8.4135 2.3228
-18.3707 7.9791 2.3228
-18.5743 7.5394 2.3228
-18.7677 7.0946 2.3228
-18.9506 6.6448 2.3228
-19.1229 6.1905 2.3228
-19.2845 5.7317 2.3228
-19.4352 5.2689 2.3228
-19.5750 4.8021 2.3228
-19.7037 4.3316 2.3228
-19.8211 3.8578 2.3228
-19.9274 3.3809 2.3228
-20.0223 2.9011 2.3228
-20.1057 2.4187 2.3228
-20.1776 1.9340 2.3228
-20.2378 1.4472 2.3228
-13.1966 0.6237 1.5110
-13.2950 0.3066 1.5195
-20.3484 -0.0226 2.3228
-20.3617 -0.5148 2.3228
-20.3630 -1.0076 2.3228
-20.3525 -1.5008 2.3228
-20.3300 -1.9941 2.3228
-15.4715 -1.8959 1.7707
-20.2491 -2.9796 2.3228
-20.1907 -3.4714 2.3228
-20.1203 -3.9620 2.3228
-20.0379 -4.4513 2.3228
-19.7454 -4.8897 2.2997
-19.6401 -5.3705 2.2997
-19.5231 -5.8489 2.2997
-19.3943 -6.3249 2.2997
-19.2539 -6.7979 2.2997
-19.1017 -7.2678 2.2997
-18.9380 -7.7343 2.2997
-18.7628 -8.1971 2.2997
-19.4088 -9.0438 2.4028
-19.2018 -9.5186 2.4028
-18.9831 -9.9885 2.4028
-18.7527 -10.4533 2.4028
-18.5107 -10.9128 2.4028
-18.2572 -11.3665 2.4028
-17.9925 -11.8141 2.4028
-17.7166 -12.2555 2.4028
-17.4296 -12.6903 2.4028
-17.1317 -13.1182 2.4028
-16.8232 -13.5389 2.4028
-14.9891 -12.6725 2.4028
-14.6889 -13.0399 2.4028
-13.9511 -13.0009 2.3312
-14.0609 -13.7526 2.4028
-13.7336 -14.0974 2.4028
-13.3976 -14.4342 2.4028
-13.0531 -14.7627 2.4028
-12.7004 -15.0829 2.4028
-12.3397 -15.3943 2.4028
-11.9711 -15.6968 2.4028
-11.5956 -15.9911 2.4029
-11.2116 -16.2748 2.4028
-10.8207 -16.5491 2.4028
-10.2573 -16.5465 2.3645
-9.7066 -16.5373 2.3279
-9.1958 -16.5713 2.2997
-8.7969 -16.7961 2.2997
-8.3922 -17.0109 2.2997
-7.9822 -17.2157 2.2997
-7.5670 -17.4102 2.2997
-7.1470 -17.5944 2.2997
-6.7223 -17.7680 2.2997
-6.2933 -17.9311 2.2997
-5.8602 -18.0834 2.2997
-5.4233 -18.2249 2.2997
-4.9829 -18.3554 2.2997
-4.5393 -18.4749 2.2997
-4.0927 -18.5833 2.2997
-3.6434 -18.6805 2.2997
-2.4943 -14.6654 1.7971
-2.7380 -18.8410 2.2997
-2.2956 -19.0118 2.3128
-1.8359 -19.0639 2.3128
-1.3751 -19.1044 2.3128
-0.9134 -19.1334 2.3128
-0.4511 -19.1508 2.3128
0.0115 -19.1566 2.3128
0.4742 -19.1508 2.3128
0.9365 -19.1334 2.3128
1.3983 -19.1044 2.3128
1.8591 -19.0639 2.3128
2.3188 -19.0118 2.3128
2.7770 -18.9483 2.3128
3.2334 -18.8733 2.3128
3.6877 -18.7868 2.3128
4.1396 -18.6890 2.3128
4.5888 -18.5800 2.3128
5.0351 -18.4598 2.3128
5.4782 -18.3285 2.3128
5.9177 -18.1861 2.3128
5.6941 -16.1615 2.0727
5.8576 -15.4263 1.9966
5.7544 -14.1173 1.8452
5.9476 -13.6392 1.8016
6.2496 -13.4364 1.7949
6.6048 -13.3474 1.8045
6.9806 -13.2894 1.8196
6.9616 -12.5096 1.7361
7.0302 -11.9446 1.6815
7.3195 -11.7759 1.6830
6.5952 -10.0602 1.4608
6.7237 -9.7350 1.4375
6.8729 -9.4543 1.4209
7.0465 -9.2166 1.4111
7.1653 -8.9171 1.3921
7.2679 -8.6103 1.3720
7.3818 -8.3285 1.3559
7.5991 -8.1673 1.3600
7.7594 -7.9458 1.3548
7.8381 -7.6478 1.3367
7.7820 -7.2346 1.2978
7.7487 -6.8623 1.2650
7.4208 -6.2587 1.1873
7.1008 -5.7010 1.1145
7.0189 -5.3616 1.0817
6.9896 -5.0767 1.0588
6.9989 -4.8296 1.0429
7.0078 -4.5899 1.0282
7.0780 -4.3953 1.0234
7.1805 -4.2221 1.0239
7.2381 -4.0238 1.0188
7.2944 -3.8275 1.0142
7.3926 -3.6540 1.0161
7.4476 -3.4599 1.0127
7.4960 -3.2646 1.0090
6.8440 -2.7860 0.9127
6.6839 -2.5343 0.8837
6.6269 -2.3312 0.8691
6.6043 -2.1454 0.8599
6.6454 -1.9826 0.8595
6.7001 -1.8239 0.8613
6.7209 -1.6562 0.8593
6.6165 -1.4619 0.8419
6.5098 -1.2742 0.8249
6.2025 -1.0591 0.7832
5.9646 -0.8707 0.7509
5.8912 -0.7151 0.7400
5.8189 -0.5640 0.7296
5.7569 -0.4179 0.7210
5.7041 -0.2757 0.7139
5.6785 -0.1371 0.7108
5.7107 0.0002 0.7152
5.7454 0.1390 0.7204
5.8023 0.2808 0.7288
5.8776 0.4270 0.7400
5.9589 0.5780 0.7525
6.1825 0.7509 0.7834
6.3804 0.9319 0.8118
6.4908 1.1088 0.8298
6.9630 1.3634 0.8949
7.2498 1.6024 0.9373
8.1682 2.0136 1.0629
8.2307 2.2414 1.0787
7.0758 2.1118 0.9345
6.9359 2.2540 0.9237
6.8276 2.4027 0.9176
6.7308 2.5531 0.9133
6.6352 2.7020 0.9097
6.5274 2.8439 0.9048
6.4193 2.9834 0.9003
6.3573 3.1436 0.9027
6.3463 3.3315 0.9130
7.4074 4.1199 1.0805
7.0961 4.1744 1.0503
6.7999 4.2247 1.0221
6.5410 4.2864 0.9992
6.9165 4.7753 1.0747
6.9098 5.0216 1.0930
6.9137 5.2844 1.1142
6.9520 5.5850 1.1426
6.9813 5.8918 1.1713
7.0295 6.2295 1.2051
7.1130 6.6174 1.2473
7.2253 7.0553 1.2974
6.7991 6.9680 1.2515
7.1428 7.6834 1.3494
6.7356 7.6061 1.3076
6.1803 7.3286 1.2345
6.0547 7.5424 1.2462
5.9260 7.7591 1.2587
5.9255 8.1601 1.3008
5.1947 7.5300 1.1806
3.0218 4.6151 0.7123
4.7269 7.6149 1.1578
4.5871 7.8046 1.1699
4.4442 7.9980 1.1830
4.2980 8.1956 1.1970
5.5064 11.1468 1.6088
5.4530 11.7457 1.6763
5.3964 12.4002 1.7513
5.8502 14.3837 2.0115
6.2516 16.5030 2.2868
5.8814 16.7366 2.2995
5.4735 16.8690 2.2995
5.0627 16.9918 2.2995
4.6492 17.1050 2.2995
4.2334 17.2085 2.2995
3.8153 17.3022 2.2995
3.3952 17.3861 2.2995
2.9734 17.4602 2.2995
2.5500 17.5244 2.2995
2.1252 17.5787 2.2995
1.7757 18.4144 2.4028
1.3299 18.4503 2.4028
0.8834 18.4759 2.4028
0.4364 18.4910 2.4028
-0.0108 18.4957 2.4028
-0.4580 18.4900 2.4028
-0.9049 18.4738 2.4028
-1.3514 18.4472 2.4028
-1.7971 18.4102 2.4028
-2.2418 18.3629 2.4028
-2.6854 18.3051 2.4028
-3.1276 18.2370 2.4028
-3.5681 18.1586 2.4028
-4.0067 18.0700 2.4028
-4.4433 17.9711 2.4028
-4.8774 17.8620 2.4028
-5.3090 17.7428 2.4028
-3.8108 11.6982 1.5958
-3.8084 10.7971 1.4846
-3.8063 10.0126 1.3886
-3.8045 9.3227 1.3049
-3.8028 8.7105 1.2314
-3.8014 8.1630 1.1662
-3.8000 7.6700 1.1082
-3.7988 7.2231 1.0562
-3.9883 7.1577 1.0600
-4.2179 7.1571 1.0743
-4.4541 7.1565 1.0895
-4.6974 7.1560 1.1059
-4.9486 7.1554 1.1235
-5.2083 7.1547 1.1423
-5.4773 7.1541 1.1624
-5.7563 7.1534 1.1839
-11.6355 13.7646 2.3228
-11.9715 13.4867 2.3228
-12.3010 13.2009 2.3228
-12.6239 12.9072 2.3228
-12.9400 12.6059 2.3228
-13.2492 12.2969 2.3228
-13.5511 11.9806 2.3228
-11.5403 9.7162 1.9360
-12.0115 9.6264 1.9741
-14.4121 10.9889 2.3228
-14.6836 10.6446 2.3228
-12.3553 8.5090 1.9200
-12.7036 8.3035 1.9410
-15.4492 9.5731 2.3228
-15.6876 9.2037 2.3228
-15.9174 8.8285 2.3228
-16.1383 8.4475 2.3228
-16.3504 8.0612 2.3228
-16.5534 7.6696 2.3228
-16.7471 7.2730 2.3228
-16.9315 6.8716 2.3228
-17.1065 6.4657 2.3228
-17.2718 6.0553 2.3228
-17.4275 5.6407 2.3228
-17.5733 5.2222 2.3228
-17.7093 4.8000 2.3228
-17.8351 4.3743 2.3228
-17.9510 3.9454 2.3228
-18.0565 3.5134 2.3228
-18.1518 3.0787 2.3228
-18.2367 2.6415 2.3228
-18.3111 2.2019 2.3228
-18.3750 1.7603 2.3228
-18.4283 1.3169 2.3228
-13.1950 0.6229 1.6593
-13.2936 0.3059 1.6688
-18.5243 -0.0215 2.3228
-18.5347 -0.4695 2.3228
-18.5344 -0.9180 2.3228
-18.5232 -1.3668 2.3228
-18.5011 -1.8156 2.3228
-15.4699 -1.8965 1.9456
-18.4243 -2.7121 2.3228
-18.3696 -3.1592 2.3228
-18.3040 -3.6053 2.3228
-18.2275 -4.0500 2.3228
-18.1401 -4.4932 2.3228
-17.8627 -4.8854 2.2997
-17.7547 -5.3201 2.2997
-17.6361 -5.7524 2.2997
-17.5069 -6.1821 2.2997
-17.3671 -6.6088 2.2997
-17.2169 -7.0323 2.2997
-17.0561 -7.4524 2.2997
-16.8850 -7.8688 2.2997
-16.7036 -8.2811 2.2997
-17.2522 -9.0788 2.4028
-17.0415 -9.5005 2.4028
-16.8203 -9.9172 2.4028
-16.5887 -10.3287 2.4028
-16.3469 -10.7346 2.4028
-16.0950 -11.1348 2.4028
-15.8331 -11.5289 2.4028
-15.5614 -11.9168 2.4028
-15.2801 -12.2980 2.4028
-13.7257 -11.6053 2.4028
-13.4500 -11.9410 2.4028
-13.1659 -12.2701 2.4028
-12.8735 -12.5922 2.4028
-12.5732 -12.9072 2.4028
-12.2649 -13.2148 2.4028
-11.9490 -13.5149 2.4028
-11.6261 -13.8080 2.4029
-11.2971 -14.0946 2.4033
-10.9603 -14.3723 2.4035
-10.6149 -14.6397 2.4034
-10.2629 -14.8986 2.4033
-9.9055 -15.1503 2.4035
-9.5413 -15.3925 2.4035
-9.1701 -15.6241 2.4033
-8.7931 -15.8466 2.4031
-8.4107 -16.0597 2.4029
-8.0229 -16.2633 2.4028
-7.5563 -16.2982 2.3794
-7.0309 -16.1778 2.3355
-6.5386 -16.0977 2.2997
-6.1539 -16.2667 2.3011
-5.7573 -16.4049 2.2997
-5.3610 -16.5438 2.2997
-4.9612 -16.6728 2.2997
-4.5582 -16.7918 2.2997
-4.1523 -16.9008 2.2997
-3.7437 -16.9996 2.2997
-3.3327 -17.0882 2.2997
-2.4925 -14.6558 1.9633
-2.5045 -17.2346 2.2997
-2.0878 -17.2922 2.2997
-1.6698 -17.3394 2.2997
-1.2506 -17.3761 2.2997
-0.8307 -17.4024 2.2997
-0.4102 -17.4181 2.2997
0.0106 -17.5225 2.3128
0.4337 -17.5172 2.3128
0.8566 -17.5014 2.3128
1.2790 -17.4749 2.3128
1.7005 -17.4379 2.3128
2.1210 -17.3904 2.3128
2.5400 -17.3324 2.3128
2.9575 -17.2640 2.3128
3.3731 -17.1852 2.3128
3.7865 -17.0960 2.3128
4.1975 -16.9965 2.3128
4.6059 -16.8869 2.3128
5.0112 -16.7671 2.3128
5.4134 -16.6372 2.3128
5.6602 -16.0660 2.2523
5.6986 -15.0083 2.1233
5.7609 -14.1340 2.0193
5.9537 -13.6541 1.9713
6.2507 -13.4395 1.9622
6.6027 -13.3439 1.9716
6.9600 -13.2508 1.9829
7.2821 -13.0863 1.9848
6.9611 -11.8279 1.8196
7.2476 -11.6608 1.8211
6.5427 -9.9807 1.5837
6.6886 -9.6847 1.5626
6.8250 -9.3889 1.5417
6.9815 -9.1321 1.5276
7.0858 -8.8186 1.5041
7.2077 -8.5395 1.4865
7.2722 -8.2053 1.4593
7.4594 -8.0178 1.4584
7.5775 -7.7601 1.4452
7.7481 -7.5606 1.4433
7.6854 -7.1453 1.3999
7.5569 -6.6929 1.3474
7.2718 -6.1334 1.2706
7.0558 -5.6653 1.2093
6.9686 -5.3237 1.1728
6.9614 -5.0566 1.1514
6.9711 -4.8108 1.1342
6.9804 -4.5723 1.1182
7.0215 -4.3606 1.1084
7.0949 -4.1722 1.1045
7.1854 -3.9950 1.1040
7.2851 -3.8230 1.1056
7.3645 -3.6405 1.1048
7.4024 -3.4393 1.0985
7.4396 -3.2404 1.0929
6.6754 -2.7177 0.9714
6.6007 -2.5031 0.9522
6.5556 -2.3065 0.9381
6.5514 -2.1286 0.9306
6.6031 -1.9703 0.9316
6.6579 -1.8127 0.9336
6.5766 -1.6210 0.9172
6.4718 -1.4302 0.8982
6.3271 -1.2387 0.8744
6.0627 -1.0355 0.8349
5.8915 -0.8604 0.8088
5.8294 -0.7079 0.7984
5.7887 -0.5614 0.7914
5.7423 -0.4171 0.7840
5.6898 -0.2753 0.7764
5.6770 -0.1373 0.7746
5.7091 -0.0001 0.7794
5.7416 0.1387 0.7847
5.7825 0.2796 0.7916
5.8572 0.4253 0.8036
5.9424 0.5761 0.8177
6.1878 0.7512 0.8544
6.2580 0.9137 0.8676
6.3128 1.0781 0.8792
6.9422 1.3590 0.9720
7.2290 1.5975 1.0180
8.1284 2.0034 1.1521
8.1459 2.2178 1.1627
7.0382 2.1002 1.0123
6.9231 2.2495 1.0041
6.8220 2.4004 0.9983
6.7352 2.5544 0.9951
6.6422 2.7045 0.9915
6.5341 2.8465 0.9861
6.4262 2.9863 0.9811
6.3833 3.1561 0.9867
6.3625 3.3396 0.9964
7.3928 4.1113 1.1738
7.1256 4.1914 1.1479
6.8224 4.2382 1.1160
6.5357 4.2825 1.0865
6.9141 4.7733 1.1690
6.9136 5.0239 1.1899
6.9207 5.2893 1.2136
6.9592 5.5903 1.2445
7.0285 5.9312 1.2829
7.1112 6.3015 1.3263
7.2211 6.7174 1.3775
7.3455 7.1721 1.4347
7.4680 7.6530 1.4952
7.6963 8.2782 1.5814
6.6036 7.4565 1.3943
7.1726 8.5047 1.5582
6.4176 7.9939 1.4365
6.0397 7.9074 1.3950
5.9081 8.1356 1.4103
5.5030 7.9765 1.3599
3.0217 4.6146 0.7744
4.7089 7.5854 1.2541
4.5695 7.7741 1.2671
4.4270 7.9665 1.2812
5.6084 10.6935 1.6981
5.4500 11.0320 1.7311
5.4487 11.7357 1.8209
5.3697 12.3380 1.8943
5.9250 14.5668 2.2146
5.7788 15.2540 2.2978
5.4107 15.3961 2.2995
5.0355 15.5183 2.2995
4.6577 15.6317 2.2995
4.2774 15.7361 2.2995
3.8949 15.8316 2.2995
2.4842 11.2654 1.6274
3.1238 15.9955 2.2995
2.7357 16.0639 2.2995
2.3462 16.1232 2.2995
1.9554 16.1733 2.2995
1.6339 16.9423 2.4028
1.2237 16.9755 2.4028
0.8128 16.9991 2.4028
0.4015 17.0130 2.4028
-0.0099 17.0174 2.4028
-0.4214 17.0121 2.4028
-0.8326 16.9972 2.4028
-1.2434 16.9727 2.4028
-1.6535 16.9386 2.4028
-2.0627 16.8949 2.4028
-2.4708 16.8417 2.4028
-2.8776 16.7789 2.4028
-3.2829 16.7065 2.4028
-3.6865 16.6248 2.4028
-4.0880 16.5335 2.4028
-4.4874 16.4329 2.4028
-4.8844 16.3229 2.4028
-3.8108 11.6976 1.7346
-3.8084 10.7965 1.6138
-3.8063 10.0121 1.5094
-3.8045 9.3222 1.4185
-3.8028 8.7100 1.3385
-3.8014 8.1626 1.2678
-3.8000 7.6696 1.2047
-3.7988 7.2227 1.1482
-3.9887 7.1580 1.1525
-4.2183 7.1575 1.1681
-4.4546 7.1569 1.1847
-4.6980 7.1563 1.2026
-4.9492 7.1557 1.2217
-5.2089 7.1551 1.2422
-5.4779 7.1545 1.2641
-5.7570 7.1538 1.2876
-10.6993 12.6562 2.3228
-11.0078 12.4002 2.3228
-11.3103 12.1368 2.3228
-11.6066 11.8663 2.3228
-11.8967 11.5886 2.3228
-12.1803 11.3040 2.3228
-12.4572 11.0127 2.3228
-11.5394 9.7146 2.1060
-12.0097 9.6242 2.1474
-13.2466 10.0995 2.3228
-13.4954 9.7825 2.3228
-12.3540 8.5074 2.0889
-12.7025 8.3020 2.1119
-14.1967 8.7962 2.3228
-14.4149 8.4562 2.3228
-14.6252 8.1109 2.3228
-14.8273 7.7604 2.3228
-15.0212 7.4050 2.3228
-15.2068 7.0449 2.3228
-15.3838 6.6801 2.3228
-15.5522 6.3110 2.3228
-15.7118 5.9377 2.3228
-15.8627 5.5604 2.3228
-16.0046 5.1793 2.3228
-16.1374 4.7947 2.3228
-16.2611 4.4067 2.3228
-16.3756 4.0155 2.3228
-16.4808 3.6214 2.3228
-16.5766 3.2246 2.3228
-16.6629 2.8253 2.3228
-16.7397 2.4238 2.3228
-16.8068 2.0201 2.3228
-16.8643 1.6147 2.3228
-16.9120 1.2077 2.3228
-13.1933 0.6222 1.8079
-13.2921 0.3052 1.8185
-16.9964 -0.0206 2.3228
-17.0048 -0.4316 2.3228
-17.0033 -0.8431 2.3228
-16.9918 -1.2547 2.3228
-16.9703 -1.6663 2.3228
-15.4682 -1.8971 2.1211
-16.8974 -2.4882 2.3228
-16.8460 -2.8981 2.3228
-16.7846 -3.3069 2.3228
-16.7133 -3.7145 2.3228
-16.6320 -4.1205 2.3228
-16.5408 -4.5247 2.3228
-16.2763 -4.8780 2.2997
-16.1664 -5.2739 2.2997
-16.0469 -5.6674 2.2997
-15.9177 -6.0581 2.2997
-15.7788 -6.4458 2.2997
-15.6305 -6.8304 2.2997
-15.4726 -7.2114 2.2997
-15.3054 -7.5888 2.2997
-15.1288 -7.9622 2.2997
-14.9430 -8.3315 2.2997
-15.4092 -9.0862 2.4028
-15.1961 -9.4625 2.4028
-14.9736 -9.8337 2.4028
-14.7419 -10.1997 2.4028
-14.5012 -10.5600 2.4028
-14.2515 -10.9145 2.4028
-13.9930 -11.2630 2.4028
-12.6558 -10.7015 2.4028
-12.4009 -11.0105 2.4028
-12.1384 -11.3134 2.4028
-11.8683 -11.6098 2.4028
-11.5918 -11.9007 2.4030
-11.3086 -12.1854 2.4033
-11.0184 -12.4632 2.4036
-10.7212 -12.7340 2.4039
-10.4160 -12.9961 2.4040
-10.1049 -13.2515 2.4042
-9.7875 -13.4993 2.4045
-9.4639 -13.7394 2.4047
-9.1328 -13.9694 2.4046
-8.7959 -14.1909 2.4044
-8.4534 -14.4040 2.4042
-8.1056 -14.6085 2.4040
-7.7528 -14.8043 2.4038
-7.3950 -14.9913 2.4036
-7.0326 -15.1695 2.4034
-6.6659 -15.3386 2.4032
-6.2950 -15.4987 2.4030
-5.9201 -15.6494 2.4028
-5.4889 -15.6410 2.3797
-5.0064 -15.4506 2.3311
-4.5705 -15.3608 2.2997
-4.1992 -15.4702 2.2997
-3.8252 -15.5703 2.2997
-3.4487 -15.6611 2.2997
-3.0700 -15.7425 2.2997
-2.4907 -14.6462 2.1298
-2.3070 -15.8769 2.2997
-1.9232 -15.9298 2.2997
-1.5381 -15.9732 2.2997
-1.1522 -16.0096 2.3001
-0.7656 -16.0393 2.3009
-0.3782 -16.0590 2.3016
0.0097 -16.0679 2.3022
0.3978 -16.0673 2.3028
0.7859 -16.0571 2.3034
1.1737 -16.0373 2.3041
1.5664 -16.0638 2.3128
1.9537 -16.0202 2.3128
2.3398 -15.9669 2.3128
2.7244 -15.9040 2.3128
3.1073 -15.8315 2.3128
3.4882 -15.7496 2.3128
3.8668 -15.6582 2.3128
4.2430 -15.5574 2.3128
4.6166 -15.4473 2.3128
4.9871 -15.3279 2.3128
5.3546 -15.1994 2.3128
5.5781 -14.6919 2.2559
5.7688 -14.1543 2.1948
5.9680 -13.6876 2.1447
6.2440 -13.4260 2.1274
6.6026 -13.3443 2.1398
6.9301 -13.1947 2.1428
7.2481 -13.0260 2.1439
6.8932 -11.7131 1.9554
7.1768 -11.5477 1.9569
7.4603 -11.3811 1.9595
6.6676 -9.6549 1.6903
6.7922 -9.3444 1.6649
6.9208 -9.0532 1.6430
7.0366 -8.7579 1.6206
7.1402 -8.4600 1.5977
7.1781 -8.0997 1.5627
7.3300 -7.8792 1.5547
7.4768 -7.6575 1.5469
7.6200 -7.4361 1.5398
7.5973 -7.0639 1.5011
7.4653 -6.6123 1.4438
7.1415 -6.0240 1.3534
7.0112 -5.6300 1.3033
6.9227 -5.2890 1.2635
6.9333 -5.0367 1.2436
6.9435 -4.7922 1.2251
6.9528 -4.5547 1.2077
6.9788 -4.3345 1.1945
7.0785 -4.1629 1.1947
7.1780 -3.9913 1.1957
7.2776 -3.8195 1.1974
7.3196 -3.6188 1.1903
7.3576 -3.4189 1.1835
7.3948 -3.2213 1.1775
6.6026 -2.6884 1.0414
6.5089 -2.4687 1.0176
6.4916 -2.2843 1.0067
6.5089 -2.1151 1.0019
6.5605 -1.9580 1.0030
6.6162 -1.8017 1.0053
6.4325 -1.5858 0.9720
6.3330 -1.3999 0.9523
6.1406 -1.2025 0.9194
5.9059 -1.0091 0.8810
5.8471 -0.8542 0.8695
5.8047 -0.7052 0.8611
5.7678 -0.5597 0.8540
5.7279 -0.4164 0.8470
5.6756 -0.2749 0.8387
5.6755 -0.1376 0.8385
5.7076 -0.0004 0.8437
5.7337 0.1382 0.8484
5.7770 0.2790 0.8562
5.8369 0.4235 0.8670
5.9259 0.5742 0.8827
6.0879 0.7388 0.9099
6.1399 0.8961 0.9213
6.1922 1.0572 0.9334
6.5298 1.2779 0.9894
7.2072 1.5923 1.0984
8.0472 1.9829 1.2343
7.5096 2.0442 1.1599
7.0261 2.0962 1.0935
6.9271 2.2504 1.0870
6.8268 2.4017 1.0809
6.7559 2.5619 1.0799
6.6626 2.7124 1.0759
6.5539 2.8547 1.0699
6.4715 3.0070 1.0688
6.4319 3.1798 1.0753
6.3866 3.3519 1.0817
7.3840 4.1060 1.2679
7.1141 4.1842 1.2394
6.8117 4.2312 1.2050
6.5257 4.2756 1.1731
6.9117 4.7712 1.2636
6.9132 5.0232 1.2865
6.9412 5.3046 1.3160
6.9929 5.6170 1.3519
7.1102 5.9996 1.4031
7.2069 6.3858 1.4530
7.3408 6.8283 1.5137
7.4267 7.2509 1.5680
7.5118 7.6973 1.6256
7.7745 8.3617 1.7266
7.3400 8.2875 1.6750
6.8017 8.0643 1.5970
6.6293 8.2570 1.6037
6.0222 7.8839 1.5032
5.8908 8.1111 1.5196
5.4462 7.8935 1.4544
3.0216 4.6142 0.8368
4.7393 7.6339 1.3638
4.5519 7.7438 1.3639
4.4098 7.9351 1.3789
5.5573 10.5955 1.8180
5.3940 10.9181 1.8511
5.4464 11.7300 1.9664
5.3461 12.2832 2.0375
5.5743 13.7038 2.2509
5.3531 14.1296 2.2995
5.0086 14.2512 2.2995
4.6614 14.3646 2.2995
4.3117 14.4698 2.2995
3.9598 14.5667 2.2995
3.6057 14.6553 2.2995
2.4832 11.2599 1.7571
2.8920 14.8075 2.2995
2.5327 14.8709 2.2995
2.1721 14.9259 2.2995
1.8916 15.6447 2.4028
1.5127 15.6845 2.4028
1.1329 15.7153 2.4028
0.7525 15.7372 2.4028
0.3718 15.7502 2.4028
-0.0092 15.7543 2.4028
-0.3901 15.7494 2.4028
-0.7708 15.7356 2.4028
-1.1511 15.7129 2.4028
-1.5308 15.6812 2.4028
-1.9097 15.6407 2.4028
-2.2875 15.5913 2.4028
-2.6641 15.5330 2.4028
-3.0393 15.4659 2.4028
-3.4128 15.3900 2.4028
-3.7846 15.3054 2.4028
-4.1542 15.2120 2.4028
-4.5217 15.1100 2.4028
-3.8108 11.6970 1.8737
-3.8032 10.7813 1.7409
-3.8063 10.0116 1.6306
-3.8045 9.3217 1.5324
-3.8028 8.7095 1.4461
-3.8014 8.1621 1.3696
-3.8000 7.6691 1.3015
-3.7988 7.2223 1.2405
-3.9891 7.1584 1.2454
-4.2188 7.1579 1.2622
-4.4550 7.1573 1.2802
-4.6985 7.1567 1.2996
-4.9498 7.1561 1.3203
-5.2095 7.1555 1.3425
-5.4786 7.1549 1.3662
-5.7577 7.1542 1.3917
-9.8019 11.5939 2.2997
-10.1854 11.4730 2.3228
-10.4648 11.2288 2.3228
-10.7386 10.9781 2.3228
-11.0065 10.7207 2.3228
-11.2684 10.4570 2.3228
-11.5242 10.1871 2.3228
-11.5385 9.7131 2.2764
-12.0079 9.6221 2.3211
-12.2528 9.3410 2.3228
-12.4824 9.0473 2.3228
-12.3528 8.5057 2.2584
-12.7014 8.3004 2.2833
-13.1291 8.1339 2.3228
-13.3302 7.8191 2.3228
-13.5240 7.4994 2.3228
-13.7102 7.1750 2.3228
-13.8887 6.8460 2.3228
-14.0595 6.5126 2.3228
-14.2224 6.1750 2.3228
-14.3774 5.8335 2.3228
-14.5242 5.4880 2.3228
-14.6628 5.1390 2.3228
-14.7931 4.7865 2.3228
-14.9150 4.4307 2.3228
-15.0285 4.0719 2.3228
-15.1335 3.7101 2.3228
-15.2298 3.3457 2.3228
-15.3174 2.9789 2.3228
-15.3962 2.6098 2.3228
-15.4662 2.2386 2.3228
-15.5273 1.8655 2.3228
-15.5795 1.4909 2.3228
-15.6227 1.1148 2.3228
-13.1916 0.6214 1.9570
-13.2907 0.3045 1.9686
-15.6978 -0.0198 2.3228
-15.7046 -0.3994 2.3228
-15.7022 -0.7794 2.3228
-15.6906 -1.1594 2.3228
-15.6698 -1.5394 2.3228
-15.4666 -1.8977 2.2970
-15.6006 -2.2980 2.3228
-15.5522 -2.6763 2.3228
-15.4946 -3.0536 2.3228
-15.4278 -3.4296 2.3228
-15.3518 -3.8041 2.3228
-15.2667 -4.1770 2.3228
-15.1725 -4.5480 2.3228
-14.9194 -4.8679 2.2997
-14.8082 -5.2307 2.2997
-14.6881 -5.5909 2.2997
-14.5591 -5.9484 2.2997
-14.4214 -6.3028 2.2997
-14.2749 -6.6540 2.2997
-14.1198 -7.0018 2.2997
-13.9561 -7.3459 2.2997
-13.7839 -7.6861 2.2997
-13.6034 -8.0222 2.2997
-13.4446 -8.3727 2.3048
-13.8099 -9.0704 2.4028
-13.5956 -9.4073 2.4028
-13.3728 -9.7392 2.4028
-13.1419 -10.0656 2.4028
-12.9028 -10.3864 2.4028
-11.7381 -9.9263 2.4028
-11.5025 -10.2136 2.4031
-11.2598 -10.4953 2.4034
-11.0098 -10.7708 2.4036
-10.7525 -11.0398 2.4037
-10.4885 -11.3025 2.4038
-10.2190 -11.5599 2.4042
-9.9435 -11.8112 2.4046
-9.6617 -12.0558 2.4051
-9.3737 -12.2935 2.4055
-9.0787 -12.5226 2.4057
-8.7766 -12.7425 2.4055
-8.4691 -12.9550 2.4053
-8.1563 -13.1599 2.4051
-7.8386 -13.3571 2.4049
-7.5158 -13.5463 2.4047
-7.1884 -13.7275 2.4045
-6.8566 -13.9006 2.4043
-6.5204 -14.0655 2.4041
-6.1803 -14.2220 2.4039
-5.8362 -14.3700 2.4037
-5.4885 -14.5094 2.4035
-5.1374 -14.6403 2.4032
-4.7832 -14.7624 2.4030
-4.4259 -14.8757 2.4028
-4.0640 -14.9730 2.4015
-3.6131 -14.7078 2.3438
-3.1961 -14.5146 2.2997
-2.8451 -14.5899 2.2997
-2.4890 -14.6366 2.2966
-2.1384 -14.7169 2.3001
-1.7831 -14.7702 2.3008
-1.4265 -14.8149 2.3015
-1.0687 -14.8507 2.3022
-0.7101 -14.8778 2.3030
-0.3508 -14.8947 2.3035
0.0090 -14.9027 2.3040
0.3690 -14.9018 2.3046
0.7288 -14.8921 2.3052
1.0881 -14.8685 2.3050
1.4464 -14.8332 2.3044
1.8035 -14.7889 2.3038
2.1593 -14.7357 2.3031
2.5135 -14.6737 2.3025
2.8796 -14.6722 2.3128
3.2326 -14.5964 2.3128
3.5836 -14.5118 2.3128
3.9323 -14.4186 2.3128
4.2785 -14.3168 2.3128
4.6220 -14.2064 2.3128
4.9626 -14.0876 2.3128
5.3001 -13.9603 2.3128
5.6342 -13.8247 2.3128
5.9648 -13.6810 2.3128
6.2350 -13.4074 2.2919
6.5968 -13.3334 2.3066
6.9004 -13.1389 2.3018
7.2188 -12.9740 2.3036
7.8244 -13.2962 2.3945
8.4064 -13.5268 2.4728
8.7273 -13.3149 2.4728
6.6466 -9.6251 1.8175
6.7707 -9.3154 1.7901
6.8948 -9.0198 1.7656
6.9951 -8.7069 1.7377
7.0593 -8.3647 1.7037
7.1367 -8.0536 1.6757
7.2670 -7.8120 1.6623
7.3822 -7.5612 1.6472
7.4913 -7.3111 1.6324
7.5093 -6.9826 1.5999
7.3570 -6.5169 1.5343
7.0562 -5.9525 1.4419
6.9379 -5.5716 1.3906
6.8928 -5.2666 1.3564
6.9036 -5.0155 1.3350
6.9138 -4.7721 1.3151
6.9303 -4.5404 1.2977
6.9716 -4.3305 1.2863
7.0712 -4.1590 1.2865
7.1707 -3.9876 1.2875
7.2362 -3.7982 1.2832
7.2751 -3.5972 1.2751
7.3131 -3.3987 1.2678
7.3619 -3.2074 1.2633
6.5601 -2.6715 1.1150
6.4549 -2.4485 1.0875
6.4360 -2.2651 1.0755
6.4731 -2.1038 1.0736
6.5266 -1.9482 1.0751
6.5424 -1.7820 1.0710
6.3260 -1.5599 1.0298
6.1995 -1.3707 1.0042
5.9763 -1.1707 0.9639
5.8673 -1.0028 0.9427
5.8221 -0.8508 0.9325
5.7801 -0.7025 0.9235
5.7469 -0.5579 0.9164
5.7134 -0.4156 0.9098
5.6615 -0.2745 0.9009
5.6739 -0.1378 0.9027
5.7060 -0.0007 0.9082
5.7204 0.1376 0.9114
5.7722 0.2785 0.9211
5.8255 0.4224 0.9316
5.9217 0.5735 0.9496
5.9761 0.7249 0.9615
6.0258 0.8792 0.9733
6.0757 1.0370 0.9858
6.2839 1.2295 1.0248
7.1326 1.5754 1.1699
7.9660 1.9625 1.3149
7.3412 1.9980 1.2202
7.0219 2.0946 1.1760
6.9271 2.2500 1.1697
6.8316 2.4030 1.1638
6.7637 2.5645 1.1632
6.6831 2.7204 1.1611
6.5871 2.8688 1.1569
6.5184 3.0284 1.1581
6.4768 3.2016 1.1648
6.4110 3.3643 1.1680
7.3724 4.0991 1.3616
7.1027 4.1770 1.3309
6.8010 4.2241 1.2939
6.9988 4.5850 1.3530
6.9236 4.7789 1.3612
6.9333 5.0373 1.3875
6.9749 5.3299 1.4220
7.0649 5.6743 1.4687
7.1947 6.0704 1.5266
7.2609 6.4332 1.5740
7.3253 6.8133 1.6240
7.4294 7.2530 1.6864
7.5173 7.7023 1.7489
7.6081 8.1821 1.8165
7.6225 8.6058 1.8699
7.5736 8.9789 1.9115
6.6322 8.2601 1.7246
6.1096 7.9978 1.6392
5.8735 8.0868 1.6286
5.4743 7.9339 1.5713
3.0214 4.6137 0.8993
4.7180 7.5990 1.4592
4.5344 7.7136 1.4602
5.6954 10.2479 1.9140
5.4903 10.4670 1.9302
5.3354 10.7988 1.9676
5.4336 11.7019 2.1083
5.3112 12.2023 2.1753
5.2995 13.0274 2.2995
4.9816 13.1483 2.2995
4.6611 13.2616 2.2995
4.3381 13.3674 2.2995
4.0127 13.4655 2.2995
3.6852 13.5559 2.2995
3.3557 13.6385 2.2995
2.4821 11.2543 1.8872
2.6915 13.7805 2.2995
2.3572 13.8397 2.2995
2.0216 13.8910 2.2995
1.7606 14.5600 2.4028
1.4079 14.5971 2.4028
1.0544 14.6259 2.4028
0.7004 14.6463 2.4028
0.3460 14.6585 2.4028
-0.0085 14.6623 2.4028
-0.3631 14.6577 2.4028
-0.7174 14.6449 2.4028
-1.0714 14.6237 2.4028
-1.4248 14.5942 2.4028
-1.7774 14.5564 2.4028
-2.1290 14.5103 2.4028
-2.4795 14.4560 2.4028
-2.8287 14.3934 2.4028
-3.1763 14.3226 2.4028
-3.5222 14.2437 2.4028
-3.8662 14.1567 2.4028
-4.2082 14.0615 2.4028
-3.8108 11.6964 2.0134
-3.7696 10.6853 1.8541
-3.8063 10.0110 1.7522
-3.8045 9.3212 1.6467
-3.8028 8.7091 1.5539
-3.8014 8.1617 1.4718
-3.8000 7.6687 1.3987
-3.7988 7.2219 1.3332
-3.9895 7.1588 1.3385
-4.2192 7.1582 1.3566
-4.4555 7.1577 1.3761
-4.6990 7.1571 1.3969
-4.9503 7.1565 1.4192
-5.2102 7.1559 1.4431
-5.4792 7.1553 1.4687
-5.7584 7.1546 1.4961
-9.1187 10.7851 2.2997
-9.3809 10.5661 2.2997
-9.6380 10.3409 2.2997
-9.8898 10.1096 2.2997
-10.2380 9.9714 2.3228
-10.4812 9.7258 2.3228
-10.7187 9.4743 2.3228
-10.9502 9.2172 2.3228
-11.1757 8.9545 2.3228
-11.3951 8.6863 2.3228
-11.6081 8.4129 2.3228
-11.8147 8.1344 2.3228
-12.0147 7.8509 2.3228
-12.2080 7.5625 2.3228
-12.3945 7.2695 2.3228
-12.5741 6.9719 2.3228
-12.7467 6.6700 2.3228
-12.9121 6.3638 2.3228
-13.0703 6.0536 2.3228
-13.2211 5.7395 2.3228
-13.3645 5.4218 2.3228
-13.5003 5.1004 2.3228
-13.6285 4.7757 2.3228
-13.7490 4.4479 2.3228
-13.8616 4.1170 2.3228
-13.9664 3.7833 2.3228
-14.0632 3.4470 2.3228
-14.1520 3.1082 2.3228
-14.2327 2.7672 2.3228
-14.3052 2.4241 2.3228
-14.3695 2.0791 2.3228
-14.4255 1.7324 2.3228
-14.4733 1.3843 2.3228
-14.5126 1.0348 2.3228
-13.1899 0.6207 2.1066
-13.2892 0.3038 2.1191
-14.5801 -0.0192 2.3228
-14.5856 -0.3717 2.3228
-14.5826 -0.7245 2.3228
-14.5711 -1.0775 2.3228
-14.5510 -1.4302 2.3228
-14.5224 -1.7826 2.3228
-14.4853 -2.1345 2.3228
-14.4396 -2.4856 2.3228
-14.3853 -2.8357 2.3228
-14.3225 -3.1847 2.3228
-14.2513 -3.5322 2.3228
-14.1715 -3.8781 2.3228
-14.0833 -4.2222 2.3228
-13.9867 -4.5644 2.3228
-13.7438 -4.8555 2.2997
-13.6316 -5.1895 2.2997
-13.5112 -5.5210 2.2997
-13.3827 -5.8496 2.2997
-13.2462 -6.1752 2.2997
-13.1016 -6.4976 2.2997
-12.9491 -6.8166 2.2997
-12.7887 -7.1319 2.2997
-12.6206 -7.4434 2.2997
-12.4448 -7.7508 2.2997
-12.2614 -8.0540 2.2997
-12.0705 -8.3529 2.2997
-12.4044 -9.0347 2.4028
-12.1897 -9.3371 2.4028
-11.9674 -9.6342 2.4028
-10.9426 -9.2543 2.4030
-10.7219 -9.5212 2.4031
-10.4946 -9.7828 2.4032
-10.2611 -10.0391 2.4034
-10.0221 -10.2906 2.4038
-9.7769 -10.5364 2.4042
-9.5256 -10.7762 2.4046
-9.2676 -11.0091 2.4049
-9.0037 -11.2356 2.4051
-8.7342 -11.4555 2.4053
-8.4591 -11.6688 2.4055
-8.1788 -11.8753 2.4057
-7.8932 -12.0749 2.4058
-7.6016 -12.2656 2.4057
-7.3052 -12.4490 2.4055
-7.0043 -12.6251 2.4053
-6.6990 -12.7937 2.4051
-6.3897 -12.9548 2.4049
-6.0763 -13.1081 2.4047
-5.7591 -13.2537 2.4045
-5.4384 -13.3914 2.4043
-5.1143 -13.5211 2.4040
-4.7871 -13.6427 2.4038
-4.4569 -13.7562 2.4036
-4.1239 -13.8615 2.4034
-3.7884 -13.9586 2.4032
-3.4506 -14.0473 2.4030
-3.1107 -14.1277 2.4028
-2.7601 -14.1550 2.3950
-2.3543 -13.8455 2.3321
-1.9936 -13.7216 2.3021
-1.6623 -13.7708 2.3028
-1.3298 -13.8120 2.3034
-0.9963 -13.8451 2.3041
-0.6619 -13.8692 2.3047
-0.3269 -13.8846 2.3051
0.0084 -13.8886 2.3051
0.3437 -13.8812 2.3046
0.6786 -13.8654 2.3041
1.0129 -13.8412 2.3035
1.3464 -13.8086 2.3029
1.6789 -13.7677 2.3023
2.0101 -13.7186 2.3017
2.3400 -13.6611 2.3011
2.6681 -13.5954 2.3005
2.9943 -13.5211 2.2998
3.3193 -13.4422 2.2997
3.6630 -13.4320 2.3128
3.9856 -13.3373 2.3128
4.3056 -13.2347 2.3128
4.6230 -13.1242 2.3128
4.9375 -13.0058 2.3128
5.2488 -12.8798 2.3128
5.5569 -12.7461 2.3128
5.8615 -12.6048 2.3128
6.1624 -12.4561 2.3128
6.8709 -13.0834 2.4601
7.2196 -12.9762 2.4728
7.5284 -12.7940 2.4728
7.8325 -12.6042 2.4728
8.1317 -12.4070 2.4728
6.6994 -9.7021 1.9661
6.7648 -9.3078 1.9195
6.8689 -8.9865 1.8876
6.9540 -8.6563 1.8538
7.0214 -8.3204 1.8184
7.0952 -8.0073 1.7876
7.2048 -7.7457 1.7684
7.2897 -7.4670 1.7452
7.3686 -7.1918 1.7228
7.4359 -6.9148 1.6998
7.2783 -6.4477 1.6285
6.9703 -5.8805 1.5281
6.9023 -5.5434 1.4842
6.8623 -5.2438 1.4487
6.8735 -4.9941 1.4259
6.8871 -4.7541 1.4052
6.9274 -4.5389 1.3914
6.9670 -4.3280 1.3787
7.0639 -4.1552 1.3784
7.1521 -3.9777 1.3773
7.1920 -3.7754 1.3678
7.2341 -3.5773 1.3598
7.2848 -3.3859 1.3543
7.3347 -3.1960 1.3497
6.4977 -2.6464 1.1843
6.4044 -2.4297 1.1569
6.3848 -2.2474 1.1440
6.4412 -2.0938 1.1454
6.4950 -1.9391 1.1470
6.4373 -1.7537 1.1297
6.2283 -1.5361 1.0869
6.0564 -1.3394 1.0516
5.9438 -1.1646 1.0275
5.8362 -0.9978 1.0051
5.7972 -0.8475 0.9952
5.7556 -0.6998 0.9856
5.7261 -0.5562 0.9786
5.6990 -0.4149 0.9726
5.6473 -0.2741 0.9630
5.6724 -0.1381 0.9670
5.6991 -0.0010 0.9719
5.7150 0.1371 0.9756
5.7673 0.2779 0.9860
5.8205 0.4217 0.9972
5.8514 0.5664 1.0052
5.8679 0.7115 1.0114
5.9155 0.8628 1.0235
5.9632 1.0175 1.0364
6.0974 1.1927 1.0651
7.0593 1.5588 1.2402
7.8862 1.9424 1.3942
7.2572 1.9747 1.2919
7.0205 2.0938 1.2592
6.9256 2.2491 1.2523
6.8369 2.4045 1.2472
6.7695 2.5663 1.2466
6.7023 2.7279 1.2468
6.6353 2.8894 1.2477
6.5661 3.0502 1.2490
6.5016 3.2135 1.2519
6.4356 3.3769 1.2552
7.3573 4.0903 1.4547
7.1609 4.2108 1.4364
6.8215 4.2364 1.3893
7.0127 4.5938 1.4512
6.9409 4.7904 1.4607
6.9660 5.0606 1.4921
7.0196 5.3635 1.5317
7.1258 5.7228 1.5854
7.1795 6.0571 1.6303
7.2453 6.4188 1.6808
7.3098 6.7984 1.7343
7.4115 7.2349 1.8003
7.2812 7.4599 1.8128
7.4135 7.9723 1.8940
7.4797 8.4440 1.9634
7.4288 8.8067 2.0062
6.6351 8.2631 1.8461
7.2361 9.4718 2.0772
7.0336 9.6835 2.0866
5.7082 8.2722 1.7529
3.0213 4.6132 0.9621
5.1621 8.3138 1.7080
5.8726 9.9893 2.0231
5.6425 10.1521 2.0285
5.4436 10.3774 2.0473
5.2920 10.7103 2.0877
5.4053 11.6402 2.2435
5.2487 12.0580 2.2995
4.9543 12.1783 2.2995
4.6573 12.2915 2.2995
4.3577 12.3977 2.2995
4.0557 12.4967 2.2995
3.7516 12.5886 2.2995
3.4454 12.6733 2.2995
3.1374 12.7507 2.2995
2.4810 11.2488 2.0175
2.5165 12.8836 2.2995
2.2039 12.9391 2.2995
1.9650 13.5011 2.3905
1.6462 13.6128 2.4028
1.3164 13.6475 2.4028
0.9859 13.6745 2.4028
0.6549 13.6937 2.4028
0.3235 13.7050 2.4028
-0.0080 13.7086 2.4028
-0.3395 13.7044 2.4028
-0.6708 13.6923 2.4028
-1.0017 13.6725 2.4028
-1.3321 13.6449 2.4028
-1.6618 13.6095 2.4028
-1.9906 13.5663 2.4028
-2.3183 13.5154 2.4028
-2.6447 13.4568 2.4028
-2.9697 13.3906 2.4028
-3.2931 13.3166 2.4028
-3.6147 13.2351 2.4028
-3.9344 13.1460 2.4028
-3.8108 11.6958 2.1535
-3.7555 10.6449 1.9758
-3.8063 10.0105 1.8742
-3.8045 9.3207 1.7613
-3.8028 8.7086 1.6622
-3.8014 8.1612 1.5744
-3.8000 7.6683 1.4962
-3.7988 7.2215 1.4261
-3.9900 7.1591 1.4320
-4.2197 7.1586 1.4514
-4.4560 7.1580 1.4723
-4.6996 7.1575 1.4946
-4.9509 7.1569 1.5185
-5.2108 7.1563 1.5441
-5.4799 7.1557 1.5715
-5.7591 7.1550 1.6009
-8.5225 10.0793 2.2997
-8.7674 9.8744 2.2997
-9.0074 9.6637 2.2997
-9.2425 9.4472 2.2997
-9.4724 9.2252 2.2997
-9.6972 8.9976 2.2997
-9.9166 8.7647 2.2997
-10.2322 8.6121 2.3228
-10.4425 8.3663 2.3228
-10.6471 8.1155 2.3228
-10.8457 7.8598 2.3228
-11.0384 7.5993 2.3228
-11.2248 7.3341 2.3228
-11.4050 7.0644 2.3228
-11.5788 6.7904 2.3228
-11.7462 6.5122 2.3228
-11.9069 6.2299 2.3228
-12.0609 5.9437 2.3228
-12.2082 5.6537 2.3228
-12.3486 5.3601 2.3228
-12.4820 5.0631 2.3228
-12.6083 4.7628 2.3228
-12.7275 4.4593 2.3228
-12.8395 4.1530 2.3228
-12.9441 3.8438 2.3228
-13.0414 3.5321 2.3228
-13.1312 3.2179 2.3228
-13.2136 2.9014 2.3228
-13.2883 2.5829 2.3228
-13.3554 2.2624 2.3228
-13.4149 1.9403 2.3228
-13.4666 1.6166 2.3228
-13.5105 1.2915 2.3228
-13.5466 0.9653 2.3228
-13.1882 0.6199 2.2566
-13.2878 0.3030 2.2702
-13.6078 -0.0186 2.3228
-13.6123 -0.3476 2.3228
-13.6089 -0.6769 2.3228
-13.5975 -1.0062 2.3228
-13.5782 -1.3353 2.3228
-13.5508 -1.6641 2.3228
-13.5156 -1.9923 2.3228
-13.4723 -2.3198 2.3228
-13.4211 -2.6463 2.3228
-13.3619 -2.9718 2.3228
-13.2948 -3.2958 2.3228
-13.2198 -3.6184 2.3228
-13.1369 -3.9392 2.3228
-13.0463 -4.2582 2.3228
-12.8191 -4.5295 2.2997
-12.7139 -4.8409 2.2997
-12.6011 -5.1498 2.2997
-12.4807 -5.4561 2.2997
-12.3528 -5.7595 2.2997
-12.2175 -6.0598 2.2997
-12.0748 -6.3570 2.2997
-11.9247 -6.6507 2.2997
-11.7674 -6.9409 2.2997
-11.6031 -7.2273 2.2997
-11.4316 -7.5097 2.2997
-11.2532 -7.7880 2.2997
-11.0679 -8.0620 2.2997
-11.3637 -8.7051 2.4028
-11.1566 -8.9822 2.4029
-10.2441 -8.6643 2.4029
-10.0381 -8.9147 2.4032
-9.8255 -9.1597 2.4034
-9.6067 -9.3996 2.4037
-9.3821 -9.6341 2.4039
-9.1515 -9.8631 2.4041
-8.9152 -10.0864 2.4043
-8.6733 -10.3038 2.4045
-8.4260 -10.5154 2.4046
-8.1736 -10.7210 2.4049
-7.9160 -10.9203 2.4050
-7.6535 -11.1133 2.4052
-7.3861 -11.2998 2.4054
-7.1141 -11.4797 2.4056
-6.8376 -11.6529 2.4058
-6.5563 -11.8184 2.4058
-6.2705 -11.9760 2.4056
-5.9807 -12.1264 2.4053
-5.6872 -12.2696 2.4051
-5.3903 -12.4056 2.4049
-5.0900 -12.5342 2.4047
-4.7866 -12.6554 2.4045
-4.4803 -12.7691 2.4043
-4.1712 -12.8752 2.4041
-3.8596 -12.9737 2.4039
-3.5456 -13.0644 2.4037
-3.2294 -13.1473 2.4035
-2.9112 -13.2223 2.4033
-2.5912 -13.2895 2.4031
-2.2697 -13.3488 2.4029
-1.9469 -13.4005 2.4028
-1.5940 -13.2052 2.3599
-1.2476 -12.9590 2.3097
-0.9340 -12.9796 2.3085
-0.6193 -12.9767 2.3046
-0.3057 -12.9855 2.3041
0.0079 -12.9864 2.3035
0.3213 -12.9795 2.3030
0.6345 -12.9646 2.3025
0.9470 -12.9420 2.3019
1.2589 -12.9115 2.3013
1.5697 -12.8732 2.3007
1.8795 -12.8272 2.3001
2.1880 -12.7746 2.2997
2.4956 -12.7167 2.2997
2.8015 -12.6513 2.2997
3.1058 -12.5782 2.2997
3.4081 -12.4977 2.2997
3.7082 -12.4098 2.2997
4.0060 -12.3144 2.2997
4.3258 -12.2812 2.3128
4.6202 -12.1707 2.3128
4.9116 -12.0529 2.3128
5.1999 -11.9280 2.3128
5.4851 -11.7960 2.3128
5.7668 -11.6570 2.3128
6.0449 -11.5112 2.3128
6.7564 -12.1443 2.4728
7.0455 -11.9739 2.4728
7.3302 -11.7966 2.4728
7.6104 -11.6123 2.4728
6.7824 -9.8230 2.1268
6.7645 -9.3080 2.0508
6.8641 -8.9808 2.0154
6.9483 -8.6497 1.9789
6.9838 -8.2764 1.9323
7.0540 -7.9613 1.8987
7.1259 -7.6614 1.8685
7.2177 -7.3938 1.8460
7.3092 -7.1344 1.8256
7.3923 -6.8748 1.8051
7.0909 -6.2822 1.6948
6.9289 -5.8461 1.6226
6.8712 -5.5189 1.5781
6.8320 -5.2211 1.5405
6.8437 -4.9728 1.5163
6.8842 -4.7526 1.5002
6.9246 -4.5375 1.4854
6.9641 -4.3266 1.4718
7.0566 -4.1513 1.4705
7.1082 -3.9537 1.4617
7.1559 -3.7568 1.4532
7.2072 -3.5644 1.4465
7.2578 -3.3738 1.4407
7.3077 -3.1846 1.4357
6.3822 -2.5997 1.2419
6.3499 -2.4094 1.2247
6.3523 -2.2363 1.2151
6.4084 -2.0835 1.2165
6.4636 -1.9301 1.2185
6.3351 -1.7262 1.1868
6.1433 -1.5155 1.1443
6.0227 -1.3322 1.1162
5.9116 -1.1586 1.0908
5.8064 -0.9930 1.0673
5.7722 -0.8441 1.0576
5.7313 -0.6972 1.0473
5.7053 -0.5545 1.0405
5.6845 -0.4141 1.0352
5.6391 -0.2740 1.0261
5.6708 -0.1383 1.0316
5.6859 -0.0013 1.0347
5.7102 0.1367 1.0400
5.7624 0.2774 1.0511
5.8111 0.4207 1.0622
5.8214 0.5632 1.0669
5.8302 0.7066 1.0720
5.8388 0.8513 1.0777
5.8543 0.9986 1.0854
5.9211 1.1579 1.1033
6.2686 1.3839 1.1746
7.8077 1.9227 1.4722
7.2606 1.9753 1.3785
7.0354 2.0979 1.3458
6.9402 2.2535 1.3384
6.8598 2.4122 1.3345
6.7921 2.5745 1.3338
6.7485 2.7463 1.3387
6.6809 2.9089 1.3396
6.6179 3.0739 1.3422
6.5514 3.2377 1.3450
6.4797 3.3996 1.3475
7.3458 4.0834 1.5485
7.1542 4.2064 1.5299
6.8153 4.2322 1.4797
7.0146 4.5946 1.5475
6.9635 4.8056 1.5622
6.9979 5.0834 1.5978
7.0533 5.3888 1.6405
7.1297 5.7254 1.6908
7.1566 6.0373 1.7321
7.2214 6.3971 1.7856
7.2901 6.7795 1.8434
7.3440 7.1685 1.9012
7.1325 7.3070 1.8925
7.1019 7.6367 1.9336
7.2415 8.1745 2.0257
7.2298 8.5701 2.0806
6.6381 8.2662 1.9681
7.0357 9.2090 2.1522
6.8786 9.4695 2.1744
6.6769 9.6754 2.1847
3.0212 4.6127 1.0251
5.1461 8.2876 1.8142
5.8424 9.9373 2.1445
5.5850 10.0479 2.1393
5.3883 10.2715 2.1591
5.2414 10.6072 2.2030
5.2001 11.1977 2.2995
4.9266 11.3173 2.2995
4.6503 11.4303 2.2995
4.3715 11.5368 2.2995
4.0904 11.6366 2.2995
3.8070 11.7297 2.2995
3.5216 11.8161 2.2995
3.2342 11.8957 2.2995
2.9451 11.9685 2.2995
2.4799 11.2432 2.1483
2.3623 12.0935 2.2995
2.0689 12.1457 2.2995
1.8541 12.7383 2.4028
1.5453 12.7782 2.4028
1.2358 12.8109 2.4028
0.9255 12.8363 2.4028
0.6148 12.8543 2.4028
0.3037 12.8650 2.4028
-0.0075 12.8683 2.4028
-0.3187 12.8644 2.4028
-0.6297 12.8531 2.4028
-0.9404 12.8344 2.4028
-1.2505 12.8084 2.4028
-1.5600 12.7752 2.4028
-1.8686 12.7346 2.4028
-2.1763 12.6868 2.4028
-2.4827 12.6317 2.4028
-2.7878 12.5694 2.4028
-3.0913 12.4999 2.4028
-3.3932 12.4233 2.4028
-3.6932 12.3395 2.4028
-3.9912 12.2487 2.4028
-3.7568 10.6481 2.1056
-3.8063 10.0100 1.9966
-3.8045 9.3202 1.8765
-3.8028 8.7081 1.7708
-3.8014 8.1608 1.6773
-3.8000 7.6679 1.5940
-3.7988 7.2211 1.5194
-3.9904 7.1595 1.5259
-4.2202 7.1590 1.5466
-4.4565 7.1584 1.5689
-4.7001 7.1579 1.5927
-4.9515 7.1573 1.6182
-5.2114 7.1567 1.6455
-5.4805 7.1561 1.6748
-5.7598 7.1555 1.7061
-7.9977 9.4580 2.2997
-8.2273 9.2655 2.2997
-8.4523 9.0675 2.2997
-8.6726 8.8641 2.2997
-8.8882 8.6555 2.2997
-9.0988 8.4418 2.2997
-9.3044 8.2230 2.2997
-9.5048 7.9993 2.2997
-9.6999 7.7707 2.2997
-9.8897 7.5375 2.2997
-10.1750 7.3730 2.3228
-10.3554 7.1284 2.3228
-10.5300 6.8795 2.3228
-10.6987 6.6263 2.3228
-10.8614 6.3690 2.3228
-11.0179 6.1078 2.3228
-11.1683 5.8428 2.3228
-11.3124 5.5741 2.3228
-11.4502 5.3020 2.3228
-11.5814 5.0264 2.3228
-11.7061 4.7477 2.3228
-11.8241 4.4659 2.3228
-11.9355 4.1812 2.3228
-12.0400 3.8937 2.3228
-12.1377 3.6037 2.3228
-12.2285 3.3113 2.3228
-12.3122 3.0165 2.3228
-12.3889 2.7197 2.3228
-12.4586 2.4209 2.3228
-12.5210 2.1204 2.3228
-12.5762 1.8183 2.3228
-12.6242 1.5148 2.3228
-12.6649 1.2100 2.3228
-12.6982 0.9042 2.3228
-12.7242 0.5974 2.3228
-12.7428 0.2899 2.3228
-12.7540 -0.0181 2.3228
-12.7577 -0.3265 2.3228
-12.7540 -0.6350 2.3228
-12.7429 -0.9436 2.3228
-12.7242 -1.2520 2.3228
-12.6981 -1.5600 2.3228
-12.6645 -1.8675 2.3228
-12.6235 -2.1743 2.3228
-12.5750 -2.4802 2.3228
-12.5190 -2.7850 2.3228
-12.4557 -3.0885 2.3228
-12.3849 -3.3905 2.3228
-12.3068 -3.6910 2.3228
-12.2214 -3.9896 2.3228
-12.1286 -4.2862 2.3228
-11.9091 -4.5351 2.2997
-11.8030 -4.8243 2.2997
-11.6898 -5.1110 2.2997
-11.5696 -5.3949 2.2997
-11.4424 -5.6761 2.2997
-11.3083 -5.9541 2.2997
-11.1674 -6.2290 2.2997
-11.0197 -6.5005 2.2997
-10.8654 -6.7685 2.2997
-10.7044 -7.0327 2.2997
-10.5370 -7.2930 2.2997
-10.3631 -7.5493 2.2997
-10.1830 -7.8013 2.2997
-9.9966 -8.0490 2.2997
-9.6273 -8.1433 2.4028
-9.4329 -8.3779 2.4030
-9.2327 -8.6079 2.4032
-9.0269 -8.8329 2.4034
-8.8155 -9.0530 2.4036
-8.5986 -9.2679 2.4038
-8.3764 -9.4775 2.4040
-8.1489 -9.6816 2.4042
-7.9164 -9.8801 2.4044
-7.6790 -10.0729 2.4045
-7.4368 -10.2598 2.4047
-7.1899 -10.4408 2.4049
-6.9386 -10.6158 2.4051
-6.6830 -10.7846 2.4053
-6.4231 -10.9472 2.4054
-6.1593 -11.1033 2.4056
-5.8915 -11.2529 2.4058
-5.6194 -11.3945 2.4057
-5.3436 -11.5290 2.4055
-5.0646 -11.6566 2.4053
-4.7824 -11.7774 2.4051
-4.4973 -11.8911 2.4049
-4.2094 -11.9977 2.4047
-3.9189 -12.0972 2.4045
-3.6261 -12.1896 2.4042
-3.3310 -12.2746 2.4040
-3.0340 -12.3525 2.4038
-2.7350 -12.4229 2.4037
-2.4344 -12.4860 2.4035
-2.1323 -12.5417 2.4033
-1.8290 -12.5899 2.4031
-1.5245 -12.6306 2.4029
-1.2191 -12.6637 2.4028
-0.8989 -12.4930 2.3654
-0.5812 -12.1801 2.3027
-0.2869 -12.1882 2.3022
0.0074 -12.1892 2.3017
0.3016 -12.1829 2.3012
0.5955 -12.1692 2.3007
0.8889 -12.1481 2.3002
1.1816 -12.1198 2.2997
1.4738 -12.0871 2.2997
1.7651 -12.0472 2.2997
2.0553 -12.0000 2.2997
2.3442 -11.9457 2.2997
2.6316 -11.8843 2.2997
2.9174 -11.8158 2.2997
3.2013 -11.7403 2.2997
3.4833 -11.6578 2.2997
3.7631 -11.5683 2.2997
4.0406 -11.4720 2.2997
4.3156 -11.3689 2.2997
4.5878 -11.2590 2.2997
4.8849 -11.2059 2.3128
5.1528 -11.0821 2.3128
5.4175 -10.9517 2.3128
5.6789 -10.8149 2.3128
5.9367 -10.6717 2.3128
6.6192 -11.2500 2.4728
6.8868 -11.0836 2.4728
7.1502 -10.9107 2.4728
7.4091 -10.7314 2.4728
6.7925 -9.3471 2.1917
6.8673 -8.9855 2.1459
6.9439 -8.6449 2.1048
6.9491 -8.2358 2.0462
7.0296 -7.9342 2.0137
7.0709 -7.6028 1.9731
7.1627 -7.3379 1.9495
7.2574 -7.0843 1.9289
7.3168 -6.8051 1.9012
6.9785 -6.1830 1.7748
6.8457 -5.7763 1.7058
6.8312 -5.4872 1.6694
6.8018 -5.1984 1.6318
6.8401 -4.9707 1.6125
6.8813 -4.7510 1.5954
6.9217 -4.5360 1.5797
6.9612 -4.3253 1.5652
7.0240 -4.1325 1.5572
7.0770 -3.9368 1.5482
7.1291 -3.7432 1.5401
7.1803 -3.5516 1.5330
7.2308 -3.3617 1.5268
7.2807 -3.1733 1.5215
6.3319 -2.5796 1.3105
6.2980 -2.3901 1.2919
6.3210 -2.2256 1.2859
6.3797 -2.0745 1.2880
6.4386 -1.9230 1.2909
6.2469 -1.7025 1.2445
6.0839 -1.5011 1.2052
5.9725 -1.3215 1.1771
5.8796 -1.1526 1.1536
5.7791 -0.9886 1.1295
5.7453 -0.8405 1.1193
5.7070 -0.6945 1.1089
5.6847 -0.5528 1.1022
5.6701 -0.4134 1.0978
5.6376 -0.2742 1.0905
5.6647 -0.1385 1.0955
5.6727 -0.0016 1.0973
5.7054 0.1363 1.1046
5.7575 0.2769 1.1163
5.7817 0.4183 1.1233
5.7915 0.5600 1.1282
5.8002 0.7027 1.1335
5.8086 0.8466 1.1395
5.8168 0.9919 1.1461
5.8252 1.1388 1.1535
6.0807 1.3421 1.2109
7.2898 1.7948 1.4607
7.2641 1.9758 1.4655
7.0504 2.1020 1.4330
6.9595 2.2594 1.4261
6.8830 2.4199 1.4227
6.8244 2.5863 1.4239
6.7958 2.7652 1.4323
6.7287 2.9293 1.4334
6.6782 3.1015 1.4390
6.6094 3.2660 1.4415
6.5363 3.4289 1.4439
7.3422 4.0810 1.6441
7.1474 4.2021 1.6236
6.8091 4.2279 1.5703
7.0290 4.6035 1.6471
6.9926 4.8252 1.6662
7.0218 5.1003 1.7029
7.0742 5.4043 1.7476
7.1093 5.7085 1.7906
7.1337 6.0175 1.8337
7.2178 6.3934 1.8954
7.3449 6.8300 1.9724
7.2428 7.0692 1.9912
7.0350 7.2066 1.9822
6.8440 7.3588 1.9788
6.9182 7.8090 2.0550
6.9794 8.2727 2.1328
6.6227 8.2465 2.0849
6.8188 8.9245 2.2148
6.6920 9.2120 2.2461
6.5318 9.4645 2.2693
3.0211 4.6123 1.0884
6.1994 9.9832 2.3205
5.7966 9.8587 2.2590
5.5475 9.9799 2.2560
5.3434 10.1852 2.2732
5.1532 10.4281 2.2995
4.8982 10.5470 2.2995
4.6406 10.6597 2.2995
4.3804 10.7664 2.2995
4.1179 10.8668 2.2995
3.8531 10.9609 2.2995
3.5862 11.0488 2.2995
3.3174 11.1303 2.2995
3.0467 11.2054 2.2995
2.7744 11.2740 2.2995
2.4788 11.2376 2.2795
2.2254 11.3920 2.2995
1.9907 11.6856 2.3486
1.7466 11.9995 2.4028
1.4558 12.0372 2.4028
1.1642 12.0680 2.4028
0.8719 12.0920 2.4028
0.5792 12.1090 2.4028
0.2862 12.1191 2.4028
-0.0070 12.1223 2.4028
-0.3002 12.1185 2.4028
-0.5932 12.1079 2.4028
-0.8859 12.0903 2.4028
-1.1781 12.0658 2.4028
-1.4696 12.0344 2.4028
-1.7604 11.9961 2.4028
-2.0501 11.9510 2.4028
-2.3388 11.8991 2.4028
-2.6262 11.8403 2.4028
-2.9121 11.7747 2.4028
-3.1964 11.7024 2.4028
-3.4790 11.6234 2.4028
-3.7597 11.5378 2.4028
-3.7787 10.7096 2.2483
-3.8063 10.0094 2.1196
-3.8045 9.3197 1.9920
-3.8028 8.7076 1.8799
-3.8014 8.1603 1.7807
-3.8000 7.6674 1.6923
-3.7988 7.2207 1.6131
-3.9908 7.1599 1.6202
-4.2206 7.1593 1.6422
-4.4570 7.1588 1.6659
-4.7006 7.1582 1.6912
-4.9521 7.1577 1.7183
-5.2120 7.1571 1.7473
-5.4812 7.1565 1.7785
-5.7605 7.1559 1.8118
-7.5320 8.9067 2.2997
-7.7480 8.7251 2.2997
-7.9598 8.5385 2.2997
-8.1671 8.3468 2.2997
-8.3699 8.1502 2.2997
-8.5680 7.9487 2.2997
-8.7614 7.7425 2.2997
-8.9498 7.5316 2.2997
-9.1333 7.3162 2.2997
-9.3117 7.0965 2.2997
-9.4849 6.8724 2.2997
-9.6528 6.6442 2.2997
-9.8152 6.4119 2.2997
-9.9722 6.1757 2.2997
-10.2252 5.9953 2.3228
-10.3723 5.7493 2.3228
-10.5135 5.4996 2.3228
-10.6489 5.2466 2.3228
-10.7782 4.9902 2.3228
-10.9014 4.7307 2.3228
-11.0184 4.4682 2.3228
-11.1292 4.2028 2.3228
-11.2336 3.9347 2.3228
-11.3316 3.6640 2.3228
-11.4232 3.3909 2.3228
-11.5082 3.1156 2.3228
-11.5866 2.8381 2.3228
-11.6584 2.5587 2.3228
-11.7235 2.2775 2.3228
-11.7819 1.9946 2.3228
-11.8334 1.7103 2.3228
-11.8782 1.4247 2.3228
-11.9160 1.1378 2.3228
-11.9470 0.8500 2.3228
-11.9710 0.5614 2.3228
-11.9881 0.2722 2.3228
-11.9982 -0.0176 2.3228
-12.0013 -0.3077 2.3228
-11.9974 -0.5980 2.3228
-11.9864 -0.8882 2.3228
-11.9685 -1.1782 2.3228
-11.9435 -1.4679 2.3228
-11.9115 -1.7571 2.3228
-11.8724 -2.0456 2.3228
-11.8264 -2.3332 2.3228
-11.7734 -2.6197 2.3228
-11.7134 -2.9050 2.3228
-11.6464 -3.1890 2.3228
-11.5726 -3.4714 2.3228
-11.4918 -3.7521 2.3228
-11.4043 -4.0308 2.3228
-11.3099 -4.3075 2.3228
-11.0973 -4.5365 2.2997
-10.9905 -4.8059 2.2997
-10.8771 -5.0727 2.2997
-10.7572 -5.3368 2.2997
-10.6308 -5.5980 2.2997
-10.4980 -5.8563 2.2997
-10.3588 -6.1113 2.2997
-10.2134 -6.3629 2.2997
-10.0618 -6.6111 2.2997
-9.9041 -6.8556 2.2997
-9.7404 -7.0963 2.2997
-9.5708 -7.3330 2.2997
-9.3954 -7.5655 2.2997
-8.6891 -7.3503 2.2997
-8.8946 -7.9004 2.4028
-8.7056 -8.1170 2.4030
-8.5112 -8.3289 2.4032
-8.3116 -8.5361 2.4034
-8.1068 -8.7385 2.4036
-7.8971 -8.9358 2.4037
-7.6825 -9.1280 2.4039
-7.4632 -9.3150 2.4041
-7.2392 -9.4966 2.4043
-7.0107 -9.6727 2.4045
-6.7779 -9.8432 2.4047
-6.5409 -10.0079 2.4049
-6.2997 -10.1669 2.4050
-6.0547 -10.3199 2.4052
-5.8058 -10.4668 2.4054
-5.5534 -10.6077 2.4056
-5.2974 -10.7423 2.4057
-5.0379 -10.8699 2.4058
-4.7747 -10.9901 2.4056
-4.5086 -11.1037 2.4053
-4.2398 -11.2108 2.4051
-3.9683 -11.3112 2.4049
-3.6945 -11.4050 2.4047
-3.4184 -11.4920 2.4046
-3.1402 -11.5722 2.4044
-2.8602 -11.6455 2.4042
-2.5783 -11.7119 2.4040
-2.2949 -11.7713 2.4038
-2.0101 -11.8236 2.4036
-1.7241 -11.8689 2.4034
-1.4371 -11.9071 2.4032
-1.1492 -11.9382 2.4030
-0.8606 -11.9622 2.4029
-0.5716 -11.9795 2.4028
-0.2754 -11.7000 2.3446
0.0070 -11.4815 2.3002
0.2841 -11.4756 2.2997
0.5611 -11.4653 2.2997
0.8377 -11.4481 2.2997
1.1138 -11.4241 2.2997
1.3892 -11.3933 2.2997
1.6637 -11.3557 2.2997
1.9372 -11.3113 2.2997
2.2095 -11.2602 2.2997
2.4804 -11.2024 2.2997
2.7498 -11.1379 2.2997
3.0175 -11.0668 2.2997
3.2833 -10.9891 2.2997
3.5471 -10.9049 2.2997
3.8087 -10.8142 2.2997
4.0679 -10.7171 2.2997
4.3246 -10.6137 2.2997
4.5786 -10.5039 2.2997
4.8298 -10.3880 2.2997
5.0780 -10.2660 2.2997
5.3534 -10.1955 2.3128
5.5965 -10.0607 2.3128
5.8362 -9.9199 2.3128
6.0723 -9.7733 2.3128
6.7408 -10.2866 2.4728
6.9850 -10.1177 2.4728
6.8381 -9.4105 2.3404
6.8780 -9.0002 2.2797
6.9310 -8.6293 2.2283
6.9324 -8.2165 2.1651
6.9928 -7.8933 2.1245
7.0165 -7.5449 2.0766
7.1112 -7.2857 2.0527
7.2060 -7.0347 2.0312
7.2106 -6.7069 1.9870
6.8473 -6.0672 1.8467
6.7641 -5.7079 1.7874
6.7511 -5.4233 1.7495
6.7860 -5.1868 1.7264
6.8491 -4.9777 1.7121
6.8900 -4.7574 1.6938
6.9301 -4.5419 1.6770
6.9697 -4.3309 1.6616
7.0221 -4.1318 1.6506
7.0770 -3.9372 1.6414
7.1315 -3.7449 1.6334
7.1856 -3.5546 1.6265
7.2396 -3.3661 1.6206
7.2933 -3.1792 1.6158
6.3130 -2.5722 1.3851
6.2845 -2.3853 1.3666
6.3230 -2.2267 1.3635
6.3827 -2.0758 1.3659
6.3591 -1.8996 1.3514
6.1849 -1.6859 1.3060
6.0255 -1.4870 1.2651
5.9229 -1.3108 1.2372
5.8477 -1.1467 1.2160
5.7520 -0.9843 1.1915
5.7186 -0.8369 1.1807
5.6829 -0.6919 1.1701
5.6640 -0.5511 1.1638
5.6551 -0.4126 1.1602
5.6360 -0.2745 1.1552
5.6515 -0.1385 1.1580
5.6595 -0.0019 1.1600
5.7006 0.1359 1.1694
5.7413 0.2758 1.1794
5.7526 0.4159 1.1841
5.7619 0.5568 1.1891
5.7703 0.6987 1.1946
5.7786 0.8419 1.2009
5.7866 0.9864 1.2078
5.8057 1.1347 1.2178
5.9569 1.3145 1.2565
7.2071 1.7740 1.5297
7.2676 1.9764 1.5530
7.0675 2.1067 1.5215
6.9836 2.2668 1.5156
6.9063 2.4278 1.5119
6.8725 2.6042 1.5187
6.8441 2.7844 1.5276
6.7906 2.9559 1.5319
6.7399 3.1298 1.5379
6.6679 3.2946 1.5400
6.6398 3.4828 1.5533
7.3519 4.0859 1.7433
7.1446 4.1999 1.7185
6.8042 4.2244 1.6615
7.0567 4.6213 1.7508
7.0214 4.8446 1.7714
7.0417 5.1142 1.8080
7.0676 5.3988 1.8485
7.1131 5.7111 1.8968
7.1522 6.0326 1.9463
7.2651 6.4348 2.0197
7.3701 6.8529 2.0952
7.1440 6.9722 2.0791
6.9397 7.1084 2.0699
6.7515 7.2588 2.0663
6.6213 7.4734 2.0820
6.6765 7.9132 2.1596
6.6439 8.2724 2.2140
6.6141 8.6559 2.2739
6.4884 8.9311 2.3050
