ply
format ascii 1.0
element vertex 2042
property float32 x
property float32 y
property float32 z
end_header
6.4638 -2.2693 -0.2160
6.6488 -2.1553 -0.2199
6.7712 -2.0155 -0.2217
6.8633 -1.8636 -0.2227
6.9852 -1.7166 -0.2247
7.2014 -1.5862 -0.2298
7.3722 -1.4380 -0.2335
7.5528 -1.2846 -0.2376
7.7700 -1.1291 -0.2429
7.9936 -0.9650 -0.2485
8.2292 -0.7922 -0.2545
10.7051 -0.7700 -0.3296
10.5961 -0.5052 -0.3250
10.4973 -0.2465 -0.3208
10.4027 0.0072 -0.3171
10.3102 0.2563 -0.3136
10.2354 0.5022 -0.3108
10.1587 0.7448 -0.3081
10.0832 0.9848 -0.3057
10.0771 1.2306 -0.3055
10.1359 1.4872 -0.3076
10.0961 1.7315 -0.3067
10.0562 1.9759 -0.3061
10.0241 2.2225 -0.3059
10.0011 2.4723 -0.3062
9.9745 2.7231 -0.3065
9.9477 2.9759 -0.3071
9.9458 3.2391 -0.3086
9.9483 3.5080 -0.3104
8.0213 3.0484 -0.2519
7.2794 2.9696 -0.2302
6.7141 2.9302 -0.2140
6.6122 3.0780 -0.2126
5.8521 2.8982 -0.1899
5.7335 3.0141 -0.1879
2.9850 1.6625 -0.0989
2.9750 1.7524 -0.0997
5.4866 3.4131 -0.1861
5.3962 3.5405 -0.1855
5.2162 3.6057 -0.1819
5.0392 3.6663 -0.1783
6.6143 5.0612 -0.2378
5.8750 4.7249 -0.2148
4.8328 4.0829 -0.1799
4.4833 3.9772 -0.1701
4.4289 4.1244 -0.1714
4.3734 4.2747 -0.1729
4.3078 4.4190 -0.1741
4.0195 4.3277 -0.1663
3.9063 4.4151 -0.1657
3.7934 4.5022 -0.1652
3.6808 4.5891 -0.1648
4.0342 5.2866 -0.1860
4.0708 5.6107 -0.1935
3.9167 5.6823 -0.1924
6.2381 9.5350 -0.3171
8.8125 14.2080 -0.4646
8.4680 14.4190 -0.4640
8.1919 14.7541 -0.4677
7.9787 15.2256 -0.4757
7.5880 15.3726 -0.4739
7.1008 15.3067 -0.4658
6.7190 15.4510 -0.4646
6.3708 15.6756 -0.4661
6.0609 16.0116 -0.4711
6.1610 17.5452 -0.5112
5.7988 17.8848 -0.5164
5.4222 18.2117 -0.5215
6.3795 23.4879 -0.6675
8.2056 33.3796 -0.9420
7.3920 33.5470 -0.9408
6.0102 30.7993 -0.8590
5.9433 34.9256 -0.9693
5.8651 40.3373 -1.1147
6.2437 51.6829 -1.4231
4.9847 51.7313 -1.4203
4.3605 60.5443 -1.6585
3.3129 69.3505 -1.8967
1.6078 68.2021 -1.8635
-9.9223 57.8931 -1.6071
-9.0566 46.1194 -1.2866
-10.0720 45.4527 -1.2752
-10.0655 40.7368 -1.1501
-12.0145 44.0278 -1.2517
-12.0452 40.2816 -1.1540
-13.4726 41.3848 -1.1956
-14.5964 41.4095 -1.2072
-14.2734 37.5722 -1.1061
-15.3174 37.5606 -1.1175
-19.0177 43.5912 -1.3117
-16.8245 36.1545 -1.1011
-15.5493 31.4073 -0.9688
-16.2246 30.8721 -0.9653
-16.7380 30.0620 -0.9536
-17.1061 29.0486 -0.9356
-17.1887 27.6391 -0.9046
-24.4775 37.3174 -1.2422
-14.8040 21.4226 -0.7259
-15.9808 21.9707 -0.7586
-18.1922 23.7812 -0.8374
-9.7700 12.1516 -0.4368
-10.1752 12.0473 -0.4425
-10.5902 11.9410 -0.4487
-10.9405 11.7514 -0.4522
-11.2914 11.5554 -0.4559
-11.6474 11.3573 -0.4599
-12.0090 11.1567 -0.4643
-12.3767 10.9533 -0.4691
-12.7436 10.7402 -0.4740
-13.0751 10.4899 -0.4778
-13.3826 10.2151 -0.4809
-13.5859 9.8600 -0.4805
-13.7341 9.4695 -0.4785
-13.8779 9.0819 -0.4768
-16.8585 10.4595 -0.5717
-11.5313 6.7741 -0.3862
-11.7397 6.5202 -0.3887
-14.8826 7.8013 -0.4875
-15.1445 7.4778 -0.4912
-15.3270 7.1126 -0.4926
-12.4279 5.4063 -0.3960
-15.4918 6.2984 -0.4898
-15.5278 5.8800 -0.4875
-14.6217 5.1364 -0.4562
-15.3664 4.9843 -0.4767
-15.6362 4.6574 -0.4826
-15.6728 4.2588 -0.4816
-15.6273 3.8435 -0.4784
-15.5557 3.4295 -0.4747
-17.7007 3.4562 -0.5388
-17.8600 3.0413 -0.5427
-38.9489 5.6676 -1.1819
-26.5967 3.2160 -0.8065
-27.9472 2.6959 -0.8474
-38.8882 2.8048 -1.1797
-38.8702 1.8608 -1.1804
-21.0840 0.4992 -0.6413
-21.7549 -0.0108 -0.6632
-18.3887 -0.4536 -0.5622
-14.9968 -0.7329 -0.4600
-14.9523 -1.0934 -0.4605
-14.8114 -1.4436 -0.4582
-14.6737 -1.7891 -0.4563
-14.5391 -2.1304 -0.4547
-13.2734 -2.2738 -0.4177
-13.1780 -2.5867 -0.4176
-18.9569 -4.1992 -0.6052
-18.6413 -4.6045 -0.6000
-17.3751 -4.7400 -0.5641
-86.3505 -25.8145 -2.8293
-15.4998 -5.0448 -0.5129
-19.0150 -6.7012 -0.6358
-19.6505 -7.4637 -0.6645
-19.9526 -8.1354 -0.6827
-20.0321 -8.7382 -0.6939
-12.0982 -5.6291 -0.4246
-11.8624 -5.8722 -0.4221
-11.6231 -6.1078 -0.4196
-19.4192 -10.8113 -0.7118
-45.6874 -26.9019 -1.7015
-43.1822 -26.8528 -1.6353
-41.0560 -26.9278 -1.5821
-38.9079 -26.8856 -1.5269
-36.3337 -26.4265 -1.4534
-34.9754 -26.7543 -1.4272
-33.1564 -26.6572 -1.3814
-31.6496 -26.7318 -0.8882
-29.9867 -26.5950 -0.8617
-28.6489 -26.6729 -0.8437
-26.8519 -26.2394 -0.8113
-25.8514 -26.5128 -0.8022
-24.6644 -26.5498 -0.7870
-23.4201 -26.4651 -0.7693
-22.3260 -26.4921 -0.7559
-21.1961 -26.4215 -0.7407
-20.1507 -26.4010 -0.7278
-19.1694 -26.4152 -0.7167
-18.1749 -26.3623 -0.7046
-17.1700 -26.2397 -0.6913
-17.1427 -27.6331 -0.7183
-17.1133 -29.1345 -0.7476
-13.8835 -25.0003 -0.6338
-13.1781 -25.1431 -0.6302
-12.4035 -25.1238 -0.6230
-11.6502 -25.1090 -0.6164
-10.9438 -25.1618 -0.6119
-10.1971 -25.0858 -0.6047
-9.4947 -25.0786 -0.5995
-8.8053 -25.0711 -0.5948
-8.1418 -25.1068 -0.5914
-7.4610 -25.0554 -0.5864
-6.8041 -25.0472 -0.5827
-6.1562 -25.0387 -0.5794
-5.5218 -25.0554 -0.5770
-4.8303 -24.7488 -0.5675
-4.2528 -24.9876 -0.5708
-2.5719 -17.6857 -0.4026
-3.0437 -25.1902 -0.5719
-2.4265 -25.1781 -0.5703
-1.8128 -25.1661 -0.5691
-1.2050 -25.2208 -0.5696
-0.5928 -25.1421 -0.5674
0.0149 -25.1302 -0.5670
0.6221 -25.1183 -0.5669
1.2294 -25.1064 -0.5670
1.8103 -24.7215 -0.5591
2.3652 -24.2407 -0.5492
2.8759 -23.5670 -0.5351
3.3619 -22.9268 -0.5220
3.8081 -22.2155 -0.5075
4.1067 -20.9094 -0.4795
4.2866 -19.3412 -0.4455
4.5931 -18.5863 -0.4302
5.4716 -20.0478 -0.4665
6.0938 -20.3756 -0.4770
6.4091 -19.6838 -0.4638
5.4986 -15.5968 -0.3701
5.5949 -14.7252 -0.3521
5.9047 -14.4769 -0.3491
6.3490 -14.5503 -0.3540
6.4971 -13.9593 -0.3428
6.6805 -13.4912 -0.3347
6.9097 -13.1454 -0.3297
7.3391 -13.1789 -0.3343
7.5025 -12.7380 -0.3271
8.0530 -12.9467 -0.3367
8.4824 -12.9295 -0.3409
8.8176 -12.7572 -0.3412
9.2804 -12.7565 -0.3463
9.8290 -12.8460 -0.3544
25.6819 -31.9355 -0.8959
25.1089 -29.7226 -0.8487
24.9408 -28.1163 -0.8180
24.9079 -26.7481 -0.7936
24.8803 -25.4564 -0.7710
18.4045 -17.9420 -0.5553
24.7766 -23.0128 -0.7287
24.6216 -21.7847 -0.7066
24.4040 -20.5625 -0.6840
24.0827 -19.3162 -0.6599
23.7022 -18.0874 -0.6355
23.4186 -16.9915 -0.6149
23.0697 -15.9018 -0.5938
22.4785 -14.7060 -0.5675
21.3809 -13.2614 -0.5299
17.9909 -10.5655 -0.4381
7.2313 -4.0149 -0.1731
7.0809 -3.7105 -0.1668
6.8176 -3.3651 -0.1581
6.2573 -2.9026 -0.1430
6.1710 -2.6833 -0.1390
6.2608 -2.5443 -0.1391
6.3515 -2.4040 -0.1393
6.4105 -2.2508 -0.1389
6.6047 -2.1412 -0.1414
6.7293 -2.0033 -0.1425
6.8264 -1.8538 -0.1431
6.9852 -1.7168 -0.1449
7.1879 -1.5835 -0.1478
7.3582 -1.4355 -0.1499
7.5356 -1.2820 -0.1523
7.7356 -1.1244 -0.1552
7.9574 -0.9609 -0.1585
8.1909 -0.7888 -0.1621
10.4712 -0.7536 -0.2060
10.3690 -0.4947 -0.2029
10.2765 -0.2416 -0.2001
10.1859 0.0067 -0.1975
10.1051 0.2509 -0.1952
10.0395 0.4922 -0.1934
9.9654 0.7303 -0.1915
9.9036 0.9669 -0.1899
9.9596 1.2159 -0.1907
10.0166 1.4693 -0.1917
9.9831 1.7118 -0.1910
9.9436 1.9535 -0.1903
9.9171 2.1984 -0.1900
9.8939 2.4455 -0.1899
9.8676 2.6936 -0.1898
9.8427 2.9441 -0.1899
9.8467 3.2065 -0.1907
9.8510 3.4733 -0.1916
9.8284 3.7347 -0.1921
7.2775 2.9686 -0.1430
6.9637 3.0388 -0.1377
6.5608 3.0538 -0.1307
5.8417 2.8928 -0.1173
5.7026 2.9977 -0.1154
2.9848 1.6623 -0.0610
2.9745 1.7520 -0.0614
5.4770 3.4069 -0.1143
5.3930 3.5382 -0.1139
5.2099 3.6011 -0.1114
5.0332 3.6618 -0.1091
6.6574 5.0939 -0.1464
6.4098 5.1547 -0.1432
4.8219 4.0734 -0.1095
4.4826 3.9764 -0.1036
4.4283 4.1236 -0.1043
4.3728 4.2738 -0.1050
4.2983 4.4090 -0.1055
4.0215 4.3297 -0.1009
3.9082 4.4171 -0.1004
3.7953 4.5042 -0.1000
3.6826 4.5912 -0.0996
4.1736 5.4689 -0.1161
4.0696 5.6087 -0.1166
3.9156 5.6803 -0.1158
6.1437 9.3903 -0.1879
5.9543 9.5994 -0.1887
8.4527 14.3924 -0.2781
8.2457 14.8503 -0.2824
8.0320 15.3268 -0.2871
7.6328 15.4626 -0.2855
7.1420 15.3949 -0.2804
6.6779 15.3558 -0.2761
6.3232 15.5578 -0.2764
5.9663 15.7611 -0.2769
6.1536 17.5234 -0.3047
5.7679 17.7888 -0.3064
5.3915 18.1082 -0.3091
6.2256 22.9202 -0.3880
8.2302 33.4786 -0.5626
7.4056 33.6074 -0.5610
6.5879 33.7589 -0.5602
5.8671 34.4766 -0.5691
5.6906 39.1355 -0.6431
5.0572 41.8604 -0.6852
4.9299 51.1599 -0.8348
3.9283 54.5405 -0.8878
3.3040 69.1619 -1.1239
1.6271 69.0180 -1.1204
-0.0417 70.3361 -1.1414
-11.5022 94.2667 -1.5433
-13.7872 94.0347 -1.5455
-14.7385 85.9907 -1.4198
-12.0105 61.1598 -1.0152
-11.9437 53.8975 -0.9000
-13.2089 53.4572 -0.8987
-11.7538 43.0710 -0.7295
-12.6133 42.1800 -0.7203
-13.0959 40.2259 -0.6931
-14.7413 41.8191 -0.7276
-16.0639 42.2837 -0.7434
-17.6186 43.2017 -0.7681
-21.1443 48.4637 -0.8721
-18.0783 38.8475 -0.7080
-14.8920 30.0785 -0.5557
-15.3105 29.1317 -0.5460
-28.1654 50.5837 -0.9627
-24.8855 42.2575 -0.8173
-25.1306 40.4078 -0.7950
-38.4818 58.6656 -1.1750
-15.2110 22.0105 -0.4492
-16.5809 22.7947 -0.4745
-17.9433 23.4547 -0.4985
-9.5828 11.9182 -0.2589
-9.9780 11.8134 -0.2625
-10.3608 11.6819 -0.2659
-10.6983 11.4907 -0.2681
-11.0399 11.2975 -0.2706
-11.3861 11.1020 -0.2733
-11.7376 10.9040 -0.2762
-12.0948 10.7033 -0.2794
-12.4584 10.4993 -0.2828
-12.8290 10.2919 -0.2864
-13.1605 10.0450 -0.2893
-13.3920 9.7187 -0.2902
-13.5364 9.3326 -0.2893
-16.7033 10.9302 -0.3526
-16.8558 10.4572 -0.3516
-11.5292 6.7724 -0.2379
-11.7386 6.5191 -0.2398
-14.6651 7.6868 -0.2968
-14.9270 7.3698 -0.2996
-15.0438 6.9806 -0.2996
-12.4267 5.4052 -0.2457
-15.1413 6.1553 -0.2975
-15.1789 5.7473 -0.2966
-15.2163 5.3447 -0.2959
-14.3471 4.6532 -0.2778
-14.8105 4.4109 -0.2858
-15.2268 4.1371 -0.2930
-15.3270 3.7691 -0.2942
-15.2598 3.3637 -0.2924
-20.7590 4.0526 -0.3974
-38.3167 6.5233 -0.7332
-37.3826 5.4383 -0.7155
-26.5914 3.2144 -0.5094
-26.5864 2.5637 -0.5100
-38.2435 2.7570 -0.7350
-38.2271 1.8287 -0.7365
-38.2113 0.9033 -0.7385
-20.4187 -0.0108 -0.3961
-20.8408 -0.5148 -0.4060
-17.9322 -0.8769 -0.3510
-18.2524 -1.3354 -0.3592
-18.3897 -1.7931 -0.3641
-18.5308 -2.2600 -0.3693
-18.6126 -2.7279 -0.3735
-13.2692 -2.2736 -0.2683
-13.1765 -2.5869 -0.2687
-18.5420 -4.1080 -0.3814
-17.7538 -4.3860 -0.3686
-96.4249 -26.3089 -2.0220
-86.2405 -25.7847 -1.8276
-15.4979 -5.0447 -0.3321
-72.7009 -25.6237 -1.5763
-18.9098 -7.1831 -0.4151
-19.1517 -7.8096 -0.4259
-19.2171 -8.3834 -0.4332
-19.1976 -8.9332 -0.4390
-19.1476 -9.4793 -0.4444
-19.0293 -10.0004 -0.4486
-18.7404 -10.4341 -0.4491
-18.4533 -10.8665 -0.4498
-43.1792 -26.8527 -1.0713
-41.0533 -26.9277 -1.0376
-38.9054 -26.8856 -1.0024
-36.3315 -26.4265 -0.9551
-34.9743 -26.7550 -0.9389
-33.1545 -26.6572 -0.9096
-31.5216 -26.6251 -0.4273
-29.9850 -26.5950 -0.4174
-28.5332 -26.5665 -0.4082
-26.8506 -26.2394 -0.3951
-25.8501 -26.5128 -0.3917
-24.6062 -26.4884 -0.3844
-23.4190 -26.4651 -0.3775
-22.2835 -26.4429 -0.3712
-21.1951 -26.4215 -0.3652
-20.1498 -26.4010 -0.3597
-19.1439 -26.3813 -0.3545
-18.1742 -26.3623 -0.3496
-17.1700 -26.2408 -0.3438
-17.1427 -27.6342 -0.3578
-17.1133 -29.1357 -0.3731
-13.8835 -25.0013 -0.3169
-13.2107 -25.2063 -0.3164
-12.4363 -25.1911 -0.3133
-11.6810 -25.1763 -0.3104
-10.9434 -25.1618 -0.3077
-10.2219 -25.1477 -0.3053
-9.5153 -25.1338 -0.3030
-8.8222 -25.1202 -0.3008
-8.1415 -25.1068 -0.2989
-7.4721 -25.0937 -0.2971
-6.8130 -25.0808 -0.2954
-6.1631 -25.0680 -0.2939
-5.5216 -25.0554 -0.2926
-4.8301 -24.7488 -0.2879
-4.2526 -24.9876 -0.2898
-2.5715 -17.6832 -0.2045
-3.0517 -25.2570 -0.2914
-2.4329 -25.2449 -0.2907
-1.8176 -25.2328 -0.2902
-1.2050 -25.2208 -0.2897
-0.5944 -25.2089 -0.2894
0.0150 -25.1969 -0.2892
0.6237 -25.1850 -0.2891
1.2064 -24.6374 -0.2830
1.7694 -24.1640 -0.2779
2.2924 -23.4953 -0.2706
2.7896 -22.8600 -0.2638
3.2633 -22.2550 -0.2574
3.7031 -21.6036 -0.2506
4.3993 -22.4000 -0.2606
4.1851 -18.8842 -0.2205
5.1634 -20.8945 -0.2450
5.7053 -20.9047 -0.2463
5.9971 -20.0530 -0.2374
6.4228 -19.7269 -0.2349
5.5993 -15.8830 -0.1903
6.0190 -15.8420 -0.1910
5.9333 -14.5473 -0.1766
6.0547 -13.8764 -0.1698
6.6662 -14.3232 -0.1767
7.0286 -14.1948 -0.1766
7.2384 -13.7712 -0.1729
7.3261 -13.1560 -0.1668
7.5273 -12.7807 -0.1637
7.9167 -12.7281 -0.1649
8.4248 -12.8422 -0.1683
8.7575 -12.6708 -0.1681
9.4907 -13.0461 -0.1754
11.1504 -14.5737 -0.1986
23.6907 -29.4607 -0.4074
23.8312 -28.2115 -0.3962
23.9313 -26.9795 -0.3851
24.0097 -25.7848 -0.3744
24.0542 -24.6124 -0.3639
18.3955 -17.9342 -0.2703
23.9463 -22.2427 -0.3420
23.7781 -21.0394 -0.3305
23.5228 -19.8210 -0.3184
23.2024 -18.6112 -0.3061
22.9620 -17.5236 -0.2955
22.6802 -16.4567 -0.2850
22.2803 -15.3586 -0.2735
21.4900 -14.0601 -0.2579
18.9267 -11.7400 -0.2222
16.3269 -9.5890 -0.1877
7.1535 -3.9720 -0.0806
7.0072 -3.6721 -0.0774
6.3135 -3.1165 -0.0684
6.0178 -2.7918 -0.0640
6.0930 -2.6497 -0.0636
6.1813 -2.5123 -0.0634
6.2705 -2.3736 -0.0632
6.3692 -2.2366 -0.0632
6.5613 -2.1274 -0.0641
6.6880 -1.9912 -0.0643
6.7899 -1.8442 -0.0643
6.9852 -1.7171 -0.0652
7.1746 -1.5808 -0.0661
7.3443 -1.4331 -0.0667
7.5227 -1.2800 -0.0675
7.7015 -1.1197 -0.0682
7.9214 -0.9568 -0.0693
8.1529 -0.7854 -0.0705
10.2406 -0.7373 -0.0876
10.1535 -0.4848 -0.0860
10.0649 -0.2370 -0.0844
9.9781 0.0062 -0.0829
9.9141 0.2458 -0.0816
9.8510 0.4826 -0.0804
9.7794 0.7163 -0.0792
9.7903 0.9555 -0.0787
9.8448 1.2016 -0.0786
9.9001 1.4519 -0.0785
9.8728 1.6925 -0.0779
9.8356 1.9319 -0.0772
9.8124 2.1748 -0.0766
9.7891 2.4192 -0.0761
9.7631 2.6647 -0.0757
9.7465 2.9150 -0.0753
9.7497 3.1745 -0.0751
9.7531 3.4384 -0.0750
9.7335 3.6983 -0.0748
7.2756 2.9675 -0.0559
6.9619 3.0378 -0.0535
6.5102 3.0300 -0.0501
5.8314 2.8875 -0.0449
5.7396 3.0169 -0.0443
2.9846 1.6620 -0.0231
2.9741 1.7516 -0.0231
5.4674 3.4007 -0.0427
5.3864 3.5336 -0.0423
5.2036 3.5965 -0.0412
5.4524 3.9665 -0.0435
6.6545 5.0913 -0.0535
6.3807 5.1310 -0.0518
4.8110 4.0640 -0.0395
4.4820 3.9756 -0.0372
4.4276 4.1228 -0.0372
4.3721 4.2730 -0.0373
4.1374 4.2437 -0.0358
4.0235 4.3316 -0.0354
3.9101 4.4191 -0.0350
3.7972 4.5062 -0.0347
3.6844 4.5932 -0.0344
3.5717 4.6801 -0.0341
4.0684 5.6068 -0.0398
3.9144 5.6784 -0.0393
6.0487 9.2448 -0.0625
5.8641 9.4536 -0.0625
8.4058 14.3119 -0.0926
8.2890 14.9278 -0.0946
8.0860 15.4292 -0.0959
7.6780 15.5537 -0.0949
7.0557 15.2082 -0.0912
6.6277 15.2398 -0.0899
6.2755 15.4399 -0.0896
5.9462 15.7073 -0.0898
5.7248 16.3018 -0.0920
5.7374 17.6940 -0.0986
5.3613 18.0059 -0.0991
5.0304 18.5194 -0.1008
5.6661 23.0478 -0.1243
6.3425 28.7821 -0.1539
6.5624 33.6268 -0.1783
5.7493 33.7833 -0.1778
5.7823 39.7653 -0.2081
4.9393 40.8824 -0.2128
4.8845 50.6877 -0.2627
3.9443 54.7609 -0.2829
3.3123 69.3328 -0.3574
1.6405 69.5840 -0.3582
-0.0411 69.3839 -0.3570
-12.9009 87.9863 -0.4605
-10.3457 60.3591 -0.3179
-9.5428 48.5917 -0.2577
-10.3408 46.6624 -0.2495
-16.9110 68.4370 -0.3693
-11.1982 41.0334 -0.2236
-17.4566 58.3746 -0.3216
-14.3870 44.1901 -0.2464
-18.2686 51.8238 -0.2926
-19.6148 51.6289 -0.2956
-16.8637 41.3491 -0.2402
-17.9949 41.2436 -0.2434
-18.0761 38.8413 -0.2331
-19.8415 40.0740 -0.2448
-16.9418 32.2343 -0.2006
-23.7513 42.6546 -0.2707
-48.7227 82.7315 -0.5361
-51.4215 82.6779 -0.5475
-54.1844 82.6007 -0.5596
-34.4855 49.8989 -0.3462
-15.8377 21.7721 -0.1549
-17.1440 22.4089 -0.1636
-18.5611 23.0834 -0.1731
-9.7885 11.5884 -0.0894
-10.1377 11.4298 -0.0908
-10.4666 11.2413 -0.0921
-10.7994 11.0508 -0.0934
-11.1365 10.8580 -0.0949
-11.4784 10.6627 -0.0965
-11.8256 10.4644 -0.0981
-12.1787 10.2630 -0.0999
-12.5383 10.0581 -0.1018
-12.9049 9.8493 -0.1038
-13.2008 9.5794 -0.1052
-34.5298 23.8049 -0.2733
-16.6990 10.9267 -0.1313
-16.8532 10.4549 -0.1318
-11.5271 6.7707 -0.0897
-11.7376 6.5181 -0.0910
-37.4284 19.6166 -0.2892
-14.6779 7.2463 -0.1131
-14.7270 6.8330 -0.1133
-12.4254 5.4042 -0.0955
-14.8064 6.0186 -0.1138
-14.8454 5.6204 -0.1142
-14.8841 5.2275 -0.1146
-14.9224 4.8392 -0.1151
-14.9605 4.4550 -0.1157
-14.9984 4.0745 -0.1163
-15.0361 3.6970 -0.1170
-14.9750 3.3004 -0.1170
-20.7566 4.0514 -0.1630
-38.2586 6.5120 -0.3020
-38.2399 5.5617 -0.3036
-26.5862 3.2128 -0.2124
-38.2028 3.6825 -0.3074
-27.0609 1.9499 -0.2194
-38.1661 1.8244 -0.3119
-38.1479 0.9004 -0.3144
-23.6975 -0.0134 -0.1970
-23.4629 -0.5804 -0.1969
-17.0998 -0.8368 -0.1450
-17.3333 -1.2687 -0.1485
-17.4553 -1.7026 -0.1512
-17.5799 -2.1447 -0.1540
-17.7075 -2.5959 -0.1570
-13.2650 -2.2733 -0.1191
-13.1749 -2.5871 -0.1198
-18.1461 -4.0209 -0.1672
-21.3875 -5.2844 -0.1999
-95.9575 -26.1848 -0.9097
-86.0552 -25.7325 -0.8281
-15.4960 -5.0447 -0.1514
-26.2360 -9.2480 -0.2605
-68.7891 -26.1329 -0.6944
-18.3423 -7.4802 -0.1884
-18.2874 -7.9785 -0.1911
-18.2320 -8.4845 -0.1940
-18.1762 -8.9991 -0.1971
-18.1198 -9.5231 -0.2003
-18.0627 -10.0575 -0.2037
-17.8312 -10.5009 -0.2053
-43.1740 -26.8512 -0.5077
-40.8672 -26.8074 -0.4912
-38.7292 -26.7654 -0.4761
-36.3292 -26.4264 -0.4571
-34.8888 -26.6912 -0.4497
-33.1526 -26.6571 -0.4380
-31.1647 -26.3251 0.0296
-29.6456 -26.2953 0.0265
-28.2102 -26.2671 0.0236
-26.8492 -26.2394 0.0209
-25.5576 -26.2140 0.0184
-24.3277 -26.1899 0.0161
-23.1540 -26.1669 0.0139
-22.0314 -26.1449 0.0119
-20.9553 -26.1238 0.0100
-19.9219 -26.1035 0.0083
-18.9274 -26.0840 0.0067
-17.9686 -26.0652 0.0052
-17.1700 -26.2419 0.0038
-17.1427 -27.6353 0.0026
-17.1132 -29.1368 0.0013
-13.8409 -24.9256 0.0000
-13.0550 -24.9102 -0.0010
-12.2897 -24.8952 -0.0019
-11.5433 -24.8805 -0.0028
-10.8144 -24.8662 -0.0036
-10.1014 -24.8523 -0.0044
-9.4031 -24.8385 -0.0051
-8.7182 -24.8251 -0.0057
-8.0456 -24.8119 -0.0063
-7.3841 -24.7989 -0.0068
-6.7327 -24.7861 -0.0073
-6.0905 -24.7736 -0.0078
-5.4566 -24.7611 -0.0082
-4.8299 -24.7488 -0.0085
-4.2525 -24.9876 -0.0089
-2.5710 -17.6806 -0.0065
-3.0161 -24.9633 -0.0094
-2.4045 -24.9513 -0.0096
-1.7964 -24.9394 -0.0097
-1.1909 -24.9275 -0.0098
-0.5874 -24.9157 -0.0098
0.0148 -24.9039 -0.0099
0.6164 -24.8921 -0.0098
1.1795 -24.0885 -0.0094
1.7152 -23.4249 -0.0091
2.2240 -22.7945 -0.0087
2.7083 -22.1944 -0.0083
3.1703 -21.6217 -0.0079
4.2544 -24.8207 -0.0088
4.4803 -22.8132 -0.0078
4.0848 -18.4321 -0.0061
5.2042 -21.0604 -0.0066
5.7207 -20.9621 -0.0062
5.8420 -19.5352 -0.0054
6.4392 -19.7780 -0.0050
5.5942 -15.8692 -0.0036
5.8765 -15.4675 -0.0031
5.9620 -14.6185 -0.0025
6.1185 -14.0232 -0.0020
6.7156 -14.4300 -0.0016
6.9956 -14.1287 -0.0010
7.2234 -13.7433 -0.0005
7.2702 -13.0561 0.0001
7.5523 -12.8237 0.0006
7.9357 -12.7591 0.0012
8.2949 -12.6448 0.0019
8.6982 -12.5857 0.0025
9.8085 -13.4835 0.0035
10.6656 -13.9407 0.0045
22.6000 -28.1056 0.0110
22.8296 -27.0270 0.0125
23.0182 -25.9513 0.0140
23.1207 -24.8313 0.0154
23.1871 -23.7263 0.0168
18.3865 -17.9263 0.0144
23.0912 -21.4496 0.0194
22.9557 -20.3129 0.0206
22.6697 -19.1032 0.0217
22.4801 -18.0328 0.0228
22.2350 -16.9697 0.0238
21.9577 -15.9334 0.0248
21.3768 -14.7368 0.0253
19.8607 -12.9950 0.0246
16.8892 -10.4768 0.0219
7.2999 -4.2876 0.0099
7.0756 -3.9290 0.0100
6.9295 -3.6317 0.0102
6.0668 -2.9950 0.0093
5.9723 -2.7709 0.0095
6.0498 -2.6311 0.0100
6.1276 -2.4906 0.0104
6.2058 -2.3494 0.0110
6.3285 -2.2225 0.0116
6.5184 -2.1137 0.0123
6.6472 -1.9793 0.0130
6.7671 -1.8382 0.0136
6.9852 -1.7173 0.0145
7.1613 -1.5782 0.0153
7.3304 -1.4306 0.0162
7.5098 -1.2781 0.0171
7.6871 -1.1179 0.0180
7.8858 -0.9528 0.0190
8.1153 -0.7821 0.0201
10.0302 -0.7225 0.0256
9.9468 -0.4753 0.0261
9.8619 -0.2326 0.0266
9.7919 0.0057 0.0272
9.7303 0.2409 0.0277
9.6694 0.4734 0.0283
9.6276 0.7049 0.0290
9.6797 0.9443 0.0300
9.7326 1.1875 0.0309
9.7864 1.4349 0.0320
9.7648 1.6737 0.0328
9.7331 1.9114 0.0336
9.7099 2.1518 0.0344
9.6865 2.3935 0.0352
9.6607 2.6364 0.0361
9.6521 2.8864 0.0371
9.6546 3.1432 0.0381
9.6571 3.4042 0.0392
9.6404 3.6626 0.0402
7.0397 2.8710 0.0302
6.9602 3.0367 0.0307
6.6666 3.1025 0.0302
6.4087 3.1731 0.0299
5.7295 3.0113 0.0275
2.9844 1.6618 0.0147
2.9736 1.7512 0.0151
5.6057 3.4865 0.0293
5.6201 3.6867 0.0303
5.5187 3.8141 0.0307
5.4176 3.9410 0.0310
6.6236 5.0675 0.0392
6.0132 4.8352 0.0367
4.8002 4.0546 0.0303
4.4813 3.9748 0.0292
4.4270 4.1219 0.0298
4.3715 4.2721 0.0305
4.1394 4.2456 0.0299
4.0255 4.3335 0.0301
3.9121 4.4210 0.0304
3.7990 4.5083 0.0306
3.6862 4.5953 0.0309
3.5735 4.6822 0.0311
4.0672 5.6049 0.0369
5.2540 7.6213 0.0498
5.9562 9.1030 0.0590
5.7771 9.3130 0.0599
8.3599 14.2332 0.0908
7.9814 14.3732 0.0911
8.1407 15.5330 0.0978
7.6099 15.4151 0.0964
6.9156 14.9057 0.0927
6.5782 15.1255 0.0936
6.2286 15.3237 0.0944
5.9412 15.6936 0.0962
5.6514 16.0921 0.0982
5.7071 17.6001 0.1070
5.3313 17.9047 0.1084
5.0882 18.7316 0.1131
5.5650 22.6356 0.1362
6.1967 28.1196 0.1688
5.7447 29.4358 0.1763
2.2785 13.3884 0.0800
5.3486 36.7810 0.2194
4.8624 40.2445 0.2397
4.8791 50.6293 0.3012
3.7037 51.4194 0.3056
1.7387 36.3922 0.2162
1.6553 70.2077 0.4168
-12.9057 88.0159 0.5251
-15.2511 88.9754 0.5318
-12.0073 61.1389 0.3662
-14.6154 65.9492 0.3959
-16.1784 65.4700 0.3941
-17.6354 64.6193 0.3901
-18.9268 63.2884 0.3834
-14.3858 44.1849 0.2686
-29.4614 83.5721 0.5101
-20.2884 53.3999 0.3273
-17.8210 43.6950 0.2690
-21.1383 48.4463 0.2998
-18.0740 38.8352 0.2416
-19.8721 40.1342 0.2511
-16.9392 32.2280 0.2029
-46.1232 82.8286 0.5248
-48.7537 82.7808 0.5282
-51.6985 83.1199 0.5343
-54.2396 82.6813 0.5356
-19.7133 27.0986 0.1786
-16.3927 21.4260 0.1425
-34.6698 43.1148 0.2897
-9.6060 11.3719 0.0772
-9.9240 11.1883 0.0768
-10.2449 11.0026 0.0765
-10.5692 10.8148 0.0761
-10.8976 10.6246 0.0758
-11.2304 10.4318 0.0755
-11.5682 10.2361 0.0752
-17.2687 14.5516 0.1086
-54.4206 43.6532 0.3314
-29.9145 22.8301 0.1765
-29.9981 21.7673 0.1716
-39.0856 26.9441 0.2168
-16.6947 10.9232 0.0898
-16.8506 10.4525 0.0880
-11.5250 6.7690 0.0584
-11.7365 6.5170 0.0578
-37.4283 19.6152 0.1791
-28.2346 13.9379 0.1313
-23.4410 10.8752 0.1060
-12.4242 5.4032 0.0546
-14.4860 5.8878 0.0619
-14.5264 5.4991 0.0604
-14.5661 5.1153 0.0589
-14.6054 4.7358 0.0575
-14.6442 4.3603 0.0561
-14.6827 3.9882 0.0548
-14.7208 3.6189 0.0534
-14.7008 3.2394 0.0519
-20.7541 4.0502 0.0714
-38.2947 6.5168 0.1282
-38.2761 5.5656 0.1247
-26.5809 3.2113 0.0843
-38.2392 3.6846 0.1180
-38.2209 2.7527 0.1148
-27.5518 1.3161 0.0805
-38.1846 0.8999 0.1086
-23.2598 -0.0140 0.0644
-22.9130 -0.5676 0.0617
-22.5163 -1.1027 0.0589
-22.1321 -1.6207 0.0563
-21.7180 -2.1191 0.0537
-20.9060 -2.5512 0.0502
-13.2608 -2.2731 0.0301
-13.1733 -2.5872 0.0290
-16.3963 -3.6338 0.0350
-21.3850 -5.2846 0.0443
-96.2044 -26.2557 0.1930
-86.0557 -25.7358 0.1672
-15.4940 -5.0446 0.0291
-72.5855 -25.5885 0.1321
-68.7831 -26.1332 0.1211
-64.0887 -26.1388 0.1089
-62.0961 -27.0941 0.1018
-56.1117 -26.1146 0.0887
-53.5461 -26.5130 0.0815
-50.3226 -26.4497 0.0737
-47.3958 -26.3923 0.0667
-45.1629 -26.5986 0.0609
-42.6868 -26.5500 0.0551
-40.4041 -26.5052 0.0499
-38.2904 -26.4638 0.0451
-36.3270 -26.4264 0.0407
-34.4936 -26.3904 0.0367
-32.7772 -26.3567 0.0330
-31.5181 -26.6250 0.4872
-29.9818 -26.5949 0.4709
-28.5301 -26.5664 0.4559
-27.1549 -26.5394 0.4419
-25.8475 -26.5128 0.4289
-24.6038 -26.4884 0.4169
-23.4168 -26.4651 0.4057
-22.2814 -26.4428 0.3952
-21.1932 -26.4215 0.3855
-20.1480 -26.4010 0.3764
-19.1423 -26.3812 0.3680
-18.1726 -26.3622 0.3600
-17.2360 -26.3439 0.3527
-17.1427 -27.6364 0.3630
-17.1132 -29.1379 0.3758
-14.0048 -25.2219 0.3198
-13.2096 -25.2063 0.3144
-12.4353 -25.1911 0.3094
-11.6801 -25.1763 0.3047
-10.9425 -25.1618 0.3004
-10.1010 -24.8522 0.2929
-9.4028 -24.8385 0.2892
-8.7179 -24.8251 0.2859
-8.0453 -24.8119 0.2828
-7.3838 -24.7989 0.2799
-6.7325 -24.7861 0.2773
-6.0903 -24.7735 0.2749
-5.4564 -24.7611 0.2728
-4.8298 -24.7488 0.2709
-4.2523 -24.9876 0.2720
-2.5705 -17.6780 0.1915
-3.0160 -24.9633 0.2693
-2.4044 -24.9513 0.2682
-1.7963 -24.9394 0.2674
-1.1909 -24.9275 0.2668
-0.5874 -24.9157 0.2663
0.0148 -24.9039 0.2661
0.5947 -24.0134 0.2567
1.2182 -24.8803 0.2663
1.8209 -24.8684 0.2667
2.4251 -24.8566 0.2673
3.0315 -24.8447 0.2680
3.6410 -24.8327 0.2690
4.2543 -24.8207 0.2703
4.3989 -22.3997 0.2453
4.7755 -21.5495 0.2375
5.2456 -21.2289 0.2357
5.7390 -21.0299 0.2354
5.8697 -19.6286 0.2217
6.4557 -19.8294 0.2261
5.5891 -15.8554 0.1827
5.9344 -15.6204 0.1820
5.9911 -14.6903 0.1733
6.1837 -14.1732 0.1693
6.7364 -14.4751 0.1753
7.0170 -14.1725 0.1742
7.1804 -13.6620 0.1706
7.1645 -12.8668 0.1633
7.5775 -12.8669 0.1661
7.9547 -12.7902 0.1682
8.3119 -12.6712 0.1698
8.6398 -12.5016 0.1709
9.9195 -13.6367 0.1904
10.6185 -13.8797 0.1982
21.6417 -26.9152 0.3932
21.9050 -25.9336 0.3882
22.0898 -24.9058 0.3823
22.2365 -23.8828 0.3764
22.3368 -22.8574 0.3704
18.3776 -17.9184 0.2988
22.2569 -20.6756 0.3554
22.0830 -19.5417 0.3466
21.9558 -18.5026 0.3392
21.7737 -17.4671 0.3314
21.5716 -16.4643 0.3238
21.1294 -15.3333 0.3131
20.1089 -13.8636 0.2945
17.4146 -11.3952 0.2522
15.4036 -9.5559 0.2209
7.1393 -4.1936 0.1014
6.9965 -3.8854 0.0986
6.1166 -3.2059 0.0855
5.9671 -2.9460 0.0829
5.9555 -2.7633 0.0822
6.0327 -2.6239 0.0828
6.1102 -2.4838 0.0835
6.1882 -2.3429 0.0843
6.2963 -2.2115 0.0855
6.4761 -2.1003 0.0877
6.6080 -1.9679 0.0893
6.7671 -1.8385 0.0913
6.9852 -1.7176 0.0942
7.1480 -1.5755 0.0964
7.3166 -1.4282 0.0988
7.4970 -1.2762 0.1013
7.6741 -1.1163 0.1039
7.8564 -0.9495 0.1066
8.0780 -0.7788 0.1100
9.8284 -0.7083 0.1343
9.7483 -0.4661 0.1337
9.6725 -0.2285 0.1333
9.6125 0.0053 0.1332
9.5531 0.2362 0.1331
9.4943 0.4645 0.1332
9.5208 0.6967 0.1345
9.5715 0.9334 0.1362
9.6230 1.1738 0.1380
9.6752 1.4182 0.1400
9.6592 1.6552 0.1410
9.6327 1.8913 0.1420
9.6095 2.1292 0.1431
9.5861 2.3684 0.1443
9.5605 2.6087 0.1456
9.5596 2.8584 0.1473
9.5613 3.1125 0.1492
9.5630 3.3707 0.1512
9.5491 3.6275 0.1530
7.2718 2.9654 0.1182
6.9584 3.0357 0.1148
6.6650 3.1015 0.1117
6.3598 3.1487 0.1083
5.7194 3.0058 0.0990
2.9841 1.6615 0.0526
2.9731 1.7508 0.0534
6.1486 3.8239 0.1124
6.1246 4.0174 0.1142
5.4836 3.7896 0.1043
5.3832 3.9157 0.1046
6.2263 4.7632 0.1237
4.9237 3.9589 0.1001
4.7894 4.0453 0.0997
4.4807 3.9740 0.0956
4.4263 4.1211 0.0968
4.2561 4.1591 0.0956
4.1415 4.2475 0.0956
4.0275 4.3355 0.0957
3.9140 4.4230 0.0958
3.8009 4.5103 0.0960
3.6880 4.5973 0.0962
3.5753 4.6843 0.0965
3.4625 4.7714 0.0968
5.3081 7.6995 0.1539
5.8808 8.9874 0.1773
5.7326 9.2409 0.1799
8.3138 14.1543 0.2722
7.9057 14.2363 0.2707
7.8820 15.0387 0.2828
7.1951 14.5742 0.2713
6.8645 14.7950 0.2728
6.5295 15.0128 0.2743
6.2036 15.2616 0.2766
5.9362 15.6799 0.2819
5.6479 16.0816 0.2870
5.3390 16.4641 0.2919
5.3312 17.9036 0.3155
5.1096 18.8097 0.3296
5.5168 22.4388 0.3912
6.1345 27.8362 0.4830
5.5886 28.6352 0.4948
2.2786 13.3884 0.2305
1.9460 13.3819 0.2297
4.8300 39.9753 0.6844
4.1488 43.0500 0.7355
3.6803 51.0931 0.8714
1.7387 36.3922 0.6200
1.6266 68.9882 1.1744
-0.0407 68.5808 1.1672
-5.1477 70.2986 1.1991
-6.8567 70.2739 1.2006
-15.2498 88.9642 1.5321
-12.0057 61.1285 1.0565
-22.7679 92.1329 1.6064
-24.2590 88.8861 1.5578
-25.9125 86.6441 1.5271
-14.3846 44.1797 0.7835
-28.0961 79.6963 1.4229
-34.9084 91.8766 1.6524
-17.8184 43.6869 0.7919
-21.1353 48.4376 0.8854
-18.0719 38.8291 0.7162
-19.9129 40.2149 0.7490
-6.7200 12.7848 0.2406
-46.1251 82.8286 1.5756
-44.1889 75.0270 1.4437
-46.6465 74.9942 1.4608
-49.1767 74.9604 1.4792
-32.3844 46.8546 0.9373
-19.7107 27.0939 0.5499
-20.2311 26.4419 0.5449
-34.7193 43.1746 0.9041
-16.0867 19.0430 0.4056
-41.3847 46.6549 1.0116
-41.3660 44.4234 0.9815
-42.4775 43.4621 0.9794
-44.9674 43.8386 1.0087
-46.7028 43.3792 1.0203
-48.9767 43.3346 1.0431
-17.2670 14.5493 0.3588
-54.4235 43.6531 1.1046
-56.5895 43.1853 1.1228
-38.7254 28.0983 0.7517
-39.0856 26.9424 0.7429
-16.6904 10.9197 0.3108
-16.8480 10.4502 0.3077
-11.5229 6.7673 0.2065
-11.7355 6.5160 0.2066
-37.4283 19.6136 0.6474
-28.1061 13.8734 0.4781
-23.4362 10.8721 0.3923
-12.4229 5.4022 0.2047
-37.6033 15.2824 0.6106
-37.7811 14.3010 0.6048
-37.7586 13.2585 0.5963
-38.3366 12.4293 0.5976
-37.7170 11.2288 0.5807
-37.6981 10.2383 0.5735
-38.3518 9.4270 0.5769
-38.3326 8.4455 0.5704
-20.7516 4.0489 0.3057
-38.6903 6.5828 0.5645
-38.6715 5.6217 0.5591
-26.5756 3.2097 0.3809
-38.6342 3.7213 0.5494
-38.2209 2.7513 0.5395
-38.2027 1.8235 0.5355
-23.0601 0.5427 0.3212
-22.7320 -0.0145 0.3148
-22.3419 -0.5543 0.3078
-21.9641 -1.0764 0.3012
-21.5976 -1.5824 0.2949
-21.2389 -2.0731 0.2890
-97.4317 -11.8933 1.3219
-13.2566 -2.2728 0.1791
-13.1718 -2.5874 0.1777
-21.3825 -5.2847 0.2884
-96.1961 -26.2570 1.2980
-58.8232 -17.5938 0.7947
-15.4921 -5.0446 0.2097
-72.5802 -25.5893 0.9850
-29.4808 -11.2019 0.4014
-62.8333 -25.6291 0.8588
-53.7931 -23.4733 0.7386
-56.1105 -26.1162 0.7746
-54.1578 -26.8180 0.7522
-50.8978 -26.7541 0.7118
-47.8896 -26.6693 0.6748
-45.6743 -26.9017 0.6490
-43.1704 -26.8525 0.6192
-40.8618 -26.8073 0.5920
-38.7243 -26.7653 0.5673
-36.7372 -26.7264 0.5446
-34.8847 -26.6911 0.5239
-33.1488 -26.6570 0.5048
-31.5164 -26.6250 0.9445
-29.9802 -26.5949 0.9151
-28.5004 -26.5400 0.8871
-27.1535 -26.5394 0.8628
-25.8463 -26.5127 0.8394
-24.6026 -26.4883 0.8176
-23.4156 -26.4651 0.7974
-22.2804 -26.4428 0.7785
-21.1922 -26.4214 0.7609
-20.1471 -26.4009 0.7445
-19.1224 -26.3551 0.7285
-18.1565 -26.3400 0.7144
-17.2353 -26.3438 0.7016
-17.1426 -27.6375 0.7235
-17.1132 -29.1391 0.7504
-14.0043 -25.2219 0.6395
-13.2091 -25.2063 0.6298
-12.4348 -25.1911 0.6208
-11.6796 -25.1763 0.6124
-10.9421 -25.1618 0.6045
-10.2207 -25.1476 0.5973
-9.5142 -25.1338 0.5906
-8.8212 -25.1202 0.5844
-8.1406 -25.1068 0.5787
-7.4713 -25.0937 0.5734
-6.7944 -25.0149 0.5672
-6.1625 -25.0680 0.5644
-5.5210 -25.0554 0.5605
-4.8870 -25.0430 0.5570
-4.3022 -25.2816 0.5595
-2.5701 -17.6754 0.3894
-3.0514 -25.2570 0.5544
-2.4326 -25.2449 0.5525
-1.8174 -25.2328 0.5510
-1.2049 -25.2208 0.5498
-0.5943 -25.2088 0.5490
0.0150 -25.1969 0.5486
0.6237 -25.1850 0.5485
1.2325 -25.1730 0.5488
1.8422 -25.1611 0.5495
2.4535 -25.1491 0.5505
3.0671 -25.1370 0.5519
3.6837 -25.1249 0.5537
4.3042 -25.1128 0.5559
4.4377 -22.5980 0.5027
4.7969 -21.6471 0.4844
5.2878 -21.4002 0.4820
5.6128 -20.5683 0.4665
6.1265 -20.4880 0.4684
6.3782 -19.5919 0.4518
5.4993 -15.6012 0.3631
5.9934 -15.7764 0.3709
6.0205 -14.7629 0.3508
6.4754 -14.8423 0.3568
6.7389 -14.4811 0.3525
6.9355 -14.0085 0.3455
7.1379 -13.5816 0.3396
7.0618 -12.6829 0.3218
7.5681 -12.8514 0.3312
7.9320 -12.7542 0.3342
8.3783 -12.7730 0.3405
8.8952 -12.8717 0.3494
10.0138 -13.7669 0.3809
10.6580 -13.9320 0.3933
20.7275 -25.7793 0.7433
21.0258 -24.8938 0.7338
21.2594 -23.9707 0.7231
21.4078 -22.9939 0.7107
21.4887 -21.9905 0.6971
18.3686 -17.9106 0.5831
21.4138 -19.8935 0.6659
21.3555 -18.8989 0.6513
21.2124 -17.8772 0.6352
21.0904 -16.9200 0.6207
20.7803 -15.8613 0.6017
20.0926 -14.5818 0.5730
18.1512 -12.5146 0.5102
15.7120 -10.2818 0.4357
14.3874 -8.9261 0.3940
7.0516 -4.1423 0.1908
6.9192 -3.8427 0.1852
6.0054 -3.1478 0.1591
5.9098 -2.9179 0.1551
5.9387 -2.7558 0.1546
6.0157 -2.6167 0.1553
6.0929 -2.4770 0.1562
6.1699 -2.3362 0.1571
6.2842 -2.2074 0.1591
6.4344 -2.0869 0.1621
6.5736 -1.9579 0.1649
6.7671 -1.8387 0.1691
6.9727 -1.7148 0.1736
7.1348 -1.5728 0.1772
7.3028 -1.4258 0.1811
7.4842 -1.2743 0.1853
7.6612 -1.1146 0.1896
7.8429 -0.9482 0.1940
8.0411 -0.7755 0.1990
9.6344 -0.6947 0.2387
9.5575 -0.4574 0.2372
9.4974 -0.2247 0.2362
9.4386 0.0049 0.2354
9.3777 0.2315 0.2347
9.3737 0.4582 0.2355
9.4191 0.6890 0.2377
9.4657 0.9228 0.2401
9.5157 1.1604 0.2428
9.5664 1.4019 0.2456
9.5574 1.6374 0.2470
9.5344 1.8717 0.2483
9.5111 2.1070 0.2496
9.4876 2.3437 0.2512
9.4676 2.5830 0.2529
9.4688 2.8309 0.2555
9.4698 3.0824 0.2581
9.4707 3.3378 0.2610
9.4666 3.5958 0.2639
7.2700 2.9644 0.2052
6.9566 3.0347 0.1989
7.7810 3.6206 0.2255
6.3117 3.1246 0.1855
5.7093 3.0003 0.1704
2.9839 1.6613 0.0904
2.9726 1.7504 0.0916
6.1012 3.7941 0.1912
6.0469 3.9661 0.1929
5.9423 4.1063 0.1931
6.1358 4.4629 0.2034
5.8940 4.5087 0.1994
4.9126 3.9498 0.1697
4.7787 4.0361 0.1688
4.4800 3.9732 0.1619
4.3737 4.0719 0.1619
4.2582 4.1610 0.1617
4.1435 4.2494 0.1615
4.0295 4.3374 0.1614
3.9159 4.4250 0.1614
3.8028 4.5123 0.1615
3.6899 4.5994 0.1616
3.5770 4.6865 0.1619
3.4642 4.7735 0.1622
6.0423 8.7641 0.2932
5.8342 8.9159 0.2940
5.6888 9.1698 0.2982
5.8541 9.9662 0.3198
7.8604 14.1541 0.4486
7.5909 14.4828 0.4537
7.1425 14.4671 0.4482
6.8141 14.6859 0.4503
6.4815 14.9019 0.4525
6.1985 15.2485 0.4588
5.9313 15.6662 0.4674
5.6444 16.0711 0.4757
5.2838 16.2935 0.4788
4.9648 16.6726 0.4867
5.0799 18.6997 0.5425
5.4763 22.2733 0.6426
5.5483 25.1752 0.7227
5.5007 28.1839 0.8054
2.2787 13.3884 0.3811
1.9461 13.3819 0.3796
4.7943 39.6785 1.1224
4.0914 42.4523 1.1981
3.6600 50.8090 1.4314
3.3950 71.0563 1.9992
1.9288 81.8030 2.2998
-0.0507 85.4968 2.4030
-2.1169 85.4735 2.4030
-4.1822 85.4061 2.4030
-5.1481 70.3019 1.9806
-6.8573 70.2772 1.9836
-9.9207 81.2944 2.2999
-12.0060 81.8741 2.3230
-13.9871 81.5952 2.3230
-12.0041 61.1181 1.7469
-17.9321 80.9094 2.3230
-19.5323 79.0367 2.2807
-21.0274 77.0426 2.2357
-22.4954 75.2156 2.1961
-14.3835 44.1745 1.2985
-25.1634 71.3749 2.1135
-26.4999 69.7435 2.0815
-17.8158 43.6789 1.3148
-21.1323 48.4289 1.4711
-18.0697 38.8230 1.1909
-6.3648 12.8534 0.3984
-6.7203 12.7848 0.4007
-24.2924 43.6211 1.3833
-24.9335 42.3321 1.3593
-25.6921 41.3038 1.3439
-26.5152 40.4156 1.3335
-27.5330 39.8337 1.3338
-19.7080 27.0891 0.9212
-20.2293 26.4382 0.9139
-33.8281 42.0643 1.4794
-16.0854 19.0406 0.6819
-37.9530 42.7841 1.5618
-41.3660 44.4212 1.6544
-42.4795 43.4621 1.6532
-44.5419 43.4216 1.6888
-27.9616 25.9704 1.0339
-28.4372 25.1600 1.0266
-17.2653 14.5471 0.6091
-53.9089 43.2379 1.8603
-56.5927 43.1853 1.9120
-38.7254 28.0965 1.2821
-38.6944 26.6711 1.2564
-16.6861 10.9161 0.5318
-16.8454 10.4479 0.5274
-11.5209 6.7656 0.3546
-11.7344 6.5149 0.3553
-37.4283 19.6122 1.1159
-27.9965 13.8182 0.8223
-23.4315 10.8690 0.6786
-12.4217 5.4012 0.3549
-37.6067 15.2824 1.0607
-37.7810 14.2995 1.0527
-37.7586 13.2571 1.0399
-38.3365 12.4279 1.0444
-37.7170 11.2274 1.0169
-37.6981 10.2370 1.0066
-38.3518 9.4256 1.0147
-38.3325 8.4441 1.0056
-20.7492 4.0477 0.5400
-38.6903 6.5814 0.9995
-38.6714 5.6203 0.9923
-26.5704 3.2081 0.6776
-38.6342 3.7200 0.9797
-38.2209 2.7500 0.9643
-38.2027 1.8221 0.9595
-38.5790 0.9065 0.9652
-38.5607 -0.0259 0.9615
-38.1483 -0.9477 0.9486
-32.4444 -1.5912 0.8050
-72.5377 -5.3171 1.7969
-91.9090 -8.9745 2.2744
-92.9792 -11.3530 2.2999
-97.1345 -14.2502 2.4030
-13.2525 -2.2726 0.3281
-13.1702 -2.5876 0.3265
-96.0732 -21.2989 2.3865
-21.3801 -5.2849 0.5325
-92.0542 -25.1298 2.2999
-57.8885 -17.3164 1.4519
-15.4901 -5.0445 0.3903
-54.5359 -19.2295 1.3811
-68.9653 -26.2076 1.7568
-60.9377 -24.8582 1.5624
-53.7902 -23.4741 1.3892
-56.1093 -26.1178 1.4606
-54.1533 -26.8180 1.4220
-50.8937 -26.7540 1.3491
-47.8860 -26.6692 1.2824
-45.6711 -26.9016 1.2366
-43.1674 -26.8525 1.1827
-40.8591 -26.8072 1.1337
-38.6834 -26.7387 1.0880
-36.7350 -26.7263 1.0482
-34.8826 -26.6911 1.0108
-33.1469 -26.6570 0.9763
-31.5146 -26.6250 1.4020
-29.9785 -26.5948 1.3596
-28.4988 -26.5400 1.3190
-27.1521 -26.5394 1.2838
-25.8450 -26.5127 1.2500
-24.6014 -26.4883 1.2185
-23.4145 -26.4650 1.1892
-22.2793 -26.4428 1.1620
-21.1913 -26.4214 1.1366
-20.1462 -26.4009 1.1128
-19.1216 -26.3550 1.0896
-18.1560 -26.3404 1.0691
-17.2346 -26.3438 1.0507
-17.1426 -27.6387 1.0842
-17.1132 -29.1403 1.1252
-14.0037 -25.2219 0.9595
-13.2086 -25.2063 0.9454
-12.4343 -25.1911 0.9323
-11.6792 -25.1762 0.9201
-10.9417 -25.1618 0.9088
-10.2203 -25.1476 0.8983
-9.5138 -25.1338 0.8886
-8.8209 -25.1202 0.8796
-8.1403 -25.1068 0.8714
-7.4710 -25.0937 0.8638
-6.8050 -25.0548 0.8560
-6.1559 -25.0421 0.8497
-5.5208 -25.0554 0.8450
-4.8868 -25.0430 0.8399
-4.3021 -25.2816 0.8438
-2.5696 -17.6729 0.5874
-3.0512 -25.2570 0.8366
-2.4325 -25.2449 0.8338
-1.8173 -25.2328 0.8315
-1.2048 -25.2208 0.8298
-0.5943 -25.2088 0.8286
0.0149 -25.1969 0.8280
0.6236 -25.1850 0.8279
1.2325 -25.1730 0.8283
1.8422 -25.1611 0.8292
2.4534 -25.1491 0.8307
3.0639 -25.1113 0.8319
3.6798 -25.0992 0.8344
4.3040 -25.1128 0.8384
4.4703 -22.7646 0.7637
4.9798 -22.4731 0.7581
5.3590 -21.6893 0.7362
5.5310 -20.2690 0.6928
6.0882 -20.3606 0.7012
6.4982 -19.9615 0.6931
5.5535 -15.7555 0.5520
6.0537 -15.9356 0.5637
6.4560 -15.8314 0.5658
6.3471 -14.5487 0.5258
6.6177 -14.2213 0.5201
6.9888 -14.1165 0.5228
7.0897 -13.4906 0.5064
7.6305 -13.7049 0.5217
7.4582 -12.6654 0.4894
7.7949 -12.5343 0.4921
8.5099 -12.9741 0.5179
8.8739 -12.8414 0.5217
10.1099 -13.8997 0.5752
14.6487 -19.1494 0.8080
19.8252 -24.6583 1.0619
20.1246 -23.8279 1.0483
20.3543 -22.9512 1.0326
20.5216 -22.0431 1.0153
20.6275 -21.1103 0.9965
18.3596 -17.9027 0.8672
20.7094 -19.2401 0.9575
20.6341 -18.2614 0.9349
20.5713 -17.3378 0.9144
20.3677 -16.3410 0.8891
19.9140 -15.2010 0.8545
18.4656 -13.4018 0.7796
15.9860 -11.0225 0.6647
14.4662 -9.4672 0.5929
7.3162 -4.5393 0.2958
6.9719 -4.0958 0.2784
6.0563 -3.3637 0.2390
5.9466 -3.1172 0.2320
5.8710 -2.8990 0.2267
5.9221 -2.7483 0.2265
5.9988 -2.6096 0.2274
6.0758 -2.4703 0.2285
6.1514 -2.3295 0.2296
6.2722 -2.2034 0.2326
6.4038 -2.0773 0.2360
6.5596 -1.9539 0.2404
6.7671 -1.8390 0.2468
6.9600 -1.7119 0.2528
7.1216 -1.5702 0.2578
7.2891 -1.4234 0.2631
7.4714 -1.2724 0.2691
7.6483 -1.1130 0.2750
7.8294 -0.9468 0.2812
9.5217 -0.9187 0.3418
9.4460 -0.6815 0.3391
9.3793 -0.4492 0.3369
9.3197 -0.2208 0.3352
7.3376 0.0035 0.2644
7.3756 0.1818 0.2664
9.2830 0.4535 0.3363
9.3279 0.6820 0.3392
9.3703 0.9132 0.3421
9.4132 1.1476 0.3453
9.4600 1.3860 0.3489
9.4610 1.6206 0.3510
9.4380 1.8524 0.3524
9.4147 2.0853 0.3541
9.3957 2.3207 0.3561
9.3701 2.5561 0.3581
9.3725 2.8018 0.3614
7.5811 2.4673 0.2951
7.5179 2.6493 0.2956
7.4136 2.8157 0.2947
7.2681 2.9633 0.2922
7.4242 3.2384 0.3021
7.3932 3.4398 0.3047
6.2643 3.1009 0.2617
6.2127 3.2646 0.2632
2.9837 1.6611 0.1283
2.9722 1.7500 0.1298
6.0544 3.7648 0.2688
6.0647 3.9776 0.2739
5.9107 4.0842 0.2718
6.1063 4.4411 0.2861
6.4096 4.9029 0.3063
4.9015 3.9406 0.2391
4.7680 4.0268 0.2376
4.4794 3.9724 0.2283
4.3759 4.0738 0.2283
4.2603 4.1629 0.2278
4.1456 4.2514 0.2274
4.0315 4.3394 0.2272
3.9179 4.4270 0.2270
3.8047 4.5143 0.2270
3.6917 4.6015 0.2271
3.5788 4.6886 0.2274
3.4659 4.7757 0.2278
5.9756 8.6669 0.4068
5.7976 8.8595 0.4096
5.6461 9.1006 0.4147
5.5948 9.5244 0.4282
7.7777 14.0047 0.6216
7.4227 14.1614 0.6210
7.0970 14.3745 0.6232
6.7681 14.5861 0.6256
6.4514 14.8322 0.6298
6.1934 15.2354 0.6409
5.9264 15.6526 0.6527
5.6069 15.9637 0.6602
5.2298 16.1263 0.6620
4.8551 16.3035 0.6646
4.6043 16.9484 0.6865
5.3943 21.9390 0.8836
5.4900 24.9098 0.9980
5.3889 27.6098 1.1011
2.2788 13.3884 0.5318
1.9462 13.3819 0.5297
4.7809 39.5656 1.5614
4.0679 42.2069 1.6616
3.6474 50.6326 1.9896
2.8002 58.6050 2.2998
1.2817 54.3582 2.1314
-0.0364 61.3006 2.4030
-1.5179 61.2835 2.4030
-2.9986 61.2332 2.4030
-4.4781 61.1503 2.4030
-5.9556 61.0343 2.4030
-7.1117 58.2737 2.2999
-8.5200 58.1000 2.2999
-6.9310 40.4315 1.6062
-11.4387 58.2373 2.3230
-12.8479 57.9671 2.3230
-14.2514 57.6657 2.3230
-15.6485 57.3327 2.3230
-17.0387 56.9686 2.3230
-14.3823 44.1693 1.8137
-19.6488 55.7308 2.3058
-20.6297 54.2920 2.2647
-17.8132 43.6708 1.8378
-20.9266 47.9557 2.0372
-18.0676 38.8169 1.6657
-20.8781 42.1610 1.8288
-6.7205 12.7848 0.5609
-22.3384 40.1107 1.7813
-23.2002 39.3878 1.7719
-24.0157 38.6072 1.7606
-24.8541 37.8821 1.7525
-25.7477 37.2492 1.7496
-19.7054 27.0843 1.2927
-20.2274 26.4346 1.2831
-28.3742 35.2810 1.7431
-16.0840 19.0382 0.9583
-26.0428 29.3565 1.5070
-25.3557 27.2271 1.4268
-25.4436 26.0309 1.3940
-25.7348 25.0863 1.3744
-26.1658 24.3012 1.3637
-26.8490 23.7535 1.3669
-17.2635 14.5448 0.8594
-28.9137 23.1892 1.4089
-48.6610 37.1305 2.3230
-38.7253 28.0948 1.8128
-38.6944 26.6694 1.7777
-16.6818 10.9126 0.7528
-16.8427 10.4456 0.7472
-11.5188 6.7639 0.5027
-11.7334 6.5139 0.5042
-37.4283 19.6107 1.5846
-27.7753 13.7079 1.1594
-23.4268 10.8659 0.9649
-12.4204 5.4001 0.5051
-37.6100 15.2823 1.5111
-37.7810 14.2981 1.5008
-37.7585 13.2557 1.4838
-38.3365 12.4264 1.4914
-37.7170 11.2260 1.4534
-37.6981 10.2356 1.4398
-38.3518 9.4242 1.4528
-38.3325 8.4427 1.4409
-20.7467 4.0465 0.7744
-38.2947 6.5127 1.4202
-38.2760 5.5615 1.4112
-26.5651 3.2065 0.9742
-38.2391 3.6806 1.3958
-38.2208 2.7486 1.3893
-38.2026 1.8208 1.3837
-38.1845 0.8959 1.3790
-38.1664 -0.0270 1.3750
-38.1483 -0.9491 1.3719
-32.4407 -1.5922 1.1652
-64.0241 -4.6953 2.2980
-49.8842 -4.8727 1.7904
-63.9952 -7.8163 2.2980
-62.5219 -9.1746 2.2476
-13.2483 -2.2724 0.4771
-13.1687 -2.5877 0.4753
-66.3799 -14.7184 2.4030
-21.3776 -5.2851 0.7767
-65.8687 -17.9838 2.4030
-57.8804 -17.3161 2.1218
-15.4882 -5.0444 0.5709
-54.5359 -19.2316 2.0225
-61.5970 -23.4099 2.2999
-60.9760 -24.8761 2.2938
-53.8078 -23.4838 2.0408
-56.1081 -26.1194 2.1470
-54.1489 -26.8179 2.0921
-50.8897 -26.7539 1.9866
-47.8825 -26.6691 1.8902
-45.6678 -26.9015 1.8243
-43.1644 -26.8524 1.7464
-40.8564 -26.8072 1.6756
-38.6810 -26.7387 1.6094
-36.7327 -26.7263 1.5520
-34.8805 -26.6910 1.4978
-33.1450 -26.6570 1.4480
-31.5129 -26.6249 1.8599
-29.9769 -26.5948 1.8043
-28.4974 -26.5400 1.7511
-27.1507 -26.5394 1.7052
-25.8437 -26.5127 1.6609
-24.6001 -26.4883 1.6197
-23.4134 -26.4650 1.5814
-22.2783 -26.4428 1.5457
-21.1903 -26.4214 1.5124
-12.2725 -16.0833 0.9025
-11.5318 -15.8948 0.8751
-10.8329 -15.7169 0.8498
-10.3989 -15.8958 0.8448
-10.1355 -16.3419 0.8545
-9.8564 -16.7842 0.8641
-9.5616 -17.2219 0.8737
-13.2080 -25.2062 1.2612
-12.4338 -25.1911 1.2441
-11.6787 -25.1762 1.2281
-10.9412 -25.1618 1.2133
-10.2200 -25.1476 1.1996
-9.5134 -25.1338 1.1868
-8.8205 -25.1202 1.1751
-8.1400 -25.1068 1.1643
-7.4708 -25.0937 1.1544
-6.8047 -25.0548 1.1441
-6.1557 -25.0421 1.1359
-5.5206 -25.0554 1.1297
-4.8866 -25.0430 1.1231
-4.3019 -25.2816 1.1285
-2.5693 -17.6716 0.7856
-3.0511 -25.2570 1.1189
-2.4325 -25.2449 1.1152
-1.8173 -25.2328 1.1123
-1.2048 -25.2208 1.1100
-0.5943 -25.2088 1.1085
0.0149 -25.1969 1.1076
0.6236 -25.1850 1.1075
1.2324 -25.1730 1.1080
1.8421 -25.1611 1.1092
2.4533 -25.1491 1.1111
3.0637 -25.1113 1.1126
3.6797 -25.0992 1.1160
4.3039 -25.1128 1.1212
4.5174 -23.0056 1.0320
4.8198 -21.7517 0.9810
5.4029 -21.8676 0.9923
5.6331 -20.6439 0.9431
6.0493 -20.2314 0.9311
6.4446 -19.7976 0.9185
5.5740 -15.8142 0.7401
6.1152 -16.0982 0.7606
6.5371 -16.0308 0.7651
6.4817 -14.8579 0.7169
6.9046 -14.8383 0.7243
6.8771 -13.8915 0.6865
7.0333 -13.3838 0.6701
7.5378 -13.5390 0.6874
7.6540 -12.9984 0.6697
7.6624 -12.3217 0.6448
8.5570 -13.0465 0.6940
8.8155 -12.7574 0.6904
10.1128 -13.9043 0.7662
14.6466 -19.1475 1.0755
18.8313 -23.4230 1.3422
19.1241 -22.6444 1.3251
19.3635 -21.8351 1.3062
19.5874 -21.0406 1.2881
19.7549 -20.2183 1.2681
18.3506 -17.8949 1.1513
19.9306 -18.5175 1.2235
19.9316 -17.6407 1.1985
8.6254 -7.2700 0.5086
8.6525 -6.9423 0.5008
8.6867 -6.6312 0.4941
8.8696 -6.4377 0.4961
14.5387 -10.0252 0.8006
13.5783 -8.8867 0.7367
7.0768 -4.3911 0.3786
6.6555 -3.9102 0.3514
5.9879 -3.3260 0.3123
5.8889 -3.0872 0.3036
5.8535 -2.8906 0.2985
5.9055 -2.7408 0.2982
5.9819 -2.6025 0.2992
6.0586 -2.4636 0.3004
6.1330 -2.3227 0.3017
6.2602 -2.1995 0.3058
6.3914 -2.0735 0.3101
6.5596 -1.9542 0.3164
6.7671 -1.8392 0.3247
6.9474 -1.7091 0.3318
7.1085 -1.5676 0.3381
7.2756 -1.4210 0.3449
7.4587 -1.2705 0.3526
7.6354 -1.1114 0.3601
7.8160 -0.9455 0.3681
9.3271 -0.9002 0.4388
9.2571 -0.6682 0.4353
7.2614 -0.3480 0.3415
7.0750 -0.1679 0.3330
7.0405 0.0031 0.3318
6.9615 0.1714 0.3288
6.8729 0.3355 0.3254
6.9027 0.5044 0.3278
7.0243 0.6843 0.3348
7.5985 0.9261 0.3637
9.3638 1.3716 0.4504
9.3808 1.6065 0.4537
9.3625 1.8373 0.4555
9.3439 2.0693 0.4576
7.7406 1.9116 0.3819
7.5079 2.0478 0.3733
7.4006 2.2120 0.3711
7.3207 2.3823 0.3704
7.2886 2.5682 0.3724
7.2544 2.7550 0.3745
7.2257 2.9458 0.3771
7.1893 3.1356 0.3796
7.1800 3.3403 0.3838
7.1703 3.5491 0.3883
6.1662 3.2399 0.3386
2.9835 1.6608 0.1662
2.9717 1.7496 0.1681
6.1408 3.8182 0.3529
6.0827 3.9892 0.3555
5.8795 4.0624 0.3497
6.0770 4.4196 0.3682
6.3753 4.8764 0.3938
4.8905 3.9316 0.3082
4.7573 4.0176 0.3062
4.4946 3.9857 0.2958
4.3781 4.0756 0.2949
4.2625 4.1647 0.2941
4.1477 4.2533 0.2935
4.0335 4.3413 0.2931
3.9198 4.4290 0.2928
3.8065 4.5163 0.2927
3.6935 4.6035 0.2928
3.5806 4.6907 0.2930
3.4676 4.7778 0.2934
5.9385 8.6127 0.5204
5.7614 8.8038 0.5238
5.6062 9.0360 0.5299
5.5304 9.4143 0.5445
7.6761 13.8212 0.7890
7.3834 14.0858 0.7943
7.0642 14.3074 0.7975
6.7367 14.5179 0.8004
6.4453 14.8176 0.8086
6.1874 15.2202 0.8227
5.9206 15.6368 0.8377
5.6056 15.9594 0.8479
5.2190 16.0925 0.8484
4.8310 16.2220 0.8492
4.5998 16.9312 0.8807
5.3665 21.8252 1.1286
5.2741 23.9293 1.2308
5.3441 27.3792 1.4016
2.2789 13.3884 0.6826
4.9879 34.2960 1.7423
4.7531 39.3347 1.9922
4.0434 41.9514 2.1195
3.2854 45.6064 2.2998
1.6579 34.6954 1.7472
1.1261 47.7571 2.4030
-0.0283 47.7697 2.4030
-1.1829 47.7561 2.4030
-2.3368 47.7161 2.4030
-3.4896 47.6502 2.4030
-4.6408 47.5582 2.4030
-5.7897 47.4401 2.4030
-6.8585 46.7679 2.3762
-7.7323 45.1041 2.2999
-6.8514 34.8812 1.7861
-6.7951 30.6572 1.5773
-11.1003 44.9134 2.3230
-12.1872 44.6494 2.3230
-13.2682 44.3603 2.3230
-14.3430 44.0469 2.3230
-15.1732 43.0350 2.2872
-15.9362 41.9383 2.2476
-16.7303 41.0143 2.2178
-17.7156 40.5957 2.2164
-18.0655 38.8108 2.1408
-19.3088 38.9904 2.1744
-6.7208 12.7848 0.7213
-20.8724 37.4769 2.1407
-21.7488 36.9222 2.1368
-22.5845 36.3049 2.1303
-23.3760 35.6277 2.1214
-23.9167 34.5989 2.0921
-19.7028 27.0796 1.6643
-20.2255 26.4310 1.6524
-23.4329 29.1356 1.8546
-16.0827 19.0357 1.2349
-23.4009 26.3772 1.7456
-23.7113 25.4602 1.7205
-24.0951 24.6500 1.7028
-24.5843 23.9636 1.6941
-25.0700 23.2823 1.6864
-25.3623 22.4371 1.6672
-17.2618 14.5426 1.1099
-25.8511 20.7317 1.6276
-25.9069 19.7670 1.5986
-25.0728 18.1889 1.5176
-24.4008 16.8168 1.4500
-16.6775 10.9091 0.9738
-16.8401 10.4433 0.9670
-11.5167 6.7622 0.6509
-11.7323 6.5128 0.6531
-25.1843 13.1944 1.3818
-25.6985 12.6820 1.3909
-23.4220 10.8628 1.2513
-12.4191 5.3991 0.6554
-37.6134 15.2822 1.9619
-37.7810 14.2967 1.9492
-37.7585 13.2542 1.9281
-38.3365 12.4250 1.9387
-37.7169 11.2246 1.8903
-37.6980 10.2342 1.8735
-38.3517 9.4228 1.8912
-38.3325 8.4413 1.8767
-20.7442 4.0453 1.0089
-38.2946 6.5113 1.8514
-38.2760 5.5601 1.8405
-26.5598 3.2049 1.2710
-38.2391 3.6792 1.8222
-38.2208 2.7473 1.8147
-38.2026 1.8194 1.8083
-38.1845 0.8946 1.8030
-38.1664 -0.0284 1.7987
-38.1483 -0.9504 1.7955
-32.4370 -1.5931 1.5255
-48.8698 -3.5856 2.2980
-48.8484 -4.7733 2.2980
-43.5413 -5.3196 2.0505
-48.7191 -7.1509 2.2980
-13.2441 -2.2721 0.6261
-13.1671 -2.5879 0.6242
-48.3441 -10.7211 2.2998
-21.3752 -5.2852 1.0210
-50.0748 -13.6735 2.4030
-49.8093 -14.9032 2.4030
-15.4862 -5.0444 0.7516
-49.1861 -17.3468 2.4030
-48.8289 -18.5592 2.4030
-48.4414 -19.7643 2.4030
-46.6150 -20.3464 2.3326
-45.5345 -21.1989 2.2999
-45.0771 -22.3267 2.2999
-44.5910 -23.4443 2.2999
-44.9982 -25.0644 2.3480
-44.4442 -26.1825 2.3480
-43.1614 -26.8524 2.3105
-40.8537 -26.8071 2.2179
-38.6785 -26.7386 2.1313
-36.7305 -26.7262 2.0561
-34.8785 -26.6910 1.9852
-33.1430 -26.6569 1.9200
-31.2381 -26.3942 2.2980
-29.9753 -26.5948 2.2494
-28.4958 -26.5400 2.1837
-27.1493 -26.5393 2.1270
-25.8424 -26.5127 2.0721
-24.5990 -26.4883 2.0213
-23.4123 -26.4650 1.9739
-22.2773 -26.4427 1.9298
-21.1893 -26.4214 1.8887
-12.2675 -16.0776 1.1268
-11.5273 -15.8893 1.0928
-10.8288 -15.7116 1.0615
-10.1679 -15.5434 1.0324
-9.5409 -15.3839 1.0055
-8.9446 -15.2321 0.9804
-8.7350 -15.7337 0.9981
-8.5741 -16.3636 1.0240
-12.4333 -25.1910 1.5562
-11.6783 -25.1762 1.5364
-10.9408 -25.1618 1.5181
-10.2196 -25.1476 1.5011
-9.5131 -25.1337 1.4854
-8.8202 -25.1201 1.4708
-8.1397 -25.1068 1.4575
-7.4705 -25.0937 1.4452
-6.8045 -25.0548 1.4325
-6.1554 -25.0421 1.4224
-5.5204 -25.0554 1.4147
-4.8864 -25.0430 1.4065
-4.3018 -25.2816 1.4133
-2.5691 -17.6706 0.9839
-3.0510 -25.2570 1.4015
-2.4324 -25.2449 1.3970
-1.8172 -25.2328 1.3933
-1.2047 -25.2208 1.3905
-0.5943 -25.2088 1.3886
0.0149 -25.1969 1.3875
0.6236 -25.1850 1.3873
1.2324 -25.1730 1.3880
1.8420 -25.1611 1.3895
2.4532 -25.1491 1.3918
3.0636 -25.1113 1.3937
3.6796 -25.0992 1.3978
4.3037 -25.1128 1.4042
4.9286 -25.1005 1.4101
4.8637 -21.9508 1.2398
5.3250 -21.5533 1.2246
5.7428 -21.0467 1.2038
6.0557 -20.2534 1.1669
5.9994 -18.4304 1.0704
5.6653 -16.0738 0.9416
6.1781 -16.2642 0.9617
6.0463 -14.8278 0.8856
6.5380 -14.9874 0.9048
6.9651 -14.9689 0.9141
6.9046 -13.9477 0.8622
7.0763 -13.4661 0.8432
7.5484 -13.5584 0.8608
7.6799 -13.0430 0.8402
7.9342 -12.7594 0.8346
8.5063 -12.9698 0.8622
8.1824 -11.8418 0.8008
8.3267 -11.4489 0.7882
8.4260 -11.0158 0.7728
8.6428 -10.7507 0.7693
8.9561 -10.6051 0.7748
18.4908 -20.8519 1.5570
18.7648 -20.1580 1.5400
18.9625 -19.4082 1.5188
18.3417 -17.8871 1.4354
9.2127 -8.5600 0.7053
8.1542 -7.2174 0.6113
8.0456 -6.7817 0.5913
8.1158 -6.5121 0.5854
8.2597 -6.3056 0.5852
8.4101 -6.1046 0.5859
13.5182 -9.3221 0.9268
12.7723 -8.3597 0.8625
6.9422 -4.3079 0.4622
6.1665 -3.6231 0.4051
