ply
format ascii 1.0
element vertex 1986
property float32 x
property float32 y
property float32 z
end_header
10.9276 33.7316 -5.6565
9.9625 33.4898 -5.5726
7.2906 26.8649 -4.4386
8.2670 33.6576 -5.5251
7.4740 33.9473 -5.5403
6.9749 35.7729 -5.8080
6.9793 41.0480 -6.6341
4.7837 32.9271 -5.3007
4.9816 41.2700 -6.6217
4.1700 43.3118 -6.9305
3.1669 44.0078 -7.0270
-10.8318 73.9390 -11.9048
-11.2024 65.4150 -10.5742
-12.5712 64.0689 -10.4043
-11.9088 48.2366 -7.9204
-12.6992 46.5754 -7.6974
-14.0572 47.0495 -7.8314
-14.9595 45.9907 -7.7150
-16.5528 46.9999 -7.9512
-13.2648 34.9472 -5.9664
-14.1663 34.7679 -5.9943
-14.9705 34.3445 -5.9839
-15.2864 32.8785 -5.7931
-17.0391 34.4474 -6.1425
-13.6023 25.9058 -4.6785
-16.6277 29.8913 -5.4714
-14.4134 24.4988 -4.5486
-11.6647 18.7744 -3.5386
-12.4638 19.0202 -3.6423
-12.8380 18.5957 -3.6211
-12.6792 17.4489 -3.4581
-12.1035 15.8380 -3.1975
-9.0998 11.3296 -2.3322
-14.6543 17.3689 -3.6492
-14.0008 15.8036 -3.3923
-13.8908 14.9368 -3.2791
-13.7516 14.0890 -3.1668
-13.9425 13.6110 -3.1361
-11.5043 10.7005 -2.5303
-11.9086 10.5519 -2.5641
-15.1865 12.8151 -3.2043
-10.1495 8.1532 -2.1007
-10.4489 7.9864 -2.1236
-15.7781 11.4667 -3.1515
-16.6766 11.5147 -3.2767
-16.9124 11.0840 -3.2718
-21.8420 13.5722 -4.1638
-17.4160 10.2473 -3.2743
-17.5258 9.7500 -3.2521
-17.7834 9.3381 -3.2595
-13.4949 6.6755 -2.4450
-13.9661 6.4936 -2.5031
-14.4322 6.2909 -2.5606
-14.8734 6.0600 -2.6142
-15.3380 5.8214 -2.6724
-15.6330 5.5052 -2.7020
-15.9294 5.1805 -2.7330
-19.2049 5.7366 -3.2729
-18.7759 5.1178 -3.1803
-18.3774 4.5352 -3.0958
-18.0061 3.9847 -3.0187
-17.6592 3.4627 -2.9480
-22.5583 3.8599 -3.7523
-27.6122 4.0406 -4.5792
-13.2529 1.6134 -2.1926
-13.2594 1.2899 -2.1897
-14.9569 1.0910 -2.4669
-14.4724 0.7046 -2.3855
-15.3530 0.3760 -2.5305
-14.9061 0.0047 -2.4582
-14.4207 -0.3440 -2.3808
-14.2748 -0.6859 -2.3607
-14.2923 -1.0334 -2.3690
-14.0957 -1.3623 -2.3431
-14.2501 -1.7257 -2.3770
-14.4925 -2.1116 -2.4272
-15.0447 -2.5648 -2.5314
-27.6181 -22.1753 -5.9671
-26.0858 -22.0053 -5.3650
-24.9054 -22.0620 -5.2339
-23.5491 -21.8992 -5.0619
-22.6554 -22.1134 -4.9865
-21.5728 -22.1001 -4.8674
-20.4811 -22.0228 -4.7427
-19.5324 -22.0484 -4.6479
-18.7055 -22.1728 -4.5800
-17.7095 -22.0528 -4.4679
-17.3457 -22.7032 -4.5157
-17.3316 -23.8591 -4.6633
-14.4607 -20.9544 -4.0281
-13.9122 -21.2407 -4.0192
-13.1839 -21.2318 -3.9579
-12.5469 -21.3406 -3.9222
-11.8069 -21.2415 -3.8520
-11.1249 -21.2065 -3.7973
-10.4750 -21.1985 -3.7509
-9.8954 -21.3081 -3.7282
-9.2724 -21.3004 -3.6879
-8.6152 -21.1757 -3.6304
-8.0212 -21.1684 -3.5959
-7.4619 -21.2281 -3.5755
-6.9039 -21.2714 -3.5545
-6.3115 -21.1775 -3.5132
-5.7477 -21.1405 -3.4838
-5.1281 -20.8399 -3.4136
-4.6504 -21.0841 -3.4348
-2.6988 -13.8166 -2.2400
-3.6392 -21.3647 -3.4490
-3.1238 -21.4625 -3.4520
-2.5962 -21.4686 -3.4423
-2.0644 -21.4027 -3.4230
-1.5384 -21.3389 -3.4061
-1.0201 -21.3326 -3.4004
-0.5037 -21.3438 -3.3993
0.0127 -21.4366 -3.4132
0.5311 -21.4302 -3.4132
1.0442 -21.3073 -3.3966
1.5610 -21.3009 -3.4004
2.0794 -21.2946 -3.4062
2.6141 -21.4047 -3.4326
3.1403 -21.3982 -3.4423
3.6499 -21.2753 -3.4353
4.1806 -21.2688 -3.4490
4.6513 -20.9700 -3.4172
4.7392 -19.1619 -3.1397
3.5710 -13.0735 -2.1552
4.0443 -13.5118 -2.2424
4.5619 -13.9993 -2.3403
5.0640 -14.3520 -2.4184
5.4444 -14.3168 -2.4332
4.7112 -11.5408 -1.9796
4.9232 -11.2731 -1.9529
5.1319 -11.0165 -1.9287
5.2415 -10.5759 -1.8725
5.4225 -10.3068 -1.8468
5.6990 -10.2244 -1.8555
5.7570 -9.7654 -1.7961
5.9567 -9.5676 -1.7849
6.3457 -9.6634 -1.8301
6.6435 -9.6026 -1.8475
6.8959 -9.4694 -1.8525
7.0881 -9.2546 -1.8426
7.2776 -9.0406 -1.8335
7.9686 -9.4230 -1.9485
7.9915 -8.9994 -1.8992
8.5612 -9.1838 -1.9801
8.7418 -8.9343 -1.9702
9.7172 -9.4623 -2.1365
9.8294 -9.1190 -2.1107
9.9215 -8.7678 -2.0830
14.6112 -12.2960 -3.0023
15.0595 -12.0635 -3.0315
21.2219 -16.1735 -4.1892
21.4791 -15.5632 -4.1616
21.9201 -15.0883 -4.1721
22.4460 -14.6635 -4.2005
23.0221 -14.2579 -4.2394
23.3859 -13.7124 -4.2409
23.5403 -13.0487 -4.2073
23.2312 -12.1527 -4.0952
20.2304 -9.9676 -3.5199
20.9200 -9.6862 -3.5952
31.3052 -13.5856 -5.3178
31.6367 -12.8299 -5.3155
32.0691 -12.1112 -5.3330
32.5418 -11.3988 -5.3598
33.0574 -10.6897 -5.3961
33.4342 -9.9256 -5.4123
31.0434 -8.4050 -4.9867
25.9356 -6.3535 -4.1368
12.6425 -2.7750 -2.0035
12.5231 -2.4331 -1.9730
10.8810 -1.8424 -1.7053
10.7034 -1.5472 -1.6696
10.5330 -1.2636 -1.6364
10.3692 -0.9904 -1.6053
17.4020 -1.2386 -2.6863
16.9854 -0.7970 -2.6159
16.6057 -0.3774 -2.5530
16.2694 0.0235 -2.4984
15.8973 0.4072 -2.4399
15.2756 0.7609 -2.3446
15.3324 1.1357 -2.3547
15.0870 1.4848 -2.3198
14.8549 1.8253 -2.2882
7.5824 1.1183 -1.1707
7.4596 1.2850 -1.1552
7.3830 1.4563 -1.1475
7.4315 1.6534 -1.1598
7.4616 1.8503 -1.1702
7.5094 2.0560 -1.1841
7.7611 2.3278 -1.2312
8.1450 2.6591 -1.3008
13.2657 4.6883 -2.1342
13.1525 5.0089 -2.1331
13.0424 5.3312 -2.1337
12.9684 5.6703 -2.1416
12.8813 6.0069 -2.1488
12.0714 5.9883 -2.0355
11.8692 6.2497 -2.0247
12.6740 7.0697 -2.1887
12.6313 7.4514 -2.2101
12.6016 7.8503 -2.2357
12.5727 8.2603 -2.2635
12.5874 8.7124 -2.3017
12.5945 9.1750 -2.3411
12.6789 9.7137 -2.3979
12.7980 10.3048 -2.4651
13.0366 11.0264 -2.5598
7.4240 6.5933 -1.4875
7.3640 6.8652 -1.5073
6.9217 6.7726 -1.4489
6.4151 6.5875 -1.3748
6.3638 6.8587 -1.3981
6.3721 7.2092 -1.4368
6.0824 7.2259 -1.4096
6.2192 7.7614 -1.4835
5.7624 7.5584 -1.4169
6.0807 8.3886 -1.5436
6.4861 9.4182 -1.7029
5.6779 8.6865 -1.5445
6.0114 9.7004 -1.6977
5.1634 8.7997 -1.5171
3.0477 5.4937 -0.9337
4.4833 8.5627 -1.4359
4.3686 8.8576 -1.4666
4.1028 8.8514 -1.4482
3.8711 8.9091 -1.4413
3.6413 8.9667 -1.4355
8.8905 23.5053 -3.7263
11.8349 33.7297 -5.2986
10.7279 33.1131 -5.1580
9.7831 32.8846 -5.0827
7.2902 26.8616 -4.1223
8.1343 33.1154 -5.0493
7.3127 33.2129 -5.0347
6.7353 34.5414 -5.2089
7.0041 41.1911 -6.1833
5.6845 39.1252 -5.8500
5.0396 41.7476 -6.2214
4.1828 43.4415 -6.4562
3.1738 44.1010 -6.5404
-10.4165 85.4343 -12.7333
-10.8341 73.9504 -11.0589
-11.1198 64.9285 -9.7484
-12.7234 64.8408 -9.7801
-10.4442 47.1676 -7.1517
-11.6305 47.1064 -7.1844
-15.2430 55.9016 -8.5814
-13.6854 45.8019 -7.0815
-14.4363 44.3792 -6.9153
-15.0681 42.7814 -6.7231
-11.1369 16.9940 -3.0238
-15.8026 41.6306 -6.6023
-11.2457 16.2880 -2.9472
-14.6670 35.9945 -5.7649
-12.4531 17.1365 -3.1559
-15.3027 35.1041 -5.6819
-8.8552 11.5865 -2.1737
-16.1602 34.7554 -5.6891
-13.8173 17.2017 -3.2907
-15.0060 30.3350 -5.0254
-13.4283 15.9145 -3.1074
-13.4152 15.1414 -3.0207
-17.3760 33.0907 -5.5521
-12.0815 21.7170 -3.6933
-13.4071 14.4154 -2.9414
-14.6268 24.8598 -4.2885
-10.6157 17.0848 -2.9920
-13.4849 13.8146 -2.8862
-11.5034 10.6987 -2.3517
-11.9073 10.5497 -2.3831
-14.4476 14.1027 -3.0204
-15.1143 12.7529 -2.9645
-16.7841 9.3362 -2.8963
-15.4656 12.4225 -2.9757
-12.3709 9.4545 -2.3373
-16.6261 8.7293 -2.8341
-15.6580 11.3782 -2.9077
-13.0162 6.4379 -2.1933
-16.2211 11.1989 -2.9634
-13.5257 6.2879 -2.2548
-16.5616 10.8529 -2.9791
-16.6380 10.3373 -2.9493
-13.9222 6.0676 -2.2976
-16.7162 9.8344 -2.9224
-14.3375 5.8407 -2.3442
-19.8267 5.4030 -3.1248
-14.7739 5.6063 -2.3947
-20.0958 4.9580 -3.1502
-15.2336 5.3635 -2.4495
-20.3128 4.4939 -3.1690
-15.5391 5.0526 -2.4804
-20.4709 4.0127 -3.1804
-19.1806 5.7281 -3.0413
-20.5075 3.5077 -3.1748
-20.2493 2.9619 -3.1256
-15.0262 0.3670 -2.3059
-13.2512 1.6123 -2.0406
-13.2582 1.2889 -2.0381
-14.5741 0.0037 -2.2378
-13.9622 1.0175 -2.1438
-14.0227 -0.3354 -2.1557
-30.5769 1.4868 -4.6922
-14.0423 -0.6756 -2.1625
-15.4521 -3.4109 -2.4491
-14.0705 -1.0183 -2.1719
-17.1888 -4.2324 -2.7421
-14.0695 -1.3607 -2.1782
-14.0493 -1.7023 -2.1827
-13.2282 -1.9282 -2.0636
-14.5447 -2.4805 -2.2796
-14.9805 -2.9290 -2.3604
-29.8226 -21.6628 -5.7826
-28.4255 -21.7168 -5.6158
-27.4452 -22.0387 -5.5296
-26.0868 -22.0083 -4.9785
-24.9935 -22.1421 -4.8741
-23.7267 -22.0664 -4.7330
-22.6356 -22.0960 -4.6237
-21.8611 -22.3975 -4.5778
-20.7136 -22.2747 -4.4519
-19.9102 -22.4769 -4.3976
-18.9505 -22.4651 -4.3069
-17.7080 -22.0527 -4.1470
-17.3457 -22.7049 -4.1920
-17.3315 -23.8609 -4.3292
-14.4595 -20.9544 -3.7393
-13.9112 -21.2407 -3.7312
-13.1830 -21.2318 -3.6744
-12.5460 -21.3406 -3.6414
-11.8058 -21.2410 -3.5763
-11.1241 -21.2065 -3.5257
-10.4743 -21.1985 -3.4827
-9.8947 -21.3081 -3.4618
-9.2718 -21.3004 -3.4244
-8.6146 -21.1757 -3.3711
-8.0207 -21.1684 -3.3392
-7.4586 -21.2202 -3.3190
-6.8809 -21.2020 -3.2901
-6.3111 -21.1774 -3.2625
-5.7473 -21.1405 -3.2353
-5.1277 -20.8399 -3.1702
-4.6501 -21.0841 -3.1899
-2.6984 -13.8151 -2.0801
-3.6390 -21.3647 -3.2031
-3.1128 -21.3886 -3.1950
-2.5850 -21.3777 -3.1835
-2.0609 -21.3677 -3.1739
-1.5383 -21.3389 -3.1635
-1.0200 -21.3326 -3.1581
-0.5036 -21.3421 -3.1569
0.0126 -21.3350 -3.1550
0.5286 -21.3287 -3.1550
1.0441 -21.3073 -3.1546
1.5609 -21.3009 -3.1581
2.0792 -21.2946 -3.1635
2.6025 -21.3105 -3.1740
3.1268 -21.3077 -3.1835
3.6496 -21.2753 -3.1904
3.9507 -20.1003 -3.0272
4.2670 -19.2386 -2.9116
4.4561 -18.0183 -2.7418
4.6741 -17.1130 -2.6199
4.4707 -14.9372 -2.3021
4.8509 -14.8869 -2.3111
4.6171 -13.0864 -2.0477
5.1597 -13.5690 -2.1415
5.6506 -13.8429 -2.2049
4.6905 -10.7408 -1.7277
4.8920 -10.5023 -1.7072
6.7780 -13.6770 -2.2484
5.4289 -10.3197 -1.7169
5.7057 -10.2372 -1.7248
5.9662 -10.1210 -1.7283
5.9092 -9.4919 -1.6440
6.4151 -9.7699 -1.7177
6.8740 -9.9364 -1.7747
6.8854 -9.4558 -1.7172
7.2442 -9.4592 -1.7481
7.4024 -9.1963 -1.7312
7.9564 -9.4094 -1.8059
7.9796 -8.9867 -1.7602
8.6158 -9.2431 -1.8496
8.7300 -8.9230 -1.8260
9.2554 -9.0133 -1.8885
9.8968 -9.1824 -1.9722
13.5656 -11.9893 -2.6429
14.0003 -11.7830 -2.6694
14.4497 -11.5762 -2.6990
14.8778 -11.3397 -2.7250
15.0992 -10.9417 -2.7142
21.5811 -14.8566 -3.8108
21.8988 -14.3077 -3.8017
23.3485 -14.4618 -3.9884
29.8706 -17.5168 -5.0246
29.8980 -16.5749 -4.9563
24.5100 -12.8233 -4.0072
30.2556 -14.9092 -4.8821
30.5107 -14.1289 -4.8626
30.8533 -13.3916 -4.8600
31.1524 -12.6356 -4.8534
31.4872 -11.8935 -4.8550
31.8443 -11.1566 -4.8628
32.1355 -10.3937 -4.8631
32.2078 -9.5636 -4.8332
31.0381 -8.4056 -4.6216
25.9327 -6.3544 -3.8339
31.1390 -6.8369 -4.5736
12.5357 -2.4364 -1.8303
19.2521 -3.2610 -2.7960
10.6674 -1.5427 -1.5419
10.4982 -1.2601 -1.5112
10.3355 -0.9878 -1.4825
16.7901 -1.1961 -2.4012
16.4170 -0.7714 -2.3423
16.0899 -0.3667 -2.2915
15.7394 0.0217 -2.2388
15.3985 0.3934 -2.1890
15.1582 0.7541 -2.1547
14.9151 1.1039 -2.1213
7.7301 0.7603 -1.1006
7.5509 0.9274 -1.0770
7.4018 1.0912 -1.0581
7.2841 1.2543 -1.0444
7.2842 1.4364 -1.0480
7.3241 1.6290 -1.0581
7.3876 1.8315 -1.0724
7.4232 2.0319 -1.0833
7.6724 2.3007 -1.1265
8.0594 2.6306 -1.1911
12.9668 4.5818 -1.9305
12.8561 4.8952 -1.9293
12.7474 5.2097 -1.9295
12.6623 5.5355 -1.9346
12.5654 5.8587 -1.9391
12.0705 5.9871 -1.8829
11.8676 6.2480 -1.8726
12.3495 6.8878 -1.9726
12.2983 7.2541 -1.9902
12.2622 7.6379 -2.0119
12.2313 8.0351 -2.0364
12.2134 8.4526 -2.0652
12.2124 8.8956 -2.0990
12.2237 9.3640 -2.1376
12.3023 9.9047 -2.1908
12.3982 10.4854 -2.2507
7.3340 6.5127 -1.3585
7.2831 6.7892 -1.3780
6.9160 6.7664 -1.3382
6.4008 6.5723 -1.2679
6.3795 6.8750 -1.2954
6.3572 7.1919 -1.3249
5.9739 7.0965 -1.2795
6.0540 7.5547 -1.3345
5.6483 7.4081 -1.2834
5.4265 7.4854 -1.2729
5.2079 7.5616 -1.2634
5.5876 8.5477 -1.4044
5.4199 8.7452 -1.4142
5.8073 9.8963 -1.5764
3.0476 5.4932 -0.8626
4.4786 8.5531 -1.3251
4.3639 8.8475 -1.3534
4.0852 8.8129 -1.3320
3.8546 8.8705 -1.3257
3.6258 8.9280 -1.3204
3.3988 8.9854 -1.3158
11.2819 32.1517 -4.6655
10.3911 32.0714 -4.6146
9.5215 32.0031 -4.5690
7.2898 26.8584 -3.8072
7.8733 32.0506 -4.5138
7.0709 32.1126 -4.4961
6.2760 32.1841 -4.4827
5.4095 31.8110 -4.4104
5.9754 41.1245 -5.6791
5.0621 41.9316 -5.7713
4.0357 41.9116 -5.7528
3.1963 44.4112 -6.0830
-9.0831 74.4937 -10.2543
-10.8489 74.0468 -10.2272
-11.0210 64.3474 -8.9231
-11.5110 58.6579 -8.1717
-12.8492 58.0255 -8.1261
-14.0799 57.0234 -8.0329
-13.1556 48.2432 -6.8405
-13.7229 45.9243 -6.5585
-14.7143 45.2309 -6.5103
-15.7266 44.6480 -6.4812
-17.4842 46.0574 -6.7474
-14.4398 35.4344 -5.2426
-14.9293 34.2453 -5.1205
-15.8754 34.1406 -5.1628
-16.8945 34.1503 -5.2266
-13.6306 25.9561 -4.0236
-13.4876 24.2429 -3.8092
-14.4520 24.5609 -3.9148
-10.3674 16.6839 -2.6998
-10.8738 16.5912 -2.7279
-9.8428 14.2550 -2.3835
-8.5925 11.8231 -2.0121
-12.3383 16.1426 -2.7988
-12.7309 15.8480 -2.8019
-12.7996 15.1682 -2.7373
-12.7310 14.3679 -2.6494
-13.7798 14.8148 -2.7942
-14.0159 14.3572 -2.7728
-14.1785 13.8389 -2.7399
-11.5026 10.6970 -2.1738
-11.9059 10.5475 -2.2028
-14.8595 12.5367 -2.6945
-15.2041 12.2113 -2.7047
-12.3697 9.4525 -2.1609
-15.7829 11.4678 -2.7101
-15.6540 10.8063 -2.6445
-16.1501 10.5821 -2.6865
-16.2290 10.0820 -2.6605
-16.2519 9.5601 -2.6278
-16.2384 9.0315 -2.5918
-16.1324 8.4689 -2.5437
-15.9569 7.8911 -2.4874
-17.7005 8.2274 -2.7298
-17.9959 7.8418 -2.7477
-13.8406 5.6374 -2.0937
-14.2516 5.4072 -2.1375
-14.6836 5.1689 -2.1849
-15.1387 4.9214 -2.2363
-15.4520 4.6136 -2.2675
-20.7478 5.6527 -3.0266
-24.5338 6.0514 -3.5598
-24.7542 5.4749 -3.5749
-24.8873 4.8768 -3.5794
-21.0007 3.5907 -3.0100
-21.8337 3.1923 -3.1203
-13.2494 1.6113 -1.8892
-13.2570 1.2880 -1.8871
-29.5704 2.1532 -4.2047
-20.8879 1.0144 -2.9686
-14.7141 0.3585 -2.0913
-14.1691 0.0027 -2.0152
-13.7026 -0.3286 -1.9513
-13.8181 -0.6657 -1.9713
-13.8450 -1.0028 -1.9799
-13.8738 -1.3426 -1.9900
-13.8547 -1.6796 -1.9944
-14.3286 -2.0895 -2.0712
-14.7209 -2.5115 -2.1381
-16.6749 -3.2614 -2.4349
-14.7896 -3.2656 -2.1726
-15.2029 -3.7444 -2.2480
-21.6535 -5.8917 -3.2249
-27.4109 -16.1181 -4.6136
-33.1486 -21.7138 -5.7586
-31.5473 -21.7726 -5.5746
-30.2730 -21.9923 -5.4460
-28.9404 -22.1125 -5.3049
-27.5247 -22.1048 -5.1457
-26.2422 -22.1416 -4.6204
-25.3358 -22.4475 -4.5585
-24.1092 -22.4242 -4.4374
-22.9553 -22.4101 -4.3267
-21.9737 -22.5147 -4.2461
-20.8133 -22.3838 -4.1281
-19.9086 -22.4768 -4.0580
-18.9489 -22.4651 -3.9747
-17.7066 -22.0527 -3.8273
-17.3457 -22.7067 -3.8692
-17.3315 -23.8628 -3.9960
-14.4584 -20.9544 -3.4515
-13.9101 -21.2407 -3.4441
-13.1820 -21.2318 -3.3918
-12.5376 -21.3280 -3.3595
-11.8047 -21.2406 -3.3015
-11.1233 -21.2065 -3.2550
-10.4735 -21.1985 -3.2154
-9.8420 -21.1960 -3.1793
-9.2055 -21.1496 -3.1393
-8.5868 -21.1087 -3.1028
-8.0018 -21.1199 -3.0762
-7.4307 -21.1420 -3.0534
-6.8649 -21.1542 -3.0313
-6.3017 -21.1473 -3.0084
-5.7469 -21.1405 -2.9876
-5.1274 -20.8399 -2.9275
-4.6498 -21.0841 -2.9458
-2.6979 -13.8137 -1.9207
-3.6387 -21.3647 -2.9581
-3.1082 -21.3582 -2.9464
-2.5817 -21.3517 -2.9364
-2.0586 -21.3453 -2.9282
-1.5382 -21.3389 -2.9216
-1.0200 -21.3326 -2.9167
-0.5032 -21.3262 -2.9134
0.0126 -21.3199 -2.9118
0.5282 -21.3136 -2.9118
1.0440 -21.3073 -2.9134
1.5608 -21.3009 -2.9167
2.0791 -21.2946 -2.9216
2.5823 -21.1465 -2.9087
3.0399 -20.7169 -2.8585
3.4541 -20.1368 -2.7887
3.7977 -19.3229 -2.6875
4.1078 -18.5218 -2.5886
11.8232 -47.8102 -6.7184
4.5015 -16.4820 -2.3301
4.3350 -14.4847 -2.0614
5.2809 -16.2078 -2.3235
5.7683 -16.3504 -2.3625
6.1692 -16.2249 -2.3644
4.8580 -11.9021 -1.7504
5.7615 -13.1942 -1.9596
6.1582 -13.2215 -1.9844
6.5775 -13.2733 -2.0146
5.4352 -10.3325 -1.5870
5.7124 -10.2500 -1.5943
5.9926 -10.1665 -1.6026
6.1202 -9.8315 -1.5719
6.3107 -9.6115 -1.5598
6.4987 -9.3946 -1.5488
7.4871 -10.2830 -1.7236
7.0031 -9.1451 -1.5599
7.3604 -9.1448 -1.5887
7.7337 -9.1467 -1.6201
7.9677 -8.9741 -1.6221
8.6421 -9.2721 -1.7121
8.6514 -8.8435 -1.6699
9.1835 -8.9441 -1.7291
9.9534 -9.2358 -1.8301
10.7119 -9.4681 -1.9255
13.3748 -11.2577 -2.3528
13.7969 -11.0543 -2.3774
14.1810 -10.8098 -2.3960
14.3942 -10.4319 -2.3867
20.8026 -14.3223 -3.3881
21.1109 -13.7944 -3.3802
21.4182 -13.2677 -3.3741
21.3593 -12.5271 -3.3133
29.4719 -16.3408 -4.5051
26.8691 -14.0595 -4.0505
29.7498 -14.6620 -4.4260
30.0331 -13.9098 -4.4128
30.3404 -13.1711 -4.4057
30.6526 -12.4350 -4.4020
30.9170 -11.6802 -4.3939
31.1414 -10.9124 -4.3828
31.1996 -10.0930 -4.3512
31.2170 -9.2715 -4.3169
30.9462 -8.3827 -4.2460
25.9298 -6.3554 -3.5321
30.3121 -6.6573 -4.1018
12.6056 -2.4507 -1.6955
18.2510 -3.0926 -2.4417
10.6317 -1.5382 -1.4155
10.4638 -1.2566 -1.3873
16.6042 -1.5880 -2.1934
16.2716 -1.1602 -2.1429
15.9323 -0.7496 -2.0931
15.6000 -0.3565 -2.0456
15.2655 0.0201 -1.9991
14.9924 0.3821 -1.9619
14.7593 0.7334 -1.9312
7.7096 0.5701 -1.0092
7.5303 0.7402 -0.9868
7.3654 0.9041 -0.9667
7.2302 1.0654 -0.9511
7.1859 1.2370 -0.9480
7.1883 1.4170 -0.9515
7.2088 1.6029 -0.9581
7.3042 1.8104 -0.9753
7.3444 2.0098 -0.9859
7.5860 2.2743 -1.0244
7.9759 2.6028 -1.0841
12.6820 4.4804 -1.7363
12.5737 4.7868 -1.7351
12.4671 5.0943 -1.7351
12.3622 5.4035 -1.7365
12.2680 5.7192 -1.7405
12.0697 5.9858 -1.7307
11.8660 6.2464 -1.7210
12.0558 6.7231 -1.7699
12.0011 7.0779 -1.7849
11.9520 7.4438 -1.8021
11.9182 7.8285 -1.8234
11.8916 8.2290 -1.8476
11.8815 8.6537 -1.8763
11.8818 9.1012 -1.9089
11.9211 9.5969 -1.9503
11.9865 10.1362 -1.9988
7.5478 6.7020 -1.2842
7.1948 6.7063 -1.2504
6.8943 6.7445 -1.2251
6.3867 6.5572 -1.1619
6.3651 6.8589 -1.1869
6.4034 7.2435 -1.2254
6.0930 7.2374 -1.1983
5.8633 7.3160 -1.1867
5.6065 7.3528 -1.1696
5.4209 7.4772 -1.1674
5.2026 7.5534 -1.1586
6.2467 9.5552 -1.4413
5.9354 9.5763 -1.4216
5.1567 8.7869 -1.2848
3.0475 5.4926 -0.7917
4.4739 8.5436 -1.2149
4.2680 8.6526 -1.2148
4.0679 8.7748 -1.2173
3.8382 8.8324 -1.2115
3.6106 8.8898 -1.2065
3.3845 8.9470 -1.2024
10.7988 30.7727 -4.0978
11.5930 35.7784 -4.7240
10.0246 33.6918 -4.4138
7.2894 26.8552 -3.4931
8.2778 33.6952 -4.3543
6.7847 30.8105 -3.9582
5.9655 30.5900 -3.9094
7.0350 41.3678 -5.2624
5.1150 35.2005 -4.4601
4.9929 41.3553 -5.2224
4.0982 42.5579 -5.3596
3.2022 44.4893 -5.5909
-8.8953 72.9487 -9.2133
-10.7324 73.2467 -9.2822
-10.7432 62.7215 -7.9803
-6.7612 34.4516 -4.4038
-14.0629 56.9509 -7.3614
-12.8698 47.1921 -6.1401
-14.0842 47.1307 -6.1764
-15.1911 46.6937 -6.1674
-14.9958 42.5704 -5.6709
-13.5940 35.8074 -4.8141
-13.8475 33.9787 -4.6137
-13.7054 31.4358 -4.3139
-14.6067 31.4099 -4.3594
-15.3529 31.0318 -4.3591
-8.4184 16.0297 -2.2808
-8.6874 15.6139 -2.2519
-8.9530 15.2144 -2.2261
-8.8257 14.2019 -2.1097
-8.5736 13.0807 -1.9744
-11.1277 16.1147 -2.4737
-11.5690 15.9174 -2.4872
-10.4729 13.7010 -2.1811
-12.0800 15.0365 -2.4411
-12.8332 15.2067 -2.5200
-13.2228 14.9217 -2.5268
-13.5367 14.5522 -2.5206
-13.7628 14.0967 -2.5004
-13.9202 13.5855 -2.4706
-11.5018 10.6952 -1.9964
-11.9046 10.5453 -2.0231
-14.6139 12.3283 -2.4342
-14.9521 12.0077 -2.4435
-12.3684 9.4506 -1.9851
-15.5590 11.3039 -2.4547
-15.6797 10.8228 -2.4339
-15.7569 10.3232 -2.4085
-15.7438 9.7794 -2.3718
-15.7344 9.2545 -2.3382
-15.7287 8.7469 -2.3074
-15.6687 8.2244 -2.2709
-15.5084 7.6683 -2.2222
-17.1936 7.9906 -2.4376
-17.4777 7.6148 -2.4535
-17.7687 7.2361 -2.4715
-18.0670 6.8536 -2.4916
-18.2296 6.4159 -2.4944
-14.6013 4.7457 -1.9836
-15.0521 4.4932 -2.0316
-18.6550 5.0813 -2.5031
-21.5068 5.3034 -2.8706
-24.0559 5.3189 -3.1960
-23.8058 4.6634 -3.1501
-21.1769 3.6195 -2.7927
-21.2996 3.1128 -2.8010
-13.2476 1.6102 -1.7383
-13.2558 1.2870 -1.7366
-20.2642 1.4743 -2.6521
-14.8355 0.7195 -1.9408
-14.3228 0.3481 -1.8740
-13.1722 0.0017 -1.7247
-13.2917 -0.3195 -1.7427
-13.4162 -0.6472 -1.7624
-13.5462 -0.9820 -1.7839
-13.6548 -1.3223 -1.8037
-13.6661 -1.6576 -1.8118
-13.9992 -2.0424 -1.8639
-14.2928 -2.4393 -1.9122
-14.5670 -2.8500 -1.9596
-14.5868 -3.5936 -1.9873
-14.8877 -4.0517 -2.0431
-36.9789 -21.7470 -5.7395
-35.1493 -21.8313 -5.5407
-33.4234 -21.8963 -5.3551
-32.0922 -22.1512 -5.2305
-30.3146 -22.0248 -5.0303
-29.0425 -22.1928 -4.9108
-27.5454 -22.1236 -4.7505
-26.5618 -22.4133 -4.2853
-25.4432 -22.5447 -4.1950
-24.1070 -22.4242 -4.0663
-22.9532 -22.4101 -3.9651
-21.9717 -22.5147 -3.8915
-20.8115 -22.3838 -3.7836
-19.9069 -22.4768 -3.7196
-18.9474 -22.4650 -3.6434
-17.7051 -22.0527 -3.5085
-17.3457 -22.7085 -3.5474
-17.3315 -23.8646 -3.6639
-14.4573 -20.9544 -3.1645
-13.9091 -21.2407 -3.1579
-13.1393 -21.1646 -3.1003
-12.4578 -21.1936 -3.0613
-11.7894 -21.2147 -3.0239
-11.1225 -21.2065 -2.9850
-10.4728 -21.1985 -2.9489
-9.8389 -21.1907 -2.9152
-9.2195 -21.1831 -2.8839
-8.6134 -21.1757 -2.8549
-8.0196 -21.1684 -2.8281
-7.4369 -21.1612 -2.8033
-6.8645 -21.1542 -2.7806
-6.3013 -21.1473 -2.7597
-5.7466 -21.1405 -2.7407
-5.1271 -20.8399 -2.6856
-4.6495 -21.0841 -2.7025
-2.6975 -13.8123 -1.7619
-3.6385 -21.3647 -2.7138
-3.1080 -21.3582 -2.7031
-2.5815 -21.3517 -2.6940
-2.0584 -21.3453 -2.6865
-1.5381 -21.3389 -2.6804
-1.0199 -21.3326 -2.6759
-0.5032 -21.3262 -2.6729
0.0126 -21.3199 -2.6715
0.5282 -21.3136 -2.6714
1.0440 -21.3073 -2.6729
1.5607 -21.3009 -2.6759
2.0533 -21.0319 -2.6474
2.5159 -20.6043 -2.6001
2.9356 -20.0074 -2.5327
3.3127 -19.3138 -2.4539
3.4635 -17.6236 -2.2487
3.7954 -17.1144 -2.1943
4.0823 -16.5090 -2.1282
4.2183 -15.4461 -2.0032
4.8505 -16.2083 -2.1160
5.2093 -15.9888 -2.1025
5.5262 -15.6651 -2.0762
5.9200 -15.5706 -2.0813
6.2636 -15.3465 -2.0701
6.4994 -14.8851 -2.0277
6.7731 -14.5425 -2.0018
6.3745 -12.8645 -1.7907
5.4776 -10.4137 -1.4669
5.7192 -10.2628 -1.4639
5.9904 -10.1635 -1.4692
6.2835 -10.0947 -1.4799
6.2677 -9.5468 -1.4206
6.6257 -9.5789 -1.4479
7.0671 -9.7068 -1.4917
7.6811 -10.0312 -1.5686
7.8202 -9.7168 -1.5475
7.9323 -9.3823 -1.5233
7.9560 -8.9616 -1.4847
8.5136 -9.1351 -1.5460
8.5745 -8.7656 -1.5170
9.2589 -9.0184 -1.5978
10.5454 -9.7860 -1.7770
14.4127 -12.7404 -2.3741
15.2827 -12.8649 -2.4634
16.1069 -12.9065 -2.5431
21.7862 -16.6087 -3.3724
19.5032 -14.1361 -2.9626
22.2915 -15.3491 -3.3259
20.2673 -13.2447 -2.9725
23.6158 -14.6307 -3.4075
29.0096 -17.0161 -4.1213
29.0520 -16.1100 -4.0669
24.3852 -12.7615 -3.3662
25.2455 -12.4439 -3.4390
29.5171 -13.6728 -3.9707
29.7980 -12.9376 -3.9612
30.0713 -12.2011 -3.9531
30.2989 -11.4487 -3.9414
30.3779 -10.6469 -3.9130
30.4769 -9.8612 -3.8898
30.3385 -9.0125 -3.8391
30.0932 -8.1536 -3.7780
25.9270 -6.3563 -3.2312
19.0484 -4.1847 -2.3581
12.6844 -2.4669 -1.5607
12.8690 -2.1814 -1.5747
10.5964 -1.5338 -1.2903
10.4296 -1.2531 -1.2645
16.1326 -1.5439 -1.9487
15.8147 -1.1286 -1.9043
15.4753 -0.7291 -1.8586
15.1516 -0.3472 -1.8162
14.8636 0.0187 -1.7792
14.6082 0.3714 -1.7472
7.7333 0.3838 -0.9247
7.5133 0.5551 -0.8987
7.3411 0.7211 -0.8790
7.1964 0.8829 -0.8630
7.0946 1.0450 -0.8526
7.0932 1.2206 -0.8547
7.0952 1.3982 -0.8578
7.0977 1.5778 -0.8615
7.1893 1.7814 -0.8766
7.2726 1.9897 -0.8914
7.4995 2.2479 -0.9246
7.8943 2.5757 -0.9796
12.4074 4.3825 -1.5506
12.2952 4.6800 -1.5486
12.1848 4.9782 -1.5477
12.0808 5.2797 -1.5486
11.9869 5.5874 -1.5518
11.9025 5.9021 -1.5573
11.8338 6.2286 -1.5659
11.7764 6.5664 -1.5772
11.7188 6.9106 -1.5898
11.6606 7.2615 -1.6036
11.6229 7.6337 -1.6218
11.5929 8.0214 -1.6426
11.5690 8.4253 -1.6660
11.5651 8.8576 -1.6941
11.5639 9.3084 -1.7248
11.6160 9.8220 -1.7659
7.8653 6.9833 -1.2199
7.3657 6.8649 -1.1668
6.8673 6.7176 -1.1123
6.7106 6.8892 -1.1126
6.3507 6.8429 -1.0792
6.0063 6.7937 -1.0474
5.8772 6.9804 -1.0532
5.8616 7.3134 -1.0809
5.6067 7.3524 -1.0656
5.3568 7.3882 -1.0510
5.1974 7.5452 -1.0544
6.2054 9.4913 -1.3042
6.1477 9.9181 -1.3412
5.1715 8.8116 -1.1736
3.0474 5.4921 -0.7210
4.4693 8.5341 -1.1053
4.2815 8.6793 -1.1098
4.0507 8.7371 -1.1038
3.8221 8.7946 -1.0985
3.5954 8.8519 -1.0940
3.3704 8.9091 -1.0902
12.2536 34.9162 -4.2336
11.0731 34.1718 -4.1081
9.5741 32.1757 -3.8379
7.2890 26.8519 -3.1799
8.2918 33.7501 -3.9707
7.5627 34.3415 -4.0166
6.9013 35.3859 -4.1170
6.5358 38.4298 -4.4505
5.7055 39.2622 -4.5288
4.9042 40.6178 -4.6694
3.3445 34.7290 -3.9815
3.0858 42.8701 -4.9043
3.5676 74.7241 -8.5354
-9.9649 81.7150 -9.3951
-9.5223 64.9847 -7.4970
-11.0044 64.2424 -7.4412
-6.7614 34.4506 -4.0090
-13.1426 59.3433 -6.9424
-11.8522 47.9950 -5.6481
-12.7535 46.7629 -5.5394
-13.9021 46.5181 -5.5504
-15.1798 46.6558 -5.6109
-12.3804 35.1435 -4.2627
-16.3003 42.9331 -5.2559
-14.0116 34.3792 -4.2507
-15.1057 34.6452 -4.3295
-15.6428 33.6358 -4.2514
-7.6933 15.5489 -1.9892
-7.8630 14.9710 -1.9400
-13.8798 24.9444 -3.2768
-13.4081 22.7836 -3.0364
-10.8579 17.4707 -2.3640
-10.3853 15.8436 -2.1785
-10.8419 15.6996 -2.1956
-11.2539 15.4827 -2.2041
-11.4060 14.9206 -2.1642
-10.1458 12.6279 -1.8680
-11.5701 13.7089 -2.0702
-12.2896 13.8676 -2.1400
-12.8243 13.7853 -2.1762
-13.3818 13.7054 -2.2157
-13.8954 13.5601 -2.2477
-11.5010 10.6935 -1.8196
-11.9033 10.5431 -1.8440
-14.7225 12.4188 -2.2356
-14.7090 11.8113 -2.1915
-12.3672 9.4487 -1.8097
-14.5004 10.5336 -2.0860
-15.2652 10.5356 -2.1608
-15.2571 9.9946 -2.1269
-15.2521 9.4729 -2.0958
-15.2503 8.9687 -2.0672
-15.2513 8.4803 -2.0410
-15.2321 7.9941 -2.0140
-16.3160 8.0665 -2.1331
-16.5856 7.7070 -2.1457
-16.8622 7.3455 -2.1601
-17.1464 6.9815 -2.1766
-17.4389 6.6141 -2.1951
-17.6205 6.2004 -2.2009
-17.7606 5.7714 -2.2027
-17.9052 5.3437 -2.2064
-18.0544 4.9165 -2.2119
-18.1866 4.4835 -2.2166
-18.0629 3.9927 -2.1916
-19.9895 3.9145 -2.4159
-26.7856 4.5764 -3.2265
-25.6646 3.7492 -3.0832
-13.2459 1.6092 -1.5879
-13.2545 1.2861 -1.5866
-28.3254 2.0590 -3.3874
-14.3764 0.6964 -1.7187
-12.1784 0.2952 -1.4563
-12.5761 0.0009 -1.5051
-12.8055 -0.3086 -1.5348
-12.9320 -0.6246 -1.5530
-13.0647 -0.9479 -1.5730
-13.2041 -1.2795 -1.5949
-15.2700 -1.8531 -1.8513
-18.6598 -2.7235 -2.2722
-13.7544 -2.3483 -1.6831
-14.0471 -2.7492 -1.7285
-14.3155 -3.1628 -1.7724
-14.3933 -3.9181 -1.8073
-41.5430 -21.8034 -5.7375
-39.3356 -21.8736 -5.5094
-37.3090 -21.9438 -5.3034
-35.7320 -22.1959 -5.1589
-33.9642 -22.2532 -4.9846
-32.1100 -22.1659 -4.7941
-30.5596 -22.2052 -4.6456
-29.4625 -22.5160 -4.5643
-27.9773 -22.4727 -4.4209
-26.5617 -22.4155 -3.8950
-25.4407 -22.5447 -3.8129
-24.1048 -22.4242 -3.6962
-22.9511 -22.4100 -3.6045
-21.9698 -22.5147 -3.5378
-20.8098 -22.3838 -3.4400
-19.9052 -22.4768 -3.3821
-18.9458 -22.4650 -3.3130
-17.7037 -22.0527 -3.1906
-17.3457 -22.7102 -3.2265
-17.3315 -23.8664 -3.3326
-14.4562 -20.9544 -2.8783
-13.9080 -21.2407 -2.8725
-13.1800 -21.2317 -2.8292
-12.4741 -21.2231 -2.7888
-11.7886 -21.2147 -2.7511
-11.1217 -21.2065 -2.7159
-10.4720 -21.1985 -2.6831
-9.8382 -21.1907 -2.6526
-9.2188 -21.1831 -2.6242
-8.6128 -21.1757 -2.5980
-8.0190 -21.1684 -2.5737
-7.4364 -21.1612 -2.5512
-6.8640 -21.1542 -2.5306
-6.3009 -21.1473 -2.5117
-5.7462 -21.1405 -2.4945
-5.1268 -20.8399 -2.4444
-4.6492 -21.0841 -2.4598
-2.6970 -13.8108 -1.6036
-3.6383 -21.3647 -2.4702
-3.1078 -21.3582 -2.4605
-2.5814 -21.3517 -2.4523
-2.0583 -21.3453 -2.4454
-1.5380 -21.3389 -2.4400
-1.0198 -21.3326 -2.4359
-0.5032 -21.3262 -2.4332
0.0126 -21.3199 -2.4318
0.4455 -17.9797 -2.0514
0.8795 -17.9517 -2.0500
1.3136 -17.9287 -2.0502
1.7485 -17.9108 -2.0522
2.1696 -17.7691 -2.0411
2.5477 -17.3650 -2.0009
2.9083 -16.9570 -1.9611
3.2381 -16.4781 -1.9138
3.5540 -16.0270 -1.8704
3.8324 -15.4993 -1.8186
4.6292 -16.9519 -2.0010
4.8925 -16.3498 -1.9427
5.2276 -16.0462 -1.9204
5.5469 -15.7247 -1.8967
5.5828 -14.6847 -1.7863
6.0856 -14.9115 -1.8304
6.3096 -14.4514 -1.7913
6.5866 -14.1432 -1.7715
6.8274 -13.7796 -1.7452
5.9452 -11.3035 -1.4486
5.7259 -10.2755 -1.3335
6.0068 -10.1920 -1.3403
6.4303 -10.3312 -1.3778
6.5390 -9.9607 -1.3482
6.7647 -9.7807 -1.3447
6.5807 -9.0394 -1.2634
7.5922 -9.9158 -1.4102
7.7366 -9.6138 -1.3924
7.9203 -9.3689 -1.3832
7.9442 -8.9492 -1.3482
8.4811 -9.1010 -1.4004
8.4991 -8.6893 -1.3671
9.3354 -9.0938 -1.4646
9.6903 -8.9933 -1.4844
15.2094 -13.4458 -2.2774
14.5814 -12.2757 -2.1363
15.2062 -12.1859 -2.1820
15.6414 -11.9254 -2.2004
16.0325 -11.6217 -2.2131
16.4375 -11.3194 -2.2283
16.6297 -10.8687 -2.2159
16.7415 -10.3731 -2.1945
23.0225 -13.5059 -2.9710
23.1668 -12.8482 -2.9456
23.2070 -12.1465 -2.9094
28.7078 -14.1525 -3.5512
28.9600 -13.4167 -3.5374
29.2321 -12.6939 -3.5282
29.4657 -11.9574 -3.5165
29.6574 -11.2083 -3.5020
29.7768 -10.4381 -3.4813
29.7032 -9.6128 -3.4405
29.5223 -8.7720 -3.3900
29.2004 -7.9136 -3.3262
19.0748 -4.6777 -2.1567
18.2063 -4.0009 -2.0445
12.7635 -2.4831 -1.4244
12.8857 -2.1851 -1.4300
10.5613 -1.5294 -1.1662
16.0428 -1.9286 -1.7636
15.7004 -1.5035 -1.7194
15.3671 -1.0976 -1.6774
15.0442 -0.7097 -1.6378
14.7435 -0.3388 -1.6017
14.4860 0.0173 -1.5714
14.2386 0.3612 -1.5431
7.5699 0.3752 -0.8201
7.3588 0.5433 -0.7974
7.1717 0.7040 -0.7778
7.0886 0.8693 -0.7699
7.0074 1.0317 -0.7626
6.9825 1.2011 -0.7619
6.9969 1.3784 -0.7659
7.0067 1.5571 -0.7699
7.0781 1.7534 -0.7812
7.1965 1.9684 -0.7983
7.4137 2.2217 -0.8272
7.8146 2.5492 -0.8774
12.1317 4.2844 -1.3717
12.0230 4.5755 -1.3699
11.9162 4.8676 -1.3691
11.8150 5.1627 -1.3698
11.7192 5.4617 -1.3720
11.6432 5.7727 -1.3775
11.5743 6.0912 -1.3848
11.5099 6.4170 -1.3936
11.4501 6.7513 -1.4042
11.3897 7.0920 -1.4158
11.3448 7.4502 -1.4307
11.3125 7.8265 -1.4485
11.2815 8.2149 -1.4679
11.2695 8.6304 -1.4915
11.2625 9.0648 -1.5176
11.2780 9.5353 -1.5488
7.3162 6.4951 -1.0249
7.3168 6.8187 -1.0468
6.8407 6.6909 -1.0006
6.6845 6.8618 -1.0008
6.1130 6.5862 -0.9379
5.9952 6.7806 -0.9439
5.8663 6.9669 -0.9490
5.8556 7.3053 -0.9748
5.6068 7.3520 -0.9619
5.3569 7.3878 -0.9486
5.1133 7.4226 -0.9362
5.6594 8.6556 -1.0734
5.7289 9.2417 -1.1278
5.1463 8.7679 -1.0538
3.0473 5.4915 -0.6506
4.4647 8.5247 -0.9962
4.2635 8.6421 -0.9970
4.0337 8.6999 -0.9916
3.8062 8.7573 -0.9868
3.5805 8.8145 -0.9827
12.4066 32.7927 -3.6198
11.5070 32.7865 -3.5858
10.8437 33.4616 -3.6284
9.7597 32.7973 -3.5284
7.2886 26.8487 -2.8676
7.7428 31.5133 -3.3438
7.4087 33.6401 -3.5483
6.6251 33.9678 -3.5640
5.7449 33.7768 -3.5275
4.8813 33.5879 -3.4938
4.0251 33.3347 -3.4557
4.1253 42.8333 -4.4281
3.0874 42.8899 -4.4244
3.5547 74.4499 -7.6684
-8.8974 72.9573 -7.5641
-10.8020 73.7126 -7.6686
-10.7593 62.8079 -6.5606
-6.7616 34.4495 -3.6153
-12.9227 58.3464 -6.1557
-11.5805 46.8918 -4.9768
-12.3027 45.1070 -4.8190
-13.6233 45.5823 -4.9053
-12.2845 37.7547 -4.0953
-15.4269 43.7888 -4.7908
-13.9250 36.6743 -4.0499
-16.9532 41.5938 -4.6392
-18.1352 41.5907 -4.6887
-16.8797 36.2930 -4.1384
-14.5326 29.3698 -3.3900
-11.5697 22.0269 -2.5755
-12.1086 21.7597 -2.5793
-12.6503 21.4944 -2.5849
-13.1413 21.1432 -2.5819
-10.1581 15.4958 -1.9230
-10.5561 15.2845 -1.9293
-10.9562 15.0720 -1.9367
-11.3608 14.8603 -1.9457
-11.7706 14.6490 -1.9563
-12.1863 14.4379 -1.9684
-11.0173 12.4308 -1.7321
-11.7131 12.5898 -1.7947
-12.4690 12.7694 -1.8643
-13.1636 12.8448 -1.9230
-11.5001 10.6917 -1.6433
-11.9019 10.5409 -1.6654
-14.1435 11.9292 -1.9401
-13.5302 10.8636 -1.8212
-12.3659 9.4468 -1.6349
-14.7923 10.7446 -1.9228
-14.7894 10.2061 -1.8918
-14.7892 9.6870 -1.8633
-14.7915 9.1857 -1.8371
-14.7962 8.7006 -1.8130
-14.8032 8.2301 -1.7909
-14.8125 7.7729 -1.7708
-15.5129 7.6684 -1.8339
-15.9552 7.4129 -1.8667
-16.2178 7.0637 -1.8790
-16.4870 6.7119 -1.8931
-16.7634 6.3568 -1.9089
-16.9576 5.9660 -1.9163
-17.0927 5.5532 -1.9181
-17.2314 5.1415 -1.9215
-17.3741 4.7301 -1.9265
-17.3571 4.2779 -1.9149
-17.2487 3.8116 -1.8946
-17.1472 3.3569 -1.8762
-18.7072 3.1950 -2.0404
-19.2496 2.8108 -2.0942
-13.2441 1.6081 -1.4380
-13.2533 1.2851 -1.4370
-13.9018 1.0097 -1.5061
-19.7112 0.9535 -2.1350
-14.6100 0.3532 -1.5830
-14.4459 0.0001 -1.5667
-12.2024 -0.2949 -1.3255
-12.4112 -0.6002 -1.3510
-12.5326 -0.9101 -1.3679
-12.6599 -1.2275 -1.3863
-14.7515 -1.7911 -1.6217
-18.2839 -2.6698 -2.0190
-19.4584 -3.3234 -2.1595
-13.3502 -2.6136 -1.4900
-13.6397 -3.0143 -1.5319
-13.9496 -3.4384 -1.5774
-14.0016 -3.8124 -1.5952
-71.7075 -21.3991 -8.2357
-67.6957 -21.9971 -7.8430
-66.9677 -23.5646 -7.8314
-46.8199 -21.7584 -5.7212
-44.3774 -21.9428 -5.4920
-42.4397 -22.2770 -5.3231
-39.9037 -22.1924 -5.0763
-37.9109 -22.3005 -4.8951
-35.8142 -22.2495 -4.6973
-34.4386 -22.5666 -4.5918
-32.6337 -22.5299 -4.4270
-30.9751 -22.5095 -4.2788
-29.5812 -22.6091 -4.1646
-27.9745 -22.4727 -4.0175
-26.5617 -22.4176 -3.5056
-25.4383 -22.5446 -3.4318
-24.1025 -22.4242 -3.3270
-22.9491 -22.4100 -3.2448
-21.8738 -22.4182 -3.1715
-20.8080 -22.3838 -3.0974
-19.7687 -22.3245 -3.0248
-18.8555 -22.3598 -2.9696
-17.7023 -22.0527 -2.8735
-17.3456 -22.7120 -2.9063
-17.3315 -23.8682 -3.0021
-14.4551 -20.9544 -2.5929
-13.9070 -21.2406 -2.5879
-13.1791 -21.2317 -2.5490
-12.4732 -21.2231 -2.5128
-11.7877 -21.2146 -2.4789
-11.1209 -21.2065 -2.4474
-10.4713 -21.1985 -2.4180
-9.8375 -21.1907 -2.3906
-9.2182 -21.1831 -2.3652
-8.6123 -21.1757 -2.3417
-8.0185 -21.1684 -2.3199
-7.4359 -21.1612 -2.2997
-6.8636 -21.1542 -2.2812
-6.3005 -21.1473 -2.2643
-5.7458 -21.1405 -2.2488
-5.1264 -20.8399 -2.2038
-4.6489 -21.0841 -2.2177
-2.6966 -13.8094 -1.4456
-3.6380 -21.3647 -2.2272
-3.1076 -21.3582 -2.2185
-2.5812 -21.3517 -2.2111
-2.0582 -21.3453 -2.2050
-1.5379 -21.3389 -2.2001
-1.0198 -21.3326 -2.1964
-0.5031 -21.3262 -2.1940
0.0126 -21.3199 -2.1928
0.4244 -17.1272 -1.7621
0.8378 -17.1011 -1.7609
1.2344 -16.8487 -1.7373
1.6076 -16.4678 -1.7014
1.9668 -16.1096 -1.6685
2.3139 -15.7720 -1.6386
2.6502 -15.4531 -1.6113
4.1793 -21.2688 -2.2271
4.6499 -20.9700 -2.2064
4.2261 -17.0925 -1.8081
4.4517 -16.3029 -1.7349
4.7575 -15.8994 -1.7031
5.0762 -15.5826 -1.6811
5.3881 -15.2757 -1.6609
5.6605 -14.8902 -1.6327
5.9178 -14.5014 -1.6045
6.1310 -14.0433 -1.5689
5.3087 -11.4000 -1.2869
5.5064 -11.1141 -1.2686
5.8432 -11.1104 -1.2831
5.7326 -10.2883 -1.2031
6.0138 -10.2048 -1.2092
6.4425 -10.3516 -1.2438
6.5353 -9.9558 -1.2140
6.8119 -9.8496 -1.2199
6.6265 -9.1030 -1.1461
7.5205 -9.8230 -1.2583
7.4529 -9.2620 -1.2081
7.9084 -9.3556 -1.2439
8.2708 -9.3178 -1.2640
8.0773 -8.6683 -1.2010
8.4252 -8.6144 -1.2202
9.4095 -9.1667 -1.3291
9.6494 -8.9562 -1.3307
9.8908 -8.7448 -1.3331
15.2970 -12.8794 -2.0172
16.0050 -12.8273 -2.0669
13.3501 -10.1795 -1.6900
21.6135 -15.6689 -2.6844
21.7684 -14.9921 -2.6549
28.0961 -18.3650 -3.3678
21.9337 -13.5918 -2.5860
26.3162 -15.4400 -3.0543
26.5847 -14.7456 -3.0396
27.5495 -14.4213 -3.1055
28.1605 -13.8846 -3.1318
28.3681 -13.1444 -3.1149
28.6440 -12.4404 -3.1074
28.8664 -11.7161 -3.0960
29.0189 -10.9689 -3.0791
29.0488 -10.1849 -3.0514
28.9274 -9.3636 -3.0101
28.5781 -8.4932 -2.9477
19.2865 -5.2280 -1.9731
18.2395 -4.4740 -1.8519
17.5138 -3.8498 -1.7659
12.8433 -2.4994 -1.2868
12.8989 -2.1881 -1.2850
10.5266 -1.5250 -1.0432
15.6079 -1.8773 -1.5398
15.2635 -1.4626 -1.4998
14.9472 -1.0686 -1.4638
14.6368 -0.6914 -1.4293
14.3662 -0.3310 -1.3998
14.1128 0.0160 -1.3728
13.8875 0.3514 -1.3495
7.4137 0.3670 -0.7200
7.2109 0.5319 -0.7004
7.0894 0.6955 -0.6891
7.0030 0.8583 -0.6816
6.9225 1.0188 -0.6750
6.8724 1.1817 -0.6718
6.8859 1.3561 -0.6752
6.9073 1.5346 -0.6798
7.0171 1.7379 -0.6936
7.1330 1.9506 -0.7085
7.3330 2.1971 -0.7324
7.7367 2.5232 -0.7776
8.4790 2.9938 -0.8581
11.7631 4.4758 -1.1994
11.6607 4.7625 -1.1987
11.5613 5.0511 -1.1992
11.4649 5.3424 -1.2006
11.3928 5.6477 -1.2055
11.3202 5.9566 -1.2111
11.2501 6.2714 -1.2180
11.1875 6.5957 -1.2266
11.1255 6.9267 -1.2363
11.0854 7.2791 -1.2495
11.0505 7.6444 -1.2645
11.0175 8.0219 -1.2810
10.9934 8.4181 -1.3000
10.9816 8.8379 -1.3220
10.9762 9.2793 -1.3464
7.3732 6.5451 -0.9226
7.1615 6.6733 -0.9150
6.8143 6.6645 -0.8900
6.6587 6.8347 -0.8901
6.1115 6.5841 -0.8371
5.9842 6.7677 -0.8410
5.8555 6.9535 -0.8455
5.8496 7.2973 -0.8691
5.6070 7.3516 -0.8584
5.3571 7.3874 -0.8465
5.1135 7.4223 -0.8354
5.7138 8.7382 -0.9669
5.3618 8.6489 -0.9416
5.1452 8.7655 -0.9398
3.0472 5.4910 -0.5802
4.4768 8.5473 -0.8909
4.2456 8.6054 -0.8854
4.0169 8.6631 -0.8805
3.7904 8.7204 -0.8763
3.5657 8.7775 -0.8726
7.6154 20.1276 -1.9811
7.3436 20.9224 -2.0402
10.6274 32.7919 -3.1702
9.7370 32.7188 -3.1381
7.2882 26.8455 -2.5561
8.0850 32.9041 -3.1123
7.2647 32.9840 -3.1013
6.4500 33.0678 -3.0927
6.1315 36.0478 -3.3557
5.6010 38.5379 -3.5730
4.7915 39.6797 -3.6663
3.8719 40.1999 -3.7041
3.5553 74.4587 -6.8355
-1.4425 58.2742 -5.3449
-8.0189 65.7497 -6.0759
-9.3869 64.0525 -5.9394
-10.6842 62.3658 -5.8066
-6.7618 34.4484 -3.2225
-10.1650 45.8923 -4.3160
-11.0143 44.5962 -4.2193
-12.3842 45.4028 -4.3242
-13.6971 45.8264 -4.3965
-14.6886 45.1403 -4.3654
-15.1617 43.0330 -4.1977
-15.7920 41.5889 -4.0949
-16.4456 40.3459 -4.0126
-14.8982 34.1646 -3.4346
-15.2891 32.8707 -3.3427
-16.1263 32.5885 -3.3547
-11.3367 21.5820 -2.2507
-11.8646 21.3197 -2.2542
-12.3628 21.0044 -2.2534
-12.8002 20.5930 -2.2434
-12.9935 19.8197 -2.1945
-13.4071 19.4112 -2.1862
-13.8203 19.0105 -2.1799
-14.0972 18.4382 -2.1546
-14.1929 17.6623 -2.1052
-14.1448 16.7568 -2.0393
-13.7927 15.5610 -1.9356
-14.9511 16.0687 -2.0451
-14.3709 14.7158 -1.9184
-11.7861 11.4997 -1.5374
-11.4993 10.6900 -1.4674
-11.9006 10.5388 -1.4873
-14.0647 11.8616 -1.7233
-15.8203 12.7011 -1.9023
-12.3647 9.4449 -1.4606
-16.1382 11.7210 -1.8745
-17.3627 11.9805 -1.9848
-16.4608 10.7808 -1.8536
-16.4221 10.1972 -1.8232
-17.2415 10.1373 -1.8887
-17.9573 9.9823 -1.9425
-20.5269 10.7701 -2.1944
-16.4833 8.1469 -1.7428
-15.2527 7.0855 -1.5962
-15.6222 6.8032 -1.6192
-15.8778 6.4629 -1.6312
-18.8405 7.1432 -1.9198
-18.9247 6.6568 -1.9140
-16.4745 5.3513 -1.6548
-16.6079 4.9544 -1.6579
-16.7028 4.5463 -1.6582
-16.6017 4.0907 -1.6401
-24.8220 5.4836 -2.4417
-24.2846 4.7526 -2.3801
-17.6286 3.0097 -1.7225
-18.0365 2.6326 -1.7581
-13.2424 1.6071 -1.2884
-13.2521 1.2842 -1.2877
-18.5660 1.3473 -1.8029
-14.6689 0.7087 -1.4244
-14.2370 0.3433 -1.3831
-14.0685 -0.0008 -1.3683
-13.8907 -0.3365 -1.3532
-11.8556 -0.5741 -1.1576
-12.0434 -0.8753 -1.1793
-13.7596 -1.3350 -1.3520
-14.2681 -1.7333 -1.4075
-14.6242 -2.1363 -1.4493
-18.0347 -3.0814 -1.7966
-19.3712 -3.7936 -1.9409
-19.5801 -4.3284 -1.9744
-13.2468 -3.2660 -1.3451
-13.4112 -3.6525 -1.3722
-13.4496 -4.0145 -1.3875
-19.1863 -6.2357 -1.9969
-18.8686 -6.6407 -1.9825
-67.2888 -25.5258 -7.1419
-53.3459 -21.7255 -5.7233
-50.0539 -21.8097 -5.4319
-47.1284 -21.9051 -5.1768
-45.2772 -22.3908 -5.0376
-42.5880 -22.3579 -4.8029
-40.1342 -22.3234 -4.5912
-38.4882 -22.6429 -4.4694
-36.2487 -22.5221 -4.2763
-34.5935 -22.6706 -4.1492
-32.6300 -22.5298 -3.9823
-30.9718 -22.5095 -3.8494
-29.5782 -22.6090 -3.7471
-27.9716 -22.4726 -3.6152
-26.5617 -22.4197 -3.1171
-25.2561 -22.3853 -3.0299
-24.1003 -22.4241 -2.9587
-22.9470 -22.4100 -2.8860
-21.8507 -22.3965 -2.8184
-20.8062 -22.3837 -2.7555
-19.8087 -22.3715 -2.6969
-18.8540 -22.3598 -2.6424
-17.7009 -22.0526 -2.5572
-17.3456 -22.7137 -2.5868
-17.3314 -23.8700 -2.6724
-14.4540 -20.9544 -2.3081
-13.9060 -21.2406 -2.3039
-13.1781 -21.2317 -2.2695
-12.4734 -21.2249 -2.2376
-11.7941 -21.2276 -2.2088
-11.1201 -21.2064 -2.1795
-10.4706 -21.1985 -2.1535
-9.8563 -21.2326 -2.1335
-9.2394 -21.2333 -2.1118
-8.6117 -21.1757 -2.0859
-8.0180 -21.1684 -2.0666
-7.4618 -21.2363 -2.0561
-6.8970 -21.2587 -2.0425
-6.3087 -21.1764 -2.0202
-5.7454 -21.1405 -2.0038
-5.1261 -20.8399 -1.9637
-4.6486 -21.0841 -1.9762
-2.6961 -13.8080 -1.2881
-3.6378 -21.3647 -1.9848
-3.1226 -21.4625 -1.9868
-2.5936 -21.4560 -1.9802
-2.0636 -21.4024 -1.9704
-1.5378 -21.3389 -1.9608
-1.0197 -21.3326 -1.9575
-0.5035 -21.3439 -1.9570
0.0097 -16.3815 -1.5016
0.3978 -16.0578 -1.4724
0.9946 -20.3028 -1.8632
1.4412 -19.6740 -1.8080
2.0786 -21.2946 -1.9607
2.6116 -21.3922 -1.9746
3.1373 -21.3857 -1.9801
3.6485 -21.2753 -1.9770
4.1791 -21.2688 -1.9847
4.6496 -20.9701 -1.9661
4.2309 -17.1131 -1.6131
4.3034 -15.7607 -1.4944
4.6222 -15.4485 -1.4744
4.9337 -15.1460 -1.4558
5.2385 -14.8525 -1.4387
5.5065 -14.4859 -1.4150
5.7594 -14.1141 -1.3911
5.9626 -13.6585 -1.3592
5.2143 -11.1980 -1.1259
5.5464 -11.1958 -1.1381
5.8526 -11.1290 -1.1446
5.9845 -10.7412 -1.1185
6.9868 -11.8566 -1.2510
6.0581 -9.7347 -1.0414
6.3341 -9.6501 -1.0476
6.7641 -9.7813 -1.0784
7.0035 -9.6217 -1.0783
7.0960 -9.2693 -1.0567
7.3184 -9.0955 -1.0558
8.0243 -9.4935 -1.1232
8.2386 -9.2823 -1.1203
8.7128 -9.3512 -1.1526
8.3527 -8.5411 -1.0762
9.3702 -9.1292 -1.1773
9.6090 -8.9195 -1.1786
9.7206 -8.5952 -1.1651
13.6753 -11.5151 -1.6035
13.2462 -10.6173 -1.5208
20.4771 -15.6154 -2.3043
21.0610 -15.2700 -2.3250
27.6969 -19.0773 -3.0021
27.6225 -18.0575 -2.9421
27.5607 -17.0808 -2.8870
24.1197 -14.1530 -2.4868
25.0248 -13.8822 -2.5414
27.4256 -14.3584 -2.7455
26.0782 -12.8597 -2.5753
27.7298 -12.8506 -2.7032
27.9761 -12.1522 -2.6940
28.1523 -11.4282 -2.6798
28.2668 -10.6865 -2.6616
28.1762 -9.8808 -2.6260
27.8633 -9.0210 -2.5721
19.5670 -5.8165 -1.7901
18.3613 -4.9784 -1.6658
17.5777 -4.3128 -1.5825
16.9132 -3.7189 -1.5118
16.3826 -3.1892 -1.4549
12.9120 -2.1912 -1.1399
15.5402 -2.2523 -1.3646
15.1807 -1.8268 -1.3268
14.8523 -1.4242 -1.2927
14.5452 -1.0407 -1.2614
14.2518 -0.6741 -1.2323
13.9969 -0.3233 -1.2073
13.7686 0.0147 -1.1855
7.6160 0.1922 -0.6549
7.2641 0.3592 -0.6242
7.1244 0.5251 -0.6122
7.0098 0.6873 -0.6027
6.9248 0.8483 -0.5960
6.8420 1.0065 -0.5899
6.7660 1.1630 -0.5847
6.7854 1.3359 -0.5880
6.8193 1.5146 -0.5931
6.9573 1.7226 -0.6076
7.0709 1.9332 -0.6204
7.2652 2.1763 -0.6409
7.6605 2.4979 -0.6799
8.3782 2.9577 -0.7486
11.5150 4.3807 -1.0364
11.4142 4.6610 -1.0357
11.3111 4.9410 -1.0353
11.2177 5.2265 -1.0365
11.1428 5.5231 -1.0401
11.0704 5.8244 -1.0447
11.0017 6.1322 -1.0504
10.9367 6.4470 -1.0572
10.8757 6.7703 -1.0654
10.8382 7.1159 -1.0768
10.8009 7.4709 -1.0892
10.7661 7.8380 -1.1030
10.7342 8.2188 -1.1183
10.7153 8.6227 -1.1362
10.7054 9.0494 -1.1566
7.4310 6.5958 -0.8188
7.2172 6.7246 -0.8119
6.7882 6.6384 -0.7806
6.2263 6.3904 -0.7326
6.1005 6.5716 -0.7355
5.9733 6.7548 -0.7388
5.8447 6.9402 -0.7426
5.7145 7.1281 -0.7469
5.6071 7.3512 -0.7551
5.3572 7.3870 -0.7446
5.1818 7.5209 -0.7445
5.6875 8.6973 -0.8463
5.3456 8.6223 -0.8255
5.0069 8.5293 -0.8041
3.0472 5.4904 -0.5101
4.4581 8.5109 -0.7798
4.2280 8.5690 -0.7750
4.0003 8.6266 -0.7707
3.7747 8.6839 -0.7669
3.5510 8.7409 -0.7636
3.6959 9.7675 -0.8448
7.1165 20.2742 -1.7371
6.8258 21.0604 -1.7889
9.4846 31.8686 -2.6853
7.2878 26.8423 -2.2453
7.8593 31.9833 -2.6575
7.0629 32.0657 -2.6484
6.2719 32.1527 -2.6414
5.4415 31.9894 -2.6156
5.3287 36.6624 -2.9855
4.8547 40.2008 -3.2624
4.1296 42.8727 -3.4695
5.3889 74.8515 -6.0443
3.5220 73.7562 -5.9466
1.3745 58.3300 -4.6986
-7.2546 74.3894 -6.0206
-9.1614 75.1130 -6.0964
-10.7441 73.3084 -5.9706
-10.8855 63.5368 -5.1960
-6.7620 34.4473 -2.8305
-10.7838 48.6828 -4.0217
-11.5976 46.9552 -3.9025
-12.0861 44.3071 -3.7071
-13.6247 45.5813 -3.8419
-13.7902 42.3769 -3.6006
-15.5246 44.0600 -3.7764
-16.1125 42.4301 -3.6711
-16.6975 40.9612 -3.5800
-17.7599 40.7245 -3.5981
-16.1373 34.6920 -3.1008
-15.5348 31.3910 -2.8405
-11.1134 21.1554 -1.9395
-11.6180 20.8751 -1.9405
-12.0492 20.4700 -1.9309
-12.0233 19.3417 -1.8529
-12.4226 18.9474 -1.8450
-12.7911 18.5180 -1.8344
-12.8971 17.7394 -1.7893
-13.0032 17.0059 -1.7482
-13.1095 16.3127 -1.7108
-13.2163 15.6556 -1.6766
-26.8987 30.3449 -3.3219
-14.3720 15.4450 -1.7302
-14.1514 14.4898 -1.6629
-14.1040 13.7601 -1.6196
-11.4985 10.6883 -1.2919
-11.8993 10.5366 -1.3096
-14.8905 12.5569 -1.6069
-15.4768 12.4241 -1.6393
-12.3634 9.4430 -1.2867
-16.4954 11.9791 -1.6882
-16.6081 11.4586 -1.6732
-16.4631 10.7810 -1.6340
-16.6002 10.3066 -1.6246
-17.2394 10.1347 -1.6650
-18.6502 10.3663 -1.7791
-19.3858 10.1701 -1.8279
-18.8511 9.3159 -1.7582
-18.7897 8.7273 -1.7348
-15.0118 6.5364 -1.3731
-18.0804 7.3582 -1.6394
-19.3990 7.3537 -1.7449
-19.9710 7.0235 -1.7833
-19.1631 6.2234 -1.6998
-16.0292 4.7807 -1.4133
-20.3030 5.5250 -1.7805
-20.7573 5.1133 -1.8118
-20.9520 4.6273 -1.8213
-24.7867 4.8493 -2.1471
-13.6509 2.3297 -1.1791
-13.9504 2.0353 -1.2023
-12.8422 1.5577 -1.1049
-13.2509 1.2833 -1.1389
-14.1758 1.0278 -1.2178
-14.1602 0.6832 -1.2166
-13.8833 0.3339 -1.1936
-13.7124 -0.0016 -1.1804
-14.4790 -0.3517 -1.2487
-14.2077 -0.6889 -1.2283
-13.8535 -1.0078 -1.2013
-14.7078 -1.4279 -1.2800
-16.0420 -1.9498 -1.4020
-14.1485 -2.0677 -1.2424
-15.1747 -2.5937 -1.3397
-17.5485 -3.4378 -1.5585
-18.8836 -4.1756 -1.6881
-18.2816 -4.5085 -1.6460
-12.8698 -3.5059 -1.1678
-18.2700 -5.4545 -1.6717
-18.2734 -5.9401 -1.6871
-66.9692 -23.5739 -6.2429
-67.2896 -25.5305 -6.3376
-54.4387 -22.1742 -5.1836
-50.9662 -22.2106 -4.9095
-47.6756 -22.1626 -4.6493
-45.4655 -22.4871 -4.4916
-43.1536 -22.6578 -4.3219
-40.6757 -22.6274 -4.1329
-38.6125 -22.7188 -3.9831
-36.2487 -22.5247 -3.7993
-34.5895 -22.6705 -3.6864
-32.6264 -22.5298 -3.5387
-30.9685 -22.5094 -3.4211
-29.4995 -22.5512 -3.3221
-27.9688 -22.4726 -3.2138
-26.5616 -22.4219 -2.7293
-25.3144 -22.4390 -2.6595
-24.0981 -22.4241 -2.5912
-22.9450 -22.4100 -2.5279
-21.8488 -22.3965 -2.4690
-20.8044 -22.3837 -2.4143
-19.8070 -22.3715 -2.3633
-18.8524 -22.3598 -2.3159
-17.6994 -22.0526 -2.2415
-17.3456 -22.7154 -2.2679
-17.3314 -23.8718 -2.3432
-14.4529 -20.9543 -2.0240
-13.9049 -21.2406 -2.0205
-13.1771 -21.2317 -1.9905
-12.5405 -21.3406 -1.9735
-11.7993 -21.2385 -1.9387
-11.1194 -21.2064 -1.9122
-10.4698 -21.1985 -1.8896
-9.8906 -21.3080 -1.8788
-9.2680 -21.3004 -1.8591
-8.6111 -21.1757 -1.8307
-8.0174 -21.1684 -1.8139
-7.4618 -21.2377 -1.8049
-6.9007 -21.2713 -1.7941
-6.3083 -21.1762 -1.7735
-5.7451 -21.1405 -1.7592
-5.1258 -20.8399 -1.7241
-4.6483 -21.0841 -1.7352
-2.6956 -13.8063 -1.1309
-3.6375 -21.3647 -1.7429
-3.1224 -21.4625 -1.7446
-2.5950 -21.4686 -1.7399
-2.0634 -21.4023 -1.7303
-1.5377 -21.3389 -1.7219
-1.0196 -21.3326 -1.7191
-0.5035 -21.3439 -1.7186
0.0086 -14.4493 -1.1632
0.3641 -14.6963 -1.1834
0.7326 -14.9551 -1.2053
1.1154 -15.2271 -1.2289
2.0785 -21.2946 -1.7218
2.6130 -21.4047 -1.7350
3.1389 -21.3983 -1.7398
2.6802 -15.6297 -1.2753
3.0555 -15.5516 -1.2742
3.4313 -15.4764 -1.2741
3.8080 -15.4037 -1.2748
4.1831 -15.3212 -1.2754
4.4947 -15.0232 -1.2587
4.7992 -14.7340 -1.2433
5.0973 -14.4530 -1.2289
5.3609 -14.1038 -1.2092
5.6095 -13.7477 -1.1892
4.9866 -11.4235 -0.9977
5.2520 -11.2798 -0.9952
5.5870 -11.2785 -1.0060
5.7281 -10.8930 -0.9830
5.9963 -10.7632 -0.9832
6.4496 -10.9458 -1.0130
5.9816 -9.6124 -0.9020
6.3658 -9.6991 -0.9234
6.7702 -9.7907 -0.9466
6.9172 -9.5039 -0.9338
7.3353 -9.5825 -0.9577
7.4716 -9.2866 -0.9450
7.9862 -9.4493 -0.9798
7.9487 -8.9564 -0.9473
8.6073 -9.2387 -0.9977
8.7280 -8.9256 -0.9853
9.3313 -9.0921 -1.0270
9.5432 -8.8592 -1.0252
9.8081 -8.6733 -1.0295
13.1266 -11.0541 -1.3477
16.7312 -13.4121 -1.6818
17.8294 -13.5978 -1.7562
27.2968 -19.7933 -2.6372
27.1852 -18.7268 -2.5783
19.5709 -12.7954 -1.8237
26.9203 -16.6858 -2.4666
26.9733 -15.8294 -2.4321
26.8941 -14.9210 -2.3882
26.8603 -14.0643 -2.3507
24.6268 -12.1457 -2.1256
25.2403 -11.6986 -2.1502
27.1008 -11.7738 -2.2801
27.1948 -11.0413 -2.2613
27.0495 -10.2280 -2.2244
26.7352 -9.3772 -2.1757
20.0771 -6.5014 -1.6179
18.5028 -5.5013 -1.4774
17.6734 -4.7930 -1.3992
16.9584 -4.1619 -1.3319
16.3738 -3.6013 -1.2766
15.9066 -3.0975 -1.2319
12.9678 -2.2014 -0.9981
15.1168 -2.1919 -1.1571
14.7690 -1.7782 -1.1249
14.4569 -1.3871 -1.0963
14.1651 -1.0144 -1.0701
13.8878 -0.6577 -1.0458
13.6543 -0.3163 -1.0255
13.4378 0.0135 -1.0071
7.3644 0.1854 -0.5511
7.1614 0.3536 -0.5355
7.0454 0.5188 -0.5266
6.9331 0.6793 -0.5184
6.8484 0.8385 -0.5125
6.7672 0.9951 -0.5071
6.6707 1.1462 -0.5009
6.7010 1.3188 -0.5046
6.7336 1.4951 -0.5087
6.8987 1.7076 -0.5232
7.0099 1.9161 -0.5340
7.1988 2.1559 -0.5513
7.5859 2.4731 -0.5843
8.2800 2.9225 -0.6419
11.2688 4.2863 -0.8798
11.1672 4.5594 -0.8787
11.0661 4.8333 -0.8782
10.9814 5.1156 -0.8796
10.9041 5.4040 -0.8821
10.8320 5.6982 -0.8857
10.7646 5.9992 -0.8903
10.6973 6.3051 -0.8956
10.6417 6.6239 -0.9027
10.6022 6.9602 -0.9119
10.5627 7.3054 -0.9220
10.5264 7.6627 -0.9333
10.4916 8.0322 -0.9457
10.4625 8.4184 -0.9597
10.4481 8.8311 -0.9763
7.4896 6.6472 -0.7136
7.2737 6.7767 -0.7074
6.7623 6.6125 -0.6721
6.2151 6.3783 -0.6320
6.0894 6.5591 -0.6343
5.9625 6.7419 -0.6371
5.8341 6.9270 -0.6403
5.7040 7.1145 -0.6439
5.6073 7.3509 -0.6521
5.3574 7.3867 -0.6428
5.1766 7.5129 -0.6420
5.7128 8.7353 -0.7337
5.3608 8.6462 -0.7144
4.8762 8.3060 -0.6757
3.0471 5.4899 -0.4401
4.4396 8.4749 -0.6699
4.2105 8.5330 -0.6657
3.9838 8.5905 -0.6619
3.7593 8.6477 -0.6586
3.8927 9.5812 -0.7218
7.3569 19.4417 -1.4498
6.9710 19.8583 -1.4669
6.7647 20.8706 -1.5283
6.4419 21.6439 -1.5721
7.2874 26.8391 -1.9351
7.5967 30.9128 -2.2138
6.8276 30.9957 -2.2063
6.0488 31.0069 -2.1952
5.2162 30.6626 -2.1605
5.7557 39.5976 -2.7786
4.3933 36.3775 -2.5439
5.2664 73.1458 -5.0893
3.4704 72.6697 -5.0483
-8.9919 73.7190 -5.1557
-9.2655 63.2164 -4.4366
-10.6489 62.1519 -4.3800
-6.7622 34.4463 -2.4392
-10.2613 46.3213 -3.2979
-11.2480 45.5370 -3.2619
-12.7541 46.7532 -3.3718
-13.2139 44.2041 -3.2117
-14.2246 43.7087 -3.2016
-15.2528 43.2858 -3.1986
-15.5658 40.9879 -3.0577
-16.8012 41.2128 -3.1060
-16.3762 37.5491 -2.8610
-16.1639 34.7468 -2.6786
-15.8984 32.1234 -2.5073
-10.8992 20.7461 -1.6408
-11.3294 20.3552 -1.6325
