ply
format ascii 1.0
element vertex 2129
property float32 x
property float32 y
property float32 z
end_header
-2.8961 16.8859 2.4026
-3.3039 16.8132 2.4026
-3.7099 16.7309 2.4026
-4.1140 16.6390 2.4026
-4.5159 16.5377 2.4026
-4.9153 16.4268 2.4026
-5.3121 16.3066 2.4026
-5.7060 16.1770 2.4026
-6.0969 16.0381 2.4026
-6.2820 15.3940 2.3276
-6.5738 15.0578 2.2995
-6.9379 14.8987 2.2995
-7.2981 14.7309 2.2995
-7.6545 14.5547 2.2995
-8.0067 14.3700 2.2995
-8.3545 14.1770 2.2995
-8.6978 13.9757 2.2995
-6.6590 10.1446 1.6945
-9.3700 13.5490 2.2995
-9.6986 13.3237 2.2995
-10.0218 13.0906 2.2995
-10.4434 12.9788 2.3226
-10.7587 12.7280 2.3226
-11.0680 12.4696 2.3226
-11.3713 12.2039 2.3226
-11.6683 11.9309 2.3226
-11.9589 11.6509 2.3226
-12.2429 11.3638 2.3226
-12.5202 11.0701 2.3226
-12.7905 10.7696 2.3226
-13.0538 10.4626 2.3226
-13.3098 10.1493 2.3226
-13.5584 9.8299 2.3226
-13.7995 9.5044 2.3226
-14.0328 9.1731 2.3226
-14.2584 8.8362 2.3226
-14.4760 8.4938 2.3226
-14.6854 8.1461 2.3226
-14.8867 7.7933 2.3226
-15.0796 7.4356 2.3226
-15.2639 7.0732 2.3226
-15.4397 6.7063 2.3226
-15.6068 6.3350 2.3226
-11.5984 4.3845 1.7087
-11.5129 4.0370 1.6802
-11.7614 3.8075 1.7015
-16.1856 4.8109 2.3226
-16.3074 4.4211 2.3226
-12.4755 3.0607 1.7646
-12.3984 2.7259 1.7428
-16.6168 3.2344 2.3226
-16.7009 2.8337 2.3226
-16.7754 2.4309 2.3226
-16.8402 2.0261 2.3226
-16.8953 1.6197 2.3226
-16.9406 1.2117 2.3226
-16.9761 0.8026 2.3226
-17.0017 0.3924 2.3226
-17.0174 -0.0186 2.3226
-17.0232 -0.4301 2.3226
-17.0190 -0.8418 2.3226
-17.0049 -1.2536 2.3226
-16.9808 -1.6652 2.3226
-16.9466 -2.0764 2.3226
-16.9025 -2.4868 2.3226
-16.8485 -2.8964 2.3226
-16.7844 -3.3048 2.3226
-16.7104 -3.7117 2.3226
-16.6265 -4.1170 2.3226
-16.5327 -4.5204 2.3226
-16.4290 -4.9216 2.3226
-16.3156 -5.3204 2.3226
-16.1923 -5.7166 2.3226
-13.2158 -5.0280 1.9113
-13.2286 -5.4022 1.9303
-5.7109 -2.4948 0.8414
-5.6565 -2.6356 0.8420
-5.5985 -2.7751 0.8426
-5.5370 -2.9133 0.8432
-5.4721 -3.0501 0.8438
-5.4036 -3.1855 0.8444
-5.3318 -3.3192 0.8450
-5.2565 -3.4513 0.8455
-5.1779 -3.5817 0.8461
-5.0960 -3.7101 0.8467
-5.0108 -3.8367 0.8472
-4.9224 -3.9612 0.8478
-4.4481 -3.7604 0.8470
-4.3605 -3.8707 0.8474
-4.2700 -3.9789 0.8479
-4.1768 -4.0849 0.8484
-4.0809 -4.1887 0.8488
-3.9822 -4.2901 0.8493
-3.8810 -4.3890 0.8497
-3.7772 -4.4855 0.8502
-3.6710 -4.5794 0.8506
-3.6189 -4.7449 0.8645
-3.6124 -4.9813 0.8911
-3.6053 -5.2331 0.9200
-3.5978 -5.5021 0.9514
-3.5898 -5.7905 0.9856
-3.5812 -6.1008 1.0231
-8.0663 -14.5347 2.4034
-7.7158 -14.7308 2.4037
-7.3605 -14.9183 2.4039
-7.0004 -15.0970 2.4041
-6.6360 -15.2669 2.4044
-6.2674 -15.4277 2.4046
-5.8948 -15.5794 2.4048
-5.5184 -15.7218 2.4051
-5.1386 -15.8550 2.4053
-4.7554 -15.9787 2.4055
-4.3689 -16.0916 2.4056
-3.9791 -16.1929 2.4053
-3.5869 -16.2846 2.4051
-3.1926 -16.3664 2.4048
-2.7963 -16.4383 2.4045
-2.3984 -16.5006 2.4042
-1.9991 -16.5529 2.4040
-1.5987 -16.5953 2.4037
-1.1973 -16.6279 2.4034
-0.7953 -16.6505 2.4032
-0.3929 -16.6632 2.4029
0.0096 -16.6658 2.4026
0.4066 -16.4373 2.3705
0.7794 -15.9302 2.2995
1.1638 -15.9059 2.2995
1.5475 -15.8720 2.2995
1.9302 -15.8287 2.2995
2.3117 -15.7759 2.2995
2.6917 -15.7136 2.2995
3.0700 -15.6420 2.2995
3.4464 -15.5610 2.2995
3.8206 -15.4708 2.2995
4.1924 -15.3714 2.2995
4.5616 -15.2628 2.2995
4.9279 -15.1451 2.2995
5.2911 -15.0184 2.2995
5.6831 -14.9675 2.3126
6.0415 -14.8223 2.3126
6.8385 -15.6830 2.4726
6.9056 -14.8474 2.3671
6.9880 -14.1222 2.2784
7.0055 -13.3370 2.1790
7.1398 -12.8301 2.1245
6.6813 -11.3520 1.9065
6.7058 -10.7888 1.8392
6.9205 -10.5567 1.8282
6.9957 -10.1290 1.7835
7.0856 -9.7471 1.7466
6.2956 -8.2346 1.5029
6.3383 -7.8880 1.4678
5.8413 -6.9203 1.3141
5.6691 -6.3961 1.2408
5.6397 -6.0614 1.2024
5.6535 -5.7894 1.1757
5.6982 -5.5599 1.1573
5.7642 -5.3587 1.1446
5.7928 -5.1301 1.1259
5.8180 -4.9068 1.1079
5.8422 -4.6904 1.0911
5.9322 -4.5315 1.0877
6.1116 -4.4389 1.1012
6.2949 -4.3437 1.1156
6.5121 -4.2651 1.1361
6.8147 -4.2317 1.1713
7.0457 -4.1427 1.1941
7.2238 -4.0158 1.2081
7.5038 -3.9372 1.2393
6.9198 -3.4202 1.1295
6.7654 -3.1429 1.0922
6.5697 -2.8611 1.0498
6.4002 -2.6052 1.0129
6.3654 -2.4135 0.9985
2.9788 -1.0478 0.4634
2.9672 -0.9638 0.4581
3.0252 -0.9025 0.4638
6.9894 -1.9025 1.0649
7.4556 -1.8371 1.1295
6.8611 -1.5158 1.0342
7.4791 -1.4637 1.1224
7.8796 -1.3453 1.1780
6.9650 -1.0166 1.0379
6.8973 -0.8371 1.0251
6.8883 -0.6676 1.0217
6.8794 -0.4992 1.0189
6.8947 -0.3331 1.0203
6.9013 -0.1664 1.0210
6.9076 0.0004 1.0223
6.9141 0.1675 1.0242
6.9173 0.3350 1.0262
6.9183 0.5028 1.0285
6.9195 0.6714 1.0314
6.9429 0.8434 1.0382
6.9743 1.0188 1.0469
6.7003 1.1448 1.0103
6.5164 1.2762 0.9875
6.8678 1.5182 1.0466
7.0536 1.7391 1.0816
6.6205 1.8031 1.0222
4.8160 1.4375 0.7492
4.3433 1.4116 0.6811
4.2388 1.4919 0.6706
4.1112 1.5596 0.6565
3.9734 1.6182 0.6410
3.8419 1.6740 0.6264
3.8510 1.7900 0.6351
4.6062 2.2779 0.7689
4.5337 2.3802 0.7666
4.4616 2.4817 0.7648
4.3898 2.5826 0.7633
4.3181 2.6830 0.7623
4.2466 2.7830 0.7617
4.1750 2.8828 0.7615
5.0098 3.6411 0.9300
6.2747 4.7964 1.1866
6.1388 4.9321 1.1836
5.9933 5.0584 1.1794
5.8620 5.1953 1.1784
5.7502 5.3500 1.1821
5.6471 5.5147 1.1885
5.5349 5.6728 1.1939
5.4717 5.8863 1.2111
5.4199 6.1208 1.2325
5.3993 6.4029 1.2631
5.4386 6.7754 1.3108
5.4492 7.1353 1.3550
5.4573 7.5158 1.4022
5.6909 8.2500 1.5136
5.7367 8.7622 1.5822
5.9980 9.6633 1.7187
6.7806 11.5375 2.0229
6.6959 12.0513 2.0846
6.4804 12.3580 2.1105
6.1809 12.5135 2.1114
5.9555 12.8293 2.1403
5.7296 13.1670 2.1734
5.4317 13.3562 2.1828
5.1049 13.4775 2.1822
4.8724 13.8667 2.2259
4.6845 14.4389 2.2993
4.3333 14.5456 2.2993
3.9798 14.6439 2.2993
3.6241 14.7339 2.2993
3.2664 14.8154 2.2993
2.9070 14.8885 2.2993
2.5460 14.9531 2.2993
2.1835 15.0091 2.2993
1.8199 15.0566 2.2993
1.5206 15.7733 2.4026
1.1388 15.8049 2.4026
0.7563 15.8275 2.4026
0.3734 15.8411 2.4026
-0.0096 15.8457 2.4026
-0.3928 15.8412 2.4026
-0.7757 15.8277 2.4026
-1.1582 15.8051 2.4026
-1.5401 15.7735 2.4026
-1.9211 15.7330 2.4026
-2.3011 15.6834 2.4026
-2.6799 15.6249 2.4026
-3.0573 15.5575 2.4026
-3.4330 15.4811 2.4026
-3.8068 15.3960 2.4026
-4.1786 15.3020 2.4026
-4.5482 15.1992 2.4026
-4.9153 15.0877 2.4026
-5.2797 14.9676 2.4026
-5.6412 14.8388 2.4026
-5.9997 14.7015 2.4026
-6.2575 14.3325 2.3657
-6.4394 13.8276 2.3068
-6.7521 13.6282 2.2995
-7.0817 13.4649 2.2995
-7.4073 13.2937 2.2995
-7.7289 13.1148 2.2995
-8.0463 12.9283 2.2995
-6.6594 10.1446 1.8319
-8.6677 12.5328 2.2995
-8.9714 12.3240 2.2995
-9.2701 12.1081 2.2995
-9.5638 11.8850 2.2995
-9.8522 11.6549 2.2995
-10.1351 11.4179 2.2995
-10.5171 11.2865 2.3226
-10.7914 11.0336 2.3226
-11.0598 10.7742 2.3226
-11.3220 10.5084 2.3226
-11.5780 10.2364 2.3226
-11.8276 9.9581 2.3226
-12.0705 9.6739 2.3226
-12.3068 9.3838 2.3226
-12.5362 9.0881 2.3226
-12.7586 8.7868 2.3226
-12.9738 8.4802 2.3226
-13.1818 8.1684 2.3226
-13.3824 7.8515 2.3226
-13.5755 7.5298 2.3226
-13.7609 7.2033 2.3226
-13.9386 6.8724 2.3226
-14.1084 6.5371 2.3226
-14.2702 6.1976 2.3226
-14.4240 5.8542 2.3226
-11.5966 4.3833 1.8487
-11.5118 4.0361 1.8180
-11.7521 3.8040 1.8398
-14.9561 4.4448 2.3226
-15.0680 4.0845 2.3226
-12.4723 3.0593 1.9094
-12.3972 2.7251 1.8861
-15.3517 2.9875 2.3226
-15.4286 2.6172 2.3226
-15.4967 2.2450 2.3226
-15.5558 1.8710 2.3226
-15.6059 1.4954 2.3226
-15.6470 1.1185 2.3226
-15.6790 0.7406 2.3226
-15.7019 0.3617 2.3226
-15.7157 -0.0178 2.3226
-15.7202 -0.3978 2.3226
-15.7156 -0.7780 2.3226
-15.7017 -1.1582 2.3226
-15.6787 -1.5382 2.3226
-15.6464 -1.9177 2.3226
-15.6049 -2.2966 2.3226
-15.5543 -2.6746 2.3226
-15.4944 -3.0514 2.3226
-15.4253 -3.4269 2.3226
-15.3471 -3.8008 2.3226
-5.5000 -1.5040 0.8371
-5.4691 -1.6386 0.8377
-5.4348 -1.7725 0.8383
-5.3973 -1.9057 0.8389
-5.3564 -2.0381 0.8394
-5.3122 -2.1696 0.8400
-5.2647 -2.3001 0.8406
-5.2140 -2.4296 0.8411
-5.1601 -2.5580 0.8417
-5.1029 -2.6851 0.8423
-5.0425 -2.8109 0.8428
-4.9789 -2.9354 0.8433
-4.9123 -3.0583 0.8439
-4.8425 -3.1797 0.8444
-4.7696 -3.2994 0.8449
-4.6937 -3.4175 0.8455
-4.6148 -3.5337 0.8460
-4.5329 -3.6480 0.8465
-4.1207 -3.4838 0.8458
-4.0392 -3.5858 0.8462
-3.9551 -3.6857 0.8467
-3.8685 -3.7836 0.8471
-3.7794 -3.8794 0.8475
-3.6878 -3.9731 0.8480
-3.6365 -4.1128 0.8584
-3.6310 -4.3121 0.8812
-3.6251 -4.5224 0.9057
-3.6189 -4.7451 0.9322
-3.6123 -4.9816 0.9609
-3.6053 -5.2334 0.9920
-3.5978 -5.5024 1.0259
-3.5898 -5.7908 1.0629
-3.5812 -6.1011 1.1033
-7.4787 -13.4766 2.4031
-7.1536 -13.6582 2.4033
-6.8240 -13.8317 2.4036
-6.4901 -13.9971 2.4038
-6.1521 -14.1543 2.4040
-5.8103 -14.3031 2.4042
-5.4648 -14.4434 2.4045
-5.1158 -14.5753 2.4047
-4.7636 -14.6986 2.4049
-4.4083 -14.8131 2.4052
-4.0503 -14.9188 2.4054
-3.6897 -15.0156 2.4056
-3.3261 -15.1012 2.4055
-2.9604 -15.1770 2.4052
-2.5930 -15.2438 2.4050
-2.2240 -15.3015 2.4047
-1.8538 -15.3499 2.4044
-1.4824 -15.3892 2.4042
-1.1103 -15.4193 2.4039
-0.7375 -15.4402 2.4036
-0.3644 -15.4520 2.4034
0.0089 -15.4545 2.4031
0.3821 -15.4478 2.4029
0.7549 -15.4319 2.4026
1.1083 -15.1479 2.3620
1.4347 -14.7157 2.2995
1.7895 -14.6756 2.2995
2.1432 -14.6267 2.2995
2.4956 -14.5692 2.2995
2.8463 -14.5029 2.2995
3.1953 -14.4280 2.2995
3.5423 -14.3445 2.2995
3.8871 -14.2525 2.2995
4.2294 -14.1519 2.2995
4.5691 -14.0430 2.2995
4.9059 -13.9258 2.2995
5.2397 -13.8003 2.2995
5.5702 -13.6666 2.2995
5.9308 -13.6019 2.3126
6.6883 -14.3808 2.4724
6.9734 -14.0932 2.4519
7.0259 -13.3765 2.3567
6.7653 -12.1577 2.1707
6.5457 -11.1221 2.0141
6.6316 -10.6699 1.9612
6.8555 -10.4580 1.9528
7.0223 -10.1680 1.9304
7.1125 -9.7845 1.8903
6.2805 -8.2152 1.6166
6.3363 -7.8859 1.5820
5.7153 -6.7713 1.3862
5.6423 -6.3663 1.3314
5.6158 -6.0362 1.2908
5.6361 -5.7718 1.2636
5.6934 -5.5555 1.2465
5.7284 -5.3258 1.2262
5.7565 -5.0983 1.2060
5.7821 -4.8769 1.1869
5.8067 -4.6623 1.1690
5.8698 -4.4842 1.1601
6.0441 -4.3902 1.1737
6.2245 -4.2954 1.1888
6.4340 -4.2143 1.2097
6.7593 -4.1976 1.2520
7.0136 -4.1241 1.2809
7.1904 -3.9976 1.2958
7.4104 -3.8886 1.3188
6.9161 -3.4187 1.2164
6.7725 -3.1465 1.1781
6.6116 -2.8796 1.1383
6.4676 -2.6329 1.1028
6.4186 -2.4339 1.0846
2.9785 -1.0478 0.4992
2.9669 -0.9639 0.4934
3.0246 -0.9025 0.4995
6.9697 -1.8974 1.1438
7.4572 -1.8378 1.2169
6.7575 -1.4932 1.0971
7.4537 -1.4591 1.2047
7.3287 -1.2516 1.1800
6.9519 -1.0150 1.1157
6.8982 -0.8375 1.1041
6.8927 -0.6683 1.1009
6.8838 -0.4999 1.0979
6.8998 -0.3337 1.0994
6.9194 -0.1672 1.1022
6.9318 0.0001 1.1045
6.9384 0.1678 1.1065
6.9419 0.3359 1.1087
6.9430 0.5043 1.1111
6.9686 0.6758 1.1181
6.9998 0.8501 1.1267
7.0319 1.0269 1.1362
7.0696 1.2076 1.1473
6.6266 1.2975 1.0808
6.9511 1.5363 1.1400
6.5548 1.6158 1.0817
6.4929 1.7681 1.0788
6.4304 1.9191 1.0764
4.3460 1.4123 0.7334
4.2109 1.4819 0.7168
4.0691 1.5434 0.6992
3.9337 1.6019 0.6827
3.8044 1.6575 0.6674
3.8532 1.7908 0.6837
4.5897 2.2696 0.8243
4.5176 2.3715 0.8218
4.4458 2.4727 0.8198
4.3641 2.5673 0.8163
4.3029 2.6733 0.8171
4.2294 2.7716 0.8160
4.1442 2.8613 0.8130
4.9852 3.6229 0.9954
6.2548 4.7809 1.2722
6.0902 4.8927 1.2629
5.9595 5.0295 1.2612
5.8289 5.1657 1.2601
5.7094 5.3117 1.2622
5.6178 5.4857 1.2714
5.5117 5.6488 1.2784
5.4441 5.8562 1.2957
5.4080 6.1071 1.3224
5.3863 6.3872 1.3549
5.3921 6.7171 1.3973
5.4015 7.0725 1.4441
5.4091 7.4491 1.4944
5.6796 8.2332 1.6241
5.7432 8.7717 1.7030
6.1303 9.8760 1.8886
6.7678 11.5153 2.1707
6.7377 12.1259 2.2550
6.5293 12.4506 2.2860
6.2275 12.6072 2.2869
5.9463 12.8089 2.2973
5.6388 12.9578 2.2993
5.3228 13.0877 2.2993
5.0039 13.2100 2.2993
4.6822 13.3248 2.2993
4.3579 13.4319 2.2993
4.0313 13.5313 2.2993
3.7025 13.6229 2.2993
3.3716 13.7068 2.2993
3.0389 13.7827 2.2993
2.7045 13.8508 2.2993
2.3686 13.9110 2.2993
2.0314 13.9632 2.2993
1.7692 14.6364 2.4026
1.4147 14.6742 2.4026
1.0595 14.7037 2.4026
0.7037 14.7247 2.4026
0.3474 14.7374 2.4026
-0.0090 14.7416 2.4026
-0.3654 14.7374 2.4026
-0.7216 14.7248 2.4026
-1.0775 14.7038 2.4026
-1.4328 14.6743 2.4026
-1.7873 14.6365 2.4026
-2.1408 14.5903 2.4026
-2.4932 14.5358 2.4026
-2.8443 14.4729 2.4026
-3.1938 14.4018 2.4026
-3.5416 14.3224 2.4026
-3.8874 14.2348 2.4026
-4.2311 14.1390 2.4026
-4.5725 14.0351 2.4026
-4.9115 13.9231 2.4026
-5.2477 13.8031 2.4026
-5.5811 13.6752 2.4026
-5.9115 13.5394 2.4026
-6.2386 13.3958 2.4026
-6.2807 12.6761 2.2995
-6.5871 12.5239 2.2995
-6.8899 12.3645 2.2995
-7.1889 12.1978 2.2995
-7.4840 12.0241 2.2995
-6.6598 10.1447 1.9697
-8.0616 11.6557 2.2995
-8.3438 11.4612 2.2995
-8.6214 11.2601 2.2995
-8.8942 11.0523 2.2995
-9.1622 10.8381 2.2995
-9.4251 10.6174 2.2995
-9.6827 10.3905 2.2995
-9.9350 10.1574 2.2995
-10.1818 9.9183 2.2995
-10.5276 9.7705 2.3226
-10.7652 9.5172 2.3226
-10.9969 9.2582 2.3226
-11.2225 8.9936 2.3226
-11.4418 8.7237 2.3226
-11.6546 8.4484 2.3226
-11.8610 8.1681 2.3226
-12.0606 7.8827 2.3226
-12.2536 7.5926 2.3226
-12.4396 7.2977 2.3226
-12.6186 6.9984 2.3226
-12.7905 6.6947 2.3226
-12.9552 6.3869 2.3226
-13.1125 6.0750 2.3226
-13.2624 5.7593 2.3226
-13.4047 5.4400 2.3226
-11.5947 4.3821 1.9890
-11.5108 4.0352 1.9562
-11.7428 3.8005 1.9784
-13.8971 4.1295 2.3226
-14.0005 3.7945 2.3226
-12.4691 3.0580 2.0546
-12.3959 2.7243 2.0299
-14.2622 2.7749 2.3226
-14.3331 2.4308 2.3226
-14.3958 2.0849 2.3226
-14.4501 1.7374 2.3226
-14.4960 1.3884 2.3226
-14.5336 1.0383 2.3226
-14.5627 0.6873 2.3226
-14.5833 0.3353 2.3226
-14.5955 -0.0171 2.3226
-14.5991 -0.3700 2.3226
-14.5942 -0.7231 2.3226
-14.5807 -1.0761 2.3226
-14.5587 -1.4289 2.3226
-14.5281 -1.7812 2.3226
-14.4890 -2.1329 2.3226
-14.4413 -2.4838 2.3226
-14.3851 -2.8336 2.3226
-14.3204 -3.1821 2.3226
-14.2472 -3.5290 2.3226
-5.2934 -1.4478 0.8679
-5.0739 -1.5204 0.8372
-5.0416 -1.6445 0.8378
-5.0063 -1.7679 0.8383
-4.9679 -1.8905 0.8388
-4.9265 -2.0123 0.8394
-4.8821 -2.1332 0.8399
-4.8346 -2.2530 0.8404
-4.7841 -2.3718 0.8409
-4.7307 -2.4895 0.8414
-4.6743 -2.6059 0.8420
-4.6150 -2.7210 0.8425
-4.5528 -2.8348 0.8430
-4.4878 -2.9470 0.8434
-4.4199 -3.0578 0.8439
-4.3492 -3.1669 0.8444
-4.2758 -3.2743 0.8449
-4.1996 -3.3800 0.8453
-3.8373 -3.2444 0.8448
-3.7611 -3.3391 0.8452
-3.6826 -3.4319 0.8456
-3.6516 -3.5717 0.8577
-3.6468 -3.7436 0.8773
-3.6418 -3.9238 0.8983
-3.6365 -4.1130 0.9209
-3.6310 -4.3123 0.9453
-3.6251 -4.5227 0.9716
-3.6189 -4.7454 1.0000
-3.6123 -4.9818 1.0309
-3.6053 -5.2336 1.0643
-3.5978 -5.5026 1.1007
-3.5898 -5.7910 1.1404
-3.5811 -6.1013 1.1838
-6.9696 -12.5596 2.4029
-6.6665 -12.7286 2.4031
-6.3592 -12.8901 2.4033
-6.0480 -13.0440 2.4036
-5.7329 -13.1902 2.4038
-5.4143 -13.3287 2.4040
-5.0922 -13.4593 2.4042
-4.7669 -13.5820 2.4045
-4.4387 -13.6965 2.4047
-4.1076 -13.8030 2.4049
-3.7739 -13.9014 2.4051
-3.4379 -13.9915 2.4054
-3.0996 -14.0733 2.4056
-2.7590 -14.1450 2.4055
-2.4166 -14.2072 2.4053
-2.0727 -14.2609 2.4050
-1.7277 -14.3061 2.4048
-1.3816 -14.3427 2.4045
-1.0347 -14.3709 2.4043
-0.6873 -14.3904 2.4040
-0.3396 -14.4013 2.4037
0.0083 -14.4037 2.4035
0.3561 -14.3974 2.4032
0.7036 -14.3826 2.4030
1.0505 -14.3592 2.4027
1.3968 -14.3280 2.4026
1.6791 -13.7707 2.3154
2.0117 -13.7302 2.3163
2.3255 -13.5769 2.2995
2.6524 -13.5153 2.2995
2.9776 -13.4456 2.2995
3.3010 -13.3679 2.2995
3.6223 -13.2823 2.2995
3.9414 -13.1888 2.2995
4.2580 -13.0875 2.2995
4.5719 -12.9784 2.2995
4.8830 -12.8616 2.2995
5.1911 -12.7372 2.2995
5.4960 -12.6053 2.2995
5.7974 -12.4659 2.2995
6.5293 -13.1964 2.4632
6.8014 -12.9498 2.4478
6.6189 -11.8953 2.2786
6.4162 -10.9027 2.1182
6.5587 -10.5531 2.0810
6.7812 -10.3452 2.0724
7.0036 -10.1415 2.0655
7.1245 -9.8015 2.0314
6.2948 -8.2343 1.7382
5.8687 -7.3043 1.5719
5.6753 -6.7243 1.4767
5.6357 -6.3591 1.4265
5.6167 -6.0375 1.3849
5.6186 -5.7543 1.3512
5.6611 -5.5244 1.3294
5.6930 -5.2931 1.3070
5.7205 -5.0667 1.2854
5.7466 -4.8472 1.2651
5.7727 -4.6353 1.2464
5.8478 -4.4676 1.2394
5.9811 -4.3448 1.2456
6.1554 -4.2481 1.2608
6.3607 -4.1666 1.2824
6.7045 -4.1639 1.3316
6.9816 -4.1057 1.3672
7.1573 -3.9795 1.3830
7.3547 -3.8597 1.4034
6.9315 -3.4266 1.3071
6.7865 -3.1533 1.2657
6.6679 -2.9044 1.2307
6.5388 -2.6622 1.1953
6.4577 -2.4490 1.1699
2.9782 -1.0479 0.5350
2.9666 -0.9639 0.5289
3.0240 -0.9024 0.5354
6.9484 -1.8919 1.2223
7.4588 -1.8385 1.3046
7.3706 -1.6290 1.2826
7.4284 -1.4544 1.2868
7.2708 -1.2420 1.2546
6.9389 -1.0134 1.1934
6.8962 -0.8375 1.1828
6.8956 -0.6688 1.1802
6.8882 -0.5005 1.1772
6.9048 -0.3342 1.1789
6.9245 -0.1676 1.1819
6.9443 -0.0002 1.1856
6.9628 0.1681 1.1897
6.9669 0.3368 1.1921
6.9951 0.5078 1.1993
7.0260 0.6811 1.2077
7.0575 0.8568 1.2169
7.0893 1.0350 1.2270
7.1295 1.2176 1.2394
6.7411 1.3196 1.1776
7.2084 1.5929 1.2663
6.4300 1.5848 1.1365
6.3697 1.7343 1.1335
5.4240 1.6186 0.9724
4.3133 1.4015 0.7795
4.1670 1.4662 0.7596
4.0277 1.5276 0.7411
3.8947 1.5858 0.7238
3.9485 1.7202 0.7417
4.6455 2.1589 0.8826
4.5733 2.2613 0.8794
4.5015 2.3628 0.8768
4.4300 2.4637 0.8746
4.3038 2.5316 0.8619
4.2876 2.6637 0.8717
4.2106 2.7590 0.8697
4.1258 2.8484 0.8665
4.9607 3.6049 1.0603
6.1987 4.7376 1.3496
6.0462 4.8570 1.3421
5.9259 5.0009 1.3424
5.7961 5.1363 1.3412
5.6690 5.2738 1.3415
5.5778 5.4463 1.3512
5.4850 5.6210 1.3617
5.4357 5.8469 1.3846
5.4117 6.1108 1.4162
5.3835 6.3836 1.4493
5.3704 6.6897 1.4894
5.3545 7.0106 1.5320
5.3617 7.3835 1.5852
5.6683 8.2164 1.7346
5.7583 8.7944 1.8272
6.3920 10.2971 2.1072
6.4601 10.9913 2.2172
6.3889 11.4977 2.2881
6.3111 12.0340 2.3643
5.8515 11.8455 2.2993
5.5622 11.9810 2.2993
5.2699 12.1095 2.2993
4.9746 12.2311 2.2993
4.6766 12.3456 2.2993
4.3760 12.4530 2.2993
4.0730 12.5532 2.2993
3.7678 12.6463 2.2993
3.4605 12.7320 2.2993
3.1513 12.8105 2.2993
2.8403 12.8816 2.2993
2.5278 12.9453 2.2993
2.2139 13.0016 2.2993
1.8987 13.0505 2.2993
1.6536 13.6797 2.4026
1.3223 13.7151 2.4026
0.9903 13.7427 2.4026
0.6577 13.7624 2.4026
0.3247 13.7742 2.4026
-0.0084 13.7781 2.4026
-0.3416 13.7742 2.4026
-0.6745 13.7624 2.4026
-1.0071 13.7426 2.4026
-1.3392 13.7151 2.4026
-1.6705 13.6797 2.4026
-2.0010 13.6364 2.4026
-2.3303 13.5854 2.4026
-2.6584 13.5265 2.4026
-2.9850 13.4599 2.4026
-3.3101 13.3856 2.4026
-3.6333 13.3036 2.4026
-3.9545 13.2139 2.4026
-4.2735 13.1166 2.4026
-4.5902 13.0118 2.4026
-4.9044 12.8996 2.4026
-5.2160 12.7798 2.4026
-5.5246 12.6527 2.4026
-5.8302 12.5183 2.4026
-6.1326 12.3766 2.4026
-6.2175 11.8206 2.3226
-6.4386 11.5539 2.2995
-6.7178 11.3980 2.2995
-6.9934 11.2354 2.2995
-6.6602 10.1448 2.1080
-7.5329 10.8907 2.2995
-7.7964 10.7088 2.2995
-8.0556 10.5206 2.2995
-8.3104 10.3262 2.2995
-8.5605 10.1258 2.2995
-8.8060 9.9194 2.2995
-9.0464 9.7071 2.2995
-9.2819 9.4892 2.2995
-9.5122 9.2655 2.2995
-9.7372 9.0364 2.2995
-9.9568 8.8019 2.2995
-10.1708 8.5621 2.2995
-10.4833 8.4007 2.3226
-10.6879 8.1483 2.3226
-10.8864 7.8910 2.3226
-11.0788 7.6288 2.3226
-11.2650 7.3621 2.3226
-11.4448 7.0909 2.3226
-11.6182 6.8153 2.3226
-11.7850 6.5355 2.3226
-11.9451 6.2517 2.3226
-12.0985 5.9640 2.3226
-12.2450 5.6726 2.3226
-12.3846 5.3776 2.3226
-12.5171 5.0792 2.3226
-11.5929 4.3809 2.1298
-11.5097 4.0344 2.0949
-11.7335 3.7970 2.1172
-12.9750 3.8549 2.3226
-13.0711 3.5420 2.3226
-12.4659 3.0567 2.2002
-12.3947 2.7235 2.1742
-13.3141 2.5898 2.3226
-13.3798 2.2685 2.3226
-13.4378 1.9456 2.3226
-13.4880 1.6211 2.3226
-13.5304 1.2954 2.3226
-13.5649 0.9686 2.3226
-13.5916 0.6409 2.3226
-13.6103 0.3124 2.3226
-13.6211 -0.0166 2.3226
-13.6240 -0.3459 2.3226
-13.6189 -0.6753 2.3226
-13.6059 -1.0047 2.3226
-13.5848 -1.3339 2.3226
-13.5558 -1.6626 2.3226
-13.5188 -1.9907 2.3226
-13.4738 -2.3179 2.3226
-13.4209 -2.6442 2.3226
-13.3600 -2.9692 2.3226
-13.2913 -3.2928 2.3226
-5.2914 -1.4474 0.9300
-4.7838 -1.4337 0.8462
-4.7003 -1.5334 0.8373
-4.6670 -1.6483 0.8378
-4.6309 -1.7624 0.8383
-4.5919 -1.8758 0.8388
-4.5501 -1.9883 0.8393
-4.5056 -2.0999 0.8398
-4.4582 -2.2105 0.8403
-4.4081 -2.3199 0.8407
-4.3552 -2.4282 0.8412
-4.2997 -2.5353 0.8417
-4.2414 -2.6411 0.8421
-4.1805 -2.7454 0.8426
-4.1170 -2.8484 0.8431
-4.0509 -2.9498 0.8435
-3.9822 -3.0497 0.8439
-3.9110 -3.1479 0.8444
-3.6648 -3.0987 0.8616
-3.6606 -3.2500 0.8785
-3.6562 -3.4075 0.8966
-3.6516 -3.5719 0.9161
-3.6468 -3.7438 0.9370
-3.6418 -3.9240 0.9594
-3.6365 -4.1132 0.9836
-3.6310 -4.3125 1.0097
-3.6251 -4.5229 1.0378
-3.6189 -4.7456 1.0682
-3.6123 -4.9821 1.1011
-3.6053 -5.2338 1.1369
-3.5978 -5.5029 1.1758
-3.5898 -5.7913 1.2182
-3.5811 -6.1016 1.2646
-6.5240 -11.7572 2.4028
-6.2401 -11.9151 2.4030
-5.9524 -12.0660 2.4032
-5.6609 -12.2099 2.4034
-5.3660 -12.3465 2.4037
-5.0677 -12.4760 2.4039
-4.7662 -12.5980 2.4041
-4.4617 -12.7127 2.4043
-4.1544 -12.8198 2.4045
-3.8445 -12.9193 2.4048
-3.5321 -13.0112 2.4050
-3.2176 -13.0954 2.4052
-2.9010 -13.1718 2.4054
-2.5825 -13.2405 2.4056
-2.2620 -13.2991 2.4055
-1.9402 -13.3494 2.4052
-1.6172 -13.3917 2.4050
-1.2932 -13.4260 2.4047
-0.9686 -13.4523 2.4045
-0.6434 -13.4706 2.4042
-0.3179 -13.4809 2.4040
0.0077 -13.4832 2.4038
0.3333 -13.4775 2.4035
0.6586 -13.4637 2.4033
0.9834 -13.4420 2.4030
1.3075 -13.4122 2.4028
1.6307 -13.3746 2.4026
1.8957 -12.9392 2.3321
2.2019 -12.8559 2.3262
2.4826 -12.6506 2.2995
2.7870 -12.5855 2.2995
3.0897 -12.5129 2.2995
3.3905 -12.4328 2.2995
3.6892 -12.3454 2.2995
3.9856 -12.2507 2.2995
4.2795 -12.1488 2.2995
4.5707 -12.0396 2.2995
4.8592 -11.9233 2.2995
5.1446 -11.8000 2.2995
5.4269 -11.6698 2.2995
5.7058 -11.5326 2.2995
5.9812 -11.3887 2.2995
6.3878 -11.4806 2.3491
6.3524 -10.7948 2.2401
6.5318 -10.5104 2.2138
6.7554 -10.3064 2.2052
6.9830 -10.1123 2.1998
7.1256 -9.8036 2.1701
6.2937 -8.2334 1.8562
5.7120 -7.1097 1.6341
5.6391 -6.6818 1.5671
5.6318 -6.3551 1.5225
5.6196 -6.0410 1.4798
5.6070 -5.7428 1.4401
5.6255 -5.4900 1.4109
5.6571 -5.2601 1.3870
5.6848 -5.0354 1.3641
5.7126 -4.8189 1.3430
5.7416 -4.6106 1.3237
5.8259 -4.4512 1.3185
5.9586 -4.3287 1.3251
6.0923 -4.2049 1.3324
6.3112 -4.1345 1.3586
6.6504 -4.1306 1.4103
6.9498 -4.0873 1.4531
7.1243 -3.9615 1.4698
7.3267 -3.8453 1.4926
6.9587 -3.4404 1.4009
6.8210 -3.1697 1.3580
6.7348 -2.9339 1.3270
6.6097 -2.6914 1.2897
6.4926 -2.4626 1.2555
2.9779 -1.0479 0.5711
2.9663 -0.9639 0.5645
3.0234 -0.9024 0.5713
6.9248 -1.8858 1.3002
7.4231 -1.8301 1.3857
7.3593 -1.6268 1.3667
7.4139 -1.4519 1.3706
7.1131 -1.2154 1.3098
6.9230 -1.0114 1.2706
6.8942 -0.8376 1.2619
6.8936 -0.6689 1.2590
6.8927 -0.5011 1.2569
6.9099 -0.3347 1.2589
6.9321 -0.1680 1.2624
6.9549 -0.0005 1.2668
6.9780 0.1682 1.2720
7.0191 0.3390 1.2813
7.0489 0.5114 1.2893
7.0795 0.6860 1.2982
7.1110 0.8630 1.3080
7.1544 1.0442 1.3209
7.2022 1.2297 1.3355
6.8600 1.3426 1.2783
7.2834 1.6092 1.3647
6.3095 1.5548 1.1895
6.2507 1.7016 1.1864
5.4250 1.6186 1.0373
4.2675 1.3864 0.8225
4.1238 1.4509 0.8017
3.9870 1.5119 0.7824
4.0466 1.6475 0.8020
3.9509 1.7210 0.7914
4.6289 2.1509 0.9378
4.5570 2.2530 0.9344
4.4855 2.3542 0.9315
4.4143 2.4547 0.9292
4.2450 2.4968 0.9064
4.2725 2.6540 0.9261
4.1919 2.7466 0.9231
4.1075 2.8355 0.9197
4.0602 2.9503 0.9252
6.1516 4.7014 1.4278
5.9976 4.8177 1.4193
5.8788 4.9608 1.4197
5.7636 5.1071 1.4217
5.6345 5.2413 1.4213
5.5382 5.4074 1.4301
5.4642 5.5994 1.4460
5.4314 5.8420 1.4747
5.4153 6.1146 1.5106
5.3808 6.3800 1.5440
5.3662 6.6841 1.5862
5.3277 6.9752 1.6247
5.3273 7.3357 1.6787
5.5222 8.0041 1.8010
5.8288 8.9016 1.9712
6.2545 10.0750 2.1975
6.1773 10.5095 2.2595
6.0802 10.9416 2.3207
5.7592 10.9811 2.2993
5.4908 11.1148 2.2993
5.2194 11.2421 2.2993
4.9451 11.3628 2.2993
4.6681 11.4770 2.2993
4.3885 11.5846 2.2993
4.1065 11.6855 2.2993
3.8222 11.7797 2.2993
3.5358 11.8671 2.2993
3.2474 11.9477 2.2993
2.9573 12.0214 2.2993
2.6654 12.0882 2.2993
2.3722 12.1480 2.2993
2.0776 12.2009 2.2993
1.8230 12.5294 2.3524
1.5518 12.8374 2.4026
1.2409 12.8706 2.4026
0.9293 12.8965 2.4026
0.6172 12.9150 2.4026
0.3047 12.9261 2.4026
-0.0079 12.9298 2.4026
-0.3206 12.9261 2.4026
-0.6330 12.9150 2.4026
-0.9452 12.8964 2.4026
-1.2568 12.8705 2.4026
-1.5678 12.8372 2.4026
-1.8778 12.7966 2.4026
-2.1869 12.7486 2.4026
-2.4948 12.6933 2.4026
-2.8013 12.6307 2.4026
-3.1063 12.5608 2.4026
-3.4095 12.4837 2.4026
-3.7109 12.3995 2.4026
-4.0103 12.3081 2.4026
-4.3075 12.2096 2.4026
-4.6022 12.1041 2.4026
-4.8945 11.9916 2.4026
-5.1841 11.8722 2.4026
-5.4708 11.7459 2.4026
-5.7544 11.6128 2.4026
-6.0350 11.4730 2.4026
-6.1985 11.1225 2.3593
-6.3033 10.6940 2.2995
-6.5617 10.5413 2.2995
-6.6606 10.1449 2.2469
-7.0676 10.2175 2.2995
-7.3147 10.0466 2.2995
-7.5578 9.8699 2.2995
-7.7966 9.6874 2.2995
-8.0312 9.4991 2.2995
-8.2612 9.3053 2.2995
-8.4867 9.1059 2.2995
-8.7074 8.9012 2.2995
-8.9232 8.6913 2.2995
-9.1341 8.4761 2.2995
-9.3398 8.2559 2.2995
-9.5403 8.0308 2.2995
-9.7355 7.8009 2.2995
-9.9252 7.5663 2.2995
-10.1093 7.3271 2.2995
-10.3910 7.1547 2.3226
-10.5653 6.9043 2.3226
-10.7336 6.6497 2.3226
-10.8960 6.3911 2.3226
-11.0521 6.1285 2.3226
-11.2020 5.8622 2.3226
-11.3455 5.5922 2.3226
-11.4825 5.3188 2.3226
-11.6131 5.0420 2.3226
-11.7370 4.7621 2.3226
-11.5910 4.3797 2.2710
-11.5086 4.0335 2.2341
-11.7289 3.7950 2.2573
-12.1649 3.6137 2.3226
-12.2546 3.3202 2.3226
-12.3372 3.0246 2.3226
-12.3934 2.7227 2.3190
-12.4812 2.4273 2.3226
-12.5424 2.1260 2.3226
-12.5963 1.8232 2.3226
-12.6430 1.5190 2.3226
-12.6823 1.2137 2.3226
-12.7143 0.9073 2.3226
-12.7389 0.6001 2.3226
-12.7560 0.2923 2.3226
-12.7658 -0.0161 2.3226
-12.7680 -0.3247 2.3226
-12.7628 -0.6334 2.3226
-12.7502 -0.9421 2.3226
-12.7300 -1.2505 2.3226
-12.7024 -1.5585 2.3226
-12.6673 -1.8658 2.3226
-12.6248 -2.1724 2.3226
-12.5748 -2.4780 2.3226
-12.5174 -2.7825 2.3226
-12.4526 -3.0856 2.3226
-5.2894 -1.4471 0.9923
-4.7821 -1.4334 0.9029
-4.4013 -1.4360 0.8369
-4.3698 -1.5435 0.8374
-4.3357 -1.6503 0.8379
-4.2989 -1.7563 0.8383
-4.2595 -1.8615 0.8388
-4.2175 -1.9658 0.8392
-4.1728 -2.0692 0.8397
-4.1257 -2.1715 0.8401
-4.0759 -2.2727 0.8406
-4.0237 -2.3727 0.8410
-3.9689 -2.4716 0.8414
-3.9117 -2.5691 0.8419
-3.8520 -2.6652 0.8423
-3.7899 -2.7600 0.8427
-3.7254 -2.8532 0.8431
-3.6689 -2.9532 0.8459
-3.6648 -3.0989 0.9167
-3.6606 -3.2502 0.9346
-3.6562 -3.4077 0.9539
-3.6516 -3.5721 0.9746
-3.6468 -3.7440 0.9969
-3.6418 -3.9242 1.0208
-3.6365 -4.1134 1.0466
-3.6310 -4.3127 1.0743
-3.6251 -4.5231 1.1042
-3.6189 -4.7458 1.1366
-3.6123 -4.9823 1.1717
-3.6053 -5.2341 1.2098
-3.5978 -5.5031 1.2512
-3.5898 -5.7915 1.2963
-3.5811 -6.1019 1.3457
-6.1307 -11.0489 2.4028
-5.8639 -11.1971 2.4030
-5.5934 -11.3388 2.4032
-5.3195 -11.4739 2.4035
-5.0422 -11.6022 2.4037
-4.7618 -11.7236 2.4039
-4.4785 -11.8382 2.4041
-4.1923 -11.9457 2.4043
-3.9035 -12.0463 2.4045
-3.6123 -12.1397 2.4047
-3.3188 -12.2259 2.4050
-3.0232 -12.3049 2.4052
-2.7257 -12.3766 2.4054
-2.4265 -12.4410 2.4056
-2.1255 -12.4965 2.4055
-1.8230 -12.5438 2.4053
-1.5195 -12.5836 2.4051
-1.2152 -12.6159 2.4048
-0.9101 -12.6407 2.4046
-0.6046 -12.6579 2.4044
-0.2987 -12.6677 2.4041
0.0073 -12.6699 2.4039
0.3132 -12.6646 2.4037
0.6188 -12.6517 2.4035
0.9240 -12.6314 2.4032
1.2286 -12.6036 2.4030
1.5323 -12.5682 2.4028
1.8350 -12.5255 2.4026
2.0781 -12.1340 2.3366
2.3326 -11.8871 2.2995
2.6187 -11.8260 2.2995
2.9031 -11.7578 2.2995
3.1858 -11.6828 2.2995
3.4665 -11.6007 2.2995
3.7450 -11.5118 2.2995
4.0212 -11.4161 2.2995
4.2950 -11.3137 2.2995
4.5660 -11.2046 2.2995
4.8343 -11.0889 2.2995
5.0996 -10.9666 2.2995
5.3618 -10.8378 2.2995
5.6207 -10.7027 2.2995
5.8761 -10.5613 2.2995
6.1279 -10.4138 2.2995
6.5069 -10.4709 2.3467
6.6539 -10.1521 2.3113
6.7637 -9.7952 2.2672
6.8657 -9.4465 2.2249
5.8739 -7.6846 1.8433
5.6426 -7.0237 1.7175
5.6155 -6.6542 1.6604
5.6283 -6.3516 1.6188
5.6226 -6.0445 1.5753
5.6022 -5.7382 1.5308
5.5902 -5.4559 1.4916
5.6213 -5.2271 1.4663
5.6509 -5.0057 1.4425
5.6793 -4.7911 1.4204
5.7260 -4.5984 1.4044
5.8092 -4.4388 1.3986
5.9361 -4.3127 1.4042
6.0692 -4.1892 1.4119
6.2637 -4.1037 1.4342
6.5970 -4.0978 1.4881
6.9181 -4.0690 1.5385
7.0959 -3.9461 1.5570
7.2989 -3.8311 1.5815
6.9977 -3.4600 1.4983
6.8561 -3.1863 1.4517
6.7919 -2.9591 1.4232
6.6790 -2.7199 1.3860
6.5705 -2.4924 1.3512
2.9776 -1.0479 0.6072
2.9660 -0.9640 0.6002
3.0228 -0.9023 0.6074
6.9158 -1.8837 1.3807
7.3830 -1.8205 1.4654
7.3454 -1.6240 1.4504
7.4080 -1.4511 1.4561
7.0823 -1.2104 1.3866
6.9304 -1.0127 1.3523
6.9036 -0.8390 1.3433
6.9041 -0.6702 1.3405
6.9125 -0.5028 1.3401
6.9336 -0.3362 1.3428
6.9561 -0.1689 1.3466
6.9790 -0.0008 1.3513
7.0273 0.1691 1.3617
7.0720 0.3413 1.3722
7.1023 0.5150 1.3807
7.1335 0.6909 1.3903
7.1789 0.8709 1.4035
7.2269 1.0545 1.4181
7.2765 1.2420 1.4340
7.3177 1.4319 1.4492
7.3610 1.6260 1.4658
6.1929 1.5258 1.2407
6.1356 1.6700 1.2375
6.0774 1.8130 1.2348
4.2224 1.3716 0.8648
4.0814 1.4357 0.8431
3.9469 1.4966 0.8229
4.0490 1.6483 0.8527
4.6843 2.0403 0.9970
4.6123 2.1430 0.9928
4.5407 2.2447 0.9892
4.4695 2.3456 0.9862
4.3986 2.4458 0.9837
4.3279 2.5454 0.9817
4.2574 2.6444 0.9803
4.1732 2.7341 0.9763
4.1164 2.8415 0.9792
4.0459 2.9397 0.9794
6.1069 4.6669 1.5057
5.9543 4.7826 1.4967
5.8266 4.9164 1.4945
5.7134 5.0624 1.4970
5.5993 5.2083 1.5002
5.5136 5.3830 1.5121
5.4468 5.5813 1.5309
5.4271 5.8370 1.5651
5.4124 6.1111 1.6035
5.3823 6.3815 1.6403
5.3619 6.6784 1.6833
5.3075 6.9483 1.7189
5.3064 7.3066 1.7757
5.5247 8.0074 1.9135
5.9261 9.0498 2.1283
5.9848 9.6402 2.2330
5.8907 10.0215 2.2882
5.6731 10.2085 2.2993
5.4234 10.3405 2.2993
5.1708 10.4665 2.2993
4.9152 10.5865 2.2993
4.6570 10.7003 2.2993
4.3962 10.8080 2.2993
4.1329 10.9094 2.2993
3.8673 11.0045 2.2993
3.5996 11.0933 2.2993
3.3299 11.1757 2.2993
3.0584 11.2516 2.2993
2.7851 11.3211 2.2993
2.5103 11.3841 2.2993
2.2341 11.4405 2.2993
1.9567 11.4904 2.2993
1.7535 12.0516 2.4026
1.4615 12.0899 2.4026
1.1687 12.1212 2.4026
0.8752 12.1456 2.4026
0.5813 12.1630 2.4026
0.2870 12.1735 2.4026
-0.0075 12.1769 2.4026
-0.3019 12.1734 2.4026
-0.5962 12.1629 2.4026
-0.8902 12.1455 2.4026
-1.1837 12.1210 2.4026
-1.4765 12.0896 2.4026
-1.7685 12.0513 2.4026
-2.0596 12.0060 2.4026
-2.3496 11.9539 2.4026
-2.6382 11.8948 2.4026
-2.9254 11.8290 2.4026
-3.2110 11.7563 2.4026
-3.4948 11.6768 2.4026
-3.7767 11.5907 2.4026
-4.0565 11.4978 2.4026
-4.3341 11.3983 2.4026
-4.6093 11.2923 2.4026
-4.8819 11.1797 2.4026
-5.1518 11.0606 2.4026
-5.4189 10.9351 2.4026
-5.6830 10.8033 2.4026
-5.9439 10.6652 2.4026
-6.1869 10.4962 2.3969
-6.1875 9.9397 2.3028
-6.4186 9.7758 2.2995
-6.6549 9.6204 2.2995
-6.8875 9.4593 2.2995
-7.1162 9.2928 2.2995
-7.3410 9.1207 2.2995
-7.5617 8.9433 2.2995
-7.7781 8.7606 2.2995
-7.9903 8.5728 2.2995
-8.1979 8.3799 2.2995
-8.4009 8.1820 2.2995
-8.5993 7.9793 2.2995
-8.7928 7.7719 2.2995
-8.9813 7.5598 2.2995
-9.1648 7.3431 2.2995
-9.3432 7.1221 2.2995
-9.5163 6.8968 2.2995
-9.6840 6.6674 2.2995
-9.8462 6.4339 2.2995
-10.0029 6.1965 2.2995
-10.2559 6.0151 2.3226
-10.4026 5.7679 2.3226
-10.5433 5.5170 2.3226
-10.6781 5.2628 2.3226
-10.8069 5.0053 2.3226
-10.9294 4.7447 2.3226
-11.0457 4.4811 2.3226
-11.1558 4.2147 2.3226
-11.2594 3.9456 2.3226
-11.3566 3.6740 2.3226
-11.4472 3.4000 2.3226
-11.5313 3.1238 2.3226
-11.6088 2.8455 2.3226
-11.6795 2.5653 2.3226
-11.7436 2.2833 2.3226
-11.8008 1.9998 2.3226
-11.8512 1.7149 2.3226
-11.8948 1.4286 2.3226
-11.9315 1.1413 2.3226
-11.9612 0.8531 2.3226
-11.9840 0.5641 2.3226
-11.9998 0.2744 2.3226
-12.0086 -0.0156 2.3226
-12.0104 -0.3059 2.3226
-12.0052 -0.5963 2.3226
-11.9929 -0.8866 2.3226
-11.9736 -1.1767 2.3226
-11.9473 -1.4663 2.3226
-11.9139 -1.7554 2.3226
-11.8736 -2.0437 2.3226
-11.8262 -2.3310 2.3226
-11.7719 -2.6173 2.3226
-11.7106 -2.9022 2.3226
-5.2874 -1.4468 1.0548
-4.7804 -1.4331 0.9599
-4.3567 -1.4216 0.8810
-4.1071 -1.4509 0.8370
-4.0748 -1.5512 0.8375
-4.0400 -1.6507 0.8379
-4.0027 -1.7495 0.8383
-3.9630 -1.8474 0.8388
-3.9209 -1.9444 0.8392
-3.8763 -2.0404 0.8396
-3.8294 -2.1354 0.8400
-3.7800 -2.2293 0.8404
-3.7284 -2.3220 0.8408
-3.6837 -2.4195 0.8433
-3.6802 -2.5466 0.8560
-3.6765 -2.6776 0.8697
-3.6727 -2.8131 0.8842
-3.6688 -2.9534 0.8999
-3.6648 -3.0991 0.9719
-3.6606 -3.2504 0.9910
-3.6562 -3.4079 1.0115
-3.6516 -3.5723 1.0335
-3.6468 -3.7442 1.0571
-3.6418 -3.9244 1.0825
-3.6365 -4.1136 1.1098
-3.6310 -4.3129 1.1392
-3.6251 -4.5233 1.1710
-3.6189 -4.7461 1.2053
-3.6123 -4.9825 1.2425
-3.6053 -5.2343 1.2829
-3.5978 -5.5034 1.3269
-3.5898 -5.7918 1.3748
-3.5811 -6.1022 1.4272
-5.7808 -10.4189 2.4029
-5.5292 -10.5585 2.4031
-5.2741 -10.6920 2.4033
-5.0157 -10.8191 2.4035
-4.7542 -10.9399 2.4037
-4.4898 -11.0543 2.4039
-4.2226 -11.1621 2.4041
-3.9527 -11.2634 2.4043
-3.6804 -11.3581 2.4045
-3.4058 -11.4461 2.4047
-3.1290 -11.5273 2.4050
-2.8503 -11.6017 2.4052
-2.5698 -11.6692 2.4054
-2.2877 -11.7298 2.4056
-2.0039 -11.7824 2.4056
-1.7188 -11.8270 2.4053
-1.4327 -11.8645 2.4051
-1.1457 -11.8950 2.4049
-0.8581 -11.9185 2.4047
-0.5700 -11.9348 2.4045
-0.2816 -11.9441 2.4043
0.0068 -11.9462 2.4041
0.2953 -11.9413 2.4038
0.5834 -11.9293 2.4036
0.8712 -11.9102 2.4034
1.1584 -11.8840 2.4032
1.4448 -11.8508 2.4030
1.7302 -11.8106 2.4028
2.0146 -11.7634 2.4026
2.1992 -11.2078 2.2995
2.4689 -11.1502 2.2995
2.7371 -11.0861 2.2995
3.0036 -11.0154 2.2995
3.2683 -10.9381 2.2995
3.5309 -10.8544 2.2995
3.7914 -10.7643 2.2995
4.0496 -10.6678 2.2995
4.3052 -10.5650 2.2995
4.5582 -10.4560 2.2995
4.8084 -10.3408 2.2995
5.0557 -10.2196 2.2995
5.2998 -10.0923 2.2995
5.5407 -9.9591 2.2995
5.7782 -9.8201 2.2995
6.0122 -9.6753 2.2995
6.2453 -9.5291 2.3005
6.3868 -9.2499 2.2703
6.5064 -8.9527 2.2359
5.6652 -7.4119 1.8852
5.5841 -6.9513 1.8024
5.5920 -6.6268 1.7533
5.6248 -6.3480 1.7155
5.6256 -6.0481 1.6712
5.5973 -5.7336 1.6217
5.5744 -5.4408 1.5771
5.5873 -5.1959 1.5453
5.6174 -4.9764 1.5204
5.6463 -4.7636 1.4972
5.7105 -4.5863 1.4849
5.7935 -4.4271 1.4788
5.9137 -4.2967 1.4831
6.0462 -4.1737 1.4912
6.2609 -4.1022 1.5198
6.5442 -4.0653 1.5649
6.8866 -4.0508 1.6235
7.0693 -3.9316 1.6444
7.2711 -3.8169 1.6700
7.0363 -3.4794 1.5970
6.9053 -3.2095 1.5498
6.8502 -2.9848 1.5215
6.7604 -2.7533 1.4869
6.6601 -2.5267 1.4517
2.9773 -1.0480 0.6435
2.9657 -0.9640 0.6360
3.0222 -0.9023 0.6436
6.9125 -1.8831 1.4626
7.3430 -1.8110 1.5446
7.3314 -1.6212 1.5341
7.4021 -1.4502 1.5418
7.0557 -1.2061 1.4638
6.9504 -1.0160 1.4371
6.9179 -0.8410 1.4264
6.9226 -0.6723 1.4243
6.9372 -0.5049 1.4250
6.9577 -0.3376 1.4277
6.9804 -0.1698 1.4318
7.0285 -0.0011 1.4418
7.0780 0.1700 1.4531
7.1258 0.3436 1.4648
7.1587 0.5188 1.4744
7.2046 0.6975 1.4875
7.2520 0.8795 1.5020
7.2977 1.0645 1.5170
7.3297 1.2508 1.5301
7.3722 1.4422 1.5465
7.4055 1.6355 1.5620
7.4397 1.8327 1.5788
6.0241 1.6394 1.2870
5.9673 1.7799 1.2842
4.1780 1.3570 0.9063
4.0396 1.4209 0.8839
4.1502 1.5735 0.9165
4.0515 1.6491 0.9036
4.6674 2.0327 1.0520
4.5957 2.1351 1.0476
4.5245 2.2365 1.0438
4.4536 2.3371 1.0406
4.3830 2.4369 1.0380
4.3126 2.5361 1.0359
4.2386 2.6326 1.0335
4.1721 2.7332 1.0335
4.1019 2.8312 1.0331
6.2022 4.5061 1.5897
6.0626 4.6327 1.5827
5.9113 4.7478 1.5733
5.7750 4.8726 1.5684
5.6628 5.0172 1.5709
5.5578 5.1694 1.5766
5.4918 5.3614 1.5946
5.4294 5.5632 1.6156
5.4022 5.8098 1.6493
5.4084 6.1061 1.6963
5.3843 6.3835 1.7371
5.3513 6.6648 1.7785
5.2873 6.9215 1.8128
5.2914 7.2856 1.8745
5.7081 8.2729 2.0929
5.8470 8.9285 2.2229
5.7583 9.2750 2.2743
5.5920 9.5129 2.2993
5.3592 9.6433 2.2993
5.1235 9.7681 2.2993
4.8848 9.8873 2.2993
4.6435 10.0007 2.2993
4.3996 10.1084 2.2993
4.1532 10.2101 2.2993
3.9045 10.3060 2.2993
3.6536 10.3960 2.2993
3.4007 10.4799 2.2993
3.1459 10.5578 2.2993
2.8894 10.6297 2.2993
2.6313 10.6954 2.2993
2.3716 10.7549 2.2993
2.1107 10.8083 2.2993
1.8612 10.9292 2.3150
1.6567 11.3856 2.4026
1.3808 11.4218 2.4026
1.1041 11.4515 2.4026
0.8269 11.4746 2.4026
0.5492 11.4910 2.4026
0.2711 11.5009 2.4026
-0.0071 11.5042 2.4026
-0.2853 11.5009 2.4026
-0.5633 11.4909 2.4026
-0.8411 11.4744 2.4026
-1.1183 11.4513 2.4026
-1.3950 11.4215 2.4026
-1.6709 11.3853 2.4026
-1.9459 11.3425 2.4026
-2.2198 11.2931 2.4026
-2.4925 11.2373 2.4026
-2.7638 11.1750 2.4026
-3.0336 11.1063 2.4026
-3.3017 11.0311 2.4026
-3.5680 10.9496 2.4026
-3.8323 10.8618 2.4026
-4.0945 10.7677 2.4026
-4.3544 10.6674 2.4026
-4.6119 10.5609 2.4026
-4.8669 10.4483 2.4026
-5.1191 10.3297 2.4026
-5.3686 10.2051 2.4026
-5.6150 10.0745 2.4026
-5.8583 9.9381 2.4026
-6.0983 9.7958 2.4026
-6.1690 9.3952 2.3396
-6.2863 9.0870 2.2995
-6.5059 8.9347 2.2995
-6.7218 8.7772 2.2995
-6.9340 8.6146 2.2995
-7.1424 8.4469 2.2995
-7.3467 8.2742 2.2995
-7.5469 8.0966 2.2995
-7.7429 7.9143 2.2995
-7.9345 7.7273 2.2995
-8.1217 7.5357 2.2995
-8.3043 7.3396 2.2995
-8.4822 7.1392 2.2995
-8.6553 6.9345 2.2995
-8.8236 6.7256 2.2995
-8.9869 6.5127 2.2995
-9.1451 6.2959 2.2995
-9.2981 6.0752 2.2995
-9.4458 5.8509 2.2995
-9.5882 5.6231 2.2995
-9.7251 5.3918 2.2995
-9.8565 5.1572 2.2995
-9.9823 4.9194 2.2995
-10.2039 4.7256 2.3226
-10.3194 4.4794 2.3226
-10.4289 4.2304 2.3226
-10.5326 3.9788 2.3226
-10.6301 3.7246 2.3226
-10.7216 3.4681 2.3226
-10.8069 3.2093 2.3226
-10.8860 2.9485 2.3226
-10.9589 2.6857 2.3226
-11.0254 2.4211 2.3226
-11.0856 2.1549 2.3226
-11.1394 1.8872 2.3226
-11.1867 1.6182 2.3226
-11.2275 1.3480 2.3226
-11.2618 1.0768 2.3226
-11.2896 0.8047 2.3226
-11.3108 0.5319 2.3226
-11.3254 0.2585 2.3226
-11.3335 -0.0152 2.3226
-11.3349 -0.2892 2.3226
-11.3296 -0.5632 2.3226
-11.3178 -0.8372 2.3226
-11.2993 -1.1109 2.3226
-11.2742 -1.3842 2.3226
-11.2424 -1.6569 2.3226
-11.2041 -1.9289 2.3226
-11.1591 -2.2000 2.3226
-11.1076 -2.4700 2.3226
-11.0495 -2.7388 2.3226
-5.2853 -1.4465 1.1175
-4.7788 -1.4328 1.0170
-4.3553 -1.4214 0.9335
-3.9955 -1.4116 0.8631
-3.8426 -1.4630 0.8371
-3.8096 -1.5568 0.8375
-3.7743 -1.6498 0.8379
-3.7366 -1.7420 0.8383
-3.7000 -1.8350 0.8395
-3.6969 -1.9461 0.8488
-3.6937 -2.0599 0.8590
-3.6905 -2.1766 0.8698
-3.6871 -2.2965 0.8815
-3.6837 -2.4197 0.8941
-3.6802 -2.5467 0.9076
-3.6765 -2.6778 0.9220
-3.6727 -2.8133 0.9375
-3.6688 -2.9536 0.9541
-3.6648 -3.0993 1.0274
-3.6606 -3.2506 1.0476
-3.6562 -3.4081 1.0693
-3.6516 -3.5725 1.0926
-3.6468 -3.7444 1.1175
-3.6418 -3.9246 1.1444
-3.6365 -4.1139 1.1733
-3.6310 -4.3131 1.2044
-3.6251 -4.5236 1.2380
-3.6189 -4.7463 1.2744
-3.6123 -4.9828 1.3137
-3.6053 -5.2346 1.3564
-3.5978 -5.5036 1.4029
-3.5898 -5.7920 1.4536
-3.5811 -6.1024 1.5090
-5.4674 -9.8545 2.4030
-5.2294 -9.9865 2.4032
-4.9881 -10.1126 2.4034
-4.7437 -10.2328 2.4036
-4.4963 -10.3469 2.4038
-4.2462 -10.4550 2.4040
-3.9935 -10.5570 2.4042
-3.7382 -10.6527 2.4044
-3.4806 -10.7421 2.4046
-3.2209 -10.8251 2.4048
-2.9592 -10.9018 2.4050
-2.6955 -10.9721 2.4052
-2.4302 -11.0358 2.4054
-2.1634 -11.0931 2.4056
-1.8950 -11.1426 2.4056
-1.6254 -11.1848 2.4054
-1.3548 -11.2203 2.4051
-1.0834 -11.2492 2.4049
-0.8115 -11.2714 2.4047
-0.5391 -11.2869 2.4045
-0.2664 -11.2957 2.4043
0.0064 -11.2978 2.4041
0.2792 -11.2932 2.4039
0.5517 -11.2819 2.4037
0.8239 -11.2639 2.4035
1.0955 -11.2392 2.4033
1.3663 -11.2078 2.4031
1.6363 -11.1699 2.4029
1.9052 -11.1253 2.4027
2.1717 -11.0680 2.4012
2.3348 -10.5450 2.2995
2.5885 -10.4844 2.2995
2.8405 -10.4176 2.2995
3.0908 -10.3446 2.2995
3.3392 -10.2655 2.2995
3.5856 -10.1804 2.2995
3.8297 -10.0892 2.2995
4.0715 -9.9921 2.2995
4.3109 -9.8891 2.2995
4.5476 -9.7803 2.2995
4.7814 -9.6657 2.2995
5.0124 -9.5455 2.2995
5.2403 -9.4196 2.2995
5.4650 -9.2883 2.2995
5.6864 -9.1514 2.2995
5.9043 -9.0093 2.2995
6.0454 -8.7559 2.2720
6.1667 -8.4857 2.2405
5.5444 -7.2543 1.9507
5.5398 -6.8965 1.8904
5.5763 -6.6085 1.8484
5.6234 -6.3467 1.8132
5.6286 -6.0517 1.7677
5.5925 -5.7290 1.7129
5.5481 -5.4155 1.6593
5.5605 -5.1712 1.6257
5.5843 -4.9473 1.5978
5.6135 -4.7362 1.5734
5.6950 -4.5741 1.5654
5.7778 -4.4154 1.5589
5.8913 -4.2808 1.5617
6.0302 -4.1630 1.5720
6.2581 -4.1007 1.6057
6.5299 -4.0567 1.6504
6.8422 -4.0250 1.7049
7.0428 -3.9172 1.7315
7.2434 -3.8027 1.7584
7.0738 -3.4983 1.6968
6.9210 -3.2171 1.6417
6.8767 -2.9967 1.6142
6.8133 -2.7752 1.5837
6.7460 -2.5596 1.5539
2.9770 -1.0480 0.6800
2.9653 -0.9640 0.6721
3.0216 -0.9022 0.6800
6.9065 -1.8817 1.5441
7.3010 -1.8009 1.6228
7.3193 -1.6189 1.6184
7.1462 -1.4004 1.5728
7.0580 -1.2068 1.5472
6.9695 -1.0191 1.5226
6.9332 -0.8432 1.5104
6.9475 -0.6750 1.5102
6.9621 -0.5070 1.5109
6.9825 -0.3391 1.5137
7.0304 -0.1713 1.5234
7.0794 -0.0014 1.5342
7.1270 0.1709 1.5457
7.1625 0.3450 1.5554
7.1943 0.5211 1.5652
7.2251 0.6992 1.5758
7.2563 0.8797 1.5874
7.2878 1.0628 1.6002
7.3196 1.2488 1.6140
7.3691 1.4413 1.6328
7.4208 1.6386 1.6532
7.4676 1.8392 1.6737
7.0269 1.9120 1.5855
7.2390 2.1589 1.6453
4.1344 1.3427 0.9472
5.1740 1.8196 1.1956
4.1527 1.5743 0.9685
4.7224 1.9220 1.1123
4.6505 2.0251 1.1070
4.5792 2.1272 1.1023
4.5082 2.2283 1.0983
4.4377 2.3285 1.0949
4.3674 2.4280 1.0921
4.2973 2.5269 1.0900
4.2273 2.6253 1.0884
4.1573 2.7233 1.0874
4.7907 3.3065 1.2740
6.1378 4.4590 1.6610
6.0024 4.5864 1.6545
5.8675 4.7123 1.6487
5.7242 4.8294 1.6413
5.6178 4.9771 1.6454
5.5253 5.1389 1.6547
5.4466 5.3170 1.6697
5.4121 5.5451 1.7002
5.3763 5.7817 1.7328
5.4057 6.1028 1.7899
5.3863 6.3855 1.8345
5.3308 6.6390 1.8703
5.2672 6.8948 1.9064
5.2808 7.2706 1.9748
5.7156 8.2833 2.2122
5.6309 8.5980 2.2598
5.5150 8.8827 2.2993
5.2975 9.0115 2.2993
5.0771 9.1352 2.2993
4.8538 9.2535 2.2993
4.6278 9.3665 2.2993
4.3991 9.4741 2.2993
4.1681 9.5761 2.2993
3.9347 9.6726 2.2993
3.6991 9.7636 2.2993
3.4615 9.8488 2.2993
3.2219 9.9284 2.2993
2.9805 10.0023 2.2993
2.7375 10.0704 2.2993
2.4929 10.1327 2.2993
2.2470 10.1892 2.2993
1.9998 10.2398 2.2993
1.8301 10.7463 2.4026
1.5696 10.7868 2.4026
1.3082 10.8212 2.4026
1.0461 10.8493 2.4026
0.7834 10.8711 2.4026
0.5203 10.8868 2.4026
0.2569 10.8961 2.4026
-0.0067 10.8992 2.4026
-0.2703 10.8961 2.4026
-0.5337 10.8866 2.4026
-0.7969 10.8709 2.4026
-1.0596 10.8490 2.4026
-1.3217 10.8208 2.4026
-1.5831 10.7864 2.4026
-1.8436 10.7458 2.4026
-2.1031 10.6990 2.4026
-2.3615 10.6461 2.4026
-2.6185 10.5870 2.4026
-2.8741 10.5218 2.4026
-3.1281 10.4505 2.4026
-3.3803 10.3732 2.4026
-3.6307 10.2900 2.4026
-3.8791 10.2008 2.4026
-4.1253 10.1056 2.4026
-4.3692 10.0047 2.4026
-4.6107 9.8979 2.4026
-4.8496 9.7854 2.4026
-5.0859 9.6672 2.4026
-5.3193 9.5434 2.4026
-5.5497 9.4141 2.4026
-5.7770 9.2792 2.4026
-6.0011 9.1390 2.4026
-6.1576 8.9006 2.3778
-6.1628 8.4632 2.2995
-6.3673 8.3139 2.2995
-6.5682 8.1597 2.2995
-6.7655 8.0007 2.2995
-6.9589 7.8370 2.2995
-7.1484 7.6687 2.2995
-7.3340 7.4959 2.2995
-7.5153 7.3186 2.2995
-7.6925 7.1370 2.2995
-7.8653 6.9512 2.2995
-8.0337 6.7612 2.2995
-8.1975 6.5672 2.2995
-8.3568 6.3693 2.2995
-8.5112 6.1675 2.2995
-8.6609 5.9621 2.2995
-8.8056 5.7530 2.2995
-8.9454 5.5405 2.2995
-9.0800 5.3246 2.2995
-9.2095 5.1055 2.2995
-9.3338 4.8832 2.2995
-9.4527 4.6579 2.2995
-9.5662 4.4298 2.2995
-9.6743 4.1989 2.2995
-9.7768 3.9654 2.2995
-9.8737 3.7295 2.2995
-9.9650 3.4911 2.2995
-10.0505 3.2506 2.2995
-10.2320 3.0381 2.3226
-10.3067 2.7911 2.3226
-10.3754 2.5423 2.3226
-10.4382 2.2917 2.3226
-10.4949 2.0397 2.3226
-10.5456 1.7862 2.3226
-10.5901 1.5315 2.3226
-10.6286 1.2756 2.3226
-10.6608 1.0189 2.3226
-10.6869 0.7613 2.3226
-10.7067 0.5030 2.3226
-10.7203 0.2443 2.3226
-10.7276 -0.0149 2.3226
-10.7287 -0.2742 2.3226
-10.7235 -0.5335 2.3226
-10.7120 -0.7928 2.3226
-10.6943 -1.0519 2.3226
-10.6703 -1.3105 2.3226
-10.6400 -1.5686 2.3226
-10.6034 -1.8259 2.3226
-10.5607 -2.0825 2.3226
-10.5116 -2.3380 2.3226
-10.4564 -2.5923 2.3226
-5.2833 -1.4461 1.1805
-4.7771 -1.4325 1.0743
-4.3539 -1.4211 0.9862
-3.9943 -1.4114 0.9119
-3.7117 -1.4133 0.8545
-3.7089 -1.5158 0.8617
-3.7060 -1.6201 0.8696
-3.7030 -1.7265 0.8781
-3.7000 -1.8352 0.8872
-3.6969 -1.9463 0.8972
-3.6937 -2.0601 0.9079
-3.6905 -2.1768 0.9194
-3.6871 -2.2966 0.9318
-3.6837 -2.4199 0.9451
-3.6802 -2.5469 0.9594
-3.6765 -2.6780 0.9746
-3.6727 -2.8135 0.9910
-3.6688 -2.9538 1.0086
-3.6648 -3.0995 1.0832
-3.6606 -3.2508 1.1045
-3.6562 -3.4083 1.1274
-3.6516 -3.5727 1.1519
-3.6468 -3.7446 1.1783
-3.6418 -3.9248 1.2066
-3.6365 -4.1141 1.2371
-3.6310 -4.3134 1.2699
-3.6251 -4.5238 1.3054
-3.6189 -4.7465 1.3437
-3.6123 -4.9830 1.3853
-3.6053 -5.2348 1.4303
-3.5978 -5.5039 1.4793
-3.5897 -5.7923 1.5328
-3.5811 -6.1027 1.5912
-5.1846 -9.3452 2.4029
-4.9586 -9.4698 2.4029
-4.7295 -9.5888 2.4030
-4.4977 -9.7027 2.4032
-4.2632 -9.8110 2.4035
-4.0261 -9.9135 2.4037
-3.7865 -10.0102 2.4040
-3.5445 -10.1010 2.4042
-3.3003 -10.1858 2.4044
-3.0540 -10.2646 2.4046
-2.8058 -10.3373 2.4048
-2.5559 -10.4039 2.4050
-2.3043 -10.4643 2.4052
-2.0513 -10.5184 2.4054
-1.7968 -10.5655 2.4054
-1.5412 -10.6060 2.4053
-1.2847 -10.6397 2.4051
-1.0274 -10.6671 2.4049
-0.7695 -10.6882 2.4047
-0.5112 -10.7029 2.4045
-0.2526 -10.7113 2.4043
0.0061 -10.7133 2.4042
0.2647 -10.7090 2.4040
0.5232 -10.6983 2.4038
0.7812 -10.6813 2.4036
1.0388 -10.6580 2.4034
1.2956 -10.6283 2.4032
1.5516 -10.5924 2.4030
1.8066 -10.5502 2.4028
2.0605 -10.5018 2.4026
2.2311 -10.0770 2.3173
2.4823 -10.0551 2.3256
2.6935 -9.8790 2.2995
2.9309 -9.8098 2.2995
3.1665 -9.7349 2.2995
3.4001 -9.6542 2.2995
3.6317 -9.5679 2.2995
3.8610 -9.4759 2.2995
4.0880 -9.3783 2.2995
4.3125 -9.2752 2.2995
4.5343 -9.1666 2.2995
4.7534 -9.0527 2.2995
4.9696 -8.9334 2.2995
5.1827 -8.8089 2.2995
5.3927 -8.6793 2.2995
5.5994 -8.5445 2.2995
5.7501 -8.3286 2.2787
5.4894 -7.5541 2.1029
5.4834 -7.1748 2.0342
5.5263 -6.8801 1.9884
5.5630 -6.5932 1.9442
5.6222 -6.3458 1.9113
5.6326 -6.0563 1.8651
5.5793 -5.7158 1.8018
5.5294 -5.3975 1.7435
5.5437 -5.1560 1.7088
5.5573 -4.9238 1.6764
5.5958 -4.7216 1.6536
5.6795 -4.5620 1.6458
5.7622 -4.4038 1.6390
5.8691 -4.2649 1.6402
6.0317 -4.1643 1.6576
6.2574 -4.1005 1.6925
6.5268 -4.0552 1.7390
6.8139 -4.0087 1.7897
7.0164 -3.9029 1.8183
7.2159 -3.7886 1.8464
7.1561 -3.5394 1.8094
6.9369 -3.2248 1.7344
6.8666 -2.9926 1.6989
6.8016 -2.7707 1.6664
6.7500 -2.5614 1.6387
2.9767 -1.0480 0.7166
2.9650 -0.9641 0.7082
3.0210 -0.9022 0.7165
6.9019 -1.8808 1.6263
7.3074 -1.8028 1.7117
7.3214 -1.6197 1.7060
7.0548 -1.3828 1.6363
7.0653 -1.2084 1.6321
6.9772 -1.0205 1.6063
6.9576 -0.8465 1.5972
6.9717 -0.6777 1.5969
6.9861 -0.5090 1.5976
7.0138 -0.3409 1.6022
7.0555 -0.1722 1.6109
7.0978 -0.0017 1.6208
7.1310 0.1707 1.6295
7.1475 0.3440 1.6353
7.1812 0.5198 1.6461
7.2152 0.6979 1.6580
7.2464 0.8782 1.6702
7.2778 1.0610 1.6835
7.3096 1.2467 1.6980
7.3588 1.4390 1.7177
7.4104 1.6359 1.7392
6.9987 1.7235 1.6525
7.2054 1.9602 1.7127
7.4299 2.2155 1.7789
4.0915 1.3285 0.9874
6.0455 2.1259 1.4715
4.1553 1.5750 1.0208
4.7052 1.9148 1.1673
4.6337 2.0176 1.1618
4.5627 2.1193 1.1569
4.4921 2.2201 1.1527
4.4218 2.3200 1.1491
4.3518 2.4192 1.1462
4.2820 2.5177 1.1439
4.2123 2.6158 1.1422
4.1426 2.7135 1.1412
4.7769 3.2967 1.3379
6.0944 4.4272 1.7369
5.9407 4.5389 1.7245
5.8074 4.6637 1.7185
5.6759 4.7883 1.7139
5.5852 4.9479 1.7227
5.4931 5.1086 1.7324
5.4019 5.2731 1.7438
5.3680 5.4996 1.7758
5.3565 5.7601 1.8180
5.4044 6.1010 1.8843
5.3856 6.3844 1.9315
5.3111 6.6141 1.9621
5.2471 6.8682 1.9997
5.2701 7.2555 2.0752
5.5179 7.9964 2.2488
5.4321 8.2941 2.2954
5.2378 8.4358 2.2993
5.0313 8.5583 2.2993
4.8220 8.6758 2.2993
4.6099 8.7883 2.2993
4.3953 8.8957 2.2993
4.1782 8.9979 2.2993
3.9588 9.0949 2.2993
3.7372 9.1866 2.2993
3.5134 9.2731 2.2993
3.2877 9.3541 2.2993
3.0602 9.4298 2.2993
2.8310 9.5000 2.2993
2.6001 9.5647 2.2993
2.3679 9.6239 2.2993
2.1342 9.6776 2.2993
1.8995 9.7257 2.2993
1.7383 10.2068 2.4026
1.4909 10.2454 2.4026
1.2426 10.2780 2.4026
0.9936 10.3047 2.4026
0.7441 10.3255 2.4026
0.4942 10.3403 2.4026
0.2440 10.3492 2.4026
-0.0064 10.3522 2.4026
-0.2567 10.3491 2.4026
-0.5070 10.3402 2.4026
-0.7569 10.3253 2.4026
-1.0064 10.3044 2.4026
-1.2554 10.2776 2.4026
-1.5037 10.2449 2.4026
-1.7511 10.2063 2.4026
-1.9976 10.1618 2.4026
-2.2430 10.1115 2.4026
-2.4871 10.0553 2.4026
-2.7299 9.9933 2.4026
-2.9711 9.9256 2.4026
-3.2107 9.8521 2.4026
-3.4485 9.7729 2.4026
-3.6843 9.6881 2.4026
-3.9182 9.5977 2.4026
-4.1498 9.5017 2.4026
-4.3791 9.4002 2.4026
-4.6060 9.2933 2.4026
-4.8303 9.1810 2.4026
-5.0519 9.0633 2.4026
-5.2707 8.9404 2.4026
-5.4865 8.8122 2.4026
-5.6993 8.6789 2.4026
-5.9089 8.5406 2.4026
-6.1151 8.3972 2.4026
-6.1445 8.0224 2.3366
-6.2376 7.7485 2.2995
-6.4248 7.5974 2.2995
-6.6084 7.4419 2.2995
-6.7883 7.2819 2.2995
-6.9644 7.1177 2.2995
-7.1365 6.9493 2.2995
-7.3047 6.7767 2.2995
-7.4686 6.6002 2.2995
-7.6284 6.4197 2.2995
-7.7839 6.2354 2.2995
-7.9349 6.0473 2.2995
-8.0815 5.8557 2.2995
-8.2234 5.6605 2.2995
-8.3607 5.4619 2.2995
-8.4932 5.2600 2.2995
-8.6209 5.0549 2.2995
-8.7437 4.8468 2.2995
-8.8615 4.6357 2.2995
-8.9743 4.4218 2.2995
-9.0819 4.2051 2.2995
-9.1843 3.9858 2.2995
-9.2814 3.7641 2.2995
-9.3733 3.5400 2.2995
-9.4597 3.3137 2.2995
-9.5408 3.0853 2.2995
-9.6163 2.8549 2.2995
-9.6863 2.6227 2.2995
-9.7507 2.3888 2.2995
