ply
format ascii 1.0
element vertex 1990
property float32 x
property float32 y
property float32 z
end_header
-17.2240 -32.8338 -5.4768
-14.4325 -29.2084 -4.8146
-13.5349 -29.1461 -4.7509
-12.6895 -29.1512 -4.7022
-11.8611 -29.1553 -4.6569
-11.0515 -29.1668 -4.6163
-10.3459 -29.4339 -4.6191
-9.5541 -29.4385 -4.5836
-8.7639 -29.4078 -4.5458
-7.9877 -29.3815 -4.5117
-7.2426 -29.4350 -4.4927
-6.4912 -29.4321 -4.4679
-5.7340 -29.3577 -4.4351
-4.9481 -29.0517 -4.3702
-4.2625 -29.2905 -4.3899
-3.5756 -29.5722 -4.4184
-2.8587 -29.6434 -4.4178
-2.1372 -29.6525 -4.4104
-1.4119 -29.5364 -4.3870
-0.6962 -29.5246 -4.3815
0.0181 -29.6152 -4.3937
0.7343 -29.6051 -4.3934
1.2800 -26.1107 -3.8781
1.9112 -26.0730 -3.8779
2.5171 -25.7723 -3.8407
3.0412 -24.8976 -3.7198
3.5344 -24.0805 -3.6088
4.9993 -29.1375 -4.3828
10.8019 -54.9485 -8.3004
5.1077 -23.0256 -3.4951
5.6367 -22.7887 -3.4779
6.1427 -22.4867 -3.4526
6.5587 -21.9105 -3.3865
6.3518 -19.4904 -3.0343
7.2620 -20.5801 -3.2293
8.2068 -21.5797 -3.4150
7.8547 -19.2401 -3.0728
7.6660 -17.5523 -2.8309
7.9822 -17.1342 -2.7926
8.2898 -16.7257 -2.7566
9.2898 -17.6568 -2.9448
9.4734 -16.9952 -2.8705
13.3406 -22.6283 -3.8732
12.7744 -20.5172 -3.5618
13.5085 -20.5702 -3.6247
15.0022 -21.6833 -3.8814
9.1317 -12.5391 -2.2820
9.6359 -12.5807 -2.3299
10.1620 -12.6231 -2.3810
10.7119 -12.6665 -2.4358
11.2879 -12.7112 -2.4945
19.0679 -20.4538 -4.1004
21.0240 -21.4862 -4.4048
23.1240 -22.5165 -4.7259
22.6577 -21.0195 -4.5220
2.9632 -2.6186 -0.5781
3.0090 -2.5322 -0.5745
7.6603 -6.1362 -1.4327
7.7898 -5.9365 -1.4285
7.9354 -5.7496 -1.4281
31.6157 -21.7615 -5.5887
32.0059 -20.9081 -5.5619
32.4528 -20.0978 -5.5487
33.0072 -19.3532 -5.5569
25.9442 -14.3807 -4.3042
18.4359 -9.6438 -3.0162
16.8618 -8.3077 -2.7225
15.3044 -7.0859 -2.4404
15.1868 -6.5904 -2.3933
14.6000 -5.9207 -2.2754
14.1366 -5.3386 -2.1804
13.7742 -4.8247 -2.1038
13.4277 -4.3419 -2.0323
13.1331 -3.8987 -1.9709
12.9063 -3.4943 -1.9217
6.0110 -1.4725 -0.8886
5.8777 -1.2901 -0.8631
5.7515 -1.1174 -0.8395
5.7596 -0.9752 -0.8362
5.6425 -0.8156 -0.8152
5.9905 -0.7186 -0.8619
6.0286 -0.5758 -0.8642
6.1204 -0.4356 -0.8747
5.9820 -0.2807 -0.8528
5.8504 -0.1329 -0.8325
4.8134 0.0070 -0.6840
4.8406 0.1240 -0.6874
4.7637 0.2373 -0.6764
4.2516 0.3149 -0.6040
3.9088 0.3847 -0.5559
4.3099 0.5296 -0.6139
4.1761 0.6159 -0.5962
4.3633 0.7516 -0.6247
4.2891 0.8460 -0.6161
4.8229 1.0730 -0.6956
4.4738 1.1094 -0.6483
4.3174 1.1820 -0.6290
4.1698 1.2507 -0.6111
3.9924 1.3034 -0.5889
3.8973 1.3773 -0.5791
4.0816 1.5544 -0.6112
3.9551 1.6167 -0.5974
4.6902 2.0507 -0.7150
5.1020 2.3792 -0.7856
5.2998 2.6291 -0.8248
5.0955 2.6830 -0.8021
4.9013 2.7339 -0.7810
4.7162 2.7821 -0.7613
5.5301 3.4449 -0.9050
5.3974 3.5461 -0.8963
7.7383 5.3560 -1.3049
7.4825 5.4508 -1.2825
7.3741 5.6494 -1.2859
7.3248 5.8977 -1.3007
7.4261 6.2809 -1.3441
30.0697 26.7045 -5.5534
29.4935 27.4952 -5.5637
28.8761 28.2534 -5.5701
28.2180 28.9759 -5.5724
27.5367 29.6776 -5.5737
20.3144 22.9828 -4.2200
8.6598 10.2876 -1.8488
8.3757 10.4524 -1.8403
8.2205 10.7822 -1.8616
8.0275 11.0739 -1.8768
7.8151 11.3478 -1.8895
7.5961 11.6208 -1.9028
7.3652 11.8846 -1.9152
2.3709 4.0405 -0.6414
7.1132 12.8218 -2.0064
26.7902 51.1646 -7.8988
18.1987 36.8980 -5.6242
12.2188 26.3596 -3.9699
10.8300 24.9237 -3.7116
10.3117 25.3913 -3.7416
7.0619 18.6699 -2.7242
8.7350 24.8935 -3.5992
8.0417 24.8203 -3.5584
7.5506 25.3787 -3.6101
7.0376 25.9290 -3.6622
6.4173 26.1232 -3.6657
5.7424 26.0787 -3.6381
5.0295 25.7912 -3.5793
4.3423 25.5340 -3.5274
3.6224 24.9288 -3.4302
4.0973 33.9367 -4.6541
2.6984 28.0201 -3.8323
2.4992 34.7178 -4.7384
-9.2088 75.5407 -10.3635
-9.7180 66.3404 -9.1323
-9.6465 56.3321 -7.7859
-10.8118 55.1040 -7.6517
-12.0165 54.2734 -7.5763
-13.8856 50.9274 -7.1985
-14.8711 49.7737 -7.0864
-12.6859 39.0006 -5.5965
-13.4764 38.2643 -5.5380
-14.5175 38.2470 -5.5868
-15.6996 38.5305 -5.6843
-16.3625 37.5373 -5.5969
-17.0152 36.5959 -5.5187
-16.6455 33.6507 -5.1362
-14.8609 28.3021 -4.3756
-18.3721 33.0261 -5.1757
-15.1056 25.6747 -4.0819
-15.3681 24.7341 -3.9925
-16.9070 25.7996 -4.2317
-15.3443 22.2252 -3.7074
-17.9205 24.6610 -4.1874
-17.1008 22.3762 -3.8710
-17.7224 22.0640 -3.8926
-11.5250 13.6592 -2.4599
-11.9434 13.4806 -2.4807
-12.3707 13.3015 -2.5039
-12.8079 13.1214 -2.5294
-13.1669 12.8530 -2.5402
-13.4824 12.5396 -2.5439
-13.7721 12.2022 -2.5442
-14.0640 11.8671 -2.5465
-13.7955 11.0813 -2.4508
-14.4449 11.0398 -2.5202
-14.5445 10.5694 -2.4944
-10.3355 7.1358 -1.7440
-14.6220 9.5821 -2.4297
-10.6676 6.6280 -1.7471
-11.0365 6.4931 -1.7830
-11.4234 6.3544 -1.8218
-11.8302 6.2114 -1.8640
-12.2590 6.0635 -1.9097
-12.7125 5.9100 -1.9594
-13.1623 5.7366 -2.0087
-13.3480 5.4378 -2.0184
-13.7859 5.2315 -2.0670
-13.5622 4.7751 -2.0176
-14.1828 4.6117 -2.0948
-14.4763 4.3233 -2.1242
-14.6554 3.9939 -2.1379
-14.8400 3.6614 -2.1535
-11.5545 2.5563 -1.6690
-11.6981 2.2932 -1.6830
-14.5776 2.4935 -2.0901
-14.5044 2.1217 -2.0738
-14.2487 1.7338 -2.0328
-12.4116 1.2068 -1.7678
-12.9432 0.9434 -1.8417
-15.5688 0.7571 -2.2143
-15.6209 0.3816 -2.2221
-15.6477 0.0041 -2.2276
-15.5782 -0.3725 -2.2206
-17.8792 -0.8601 -2.5534
-18.3108 -1.3251 -2.6216
-18.5589 -1.7948 -2.6653
-18.8250 -2.2809 -2.7134
-19.0675 -2.7793 -2.7601
-29.4687 -5.0256 -4.2864
-26.7027 -5.2209 -3.9052
-15.1697 -3.3485 -2.2320
-19.0343 -4.6868 -2.8192
-19.4450 -5.2895 -2.9010
-19.4766 -5.8071 -2.9287
-28.2727 -9.1796 -4.2877
-20.7750 -7.8740 -3.2108
-19.8570 -8.0802 -3.1011
-18.9720 -8.2601 -2.9960
-14.9295 -6.9341 -2.3856
-13.2912 -6.5683 -2.1506
-13.2799 -6.9671 -2.1773
-14.1505 -7.8658 -2.3526
-14.5937 -8.5804 -2.4622
-14.4035 -8.9440 -2.4680
-14.4314 -9.4522 -2.5134
-12.5919 -8.6896 -2.2308
-12.9480 -9.4054 -2.3354
-32.8722 -30.5725 -6.0690
-31.2917 -30.5464 -5.9165
-29.2983 -30.0178 -5.6795
-27.9401 -30.0465 -5.5595
-26.9948 -30.4755 -5.5204
-25.4085 -30.1215 -5.3471
-24.3447 -30.3185 -5.2796
-23.1721 -30.3323 -5.1863
-22.0176 -30.3132 -5.0937
-20.8281 -30.1844 -4.9890
-19.8811 -30.3569 -4.9395
-18.8376 -30.3397 -4.8639
-17.7751 -30.2363 -4.7796
-17.2535 -31.0437 -4.8423
-17.2239 -32.8361 -5.0579
-14.4314 -29.2084 -4.4462
-13.6932 -29.4892 -4.4392
-12.8752 -29.5798 -4.4066
-12.0325 -29.5785 -4.3634
-11.1570 -29.4473 -4.3046
-10.3451 -29.4339 -4.2663
-9.5858 -29.5381 -4.2480
-8.7633 -29.4078 -4.1988
-7.9909 -29.3950 -4.1693
-7.2580 -29.4996 -4.1590
-6.5029 -29.4871 -4.1348
-5.7337 -29.3577 -4.0969
-4.9478 -29.0517 -4.0370
-4.2623 -29.2905 -4.0552
-3.5754 -29.5721 -4.0816
-2.8618 -29.6771 -4.0857
-2.1380 -29.6651 -4.0760
-1.4118 -29.5364 -4.0526
-0.6962 -29.5246 -4.0476
0.0181 -29.6295 -4.0608
0.6115 -24.6574 -3.3803
1.4455 -29.4892 -4.0460
2.1606 -29.4774 -4.0500
2.8890 -29.5821 -4.0724
3.6009 -29.4818 -4.0688
4.3209 -29.4418 -4.0758
4.9989 -29.1375 -4.0485
4.6713 -23.7647 -3.3160
5.0362 -22.7048 -3.1834
5.5481 -22.4322 -3.1622
5.9520 -21.7902 -3.0902
6.4682 -21.6099 -3.0850
6.0193 -18.4715 -2.6560
6.3897 -18.1094 -2.6245
6.6125 -17.3889 -2.5415
7.1623 -17.5454 -2.5878
7.7318 -17.7044 -2.6369
8.0426 -17.2653 -2.5986
8.3592 -16.8670 -2.5670
9.3694 -17.8094 -2.7427
9.5569 -17.1464 -2.6740
9.7306 -16.5063 -2.6087
13.2401 -21.2668 -3.4087
14.1541 -21.5552 -3.5066
14.7587 -21.3332 -3.5254
9.2196 -12.6610 -2.1271
9.7307 -12.7055 -2.1720
10.2642 -12.7512 -2.2201
10.8222 -12.7982 -2.2716
21.3730 -24.0701 -4.3596
21.9736 -23.5729 -4.3612
19.2170 -19.6413 -3.7159
20.0030 -19.4795 -3.7727
20.7761 -19.2759 -3.8264
2.9628 -2.6185 -0.5334
3.0085 -2.5320 -0.5300
7.5943 -6.0840 -1.3105
7.7418 -5.9006 -1.3098
7.8934 -5.7199 -1.3105
8.0701 -5.5554 -1.3159
31.4946 -20.5767 -5.0482
31.8833 -19.7477 -5.0278
32.2797 -18.9292 -5.0119
18.2116 -10.0960 -2.7862
16.6274 -8.6991 -2.5084
15.6696 -7.7215 -2.3328
15.0415 -6.9653 -2.2113
14.4617 -6.2769 -2.1010
13.9808 -5.6706 -2.0086
13.6133 -5.1420 -1.9353
13.2908 -4.6563 -1.8710
12.9881 -4.2007 -1.8116
12.7460 -3.7847 -1.7627
6.1348 -1.6614 -0.8417
5.9943 -1.4688 -0.8164
5.8618 -1.2870 -0.7930
5.7364 -1.1149 -0.7714
5.9599 -1.0095 -0.7970
5.6122 -0.8116 -0.7468
5.9583 -0.7151 -0.7895
6.0465 -0.5779 -0.7982
6.0604 -0.4317 -0.7975
5.9247 -0.2784 -0.7777
4.7783 -0.1089 -0.6260
4.7755 0.0066 -0.6247
4.8022 0.1227 -0.6277
4.7348 0.2356 -0.6188
4.1891 0.3100 -0.5477
3.8559 0.3792 -0.5046
4.2232 0.5187 -0.5535
4.1634 0.6137 -0.5468
4.3320 0.7460 -0.5706
4.2587 0.8397 -0.5628
4.8085 1.0694 -0.6380
4.4718 1.1086 -0.5960
4.3156 1.1812 -0.5782
4.1502 1.2445 -0.5593
3.9008 1.2732 -0.5291
3.8957 1.3765 -0.5322
4.0399 1.5382 -0.5562
3.9156 1.6002 -0.5437
4.6569 2.0358 -0.6526
5.0781 2.3676 -0.7187
5.2045 2.5814 -0.7444
5.1578 2.7154 -0.7461
4.9597 2.7661 -0.7262
4.7710 2.8141 -0.7076
5.4431 3.3903 -0.8184
5.5377 3.6378 -0.8448
7.4519 5.1571 -1.1544
7.3217 5.3331 -1.1528
7.2147 5.5267 -1.1556
7.2262 5.8177 -1.1785
7.2886 6.1639 -1.2115
29.6136 26.2968 -5.0223
29.0759 27.1032 -5.0364
11.4696 11.2212 -2.0314
10.7954 11.0843 -1.9573
10.5988 11.4218 -1.9695
9.0113 10.1941 -1.7185
8.6280 10.2489 -1.6908
8.3505 10.4200 -1.6841
8.1116 10.6386 -1.6861
7.8719 10.8584 -1.6891
7.6281 11.0753 -1.6926
7.4337 11.3714 -1.7088
7.2223 11.6531 -1.7234
2.3710 4.0402 -0.5885
6.9529 12.5319 -1.7995
6.7672 12.9231 -1.8307
11.5170 23.3492 -3.2656
10.8486 23.4020 -3.2338
10.9147 25.1167 -3.4317
10.1220 24.9224 -3.3693
7.0615 18.6675 -2.4989
8.5871 24.4704 -3.2458
8.0938 24.9793 -3.2852
7.4734 25.1176 -3.2776
6.8292 25.1598 -3.2597
6.5373 26.6102 -3.4252
6.1708 28.0224 -3.5859
6.0506 31.0255 -3.9494
5.3761 31.6115 -4.0056
4.7187 32.4719 -4.0983
4.1836 34.6491 -4.3585
3.3411 34.6916 -4.3520
3.1631 66.2383 -8.2796
-9.8910 67.5166 -8.5252
-11.2544 65.7163 -8.3315
-10.9104 55.6026 -7.0823
-12.3591 55.8167 -7.1474
-16.3476 66.2122 -8.5291
-11.0242 40.4297 -5.2424
-11.6055 38.8406 -5.0729
-12.3275 37.8961 -4.9889
-13.1342 37.2899 -4.9514
-14.3029 37.6788 -5.0495
-11.8548 29.0922 -3.9378
-12.7242 29.1884 -3.9932
-13.3900 28.7966 -3.9847
-13.9160 28.1306 -3.9399
-17.4424 33.2158 -4.7124
-18.6184 33.4662 -4.8131
-16.6429 28.2852 -4.1271
-17.0306 27.4075 -4.0604
-17.0457 26.0091 -3.9156
-17.1118 24.7831 -3.7947
-14.7781 20.3349 -3.1695
-15.6456 20.4702 -3.2509
-14.4645 18.0065 -2.9164
-13.0128 15.4212 -2.5498
-11.6748 13.1762 -2.2263
-12.0901 12.9986 -2.2468
-12.4669 12.7708 -2.2607
-12.7984 12.4921 -2.2673
-13.1341 12.2144 -2.2758
-13.1579 11.6568 -2.2324
-13.5037 11.3931 -2.2457
-14.0376 11.2746 -2.2906
-14.1857 10.8404 -2.2735
-14.2692 10.3681 -2.2482
-14.3107 9.8791 -2.2186
-14.6422 9.5942 -2.2356
-14.6178 9.0812 -2.1999
-14.6003 8.5887 -2.1675
-14.5063 8.0682 -2.1262
-13.9846 7.3415 -2.0252
-13.5542 6.7031 -1.9408
-14.3658 6.6775 -2.0355
-14.6942 6.4031 -2.0617
-15.0319 6.1226 -2.0899
-15.0544 5.7118 -2.0755
-13.6677 4.8113 -1.8697
-13.8932 4.5165 -1.8872
-14.0459 4.1938 -1.8956
-14.0408 3.8254 -1.8840
-13.9501 3.4409 -1.8622
-11.5527 2.5551 -1.5352
-11.6972 2.2922 -1.5483
-13.0431 2.2302 -1.7207
-12.7622 1.8660 -1.6791
-12.5053 1.5208 -1.6418
-12.2047 1.1858 -1.5999
-15.0819 1.0982 -1.9753
-15.1283 0.7347 -1.9807
-15.1778 0.3698 -1.9877
-15.2305 0.0029 -1.9962
-15.2331 -0.3652 -1.9994
-17.0997 -0.8238 -2.2489
-17.5993 -1.2748 -2.3205
-18.0066 -1.7426 -2.3818
-18.2211 -2.2090 -2.4192
-18.4462 -2.6900 -2.4597
-18.6828 -3.1874 -2.5035
-21.3658 -4.1789 -2.8789
-22.8032 -5.0351 -3.0914
-15.1395 -3.7288 -2.0663
-27.3943 -7.4538 -3.7664
-26.7409 -7.9750 -3.7060
-21.3333 -6.9280 -2.9820
-20.7152 -7.2853 -2.9224
-19.8829 -7.5374 -2.8328
-19.9170 -8.1061 -2.8677
-14.2928 -6.2239 -2.0811
-14.2637 -6.6259 -2.1016
-13.2878 -6.5676 -1.9826
-13.2765 -6.9663 -2.0074
-14.6958 -8.1700 -2.2534
-14.3474 -8.4367 -2.2327
-14.1188 -8.7684 -2.2316
-14.2013 -9.3027 -2.2816
-14.2043 -9.8034 -2.3215
-15.1153 -10.9810 -2.5153
-17.0838 -13.0534 -2.8971
-35.6544 -30.0837 -5.7711
-33.9937 -30.1192 -5.6235
-32.4164 -30.1516 -5.4863
-31.1856 -30.4458 -5.4056
-29.7089 -30.4413 -5.2800
-28.2828 -30.4177 -5.1599
-26.9924 -30.4754 -5.0614
-25.6857 -30.4528 -4.9568
-24.4339 -30.4321 -4.8594
-23.2313 -30.4123 -4.7685
-22.0455 -30.3542 -4.6776
-20.9513 -30.3655 -4.6030
-20.0735 -30.6531 -4.5746
-19.0369 -30.6631 -4.5088
-17.9986 -30.6189 -4.4396
-17.2535 -31.0460 -4.4423
-17.2239 -32.8385 -4.6403
-14.4304 -29.2084 -4.0789
-13.6922 -29.4892 -4.0727
-12.8743 -29.5798 -4.0429
-12.0316 -29.5785 -4.0035
-11.1563 -29.4473 -3.9496
-10.3445 -29.4339 -3.9146
-9.5851 -29.5381 -3.8979
-8.7628 -29.4078 -3.8529
-7.9904 -29.3950 -3.8259
-7.2575 -29.4996 -3.8166
-6.5025 -29.4871 -3.7944
-5.7333 -29.3577 -3.7597
-4.9475 -29.0517 -3.7048
-4.2620 -29.2905 -3.7216
-3.5752 -29.5721 -3.7458
-2.8616 -29.6770 -3.7496
-2.1379 -29.6651 -3.7407
-1.4117 -29.5364 -3.7193
-0.6962 -29.5246 -3.7146
0.0180 -29.6295 -3.7268
0.7341 -29.6051 -3.7247
1.1134 -22.7148 -2.8602
1.7035 -23.2434 -2.9308
2.3097 -23.6523 -2.9882
2.8737 -23.5304 -2.9802
3.4325 -23.3901 -2.9716
3.9899 -23.2585 -2.9656
4.5148 -22.9698 -2.9412
4.9643 -22.3822 -2.8797
5.4153 -21.8969 -2.8325
5.8445 -21.3981 -2.7846
6.2523 -20.8899 -2.7364
5.9515 -18.2649 -2.4098
6.3970 -18.1314 -2.4109
6.6722 -17.5471 -2.3530
7.2281 -17.7081 -2.3962
7.7986 -17.8587 -2.4402
7.9518 -17.0718 -2.3571
8.4295 -17.0102 -2.3748
9.0442 -17.1927 -2.4288
9.6417 -17.2999 -2.4747
9.8148 -16.6506 -2.4136
13.1104 -21.0602 -3.0959
13.9300 -21.2156 -3.1653
14.4811 -20.9337 -3.1724
14.9915 -20.5891 -3.1720
9.8271 -12.8325 -2.0115
10.3682 -12.8816 -2.0564
10.9346 -12.9322 -2.1045
21.1722 -23.8461 -3.9595
21.4565 -23.0204 -3.9042
22.0993 -22.5895 -3.9174
23.1472 -22.5437 -4.0019
29.8838 -27.7288 -5.0447
2.9624 -2.6184 -0.4888
3.0080 -2.5319 -0.4857
7.5481 -6.0476 -1.1936
7.6945 -5.8652 -1.1928
7.8525 -5.6909 -1.1945
8.0367 -5.5331 -1.2006
8.2549 -5.3939 -1.2121
31.2731 -19.3722 -4.5174
17.9748 -10.5421 -2.5562
16.5013 -9.1492 -2.3121
15.6038 -8.1648 -2.1558
14.9202 -7.3533 -2.0339
14.3474 -6.6450 -1.9313
13.8527 -6.0136 -1.8425
13.4580 -5.4596 -1.7700
13.1483 -4.9673 -1.7110
12.8534 -4.5040 -1.6561
12.6057 -4.0779 -1.6091
12.3830 -3.6778 -1.5671
6.1174 -1.6571 -0.7680
5.9778 -1.4652 -0.7449
5.8461 -1.2840 -0.7235
5.7215 -1.1124 -0.7037
5.6032 -0.9495 -0.6853
5.5822 -0.8077 -0.6794
5.9266 -0.7117 -0.7181
6.1072 -0.5841 -0.7372
6.0017 -0.4280 -0.7221
5.8687 -0.2762 -0.7042
4.7577 -0.1088 -0.5697
4.5721 0.0060 -0.5467
4.4004 0.1121 -0.5257
4.2412 0.2107 -0.5065
4.1287 0.3053 -0.4932
3.8045 0.3739 -0.4549
4.2830 0.5257 -0.5128
4.3757 0.6447 -0.5250
4.3012 0.7404 -0.5174
4.2287 0.8336 -0.5103
4.6357 1.0307 -0.5616
4.4699 1.1078 -0.5439
4.3138 1.1804 -0.5276
4.0523 1.2148 -0.4985
4.0268 1.3140 -0.4985
3.8942 1.3757 -0.4855
3.9991 1.5224 -0.5025
4.7470 1.9397 -0.6014
4.6285 2.0230 -0.5918
4.5126 2.1036 -0.5826
5.0506 2.5047 -0.6590
5.1780 2.7256 -0.6832
5.0192 2.7990 -0.6703
5.0692 2.9896 -0.6856
5.7077 3.5547 -0.7825
5.6266 3.6957 -0.7826
7.3021 5.0529 -1.0313
7.1742 5.2250 -1.0297
7.0647 5.4112 -1.0314
7.0711 5.6923 -1.0511
7.1893 6.0794 -1.0891
29.0442 25.7886 -4.4888
28.5716 26.6305 -4.5097
10.9080 10.6708 -1.7603
10.5717 10.8536 -1.7463
9.3447 10.0694 -1.5820
8.9779 10.1554 -1.5596
8.5965 10.2106 -1.5345
8.3255 10.3880 -1.5293
8.0873 10.6059 -1.5310
7.8449 10.8202 -1.5330
7.6016 11.0360 -1.5360
7.3573 11.2536 -1.5400
7.1097 11.4705 -1.5447
2.3710 4.0400 -0.5358
6.7880 12.2337 -1.5994
6.6832 12.7618 -1.6459
6.5135 13.2044 -1.6813
11.3168 24.4102 -3.0707
10.5939 24.3770 -3.0319
9.8898 24.3490 -2.9964
7.0611 18.6652 -2.2743
8.5436 24.3449 -2.9391
7.9007 24.3819 -2.9186
7.2671 24.4227 -2.9006
6.6417 24.4673 -2.8850
6.0231 24.5156 -2.8719
6.0063 27.2735 -3.1762
6.1056 31.3057 -3.6266
5.1088 30.0377 -3.4637
4.5832 31.5373 -3.6222
3.8520 31.9008 -3.6517
3.3428 34.7077 -3.9621
3.1565 66.0968 -7.5182
-9.1236 74.8303 -8.5692
-9.7512 66.5573 -7.6481
-9.5126 55.5419 -6.4083
-10.8876 55.4824 -6.4315
-12.1201 54.7331 -6.3786
-12.5219 50.7133 -5.9455
-10.4994 38.5019 -4.5439
-11.1079 37.1724 -4.4190
-12.1268 37.2761 -4.4667
-13.2610 37.6470 -4.5502
-13.6824 36.0414 -4.3968
-15.2948 37.5312 -4.6246
-15.7344 36.0907 -4.4950
-15.9326 34.2622 -4.3163
-16.4390 33.2280 -4.2372
-16.9532 32.2816 -4.1701
-14.6570 26.3436 -3.4499
-15.0871 25.6389 -3.4066
-15.3284 24.6661 -3.3279
-16.0879 24.5456 -3.3654
-16.5750 24.0036 -3.3475
-17.0607 23.4737 -3.3327
-17.3456 22.6925 -3.2829
-14.3127 17.8159 -2.6287
-14.2304 16.8626 -2.5402
-11.4187 12.8861 -1.9838
-11.8105 12.6967 -1.9998
-12.1292 12.4236 -2.0041
-12.4510 12.1518 -2.0100
-12.7766 11.8807 -2.0176
-12.4918 11.0656 -1.9317
-12.8168 10.8124 -1.9429
-13.1494 10.5600 -1.9560
-13.4604 10.2851 -1.9667
-13.5375 9.8353 -1.9447
-13.6209 9.4018 -1.9255
-13.7105 8.9826 -1.9089
-13.7520 8.5423 -1.8874
-13.7483 8.0864 -1.8616
-13.7496 7.6463 -1.8382
-13.4101 7.0389 -1.7716
-14.8974 7.3662 -1.9462
-14.1675 6.5842 -1.8316
-14.4804 6.3089 -1.8539
-14.6785 5.9776 -1.8624
-14.5779 5.5300 -1.8343
-14.4833 5.0973 -1.8085
-13.3506 4.3392 -1.6555
-15.7179 4.6919 -1.9367
-15.9877 4.3547 -1.9588
-14.2382 3.5110 -1.7356
-11.5510 2.5540 -1.4018
-11.6963 2.2912 -1.4140
-17.0798 2.9192 -2.0583
-16.5919 2.4248 -1.9943
-16.9006 2.0541 -2.0273
-12.4092 1.2048 -1.4864
-20.0145 1.4561 -2.3955
-19.9888 0.9694 -2.3918
-14.7604 0.3586 -1.7668
-14.8104 0.0019 -1.7745
-14.8632 -0.3574 -1.7835
-16.1835 -0.7807 -1.9460
-16.6290 -1.2056 -2.0049
-17.1074 -1.6567 -2.0693
-17.4605 -2.1179 -2.1202
-17.7076 -2.5835 -2.1598
-17.9689 -3.0668 -2.2027
-18.2457 -3.5699 -2.2492
-20.3709 -4.4995 -2.5268
-20.4393 -5.0356 -2.5527
-20.3182 -5.5298 -2.5565
-20.2088 -6.0283 -2.5633
-20.1107 -6.5324 -2.5731
-19.8943 -6.9980 -2.5692
-21.4055 -8.1161 -2.7920
-19.6406 -7.9951 -2.5892
-19.5856 -8.5301 -2.6112
-19.5159 -9.0671 -2.6332
-13.2845 -6.5670 -1.8153
-13.2731 -6.9655 -1.8381
-14.4560 -8.0378 -2.0304
-14.1099 -8.2981 -2.0114
-13.7952 -8.5685 -1.9976
-13.9216 -9.1206 -2.0492
-13.9783 -9.6486 -2.0934
-16.6414 -12.0910 -2.5377
-15.4258 -11.7879 -2.3973
-35.9167 -30.3082 -5.2857
-34.4421 -30.5195 -5.1808
-32.8657 -30.5724 -5.0582
-31.2856 -30.5463 -4.9319
-29.7167 -30.4521 -4.8035
-28.3283 -30.4695 -4.7010
-26.9900 -30.4754 -4.6038
-25.9341 -30.7499 -4.5529
-24.7043 -30.7716 -4.4700
-23.4560 -30.7090 -4.3806
-22.3732 -30.8078 -4.3195
-21.1605 -30.6711 -4.2304
-20.0719 -30.6531 -4.1627
-19.0916 -30.7536 -4.1152
-17.9972 -30.6189 -4.0404
-17.2534 -31.0482 -4.0433
-17.2238 -32.8408 -4.2237
-14.4293 -29.2084 -3.7127
-13.6913 -29.4892 -3.7072
-12.8734 -29.5798 -3.6802
-12.0308 -29.5785 -3.6445
-11.1555 -29.4473 -3.5957
-10.3437 -29.4339 -3.5639
-9.5845 -29.5380 -3.5488
-8.7622 -29.4078 -3.5079
-7.9898 -29.3950 -3.4835
-7.2571 -29.4996 -3.4751
-6.5021 -29.4871 -3.4550
-5.7329 -29.3577 -3.4234
-4.9471 -29.0517 -3.3735
-4.2618 -29.2905 -3.3888
-3.5750 -29.5721 -3.4109
-2.8615 -29.6770 -3.4144
-2.1378 -29.6651 -3.4064
-1.4117 -29.5364 -3.3869
-0.6962 -29.5246 -3.3826
0.0180 -29.6295 -3.3937
0.7340 -29.6051 -3.3918
1.0442 -21.3051 -2.4429
1.5744 -21.4834 -2.4667
2.1021 -21.5285 -2.4767
2.6359 -21.5851 -2.4894
3.1774 -21.6534 -2.5049
3.7281 -21.7338 -2.5233
4.2898 -21.8268 -2.5448
4.7568 -21.4485 -2.5126
5.1766 -20.9332 -2.4654
5.5828 -20.4415 -2.4219
5.5782 -18.6391 -2.2228
5.9582 -18.2870 -2.1965
6.1904 -17.5473 -2.1241
6.5741 -17.2907 -2.1106
6.9114 -16.9333 -2.0858
7.8663 -18.0152 -2.2407
8.0138 -17.2061 -2.1623
8.5009 -17.1555 -2.1799
9.1953 -17.4813 -2.2475
9.7278 -17.4557 -2.2723
9.9003 -16.7969 -2.2156
12.4185 -19.9505 -2.6686
13.5471 -20.6342 -2.8010
14.0423 -20.3011 -2.7990
14.5410 -19.9722 -2.7992
15.0441 -19.6468 -2.8015
10.4741 -13.0143 -1.8898
11.0489 -13.0687 -1.9343
20.5317 -23.1268 -3.4924
21.0381 -22.5736 -3.4815
21.3820 -21.8584 -3.4468
21.5611 -21.0009 -3.3896
7.4532 -6.9164 -1.1440
2.9620 -2.6183 -0.4443
3.0075 -2.5317 -0.4414
7.5025 -6.0117 -1.0784
7.6478 -5.8303 -1.0776
7.8121 -5.6623 -1.0800
8.0162 -5.5197 -1.0882
8.2333 -5.3805 -1.0985
18.2163 -11.2857 -2.3907
16.4290 -9.6368 -2.1225
15.5690 -8.6334 -1.9816
14.7896 -7.7399 -1.8558
14.2318 -7.0151 -1.7619
13.7430 -6.3661 -1.6799
13.3110 -5.7794 -1.6075
13.0004 -5.2749 -1.5523
12.7272 -4.8092 -1.5035
12.4715 -4.3711 -1.4585
12.2176 -3.9533 -1.4154
12.0178 -3.5702 -1.3801
6.1001 -1.6528 -0.6948
5.9548 -1.4600 -0.6732
5.8305 -1.2809 -0.6546
5.7066 -1.1099 -0.6366
5.5890 -0.9475 -0.6200
5.5526 -0.8038 -0.6128
5.8952 -0.7084 -0.6476
6.0816 -0.5821 -0.6655
5.9444 -0.4243 -0.6483
5.8139 -0.2740 -0.6323
4.7373 -0.1086 -0.5141
4.5532 0.0057 -0.4933
4.3830 0.1114 -0.4744
4.2250 0.2096 -0.4571
4.0701 0.3007 -0.4404
3.7546 0.3688 -0.4065
4.4202 0.5422 -0.4792
4.3444 0.6398 -0.4719
4.2709 0.7348 -0.4651
4.1993 0.8275 -0.4587
4.6336 1.0299 -0.5081
4.4680 1.1070 -0.4920
4.2145 1.1530 -0.4664
3.9591 1.1866 -0.4406
4.0252 1.3132 -0.4508
3.8927 1.3749 -0.4390
3.9593 1.5070 -0.4499
4.7167 1.9269 -0.5404
4.5984 2.0095 -0.5316
4.4836 2.0898 -0.5234
4.9059 2.4326 -0.5786
5.0242 2.6443 -0.5992
5.0801 2.8325 -0.6131
5.8821 3.4685 -0.7190
5.8005 3.6120 -0.7186
5.7182 3.7554 -0.7186
7.1586 4.9530 -0.9133
7.0347 5.1229 -0.9120
6.9397 5.3149 -0.9151
6.9552 5.5984 -0.9337
7.0723 5.9798 -0.9675
28.1368 24.9804 -3.9264
27.8184 25.9259 -3.9641
10.7277 10.4934 -1.5628
9.8609 10.1229 -1.4703
9.2720 9.9901 -1.4167
8.9314 10.1019 -1.4003
8.5653 10.1727 -1.3798
8.3008 10.3563 -1.3758
8.0601 10.5693 -1.3767
7.8179 10.7820 -1.3783
7.5754 10.9970 -1.3809
7.3234 11.2010 -1.3828
7.0659 11.3989 -1.3847
2.3710 4.0397 -0.4833
6.6569 11.9966 -1.4146
6.6554 12.7078 -1.4781
6.4859 13.1473 -1.5097
6.2832 13.5519 -1.5373
10.2450 23.5724 -2.6437
9.5543 23.5213 -2.6100
7.0607 18.6629 -2.0503
8.2520 23.5124 -2.5593
7.6305 23.5466 -2.5411
7.0184 23.5853 -2.5252
6.4144 23.6286 -2.5116
5.8103 23.6476 -2.4972
5.1316 23.3000 -2.4460
4.4806 22.9723 -2.3989
5.4378 31.9703 -3.3230
4.6437 31.9518 -3.3078
3.1687 66.3486 -6.8022
-8.2555 67.7049 -6.9886
-8.3380 56.9068 -5.8943
-9.4574 55.2152 -5.7426
-10.7322 54.6860 -5.7144
-12.0255 54.3018 -5.7048
-10.2170 41.3752 -4.3730
-13.1127 48.0818 -5.1158
-12.1980 40.8176 -4.3748
-11.7466 36.1049 -3.9007
-12.9343 36.7168 -4.0013
-14.2728 37.5937 -4.1354
-14.2014 34.8455 -3.8718
-14.7781 33.8945 -3.8069
-16.3527 35.1629 -3.9950
-15.7410 31.8147 -3.6591
-17.3423 33.0199 -3.8473
-18.1803 32.6734 -3.8597
-16.6275 28.2545 -3.3866
-16.6012 26.7122 -3.2513
-15.4701 23.6010 -2.9196
-15.9464 23.0914 -2.9057
-17.1536 23.5995 -3.0235
-14.8118 19.3759 -2.5296
-13.9828 17.4037 -2.3176
-14.2326 16.8636 -2.2930
-11.1743 12.6091 -1.7523
-11.5002 12.3619 -1.7578
-11.8101 12.0957 -1.7617
-12.1228 11.8303 -1.7670
-12.4389 11.5655 -1.7736
-11.8914 10.5326 -1.6606
-12.1140 10.2184 -1.6585
-12.1893 9.7879 -1.6377
-12.2687 9.3734 -1.6193
-12.3524 8.9732 -1.6031
-12.4403 8.5858 -1.5889
-31.1890 20.4312 -3.9240
-17.0245 10.5736 -2.1117
-16.1600 9.5036 -1.9778
-15.5804 8.6632 -1.8830
-14.5019 7.6108 -1.7320
-14.4388 7.1383 -1.7055
-14.4199 6.7005 -1.6858
-14.2310 6.1992 -1.6478
-14.2221 5.7907 -1.6322
-14.1318 5.3597 -1.6086
-14.0466 4.9427 -1.5869
-13.9662 4.5383 -1.5670
-14.8563 4.4337 -1.6565
-15.7318 4.2839 -1.7444
-15.8826 3.9154 -1.7525
-11.5492 2.5528 -1.2688
-11.6953 2.2902 -1.2802
-17.1002 2.9215 -1.8660
-16.5947 2.4240 -1.8064
-16.3717 1.9888 -1.7787
-12.4080 1.2039 -1.3464
-20.0692 1.4587 -2.1761
-19.5098 0.9448 -2.1153
-19.4887 0.4722 -2.1140
-16.7829 0.0010 -1.8224
-17.8968 -0.4315 -1.9465
-19.2776 -0.9313 -2.1014
-15.7622 -1.1438 -1.7230
-16.1896 -1.5689 -1.7757
-16.6482 -2.0205 -1.8333
-16.9310 -2.4714 -1.8729
-17.1667 -2.9311 -1.9088
-17.4157 -3.4087 -1.9476
-17.5578 -3.8793 -1.9760
-17.5344 -4.3211 -1.9871
-17.5150 -4.7681 -2.0000
-35.5949 -10.6205 -4.0978
-21.6228 -7.6075 -2.5350
-17.3116 -6.5651 -2.0501
-19.8992 -8.1018 -2.3820
-19.3163 -8.4143 -2.3387
-19.2164 -8.9294 -2.3549
-13.2811 -6.5663 -1.6485
-13.2697 -6.9647 -1.6694
-14.1500 -7.8687 -1.8056
-13.6804 -8.0466 -1.7720
-13.2312 -8.2192 -1.7410
-13.4854 -8.8359 -1.8040
-13.7261 -9.4756 -1.8683
-13.7570 -9.9964 -1.9068
-39.5225 -30.2051 -5.5835
-15.0764 -12.1105 -2.1729
-14.7353 -12.4356 -1.9525
-34.5093 -30.5820 -4.6743
-32.9393 -30.6440 -4.5655
-31.6425 -30.8977 -4.4926
-30.0723 -30.8193 -4.3786
-28.7390 -30.9140 -4.2962
-26.9876 -30.4753 -4.1473
-25.9319 -30.7499 -4.1019
-24.7630 -30.8473 -4.0374
-23.4541 -30.7090 -3.9473
-22.3713 -30.8078 -3.8926
-21.1588 -30.6711 -3.8126
-20.0703 -30.6531 -3.7518
-19.0901 -30.7536 -3.7093
-17.9959 -30.6188 -3.6421
-17.2534 -31.0504 -3.6452
-17.2238 -32.8431 -3.8082
-14.4283 -29.2084 -3.3474
-13.6903 -29.4892 -3.3426
-12.8516 -29.5319 -3.3131
-11.9998 -29.5044 -3.2782
-11.1547 -29.4473 -3.2426
-10.3430 -29.4339 -3.2141
-9.5487 -29.4298 -3.1889
-8.7610 -29.4056 -3.1636
-7.9799 -29.3603 -3.1382
-7.2120 -29.3183 -3.1152
-6.4611 -29.3031 -3.0970
-5.7219 -29.3032 -3.0822
-4.9468 -29.0517 -3.0430
-4.2615 -29.2905 -3.0569
-3.5679 -29.5156 -3.0710
-2.8436 -29.4934 -3.0610
-2.1245 -29.4815 -3.0539
-1.4084 -29.4697 -3.0484
-0.6946 -29.4579 -3.0446
0.0178 -29.4461 -3.0425
0.7297 -29.4344 -3.0421
1.4451 -29.4893 -3.0502
2.1552 -29.4108 -3.0463
2.8704 -29.3990 -3.0509
3.5264 -28.8790 -3.0044
2.8805 -19.6316 -2.0485
4.5235 -26.3727 -2.7619
4.6046 -23.4306 -2.4640
4.9578 -22.3567 -2.3622
4.9515 -20.0246 -2.1271
5.3441 -19.5690 -2.0910
5.5190 -18.4425 -1.9835
5.9616 -18.2989 -1.9821
6.2460 -17.7062 -1.9328
6.7072 -17.6419 -1.9419
7.0496 -17.2733 -1.9185
7.9475 -18.2025 -2.0412
8.0245 -17.2304 -1.9522
8.5906 -17.3380 -1.9861
9.0962 -17.2942 -2.0043
9.7989 -17.5848 -2.0634
10.5179 -17.8463 -2.1218
13.2557 -21.2971 -2.5674
14.0148 -21.3483 -2.6116
13.5215 -19.5497 -2.4289
14.0013 -19.2324 -2.4288
14.3776 -18.7779 -2.4124
18.0420 -22.4195 -2.9328
19.1454 -22.6472 -3.0194
19.7716 -22.2727 -3.0294
22.3243 -23.9559 -3.3275
22.4154 -22.9171 -3.2543
23.2949 -22.6919 -3.2979
7.2229 -6.7034 -0.9983
2.9615 -2.6182 -0.4000
3.0070 -2.5315 -0.3973
7.4575 -5.9764 -0.9649
7.6019 -5.7959 -0.9640
7.7821 -5.6412 -0.9682
7.9956 -5.5061 -0.9767
8.2119 -5.3671 -0.9858
8.4330 -5.2252 -0.9956
15.5387 -9.1158 -1.8057
14.7148 -8.1609 -1.6844
14.1223 -7.3918 -1.5936
13.6373 -6.7231 -1.5180
13.1813 -6.1068 -1.4485
12.8598 -5.5844 -1.3960
12.5863 -5.1078 -1.3507
12.3183 -4.6555 -1.3076
12.0517 -4.2248 -1.2664
11.8647 -3.8399 -1.2349
11.6767 -3.4696 -1.2045
6.0830 -1.6486 -0.6223
5.9226 -1.4525 -0.6013
5.8150 -1.2779 -0.5862
5.6919 -1.1074 -0.5701
5.5750 -0.9455 -0.5551
5.5234 -0.7999 -0.5471
5.8643 -0.7051 -0.5781
6.0227 -0.5768 -0.5913
5.8882 -0.4207 -0.5761
4.4352 -0.2093 -0.4326
4.3955 -0.1011 -0.4278
4.3566 0.0051 -0.4232
4.3183 0.1095 -0.4190
3.7650 0.1865 -0.3651
4.2437 0.3132 -0.4115
4.2071 0.4129 -0.4082
4.7988 0.5884 -0.4661
4.3137 0.6350 -0.4198
4.2410 0.7294 -0.4137
4.1704 0.8215 -0.4080
4.6316 1.0291 -0.4547
4.3887 1.0871 -0.4327
4.1147 1.1254 -0.4076
3.8703 1.1597 -0.3855
4.0236 1.3124 -0.4032
3.8912 1.3741 -0.3926
4.7997 1.8265 -0.4879
4.6859 1.9140 -0.4802
4.5687 1.9962 -0.4723
4.4551 2.0762 -0.4650
4.3448 2.1540 -0.4581
4.8796 2.5678 -0.5202
4.9985 2.7866 -0.5392
5.9790 3.5252 -0.6531
5.8960 3.6711 -0.6527
7.1790 4.7143 -0.8060
7.0209 4.8571 -0.8002
6.9167 5.0364 -0.8010
6.8311 5.2311 -0.8044
6.8434 5.5078 -0.8203
6.8769 5.8140 -0.8399
7.3301 6.5071 -0.9132
25.8725 24.1101 -3.2910
10.5537 10.3222 -1.3722
9.7028 9.9597 -1.2911
9.2006 9.9123 -1.2544
8.8633 10.0240 -1.2398
8.5333 10.1339 -1.2263
8.2734 10.3212 -1.2232
8.0326 10.5323 -1.2237
7.7911 10.7442 -1.2250
7.5435 10.9499 -1.2262
7.2795 11.1330 -1.2256
7.0227 11.3284 -1.2271
2.3710 4.0394 -0.4309
6.5753 11.8486 -1.2456
6.6077 12.6160 -1.3082
6.4585 13.0908 -1.3399
6.2448 13.4680 -1.3618
9.8462 22.6532 -2.2644
10.7770 26.5297 -2.6235
7.0603 18.6606 -1.8269
8.9684 25.5518 -2.4784
7.3525 22.6871 -2.1816
6.7641 22.7292 -2.1683
6.1831 22.7751 -2.1570
5.5317 22.5124 -2.1180
6.6711 30.2886 -2.8327
6.0422 30.9765 -2.8817
4.6067 27.0825 -2.5077
4.2311 29.1111 -2.6847
4.7757 66.3293 -6.0666
3.1348 65.6366 -5.9942
-7.8628 64.4789 -5.9290
-9.7694 66.6707 -6.1520
-11.1598 65.1491 -6.0364
-10.8619 55.3428 -5.1522
-12.2014 55.0921 -5.1567
-10.2815 41.6333 -3.9206
-12.8150 46.9866 -4.4545
-11.4756 38.3973 -3.6671
-12.2908 37.7746 -3.6368
-12.5982 35.7600 -3.4730
-13.9604 36.7681 -3.6047
-14.8150 36.3484 -3.5998
-16.2767 37.3288 -3.7371
-16.0813 34.5767 -3.5019
-16.2782 32.8979 -3.3731
-16.8418 32.0644 -3.3309
-18.9718 34.0932 -3.5910
-16.2166 27.5540 -2.9450
-16.1129 25.9243 -2.8140
-17.1011 26.0871 -2.8782
-16.4602 23.8335 -2.6751
-16.0960 22.1427 -2.5306
-13.4180 17.5511 -2.0443
-13.8205 17.2002 -2.0438
-14.1613 16.7777 -2.0357
-14.4043 16.2523 -2.0157
-14.5253 15.6124 -1.9814
-14.9028 15.2617 -1.9842
-14.9540 14.5917 -1.9458
-15.0202 13.9642 -1.9121
-10.2458 9.0741 -1.2775
-10.6707 9.0000 -1.3046
-19.2815 15.4812 -2.3138
-30.0916 22.9876 -3.5478
-29.4743 21.4087 -3.4173
-29.7677 20.5421 -3.3972
-30.1907 19.7748 -3.3944
-17.0229 10.5713 -1.8871
-15.2465 8.9652 -1.6679
-14.1583 7.8714 -1.5297
-14.0125 7.3529 -1.4964
-14.1502 6.9946 -1.4947
-14.1674 6.5821 -1.4813
-14.1859 6.1785 -1.4693
-14.1204 5.7483 -1.4498
-14.0429 5.3250 -1.4303
-13.9698 4.9146 -1.4124
-13.6534 4.4357 -1.3711
-13.0361 3.8896 -1.3012
-12.4857 3.3991 -1.2396
-15.6322 3.8526 -1.5446
-11.5475 2.5516 -1.1362
-11.6944 2.2892 -1.1466
-17.1269 2.9249 -1.6744
-15.9239 2.3250 -1.5531
-16.6944 2.0268 -1.6255
-12.4068 1.2029 -1.2066
-19.5002 1.4160 -1.8955
-19.0542 0.9215 -1.8522
-19.0345 0.4599 -1.8515
-18.7884 -0.0002 -1.8298
-18.8849 -0.4566 -1.8424
-18.7637 -0.9077 -1.8350
-18.4103 -1.3372 -1.8058
-15.3672 -1.4903 -1.5126
-15.7776 -1.9159 -1.5594
-24.6314 -3.5971 -2.4460
-16.4348 -2.8072 -1.6407
-16.6597 -3.2618 -1.6730
-16.8465 -3.7233 -1.7027
-16.8211 -4.1464 -1.7122
-23.3392 -6.3553 -2.3941
-18.8415 -5.6231 -1.9488
-19.3154 -6.2767 -2.0158
-19.4379 -6.8402 -2.0481
-19.5695 -7.4228 -2.0831
-19.3756 -7.8900 -2.0850
-19.0485 -8.2990 -2.0735
-18.8021 -8.7382 -2.0718
-13.2778 -6.5656 -1.4821
-13.2663 -6.9640 -1.5011
-13.6030 -7.5656 -1.5614
-13.1434 -7.7317 -1.5316
-12.3793 -7.6909 -1.4656
-12.7707 -8.3686 -1.5373
-13.1195 -9.0579 -1.6071
-13.5046 -9.8141 -1.6848
-14.0506 -10.7394 -1.7869
-38.1633 -30.6589 -4.9518
-36.2895 -30.6290 -4.2777
-34.9965 -31.0169 -4.2176
-33.1798 -30.8706 -4.0922
-31.7064 -30.9630 -4.0063
-30.0695 -30.8193 -3.8968
-28.7364 -30.9139 -3.8240
-26.9852 -30.4753 -3.6919
-25.9296 -30.7498 -3.6518
-24.7609 -30.8472 -3.5948
-23.4521 -30.7089 -3.5150
-22.3695 -30.8077 -3.4666
-21.1571 -30.6710 -3.3957
-20.0688 -30.6531 -3.3419
-19.0808 -30.7409 -3.3030
-17.9945 -30.6188 -3.2448
-17.2534 -31.0527 -3.2481
-17.2238 -32.8454 -3.3935
-14.4272 -29.2084 -2.9829
-13.6893 -29.4892 -2.9789
-12.8259 -29.4749 -2.9471
-11.9813 -29.4610 -2.9176
-11.1540 -29.4473 -2.8903
-10.3424 -29.4339 -2.8651
-9.5451 -29.4207 -2.8418
-8.7610 -29.4078 -2.8205
-7.9888 -29.3950 -2.8011
-7.2273 -29.3824 -2.7835
-6.4755 -29.3700 -2.7676
-5.7322 -29.3577 -2.7533
-4.9466 -29.0517 -2.7133
-4.2613 -29.2905 -2.7258
-3.5746 -29.5721 -2.7436
-2.8499 -29.5602 -2.7357
-2.1292 -29.5483 -2.7293
-1.4116 -29.5364 -2.7245
-0.6962 -29.5246 -2.7211
0.0178 -29.5128 -2.7192
0.7313 -29.5010 -2.7188
1.4450 -29.4893 -2.7199
2.1486 -29.3239 -2.7083
2.8066 -28.7475 -2.6602
3.4026 -27.8676 -2.5851
3.9343 -26.8157 -2.4950
4.3637 -25.4430 -2.3757
3.9773 -20.2398 -1.8977
4.6690 -21.0559 -1.9835
4.7456 -19.1934 -1.8176
5.1254 -18.7697 -1.7879
5.5252 -18.4648 -1.7703
5.9353 -18.2193 -1.7591
6.3025 -17.8676 -1.7384
6.8644 -18.0568 -1.7714
7.1937 -17.6277 -1.7448
7.6727 -17.5745 -1.7563
8.0069 -17.1939 -1.7359
8.7115 -17.5834 -1.7947
9.1406 -17.3801 -1.7946
9.4826 -17.0186 -1.7790
10.5545 -17.9097 -1.8967
13.8163 -22.1995 -2.3837
14.4143 -21.9587 -2.3924
14.3368 -20.7303 -2.2936
13.4982 -18.5430 -2.0851
15.7767 -20.6070 -2.3571
16.3197 -20.2811 -2.3618
16.8022 -19.8772 -2.3589
16.9323 -19.0759 -2.3093
21.6435 -23.2276 -2.8712
22.4478 -22.9524 -2.9001
7.1252 -6.9414 -0.8975
7.0966 -6.5869 -0.8726
2.9611 -2.6181 -0.3558
3.0065 -2.5314 -0.3533
7.4132 -5.9415 -0.8530
7.5623 -5.7664 -0.8527
7.7627 -5.6278 -0.8586
7.9750 -5.4926 -0.8659
8.1906 -5.3539 -0.8738
8.4071 -5.2098 -0.8820
14.6508 -8.5961 -1.5127
14.0174 -7.7752 -1.4254
13.5275 -7.0815 -1.3558
13.0761 -6.4475 -1.2926
12.7257 -5.8967 -1.2417
12.4454 -5.4054 -1.1994
12.1589 -4.9352 -1.1581
11.9008 -4.4986 -1.1211
11.7058 -4.1044 -1.0914
11.5286 -3.7319 -1.0644
11.3554 -3.3750 -1.0390
6.0660 -1.6444 -0.5503
5.8907 -1.4451 -0.5302
5.7997 -1.2750 -0.5183
5.6772 -1.1049 -0.5040
5.5610 -0.9435 -0.4907
5.4946 -0.7961 -0.4822
5.8338 -0.7018 -0.5094
4.5164 -0.4329 -0.3927
4.4750 -0.3200 -0.3877
4.4346 -0.2096 -0.3830
4.3949 -0.1013 -0.3786
4.3560 0.0048 -0.3745
3.8811 0.0981 -0.3332
3.7680 0.1864 -0.3232
4.2431 0.3129 -0.3639
4.2066 0.4126 -0.3609
4.7612 0.5834 -0.4089
4.7768 0.7029 -0.4109
4.6382 0.7974 -0.3998
4.7603 0.9374 -0.4115
4.5765 1.0166 -0.3969
4.2815 1.0602 -0.3728
4.0197 1.0991 -0.3517
4.1613 1.2466 -0.3660
4.0220 1.3116 -0.3558
3.8897 1.3733 -0.3464
4.7751 1.8168 -0.4283
4.6554 1.9012 -0.4209
4.5395 1.9832 -0.4140
4.4270 2.0628 -0.4075
4.3177 2.1403 -0.4015
4.7434 2.4958 -0.4458
4.8539 2.7056 -0.4615
5.6945 3.3570 -0.5482
5.9946 3.7320 -0.5847
7.0751 4.6455 -0.6998
6.9377 4.7990 -0.6965
6.8378 4.9784 -0.6973
6.7511 5.1693 -0.7000
6.7025 5.3938 -0.7073
6.7381 5.6961 -0.7244
7.0003 6.2137 -0.7675
23.7540 22.1338 -2.6588
9.9442 9.7252 -1.1376
9.5099 9.7608 -1.1132
9.1555 9.8629 -1.0980
8.8326 9.9884 -1.0866
8.5154 10.1117 -1.0761
8.2615 10.3055 -1.0739
8.0175 10.5117 -1.0738
7.7750 10.7212 -1.0745
7.5009 10.8872 -1.0716
7.2370 11.0671 -1.0708
6.9787 11.2565 -1.0715
2.3710 4.0392 -0.3786
6.5152 11.7395 -1.0843
6.5351 12.4763 -1.1365
6.4207 13.0133 -1.1700
6.2069 13.3853 -1.1887
6.1128 14.0629 -1.2345
7.8551 19.3356 -1.6791
7.0599 18.6582 -1.6040
8.9013 25.3591 -2.1597
8.2618 25.4912 -2.1521
6.5281 21.9347 -1.8371
5.9120 21.7750 -1.8104
6.6657 27.1258 -2.2403
6.0300 27.3762 -2.2474
6.0111 30.8150 -2.5162
5.3574 31.4942 -2.5596
13.2909 91.4397 -7.4014
3.2180 26.6462 -2.1495
2.8209 29.2836 -2.3556
4.6927 65.1742 -5.2315
3.0969 64.8407 -5.1968
-7.3437 75.3137 -6.0609
-11.8246 96.9602 -7.8254
-9.5917 65.4531 -5.3012
-9.4469 55.1455 -4.4850
-10.2341 52.1401 -4.2609
-11.2451 50.7704 -4.1717
-9.3833 37.9934 -3.1410
-10.2919 37.7327 -3.1406
-11.0864 37.0921 -3.1103
-12.4581 38.2860 -3.2366
-13.3502 37.8916 -3.2315
-13.4796 35.4992 -3.0564
-14.2666 35.0002 -3.0443
-15.2507 34.9732 -3.0754
-15.5543 33.4409 -2.9751
-16.5038 33.3513 -3.0042
-17.2566 32.8516 -2.9984
-16.0995 28.9293 -2.6775
-15.1811 25.7925 -2.4227
-15.5243 24.9753 -2.3828
-15.5392 23.7026 -2.2988
-15.1288 21.9038 -2.1614
-17.8895 24.6078 -2.4728
-13.1530 17.2030 -1.7620
-13.5035 16.8042 -1.7561
-13.7940 16.3410 -1.7440
-14.0816 15.8867 -1.7334
-15.3752 16.5243 -1.8452
-14.4748 14.8220 -1.6958
-15.2092 14.8393 -1.7416
-15.5174 14.4250 -1.7387
-9.9979 8.8537 -1.0975
-10.4075 8.7771 -1.1203
-10.8348 8.6984 -1.1450
-11.2817 8.6174 -1.1715
-11.7500 8.5337 -1.2001
-12.1639 8.3931 -1.2231
-12.4818 8.1745 -1.2367
-12.8073 7.9524 -1.2514
-13.1412 7.7262 -1.2673
-13.4842 7.4956 -1.2845
-13.7861 7.2331 -1.2983
-13.8052 6.8230 -1.2862
-13.8254 6.4222 -1.2753
-13.7817 6.0015 -1.2595
-13.7085 5.5796 -1.2422
-13.5896 5.1521 -1.2217
-12.9567 4.5573 -1.1565
-12.0126 3.9018 -1.0653
-15.1029 4.5052 -1.3315
-15.2456 4.1494 -1.3370
-14.9825 3.6914 -1.3080
-11.5457 2.5504 -1.0039
-11.6935 2.2882 -1.0134
-15.5048 2.6468 -1.3400
-16.6003 2.4226 -1.4316
-12.5569 1.5237 -1.0813
-12.4057 1.2020 -1.0673
-18.9637 1.3758 -1.6309
-18.6204 0.8993 -1.6017
-18.5737 0.4475 -1.5990
-18.5118 -0.0014 -1.5959
-18.2942 -0.4436 -1.5803
-17.7524 -0.8600 -1.5375
-16.8075 -1.2219 -1.4602
-19.9597 -1.9370 -1.7405
-19.7208 -2.3961 -1.7271
-20.7577 -3.0327 -1.8269
-21.1119 -3.6076 -1.8682
-24.3187 -4.7631 -2.1651
-16.1822 -3.5776 -1.4504
-25.2717 -6.2313 -2.2815
-21.5410 -5.8671 -1.9601
-22.3795 -6.6805 -2.0538
-17.4597 -5.6749 -1.6169
-17.8315 -6.2761 -1.6675
-18.2347 -6.9177 -1.7230
-18.6735 -7.6054 -1.7841
-18.6672 -8.1342 -1.8044
-18.3462 -8.5277 -1.7955
-13.2745 -6.5650 -1.3162
-13.2629 -6.9632 -1.3333
-13.0005 -7.2315 -1.3260
-14.2159 -8.3637 -1.4722
-13.9402 -8.6618 -1.4670
-13.8737 -9.0925 -1.4847
-14.9414 -10.3170 -1.6273
-12.6221 -9.1738 -1.4003
-40.1976 -30.7277 -4.5465
-11.7294 -9.4239 -1.3537
-36.2857 -30.6289 -3.7475
-13.5591 -12.0185 -1.4319
-33.1765 -30.8706 -3.5862
-31.7034 -30.9629 -3.5115
-30.0667 -30.8192 -3.4161
-28.7219 -30.9011 -3.3514
-26.9828 -30.4753 -3.2374
-25.9273 -30.7498 -3.2028
-24.6723 -30.7394 -3.1422
-23.4501 -30.7089 -3.0836
-22.2472 -30.6417 -3.0252
-21.1554 -30.6710 -2.9797
-20.0672 -30.6530 -2.9329
-19.0140 -30.6356 -2.8891
-17.9931 -30.6188 -2.8483
-17.2533 -31.0549 -2.8517
-17.2237 -32.8477 -2.9797
-14.4262 -29.2083 -2.6192
-13.6883 -29.4892 -2.6159
-12.8250 -29.4749 -2.5882
-11.9805 -29.4609 -2.5625
-11.1532 -29.4473 -2.5387
-10.3417 -29.4339 -2.5167
-9.5445 -29.4207 -2.4965
-8.7605 -29.4077 -2.4780
-7.9883 -29.3950 -2.4610
-7.2269 -29.3824 -2.4456
-6.4751 -29.3700 -2.4318
-5.7319 -29.3577 -2.4194
-4.9462 -29.0517 -2.3843
-4.2610 -29.2905 -2.3953
-3.5744 -29.5721 -2.4111
-2.8497 -29.5602 -2.4042
-2.1291 -29.5483 -2.3986
-1.4115 -29.5364 -2.3943
-0.6962 -29.5246 -2.3914
0.0178 -29.5128 -2.3897
0.6549 -26.4239 -2.1401
1.2926 -26.3811 -2.1384
1.9300 -26.3428 -2.1381
2.5562 -26.1849 -2.1293
3.1114 -25.4848 -2.0774
3.6416 -24.8229 -2.0295
4.0984 -23.8979 -1.9607
4.7974 -24.4152 -2.0114
4.1253 -18.6052 -1.5399
4.7725 -19.3033 -1.6060
5.4816 -20.0754 -1.6800
5.5315 -18.4871 -1.5570
5.9785 -18.3534 -1.5566
6.1990 -17.5757 -1.5019
6.8365 -17.9849 -1.5496
7.0140 -17.1886 -1.4941
7.4797 -17.1336 -1.5035
7.9894 -17.1576 -1.5209
8.6295 -17.4192 -1.5609
9.2462 -17.5822 -1.5937
9.5894 -17.2116 -1.5792
10.5912 -17.9735 -1.6706
13.6382 -21.9152 -2.0650
14.0852 -21.4591 -2.0514
14.6397 -21.1700 -2.0549
15.3969 -21.1531 -2.0865
16.0970 -21.0273 -2.1095
18.0359 -22.4159 -2.2892
20.7361 -24.5332 -2.5528
21.2745 -23.9701 -2.5439
21.5470 -23.1261 -2.5057
7.1003 -7.2606 -0.8040
6.9914 -6.8118 -0.7718
7.0031 -6.5007 -0.7545
2.9607 -2.6180 -0.3116
3.0060 -2.5312 -0.3094
7.3696 -5.9071 -0.7426
7.5351 -5.7463 -0.7439
7.7434 -5.6144 -0.7497
7.9547 -5.4793 -0.7560
8.1694 -5.3407 -0.7627
8.3779 -5.1924 -0.7690
13.9257 -8.1717 -1.2577
13.4095 -7.4391 -1.1925
12.9737 -6.7925 -1.1369
12.6043 -6.2158 -1.0892
12.2829 -5.6924 -1.0474
11.9957 -5.2110 -1.0101
11.7535 -4.7715 -0.9780
11.5506 -4.3670 -0.9504
11.3756 -3.9894 -0.9261
11.2022 -3.6271 -0.9030
11.0340 -3.2802 -0.8811
6.0491 -1.6403 -0.4789
5.8593 -1.4378 -0.4601
5.7844 -1.2720 -0.4508
5.6627 -1.1025 -0.4383
5.5471 -0.9415 -0.4267
5.4661 -0.7924 -0.4181
5.8036 -0.6985 -0.4416
4.5158 -0.4331 -0.3421
4.4744 -0.3203 -0.3376
4.4339 -0.2098 -0.3334
4.3943 -0.1016 -0.3295
4.3554 0.0045 -0.3259
3.8843 0.0979 -0.2901
3.7710 0.1863 -0.2814
4.2426 0.3126 -0.3164
4.2061 0.4123 -0.3137
4.7243 0.5786 -0.3526
4.7517 0.6989 -0.3552
4.7548 0.8171 -0.3561
4.7232 0.9297 -0.3546
4.4609 0.9906 -0.3360
4.1796 1.0347 -0.3159
3.9292 1.0741 -0.2983
4.1596 1.2459 -0.3174
4.0204 1.3108 -0.3085
3.8882 1.3725 -0.3003
4.7439 1.8046 -0.3689
4.6255 1.8887 -0.3625
4.5107 1.9702 -0.3565
4.3993 2.0496 -0.3508
4.2911 2.1268 -0.3456
5.7960 3.0492 -0.4717
5.2710 2.9377 -0.4339
5.6989 3.3592 -0.4748
5.6495 3.5167 -0.4768
5.5995 3.6761 -0.4792
6.8711 4.7524 -0.5966
6.7659 4.9255 -0.5967
6.6763 5.1115 -0.5985
6.5878 5.3010 -0.6010
6.6052 5.5832 -0.6137
6.8512 6.0808 -0.6490
22.4094 20.8789 -2.1668
9.8730 9.6546 -0.9755
9.4643 9.7131 -0.9567
9.1416 9.8470 -0.9465
8.8264 9.9805 -0.9373
8.5095 10.1038 -0.9280
8.2567 10.2987 -0.9261
8.0128 10.5047 -0.9258
7.8212 10.7840 -0.9324
7.4662 10.8359 -0.9199
7.2035 11.0150 -0.9191
6.9426 11.1974 -0.9190
2.3711 4.0389 -0.3264
6.4588 11.6370 -0.9265
6.4527 12.3181 -0.9671
6.4046 12.9797 -1.0057
6.1780 13.3221 -1.0195
5.9491 13.6853 -1.0351
5.8992 14.5200 -1.0863
7.0595 18.6559 -1.3815
8.4731 24.1376 -1.7706
8.1362 25.1019 -1.8252
7.5707 25.4362 -1.8346
7.0426 25.9376 -1.8570
6.4219 26.1320 -1.8583
5.7738 26.2111 -1.8527
5.1032 26.1592 -1.8390
4.4318 26.0510 -1.8228
3.7412 25.7373 -1.7934
3.0422 25.1890 -1.7492
2.6841 27.8622 -1.9294
4.7136 65.4609 -4.5232
3.1548 66.0494 -4.5569
-6.6939 68.6449 -4.7557
-9.2870 76.1459 -5.2907
-9.8295 67.0706 -4.6768
-9.9163 57.8813 -4.0531
-9.5618 48.7111 -3.4276
-9.3790 42.3419 -2.9959
-10.3675 41.9753 -2.9884
-11.1116 40.7348 -2.9200
-11.9649 40.0286 -2.8910
-11.5163 35.3890 -2.5770
-13.1208 37.2378 -2.7358
-14.1560 37.2777 -2.7652
-14.3012 35.0825 -2.6293
-15.9836 36.6510 -2.7774
-15.3277 32.9513 -2.5266
-16.1796 32.6937 -2.5385
-17.0369 32.4309 -2.5518
-15.1251 27.1763 -2.1687
-14.5236 24.6734 -1.9986
-14.6624 23.5867 -1.9408
-14.2241 21.6947 -1.8150
-14.9663 21.6667 -1.8446
-15.8359 21.7811 -1.8887
-16.5608 21.6583 -1.9146
-13.9703 17.3835 -1.5681
-14.4329 17.0964 -1.5753
-14.8047 16.7010 -1.5736
-15.3772 16.5249 -1.5938
-14.9541 15.3113 -1.5134
-14.8724 14.5093 -1.4714
-15.1734 14.1039 -1.4692
-15.4364 13.6683 -1.4645
-10.1575 8.5653 -0.9453
-10.5693 8.4843 -0.9658
-10.9993 8.4008 -0.9879
-11.4494 8.3144 -1.0116
-11.8615 8.1834 -1.0320
-12.2173 8.0003 -1.0476
-12.5332 7.7812 -1.0601
-12.8568 7.5580 -1.0736
-13.1890 7.3304 -1.0881
-13.4551 7.0584 -1.0977
-13.4772 6.6599 -1.0880
-13.4548 6.2490 -1.0757
-13.3860 5.8281 -1.0605
-12.9008 5.2499 -1.0136
-11.3686 4.3093 -0.8865
-14.4281 5.0738 -1.1173
-14.7358 4.7852 -1.1340
-14.8743 4.4359 -1.1382
-15.4032 4.1912 -1.1728
-15.7335 3.8753 -1.1928
-11.5440 2.5492 -0.8719
-11.6925 2.2872 -0.8804
-16.5422 2.8228 -1.2425
-16.6449 2.4280 -1.2479
-12.5538 1.5225 -0.9400
-12.4045 1.2010 -0.9282
-18.1136 1.3129 -1.3552
-18.2703 0.8811 -1.3676
-18.1561 0.4363 -1.3605
-17.3551 -0.0025 -1.3027
-16.2820 -0.3959 -1.2249
-15.3416 -0.7442 -1.1574
-16.7369 -1.2179 -1.2669
-19.5128 -1.8949 -1.4829
-28.9211 -3.5160 -2.2079
-19.7362 -2.8848 -1.5145
-20.0242 -3.4231 -1.5454
-20.3120 -3.9797 -1.5775
-20.5411 -4.5427 -1.6064
-20.6733 -5.0989 -1.6289
-20.4975 -5.5843 -1.6282
-20.3258 -6.0689 -1.6287
-21.6480 -7.0378 -1.7509
-21.2656 -7.4864 -1.7372
-19.9076 -7.5538 -1.6436
-19.4104 -7.9069 -1.6207
-13.5031 -5.8849 -1.1409
-14.1120 -6.5606 -1.2075
-13.2712 -6.5643 -1.1507
-12.8679 -6.7567 -1.1314
-14.1320 -7.8620 -1.2610
-13.8917 -8.1741 -1.2588
-13.7311 -8.5329 -1.2646
-13.4409 -8.8099 -1.2591
-13.0178 -8.9898 -1.2413
-12.5035 -9.0886 -1.2147
-12.1501 -9.2888 -1.2036
-38.6757 -31.0770 -3.9101
-36.2819 -30.6289 -3.2183
-34.8506 -30.8937 -3.1617
-33.1733 -30.8705 -3.0812
-31.5789 -30.8442 -3.0060
-30.0639 -30.8192 -2.9362
-28.6210 -30.7953 -2.8713
-26.9804 -30.4752 -2.7837
-25.9251 -30.7498 -2.7545
-24.6618 -30.7289 -2.7020
-23.4482 -30.7089 -2.6530
-22.2801 -30.6896 -2.6072
-21.1538 -30.6710 -2.5645
-20.0656 -30.6530 -2.5246
-19.0126 -30.6356 -2.4873
-17.9918 -30.6188 -2.4525
-17.2533 -31.0571 -2.4559
-17.2237 -32.8501 -2.5665
-14.4252 -29.2083 -2.2561
-13.6874 -29.4891 -2.2536
-12.8261 -29.4795 -2.2303
-11.9849 -29.4737 -2.2090
-11.1524 -29.4473 -2.1878
-10.3409 -29.4339 -2.1691
-9.5548 -29.4545 -2.1543
-8.7599 -29.4077 -2.1360
-7.9878 -29.3950 -2.1215
-7.2387 -29.4324 -2.1120
-6.4867 -29.4244 -2.1005
-5.7315 -29.3577 -2.0860
-4.9460 -29.0517 -2.0559
-4.2608 -29.2904 -2.0655
-3.5741 -29.5721 -2.0791
-2.8539 -29.6045 -2.0763
-2.1323 -29.5944 -2.0717
-1.4115 -29.5364 -2.0648
-0.6962 -29.5246 -2.0622
0.0178 -29.5617 -2.0642
0.6277 -25.3311 -1.7692
1.2338 -25.1842 -1.7603
1.8102 -24.7093 -1.7294
2.3677 -24.2565 -1.7009
2.9084 -23.8238 -1.6745
3.4340 -23.4094 -1.6502
4.3312 -25.2572 -1.7867
4.7476 -24.1637 -1.7162
5.2501 -23.6800 -1.6896
5.7182 -23.1302 -1.6589
6.1460 -22.5103 -1.6237
6.5481 -21.8864 -1.5887
5.9853 -18.3756 -1.3431
6.4150 -18.1895 -1.3394
6.4731 -17.0299 -1.2642
7.2666 -17.8090 -1.3337
7.7432 -17.7387 -1.3409
7.9720 -17.1216 -1.3072
8.7954 -17.7554 -1.3702
9.2820 -17.6516 -1.3777
9.5856 -17.2061 -1.3592
9.9468 -16.8812 -1.3507
13.3326 -21.4259 -1.7376
13.7713 -20.9826 -1.7262
13.8259 -19.9949 -1.6699
21.2295 -29.1688 -2.4751
16.9089 -22.0897 -1.9060
18.0328 -22.4141 -1.9684
28.6834 -33.9388 -3.0363
27.9103 -31.4495 -2.8690
27.5900 -29.6147 -2.7576
6.8549 -7.0103 -0.6670
6.8581 -6.6825 -0.6504
6.9570 -6.4586 -0.6438
2.9603 -2.6179 -0.2676
3.0055 -2.5311 -0.2656
7.3309 -5.8768 -0.6340
7.5167 -5.7329 -0.6368
7.7243 -5.6012 -0.6416
7.9344 -5.4660 -0.6467
8.1439 -5.3247 -0.6520
8.3491 -5.1752 -0.6569
13.2896 -7.7994 -1.0286
12.8416 -7.1250 -0.9784
12.4848 -6.5375 -0.9371
12.1200 -5.9778 -0.8968
11.8370 -5.4866 -0.8641
11.6004 -5.0401 -0.8360
11.3945 -4.6266 -0.8112
11.2147 -4.2409 -0.7892
11.0515 -3.8766 -0.7693
10.8876 -3.5260 -0.7502
10.7548 -3.1980 -0.7339
6.0323 -1.6362 -0.4079
5.8282 -1.4305 -0.3908
5.7693 -1.2691 -0.3839
5.6483 -1.1001 -0.3731
5.5333 -0.9395 -0.3631
5.4238 -0.7866 -0.3538
5.7738 -0.6953 -0.3746
4.5151 -0.4334 -0.2915
4.4738 -0.3205 -0.2876
4.4333 -0.2101 -0.2839
4.3937 -0.1019 -0.2805
4.3548 0.0042 -0.2773
3.8874 0.0978 -0.2471
3.7740 0.1862 -0.2395
4.2420 0.3122 -0.2690
4.2055 0.4119 -0.2666
4.6880 0.5738 -0.2974
4.7148 0.6931 -0.2993
4.7411 0.8145 -0.3015
4.6495 0.9149 -0.2963
4.3512 0.9660 -0.2781
4.0826 1.0104 -0.2618
4.3048 1.1765 -0.2772
4.1579 1.2451 -0.2690
4.0188 1.3100 -0.2613
3.8867 1.3717 -0.2543
4.7131 1.7925 -0.3104
4.5959 1.8763 -0.3049
4.4823 1.9575 -0.2998
4.3720 2.0365 -0.2950
4.2648 2.1134 -0.2905
5.4067 2.8440 -0.3720
5.7521 3.2055 -0.4002
5.7033 3.3613 -0.4015
5.6539 3.5190 -0.4031
5.6039 3.6786 -0.4049
5.5531 3.8404 -0.4070
6.6957 4.8738 -0.4983
6.6066 5.0576 -0.4997
6.5170 5.2434 -0.5014
6.4860 5.4818 -0.5081
6.7298 5.9725 -0.5374
21.2620 19.8079 -1.7324
9.8077 9.5899 -0.8164
9.4192 9.6659 -0.8019
9.1063 9.8081 -0.7938
8.8203 9.9727 -0.7884
8.5036 10.0960 -0.7805
8.2519 10.2919 -0.7788
8.0198 10.5130 -0.7795
7.8679 10.8475 -0.7888
7.4967 10.8793 -0.7766
7.1703 10.9633 -0.7690
6.9096 11.1434 -0.7687
2.3711 4.0386 -0.2742
6.4201 11.5664 -0.7737
6.3528 12.1265 -0.7997
6.3975 12.9645 -0.8437
6.1717 13.3076 -0.8551
5.9384 13.6597 -0.8674
5.7695 14.1998 -0.8918
7.0591 18.6536 -1.1595
9.0429 25.7588 -1.5858
8.2726 25.5211 -1.5572
7.7862 26.1585 -1.5831
7.3450 27.0494 -1.6247
6.8337 27.8057 -1.6588
5.4182 24.5954 -1.4583
4.7799 24.5005 -1.4447
4.1533 24.4123 -1.4326
3.5369 24.3305 -1.4219
3.9540 32.7369 -1.9065
4.7176 65.5125 -3.7960
3.1145 65.2041 -3.7723
-2.2591 91.2856 -5.2771
-7.4125 76.0072 -4.4160
-8.8058 72.1957 -4.2071
-9.6217 65.6476 -3.8394
-11.0749 64.6389 -3.7966
-10.3944 52.9488 -3.1254
-11.4299 51.5970 -3.0627
-13.6473 55.2505 -3.3003
-12.3937 45.4321 -2.7327
-11.5608 38.6737 -2.3440
-12.3713 38.0137 -2.3233
-13.1414 37.2936 -2.3000
-14.0800 37.0748 -2.3089
-14.9441 36.6567 -2.3069
-16.4363 37.6862 -2.3984
-14.7568 31.7215 -2.0431
-15.6630 31.6473 -2.0644
-17.5286 33.3643 -2.2060
-14.4401 25.9434 -1.7400
-15.1344 25.7091 -1.7505
-15.7784 25.3800 -1.7559
-16.4284 25.0547 -1.7627
-17.0281 24.6495 -1.7652
-14.7628 20.3034 -1.4812
-15.4716 20.2320 -1.5051
-14.0366 17.4645 -1.3261
-14.4347 17.0970 -1.3265
-14.8805 16.7850 -1.3319
-13.4892 14.4946 -1.1777
-14.0611 14.3956 -1.1990
-14.5188 14.1630 -1.2106
-14.8449 13.7971 -1.2118
-15.1020 13.3708 -1.2083
-9.9196 8.3638 -0.7787
-10.3169 8.2808 -0.7955
-10.7312 8.1951 -0.8135
-11.1642 8.1064 -0.8328
-11.5468 7.9654 -0.8484
-11.8996 7.7913 -0.8620
-12.2637 7.6129 -0.8766
-12.5849 7.3972 -0.8884
-12.9068 7.1726 -0.9005
-13.1401 6.8922 -0.9068
-13.1382 6.4914 -0.8975
-12.8655 5.9743 -0.8706
-10.8551 4.7254 -0.7282
-14.1149 5.7430 -0.9394
-14.2481 5.3997 -0.9414
-14.3820 5.0566 -0.9440
-14.4956 4.7062 -0.9458
-14.6528 4.3688 -0.9510
-15.1372 4.1178 -0.9779
-15.4741 3.8104 -0.9957
-11.5422 2.5480 -0.7402
-11.6916 2.2863 -0.7477
-15.9622 2.7227 -1.0187
-16.3174 2.3791 -1.0397
-12.5508 1.5213 -0.7990
-12.4033 1.2001 -0.7893
-16.6275 1.2040 -1.0584
-16.6917 0.8039 -1.0634
-16.6704 0.3994 -1.0635
-16.6044 -0.0035 -1.0614
-16.5399 -0.4032 -1.0600
-16.4770 -0.8004 -1.0593
-16.4154 -1.1956 -1.0593
-18.7613 -1.8232 -1.2159
-19.6963 -2.3958 -1.2827
-25.8456 -3.7796 -1.6924
-18.8746 -3.2278 -1.2434
-19.0011 -3.7242 -1.2601
-19.1349 -4.2330 -1.2782
-19.2765 -4.7557 -1.2977
-19.4266 -5.2939 -1.3189
-19.4973 -5.8228 -1.3357
-19.3368 -6.2877 -1.3375
-17.3119 -6.0957 -1.2098
-17.1320 -6.5018 -1.2104
-16.6683 -6.7911 -1.1913
-16.1099 -7.0222 -1.1655
