ply
format ascii 1.0
element vertex 1993
property float32 x
property float32 y
property float32 z
end_header
10.6589 13.2912 -1.3182
10.3254 13.5323 -1.3163
9.9979 13.7808 -1.3160
9.6693 14.0284 -1.3165
9.3380 14.2736 -1.3175
9.0161 14.5359 -1.3209
8.7023 14.8173 -1.3267
8.3926 15.1142 -1.3346
8.0807 15.4182 -1.3438
5.6490 11.4424 -0.9851
4.9868 10.7472 -0.9147
4.7192 10.8492 -0.9135
4.4635 10.9790 -0.9153
4.2234 11.1528 -0.9213
4.0568 11.5474 -0.9458
5.8347 17.9857 -1.4618
5.5032 18.4721 -1.4908
5.1709 19.0237 -1.5257
4.8312 19.6357 -1.5659
4.4839 20.3279 -1.6131
4.1389 21.1834 -1.6738
3.7942 22.2629 -1.7527
2.4382 16.7380 -1.3139
1.9906 16.4389 -1.2874
1.5584 16.1233 -1.2607
1.1403 15.7656 -1.2315
0.7850 16.3232 -1.2746
0.3866 16.1704 -1.2630
-0.0040 16.1348 -1.2614
-0.3926 16.0912 -1.2600
-0.8913 18.3460 -1.4398
-1.2254 16.8267 -1.3244
-1.2970 13.3500 -1.0544
-2.0312 16.7050 -1.3249
-2.4303 16.6258 -1.3249
-7.0188 41.0605 -3.2900
-6.7472 34.4416 -2.7765
-8.9351 40.4109 -3.2798
-9.8930 40.1206 -3.2804
-11.3982 41.8497 -3.4495
-13.3954 44.8785 -3.7316
-14.5731 44.8429 -3.7640
-16.6780 47.3937 -4.0185
-30.7260 75.4615 -6.5427
-27.5621 59.3156 -5.2740
-47.8751 81.4095 -7.6818
-37.4715 60.3346 -5.7899
-38.2257 58.3552 -5.6999
-37.0320 53.6590 -5.3393
-30.8762 42.5049 -4.3124
-32.5983 42.6688 -4.4181
-28.0846 34.9760 -3.6995
-28.6693 33.9887 -3.6760
-15.0907 17.0379 -1.8861
-34.3998 36.9980 -4.1968
-30.8235 31.5859 -3.6752
-21.9831 21.4642 -2.5649
-17.8421 16.5981 -2.0393
-18.1865 16.1168 -2.0387
-16.3079 13.7631 -1.7947
-17.2210 13.8354 -1.8625
-17.9285 13.7045 -1.9074
-18.5254 13.4642 -1.9406
-16.7620 11.5743 -1.7304
-19.5053 12.7838 -1.9861
-19.8826 12.3548 -1.9986
-16.9678 9.9836 -1.6851
-20.0451 11.1512 -1.9683
-19.7622 10.3766 -1.9201
-19.3560 9.5740 -1.8623
-18.9784 8.8231 -1.8094
-18.6264 8.1179 -1.7610
-21.5565 8.7814 -2.0223
-18.8020 7.1346 -1.7515
-19.0740 6.7152 -1.7656
-19.1221 6.2170 -1.7599
-19.1728 5.7250 -1.7555
-22.5172 6.1351 -2.0525
-19.0937 4.7097 -1.7337
-18.9790 4.1975 -1.7176
-18.7392 3.6719 -1.6914
-14.2141 2.4301 -1.2802
-14.6000 2.1342 -1.3130
-23.1575 2.8154 -2.0805
-11.9611 1.1616 -1.0742
-14.3696 1.0456 -1.2907
-14.8646 0.7209 -1.3362
-14.7393 0.3581 -1.3266
-13.7604 0.0016 -1.2408
-13.0037 -0.3129 -1.1754
-13.4326 -0.6484 -1.2177
-13.5493 -0.9828 -1.2326
-13.7614 -1.3333 -1.2570
-14.0436 -1.7042 -1.2887
-14.2068 -2.0736 -1.3104
-14.2311 -2.4299 -1.3202
-17.9365 -3.5108 -1.6745
-15.6952 -3.4680 -1.4753
-13.8887 -3.4230 -1.3153
-13.5977 -3.7022 -1.2981
-16.7159 -4.9883 -1.6095
-29.9059 -9.7178 -2.9062
-17.5914 -6.1903 -1.7263
-18.3731 -6.9690 -1.8219
-19.1090 -7.7817 -1.9159
-85.7556 -37.3640 -8.6991
-86.4280 -40.1705 -8.8761
-61.6441 -44.8078 -7.1675
-56.8493 -43.4617 -6.7370
-52.2679 -42.0001 -6.3186
-51.6800 -43.6290 -5.6239
-41.8333 -37.0853 -4.6531
-38.5789 -35.9032 -4.3904
-33.9510 -33.1638 -3.9572
-32.1506 -32.9615 -3.8422
-29.3899 -31.6263 -3.6052
-26.8937 -30.3814 -3.3904
-24.4919 -29.0544 -3.1772
-22.5278 -28.0749 -3.0113
-20.7595 -27.1930 -2.8634
-19.1574 -26.3940 -2.7308
-17.6974 -25.6658 -2.6113
-16.0407 -24.5110 -2.4544
-15.1278 -24.3831 -2.4048
-13.9897 -23.8155 -2.3152
-12.9331 -23.2886 -2.2331
-11.9587 -22.8171 -2.1597
-11.0277 -22.3383 -2.0885
-10.1637 -21.9075 -2.0245
-9.4151 -21.6505 -1.9788
-8.5830 -21.1191 -1.9103
-7.7330 -20.4308 -1.8301
-7.4045 -21.0895 -1.8720
-7.0601 -21.7800 -1.9168
-5.3576 -18.0004 -1.5716
-4.9161 -18.1077 -1.5693
-4.3837 -17.8421 -1.5358
-3.9049 -17.7337 -1.5169
-3.4094 -17.4866 -1.4873
-2.9077 -17.1060 -1.4474
-2.4507 -16.8781 -1.4216
-2.0088 -16.6577 -1.3973
-1.5924 -16.5664 -1.3847
-1.1750 -16.3723 -1.3644
-0.7681 -16.1693 -1.3441
-0.3689 -15.8398 -1.3141
0.0140 -15.6489 -1.2964
0.3878 -15.4624 -1.2798
0.7560 -15.3350 -1.2688
1.1203 -15.2275 -1.2601
1.4740 -15.0511 -1.2464
1.8096 -14.7837 -1.2257
2.1445 -14.5863 -1.2115
2.4777 -14.4202 -1.2004
2.7473 -13.9583 -1.1653
3.1539 -14.2029 -1.1898
3.4394 -13.8925 -1.1684
3.8338 -14.0232 -1.1848
4.1530 -13.8640 -1.1773
4.4696 -13.7062 -1.1706
4.8188 -13.6483 -1.1730
5.1379 -13.5032 -1.1686
5.4514 -13.3469 -1.1638
5.7374 -13.1310 -1.1544
6.0259 -12.9300 -1.1468
6.3344 -12.7761 -1.1439
6.6430 -12.6222 -1.1417
6.9519 -12.4682 -1.1401
7.3208 -12.4146 -1.1485
7.6340 -12.2584 -1.1481
7.9486 -12.1015 -1.1484
8.2223 -11.8821 -1.1434
8.5139 -11.6892 -1.1415
8.8325 -11.5303 -1.1437
9.1540 -11.3699 -1.1466
9.4790 -11.2079 -1.1501
9.8486 -11.0897 -1.1591
10.0106 -10.7379 -1.1443
10.1703 -10.3937 -1.1306
10.2963 -10.0259 -1.1144
10.3077 -9.5627 -1.0874
10.3126 -9.1136 -1.0615
10.3184 -8.6837 -1.0374
9.7086 -7.7776 -0.9543
9.8549 -7.5112 -0.9479
10.1528 -7.3572 -0.9565
9.9566 -6.8543 -0.9196
9.6581 -6.3104 -0.8752
9.2335 -5.7195 -0.8216
9.2041 -5.3979 -0.8049
9.1763 -5.0877 -0.7892
9.1500 -4.7878 -0.7746
9.1252 -4.4974 -0.7608
9.0922 -4.2112 -0.7472
9.0146 -3.9136 -0.7308
8.9405 -3.6273 -0.7154
8.7931 -3.3224 -0.6949
8.5179 -2.9853 -0.6654
8.2648 -2.6742 -0.6385
7.9595 -2.3646 -0.6086
7.6243 -2.0659 -0.5773
7.3214 -1.7951 -0.5493
7.0461 -1.5482 -0.5242
6.7945 -1.3217 -0.5016
6.4195 -1.0885 -0.4705
6.0187 -0.8715 -0.4382
5.6685 -0.6815 -0.4102
8.5313 -0.8171 -0.6140
8.1105 -0.5795 -0.5810
8.3162 -0.3925 -0.5932
8.0454 -0.1851 -0.5718
8.3767 0.0096 -0.5936
8.4079 0.2128 -0.5944
8.5983 0.4257 -0.6068
8.5172 0.6282 -0.6004
8.3474 0.8188 -0.5882
8.7547 1.0729 -0.6169
8.7769 1.2915 -0.6189
8.7103 1.4974 -0.6151
8.9812 1.7683 -0.6355
9.1352 2.0290 -0.6481
8.7051 2.1554 -0.6196
8.7047 2.3798 -0.6221
8.4994 2.5459 -0.6102
26.1886 8.5389 -1.8904
25.6680 9.0606 -1.8640
24.8544 9.4545 -1.8171
23.5405 9.6117 -1.7339
22.0991 9.6523 -1.6411
20.6070 9.5997 -1.5440
19.4517 9.6400 -1.4717
18.5261 9.7454 -1.4164
17.7182 9.8740 -1.3700
17.0176 10.0297 -1.3319
16.4048 10.2102 -1.3007
15.8053 10.3748 -1.2706
15.2658 10.5569 -1.2455
14.7506 10.7363 -1.2224
14.2862 10.9357 -1.2038
13.8392 11.1337 -1.1869
13.4016 11.3255 -1.1710
12.9982 11.5340 -1.1583
12.6035 11.7399 -1.1468
10.9062 10.6623 -1.0144
11.8426 12.1508 -1.1274
11.4760 12.3581 -1.1196
11.1168 12.5668 -1.1129
10.7754 12.7904 -1.1085
10.4438 13.0225 -1.1057
10.1129 13.2533 -1.1035
9.7858 13.4880 -1.1025
9.4681 13.7362 -1.1033
9.1484 13.9834 -1.1046
8.8359 14.2452 -1.1078
8.5255 14.5160 -1.1123
8.2131 14.7908 -1.1176
7.8989 15.0714 -1.1240
5.2605 10.6554 -0.7850
4.9174 10.5979 -0.7718
4.6474 10.6845 -0.7699
4.3880 10.7935 -0.7701
4.1618 10.9905 -0.7770
3.9872 11.3500 -0.7957
5.6903 17.5415 -1.2203
5.3633 18.0035 -1.2438
5.0348 18.5246 -1.2718
4.6982 19.0970 -1.3039
4.3538 19.7404 -1.3413
4.0020 20.4860 -1.3862
3.6488 21.4135 -1.4439
2.4774 17.0105 -1.1438
1.9761 16.3236 -1.0952
1.5740 16.2912 -1.0915
1.1705 16.1919 -1.0839
0.7560 15.7338 -1.0531
0.3859 16.1695 -1.0828
-0.0047 16.0453 -1.0757
-0.3930 16.0747 -1.0796
-0.8341 17.1510 -1.1547
-1.2237 16.7918 -1.1341
-1.2975 13.3477 -0.9048
-2.0238 16.6361 -1.1327
-2.4213 16.5574 -1.1331
-6.8625 40.1317 -2.7620
-6.7483 34.4361 -2.3851
-8.7210 39.4307 -2.7503
-9.6496 39.1228 -2.7499
-10.5761 38.8212 -2.7516
-12.5842 42.1503 -3.0147
-14.7716 45.4428 -3.2820
-16.6890 47.4141 -3.4602
-30.5598 75.0372 -5.6033
-44.6821 80.3455 -6.4366
-42.2336 67.9894 -5.6328
-37.7397 57.6025 -4.8591
-40.5579 58.7571 -5.0512
-32.4167 44.6174 -3.9123
-31.8607 41.6956 -3.7327
-33.8533 42.1524 -3.8562
-32.7642 38.8362 -3.6342
-35.1352 39.6614 -3.8004
-34.6211 37.2291 -3.6566
-30.8394 31.5963 -3.1846
-21.5544 21.0416 -2.1788
-17.4145 16.1972 -1.7251
-21.7734 19.2917 -2.1162
-22.0148 18.5759 -2.1014
-16.1239 12.9514 -1.5131
-16.6442 12.7202 -1.5371
-17.1800 12.4839 -1.5627
-16.7607 11.5709 -1.5031
-18.3148 12.0010 -1.6206
-18.9183 11.7531 -1.6532
-16.9674 9.9811 -1.4654
-21.2086 11.7957 -1.8117
-21.3527 11.2091 -1.8056
-21.8264 10.7932 -1.8283
-22.3168 10.3724 -1.8531
-21.1807 9.2287 -1.7447
-21.5544 8.7781 -1.7625
-23.0263 8.7350 -1.8703
-18.3755 6.4673 -1.4835
-18.4583 5.9992 -1.4822
-22.6119 6.7495 -1.8071
-21.9036 5.9656 -1.7433
-18.3786 4.5314 -1.4575
-15.0363 3.3240 -1.1890
-15.1123 2.9597 -1.1922
-14.2130 2.4285 -1.1192
-14.5990 2.1327 -1.1482
-14.7454 1.7913 -1.1590
-14.4495 1.4019 -1.1357
-22.3593 1.6249 -1.7582
-14.5094 0.7024 -1.1421
-13.7570 0.3330 -1.0846
-14.2747 0.0004 -1.1278
-14.1621 -0.3420 -1.1220
-13.9826 -0.6761 -1.1113
-13.0301 -0.9462 -1.0396
-14.6419 -1.4198 -1.1732
-13.5522 -1.6457 -1.0912
-13.5382 -1.9771 -1.0961
-13.4690 -2.3008 -1.0970
-13.4035 -2.6246 -1.0989
-13.3418 -2.9491 -1.1016
-13.2035 -3.2552 -1.0986
-15.5872 -4.2451 -1.3077
-15.9058 -4.7478 -1.3462
-23.2108 -7.5440 -1.9831
-28.8462 -10.1530 -2.4894
-86.6049 -32.8563 -7.5539
-17.8303 -7.2623 -1.5728
-18.4162 -8.0254 -1.6439
-18.6153 -8.6535 -1.6826
-54.5956 -33.9283 -5.3076
-73.2591 -50.5940 -7.3704
-61.5604 -44.7511 -6.3080
-56.8662 -43.4784 -5.9398
-52.2614 -41.9982 -5.5693
-43.6238 -36.8306 -4.1109
-42.1448 -37.3641 -4.0600
-38.5781 -35.9048 -3.8029
-33.9468 -33.1618 -3.4277
-32.1499 -32.9628 -3.3288
-29.1050 -31.3214 -3.0937
-26.6847 -30.1468 -2.9153
-24.4900 -29.0535 -2.7534
-22.5263 -28.0741 -2.6098
-20.7583 -27.1924 -2.4818
-19.1565 -26.3935 -2.3671
-17.6967 -25.6655 -2.2637
-16.0402 -24.5108 -2.1277
-15.1274 -24.3829 -2.0848
-14.0861 -23.9799 -2.0211
-12.9329 -23.2885 -1.9361
-12.0409 -22.9740 -1.8853
-11.0277 -22.3384 -1.8107
-10.1639 -21.9075 -1.7552
-9.4231 -21.6685 -1.7170
-8.5832 -21.1193 -1.6562
-7.7332 -20.4304 -1.5866
-7.4047 -21.0891 -1.6227
-7.0604 -21.7795 -1.6615
-5.3580 -18.0007 -1.3622
-4.9166 -18.1079 -1.3602
-4.3842 -17.8424 -1.3310
-3.9054 -17.7340 -1.3145
-3.4099 -17.4869 -1.2887
-2.9083 -17.1063 -1.2540
-2.4513 -16.8784 -1.2315
-2.0094 -16.6580 -1.2103
-1.5931 -16.5667 -1.1992
-1.1757 -16.3726 -1.1814
-0.7687 -16.1696 -1.1637
-0.3696 -15.8402 -1.1375
0.0133 -15.6492 -1.1220
0.3871 -15.4628 -1.1074
0.7552 -15.3351 -1.0977
1.1195 -15.2279 -1.0899
1.4732 -15.0515 -1.0778
1.8089 -14.7845 -1.0597
2.1437 -14.5867 -1.0472
2.4768 -14.4206 -1.0374
2.7465 -13.9587 -1.0068
3.1522 -14.1995 -1.0274
3.4386 -13.8930 -1.0089
3.8330 -14.0237 -1.0228
4.1521 -13.8645 -1.0160
4.4687 -13.7066 -1.0099
4.8178 -13.6488 -1.0117
5.1370 -13.5037 -1.0076
5.4504 -13.3474 -1.0031
5.7366 -13.1319 -0.9947
6.0249 -12.9305 -0.9878
6.3334 -12.7766 -0.9850
6.6420 -12.6227 -0.9828
6.9508 -12.4687 -0.9810
7.3198 -12.4151 -0.9879
7.6329 -12.2589 -0.9872
7.9474 -12.1021 -0.9871
8.2214 -11.8830 -0.9824
8.5127 -11.6898 -0.9804
8.8313 -11.5309 -0.9819
9.1528 -11.3705 -0.9839
9.4778 -11.2085 -0.9866
9.6446 -10.8620 -0.9734
9.8054 -10.5196 -0.9608
9.9387 -10.1590 -0.9466
10.0018 -9.7409 -0.9271
10.0454 -9.3212 -0.9072
10.0556 -8.8882 -0.8856
10.0663 -8.4732 -0.8655
9.7563 -7.8174 -0.8198
9.9274 -7.5679 -0.8159
9.7966 -7.1006 -0.7883
9.6713 -6.6593 -0.7625
9.3570 -6.1149 -0.7235
10.0483 -6.2255 -0.7626
9.0399 -5.3028 -0.6739
9.0153 -4.9996 -0.6606
8.9920 -4.7062 -0.6482
8.9698 -4.4219 -0.6366
8.9198 -4.1324 -0.6236
8.8469 -3.8418 -0.6098
8.7547 -3.5529 -0.5953
8.4787 -3.2046 -0.5692
8.2251 -2.8836 -0.5455
7.8993 -2.5568 -0.5179
7.5658 -2.2484 -0.4906
7.2647 -1.9692 -0.4663
6.9911 -1.7149 -0.4445
6.7413 -1.4819 -0.4247
6.4992 -1.2649 -0.4061
6.0857 -1.0325 -0.3773
5.7254 -0.8296 -0.3524
8.2979 -0.9983 -0.5075
8.6385 -0.8282 -0.5252
8.7762 -0.6278 -0.5307
9.2263 -0.4363 -0.5553
8.1576 -0.1884 -0.4890
8.0917 0.0086 -0.4834
8.5855 0.2166 -0.5114
8.5214 0.4211 -0.5065
8.4584 0.6232 -0.5019
8.6595 0.8487 -0.5133
8.6482 1.0591 -0.5125
8.6373 1.2702 -0.5120
8.2857 1.4238 -0.4916
8.4022 1.6537 -0.4992
8.9642 1.9903 -0.5338
9.1165 2.2565 -0.5444
8.8965 2.4316 -0.5332
8.6835 2.6003 -0.5226
24.7935 8.0821 -1.4995
24.0748 8.4964 -1.4642
23.2111 8.8277 -1.4206
22.1491 9.0420 -1.3652
20.9484 9.1482 -1.3013
19.8118 9.2278 -1.2413
18.8649 9.3477 -1.1930
18.0672 9.5027 -1.1542
17.2868 9.6324 -1.1165
16.6577 9.8164 -1.0886
16.0334 9.9779 -1.0612
15.4680 10.1524 -1.0377
14.9449 10.3340 -1.0171
14.4514 10.5176 -0.9988
14.0069 10.7210 -0.9840
13.5675 10.9143 -0.9699
13.1382 11.1021 -0.9566
12.7433 11.3071 -0.9461
12.3561 11.5088 -0.9365
10.9736 10.7276 -0.8500
11.6065 11.9079 -0.9199
11.2485 12.1126 -0.9135
10.8953 12.3158 -0.9078
10.5609 12.5352 -0.9041
10.2311 12.7568 -0.9012
9.9034 12.9784 -0.8991
9.5827 13.2077 -0.8981
9.2749 13.4555 -0.8990
8.9665 13.7051 -0.9005
8.6530 13.9501 -0.9023
8.3366 14.1942 -0.9045
8.0322 14.4649 -0.9090
6.0844 11.6093 -0.7200
5.1961 10.5251 -0.6448
4.8570 10.4678 -0.6340
4.5840 10.5387 -0.6315
4.3433 10.6838 -0.6340
4.1135 10.8634 -0.6388
3.8989 11.0990 -0.6472
3.8245 11.7905 -0.6824
5.2298 17.5565 -1.0091
4.9061 18.0524 -1.0313
4.5749 18.5976 -1.0567
4.2311 19.1866 -1.0851
3.8791 19.8598 -1.1187
3.5234 20.6818 -1.1612
2.6011 17.8641 -1.0004
1.9542 16.1477 -0.9025
1.5623 16.1759 -0.9030
1.1652 16.1272 -0.8997
0.7539 15.7026 -0.8761
0.3791 15.9152 -0.8887
-0.0054 16.0444 -0.8972
-0.3934 16.0583 -0.8998
-0.8376 17.2058 -0.9668
-1.2221 16.7571 -0.9448
-1.2980 13.3453 -0.7555
-2.0164 16.5679 -0.9424
-2.4123 16.4896 -0.9430
-4.9654 29.0273 -1.6702
-6.7495 34.4306 -1.9945
-8.4428 38.1617 -2.2271
-9.3423 37.8664 -2.2278
-10.1609 37.2875 -2.2130
-13.5339 45.3200 -2.7153
-13.4750 41.4441 -2.5084
-30.5751 75.0586 -4.7033
-41.4474 74.5146 -5.0209
-41.1293 69.9121 -4.7910
-36.9786 59.5185 -4.1515
-37.2754 56.8832 -4.0419
-30.7068 44.4772 -3.2223
-31.4250 43.2445 -3.1973
-33.2783 43.5429 -3.2884
-32.8420 40.8857 -3.1570
-33.5206 39.7253 -3.1392
-34.3005 38.7121 -3.1340
-34.7136 37.3216 -3.0987
-20.7057 21.2100 -1.8080
-21.0741 20.5688 -1.8023
-20.5940 19.1508 -1.7269
-20.8309 18.4531 -1.7147
-20.5150 17.3069 -1.6593
-20.2272 16.2441 -1.6093
-25.8243 19.7320 -2.0229
-32.6728 23.7369 -2.5222
-16.7593 11.5675 -1.2761
-20.7536 13.5961 -1.5601
-19.6747 12.2203 -1.4613
-16.9670 9.9786 -1.2461
-20.6759 11.4968 -1.5027
-21.1272 11.0881 -1.5207
-21.4752 10.6170 -1.5320
-21.6978 10.0821 -1.5352
-21.1574 9.2161 -1.4857
-21.5524 8.7748 -1.5031
-23.2510 8.8176 -1.6115
-22.9827 8.0862 -1.5841
-22.6606 7.3625 -1.5542
-22.8973 6.8323 -1.5637
-21.3236 5.8054 -1.4509
-21.6642 5.3393 -1.4695
-14.3548 3.1719 -0.9713
-22.0739 4.3209 -1.4908
-14.2119 2.4269 -0.9585
-14.5980 2.1312 -0.9838
-21.5495 2.6158 -1.4520
-21.2820 2.0628 -1.4345
-14.7012 1.0670 -0.9918
-13.7047 0.6622 -0.9259
-14.0581 0.3390 -0.9517
-13.9477 -0.0008 -0.9466
-13.7921 -0.3343 -0.9390
-13.6020 -0.6589 -0.9294
-13.6735 -0.9941 -0.9382
-14.2090 -1.3790 -0.9795
-14.5837 -1.7722 -1.0106
-17.6158 -2.5741 -1.2278
-17.4242 -2.9779 -1.2222
-16.8725 -3.3052 -1.1917
-15.9989 -3.5377 -1.1384
-14.9899 -3.6968 -1.0752
-33.1115 -9.0203 -2.3955
-15.1719 -4.5299 -1.1077
-33.4370 -10.8703 -2.4651
-27.5351 -9.6936 -2.0510
-22.9321 -8.7017 -1.7269
-84.9077 -34.5894 -6.4680
-17.3158 -7.5471 -1.3352
-17.7632 -8.2587 -1.3873
-42.9023 -21.2228 -3.3959
-73.4374 -50.7222 -6.3936
-61.8255 -44.9480 -5.4832
-56.8581 -43.4760 -5.1412
-52.2548 -41.9964 -4.8214
-43.6856 -36.8857 -3.4804
-42.1439 -37.3660 -3.4331
-38.3587 -35.7030 -3.1981
-33.9461 -33.1632 -2.8995
-31.9747 -32.7850 -2.8010
-29.1583 -31.3804 -2.6226
-26.6824 -30.1456 -2.4670
-24.4881 -29.0526 -2.3303
-22.5433 -28.0965 -2.2109
-20.8283 -27.2850 -2.1082
-19.1555 -26.3930 -2.0040
-17.8329 -25.8638 -1.9315
-16.0397 -24.5105 -1.8016
-15.1270 -24.3828 -1.7654
-14.0975 -23.9997 -1.7129
-12.9328 -23.2884 -1.6396
-12.0409 -22.9740 -1.5966
-11.0278 -22.3384 -1.5334
-10.1640 -21.9076 -1.4864
-9.4234 -21.6686 -1.4540
-8.5835 -21.1194 -1.4024
-7.7333 -20.4302 -1.3434
-7.4049 -21.0888 -1.3739
-7.0606 -21.7791 -1.4066
-5.3584 -18.0009 -1.1532
-4.9171 -18.1081 -1.1513
-4.3847 -17.8426 -1.1265
-3.9060 -17.7342 -1.1124
-3.4105 -17.4871 -1.0904
-2.9089 -17.1066 -1.0609
-2.4519 -16.8787 -1.0416
-2.0100 -16.6583 -1.0235
-1.5937 -16.5670 -1.0140
-1.1764 -16.3729 -0.9987
-0.7694 -16.1700 -0.9835
-0.3703 -15.8405 -0.9612
0.0126 -15.6496 -0.9479
0.3864 -15.4631 -0.9353
0.7545 -15.3352 -0.9268
1.1178 -15.2147 -0.9192
1.4711 -15.0385 -0.9087
1.8081 -14.7853 -0.8940
2.1429 -14.5871 -0.8831
2.4760 -14.4210 -0.8746
2.7457 -13.9591 -0.8485
3.1505 -14.1961 -0.8653
3.4377 -13.8934 -0.8497
3.8321 -14.0241 -0.8610
4.1513 -13.8649 -0.8550
4.4678 -13.7071 -0.8495
4.8169 -13.6493 -0.8507
5.1315 -13.4924 -0.8461
5.4447 -13.3362 -0.8420
5.7358 -13.1328 -0.8353
6.0239 -12.9310 -0.8291
6.3324 -12.7771 -0.8264
6.6409 -12.6233 -0.8241
6.9498 -12.4692 -0.8222
7.3123 -12.4048 -0.8268
7.6251 -12.2488 -0.8258
7.9394 -12.0920 -0.8253
8.2206 -11.8840 -0.8217
8.5116 -11.6903 -0.8195
8.8301 -11.5315 -0.8203
9.1216 -11.3338 -0.8189
9.2869 -10.9847 -0.8068
9.4491 -10.6438 -0.7955
9.5901 -10.2906 -0.7833
9.6579 -9.8737 -0.7664
9.7240 -9.4721 -0.7504
9.7886 -9.0846 -0.7355
9.8115 -8.6740 -0.7186
9.8265 -8.2730 -0.7021
9.8044 -7.8575 -0.6842
9.8158 -7.4844 -0.6695
9.5331 -6.9110 -0.6362
9.3649 -6.4497 -0.6120
9.0744 -5.9315 -0.5811
10.4451 -6.4728 -0.6561
8.8816 -5.2112 -0.5476
8.8600 -4.9146 -0.5366
8.8394 -4.6275 -0.5263
8.8199 -4.3491 -0.5166
8.7539 -4.0566 -0.5048
8.6854 -3.7727 -0.4934
8.4406 -3.4264 -0.4727
8.1865 -3.0950 -0.4523
7.8411 -2.7498 -0.4277
7.5091 -2.4313 -0.4046
7.2097 -2.1433 -0.3839
6.9379 -1.8813 -0.3654
6.6898 -1.6416 -0.3487
6.4622 -1.4212 -0.3336
6.1563 -1.1987 -0.3149
5.7853 -0.9821 -0.2934
8.2628 -1.1981 -0.4158
8.3994 -1.0113 -0.4196
8.7484 -0.8395 -0.4342
8.6438 -0.6191 -0.4264
9.1208 -0.4322 -0.4475
8.1284 -0.1885 -0.3969
8.2061 0.0080 -0.3990
8.5090 0.2139 -0.4123
8.7350 0.4310 -0.4220
8.3780 0.6165 -0.4038
8.5246 0.8348 -0.4101
8.5132 1.0419 -0.4092
8.5022 1.2497 -0.4084
8.4916 1.4585 -0.4080
8.6904 1.7097 -0.4179
9.1214 2.0245 -0.4393
9.0407 2.2370 -0.4364
9.0967 2.4856 -0.4404
8.8754 2.6571 -0.4312
23.8586 7.7755 -1.1641
23.1076 8.1533 -1.1331
22.2997 8.4793 -1.0997
21.2371 8.6681 -1.0541
20.1777 8.8101 -1.0088
19.2475 8.9636 -0.9700
18.3886 9.1104 -0.9349
17.6183 9.2654 -0.9043
16.9229 9.4283 -0.8777
16.2868 9.5966 -0.8543
15.6828 9.7586 -0.8327
15.1394 9.9357 -0.8144
14.6279 10.1138 -0.7980
14.1703 10.3120 -0.7846
13.7324 10.5099 -0.7726
13.2929 10.6925 -0.7607
12.8861 10.8882 -0.7508
12.4977 11.0883 -0.7422
12.1048 11.2739 -0.7336
11.0418 10.7935 -0.6837
11.3799 11.6747 -0.7208
11.0302 11.8768 -0.7157
10.6749 12.0661 -0.7105
10.3483 12.2824 -0.7075
10.0257 12.5001 -0.7051
9.7048 12.7176 -0.7033
9.3903 12.9422 -0.7024
9.0864 13.1817 -0.7028
8.7765 13.4144 -0.7033
8.4632 13.6439 -0.7041
8.1565 13.8875 -0.7061
7.8588 14.1526 -0.7095
5.8906 11.2394 -0.5561
5.1379 10.4071 -0.5087
4.8034 10.3524 -0.5002
4.5395 10.4367 -0.4990
4.3020 10.5824 -0.5010
4.0698 10.7483 -0.5043
3.8408 10.9341 -0.5089
3.6803 11.3464 -0.5241
5.1037 17.1343 -0.7862
4.7839 17.6042 -0.8030
4.4610 18.1363 -0.8230
4.1306 18.7328 -0.8463
3.7882 19.3969 -0.8731
3.4311 20.1434 -0.9039
2.6067 17.9066 -0.8017
1.9684 16.2699 -0.7273
1.5361 15.9105 -0.7106
1.1168 15.4650 -0.6905
0.7517 15.6713 -0.7001
0.3777 15.8834 -0.7104
-0.0061 16.0435 -0.7189
-0.3937 16.0419 -0.7206
-0.8348 17.1311 -0.7721
-1.2189 16.7024 -0.7557
-1.2985 13.3430 -0.6065
-2.0091 16.5003 -0.7539
-2.5485 17.4134 -0.8004
-4.9424 28.8823 -1.3363
-6.7506 34.4251 -1.6044
-8.9825 40.5892 -1.9069
-9.0322 36.5992 -1.7344
-11.1606 40.9454 -1.9586
-12.1457 40.6614 -1.9647
-13.0206 40.0371 -1.9555
-13.6948 38.8897 -1.9214
-29.1708 76.8590 -3.8440
-30.3637 74.5238 -3.7757
-44.5559 80.0877 -4.3782
-44.3608 75.3906 -4.1945
-37.0994 59.7017 -3.3834
-31.5338 48.1124 -2.7796
-32.2338 46.6802 -2.7517
-37.6450 51.7944 -3.1181
-31.6191 41.3643 -2.5454
-34.0724 42.4097 -2.6702
-33.2402 39.3859 -2.5398
-33.2078 37.4720 -2.4774
-30.4083 32.6868 -2.2179
-27.3452 28.0059 -1.9525
-18.5535 18.1053 -1.2984
-24.7001 22.9649 -1.6962
-25.7728 22.8265 -1.7386
-23.5914 19.8984 -1.5649
-24.7481 19.8709 -1.6160
-20.5532 15.7013 -1.3223
-20.8379 15.1357 -1.3222
-16.7579 11.5642 -1.0496
-16.4209 10.7554 -1.0161
-18.5540 11.5217 -1.1352
-16.9666 9.9761 -1.0272
-20.1701 11.2129 -1.2093
-20.6161 10.8172 -1.2250
-21.0175 10.3881 -1.2386
-21.3605 9.9228 -1.2494
-21.2394 9.2493 -1.2338
-21.0931 8.5854 -1.2178
-20.9261 7.9336 -1.2015
-20.3723 7.1655 -1.1640
-19.7983 6.4304 -1.1264
-22.5233 6.7183 -1.2768
-20.7743 5.6537 -1.1741
-21.0893 5.1955 -1.1890
-21.3398 4.7133 -1.2009
-21.5954 4.2252 -1.2137
-14.2108 2.4254 -0.7981
-14.5970 2.1296 -0.8197
-13.8801 1.6835 -0.7797
-42.9699 4.1609 -2.4161
-22.3229 1.6182 -1.2570
-22.1559 1.0686 -1.2501
-13.7413 0.3302 -0.7773
-13.6087 -0.0020 -0.7722
-13.4225 -0.3265 -0.7644
-12.9274 -0.6273 -0.7393
-16.6912 -1.2149 -0.9590
-13.6109 -1.3221 -0.7861
-14.1248 -1.7176 -0.8205
-14.4974 -2.1196 -0.8475
-15.7177 -2.6875 -0.9251
-14.8779 -2.9157 -0.8821
-17.7002 -3.9153 -1.0578
-17.4367 -4.3016 -1.0509
-30.6112 -8.3416 -1.8616
-31.2249 -9.3252 -1.9172
-19.4861 -6.3364 -1.2086
-20.2342 -7.1249 -1.2685
-20.8013 -7.8947 -1.3189
-20.8060 -8.4774 -1.3350
-20.8133 -9.0731 -1.3522
-42.8920 -21.2208 -2.8626
-71.2251 -44.2726 -5.0565
-73.1607 -50.5361 -5.3800
-61.4182 -44.6561 -4.6021
-56.7850 -43.4239 -4.3391
-50.1836 -40.3351 -3.9138
-43.6823 -36.8857 -2.8448
-42.1429 -37.3678 -2.8071
-38.3219 -35.6712 -2.6132
-33.9454 -33.1646 -2.3720
-31.9711 -32.7832 -2.2918
-29.1884 -31.4145 -2.1487
-26.8400 -30.3252 -2.0315
-24.4863 -29.0516 -1.9079
-22.6976 -28.2899 -1.8229
-20.9166 -27.4017 -1.7340
-19.1545 -26.3925 -1.6415
-17.8322 -25.8634 -1.5822
-16.0392 -24.5103 -1.4760
-15.1266 -24.3826 -1.4464
-14.0972 -23.9995 -1.4035
-12.9327 -23.2884 -1.3435
-12.0409 -22.9740 -1.3082
-11.0279 -22.3384 -1.2565
-10.1641 -21.9077 -1.2179
-9.4236 -21.6687 -1.1914
-8.5838 -21.1195 -1.1490
-7.7335 -20.4299 -1.1005
-7.4050 -21.0884 -1.1254
-7.0608 -21.7786 -1.1521
-5.3588 -18.0011 -0.9444
-4.9175 -18.1084 -0.9428
-4.3852 -17.8429 -0.9223
-3.9030 -17.7187 -0.9098
-3.4080 -17.4719 -0.8916
-2.9095 -17.1069 -0.8680
-2.4525 -16.8790 -0.8521
-2.0106 -16.6586 -0.8370
-1.5889 -16.5104 -0.8261
-1.1715 -16.2964 -0.8124
-0.7662 -16.0888 -0.7995
-0.3710 -15.8409 -0.7851
0.0119 -15.6499 -0.7739
0.3857 -15.4635 -0.7634
0.7526 -15.3123 -0.7550
1.1108 -15.1295 -0.7454
1.4617 -14.9507 -0.7364
1.8061 -14.7753 -0.7280
2.1421 -14.5875 -0.7193
2.4752 -14.4214 -0.7120
2.7449 -13.9595 -0.6904
3.1488 -14.1928 -0.7035
3.4369 -13.8938 -0.6906
3.8312 -14.0245 -0.6994
4.1504 -13.8654 -0.6942
4.4668 -13.7075 -0.6893
4.7881 -13.5708 -0.6858
5.1004 -13.4133 -0.6817
5.4111 -13.2568 -0.6778
5.7206 -13.1009 -0.6744
6.0229 -12.9315 -0.6706
6.3314 -12.7776 -0.6679
6.6399 -12.6238 -0.6656
6.9487 -12.4698 -0.6636
7.2644 -12.3259 -0.6625
7.5750 -12.1705 -0.6612
7.8870 -12.0145 -0.6602
8.2008 -11.8577 -0.6596
8.5104 -11.6909 -0.6589
8.7692 -11.4540 -0.6545
8.9366 -11.1060 -0.6440
9.1007 -10.7664 -0.6341
9.2495 -10.4209 -0.6239
9.3221 -10.0049 -0.6096
9.3927 -9.6044 -0.5962
9.4614 -9.2182 -0.5835
9.5285 -8.8449 -0.5716
9.5791 -8.4702 -0.5596
9.5981 -8.0823 -0.5465
9.6170 -7.7088 -0.5342
9.5627 -7.2929 -0.5187
9.3743 -6.7973 -0.4970
9.0777 -6.2532 -0.4708
10.0840 -6.5929 -0.5120
10.3464 -6.4130 -0.5147
8.7290 -5.1227 -0.4258
8.7101 -4.8326 -0.4169
8.6922 -4.5515 -0.4086
8.6616 -4.2721 -0.4001
8.5943 -3.9837 -0.3904
8.4033 -3.6511 -0.3757
8.1486 -3.3088 -0.3587
7.7843 -2.9438 -0.3377
7.4539 -2.6148 -0.3188
7.1561 -2.3178 -0.3020
6.8859 -2.0478 -0.2869
6.6395 -1.8011 -0.2733
6.4136 -1.5745 -0.2610
6.2055 -1.3653 -0.2498
5.8481 -1.1393 -0.2330
5.5134 -0.9365 -0.2176
8.3555 -1.2123 -0.3268
8.5034 -1.0247 -0.3298
8.8610 -0.8511 -0.3409
8.5155 -0.6107 -0.3253
8.1307 -0.3860 -0.3086
8.4731 -0.1972 -0.3196
8.3237 0.0074 -0.3123
8.7151 0.2184 -0.3255
8.7938 0.4331 -0.3271
8.1991 0.6027 -0.3039
8.3939 0.8213 -0.3102
8.3826 1.0252 -0.3091
8.3715 1.2298 -0.3082
8.3606 1.4353 -0.3076
8.8606 1.7425 -0.3259
9.1650 2.0335 -0.3372
8.8601 2.1917 -0.3264
8.6910 2.3740 -0.3207
9.0759 2.7164 -0.3358
23.1013 7.5269 -0.8574
22.4083 7.9049 -0.8350
21.5128 8.1785 -0.8054
20.5701 8.3943 -0.7744
19.6052 8.5587 -0.7427
18.7335 8.7228 -0.7147
17.9357 8.8847 -0.6897
17.2110 9.0499 -0.6676
16.5504 9.2197 -0.6481
15.9154 9.3767 -0.6298
15.3506 9.5509 -0.6144
14.8196 9.7248 -0.6005
14.3314 9.9078 -0.5884
13.8843 10.1030 -0.5782
13.4560 10.2975 -0.5690
13.0337 10.4831 -0.5602
12.6419 10.6811 -0.5529
12.2425 10.8612 -0.5454
11.8578 11.0432 -0.5388
11.0584 10.8091 -0.5131
11.0375 11.3228 -0.5236
10.8055 11.6342 -0.5249
10.4623 11.8252 -0.5211
10.1443 12.0397 -0.5188
9.8285 12.2537 -0.5169
9.5134 12.4664 -0.5154
9.1986 12.6775 -0.5142
8.8972 12.9069 -0.5142
8.5916 13.1314 -0.5143
8.2818 13.3512 -0.5146
7.9843 13.5940 -0.5162
7.6920 13.8521 -0.5186
5.7255 10.9245 -0.4037
5.0421 10.2131 -0.3728
4.7390 10.2137 -0.3686
4.5063 10.3605 -0.3700
4.2615 10.4830 -0.3707
4.0270 10.6357 -0.3728
3.7854 10.7769 -0.3748
3.6065 11.1197 -0.3839
5.0100 16.8210 -0.5771
4.7059 17.3188 -0.5908
4.3920 17.8577 -0.6063
4.0718 18.4686 -0.6245
3.7401 19.1535 -0.6455
3.3954 19.9375 -0.6703
2.6124 17.9493 -0.6023
1.9829 16.3939 -0.5496
1.5683 16.2510 -0.5446
1.1663 16.1600 -0.5418
0.7496 15.6407 -0.5249
0.3763 15.8517 -0.5330
-0.0068 16.0426 -0.5408
-0.3941 16.0256 -0.5420
-0.7976 16.3515 -0.5552
-1.1980 16.4040 -0.5596
-1.2990 13.3407 -0.4576
-2.0019 16.4333 -0.5671
-4.0397 27.5916 -0.9587
-4.8986 28.6162 -1.0018
-5.7459 29.2922 -1.0339
-8.9959 40.6373 -1.4472
-10.3050 41.7453 -1.5010
-11.5781 42.4660 -1.5428
-11.4851 38.4403 -1.4121
-12.3469 37.9564 -1.4109
-15.8605 45.0296 -1.6949
-28.0834 73.9779 -2.8217
-30.5537 74.9743 -2.9000
-44.9733 80.8226 -3.3919
-42.1159 71.5619 -3.0599
-35.3555 56.8847 -2.4804
-44.3372 67.6344 -3.0099
-34.5774 50.0650 -2.2759
-31.9363 43.9319 -2.0419
-32.6372 42.6883 -2.0305
-33.2786 41.4140 -2.0179
-34.2374 40.5598 -2.0264
-34.2785 38.6730 -1.9832
-29.2467 31.4323 -1.6563
-29.8779 30.5941 -1.6583
-18.2151 17.7717 -0.9921
-18.6906 17.3743 -1.0000
-19.1699 16.9752 -1.0087
-19.5703 16.5035 -1.0138
-19.8784 15.9577 -1.0149
-20.1609 15.3985 -1.0153
-20.1367 14.6234 -1.0013
-16.7566 11.5608 -0.8234
-20.5395 13.4501 -0.9982
-20.3338 12.6241 -0.9782
-16.9662 9.9737 -0.8086
-18.9644 10.5402 -0.8960
-19.9850 10.4836 -0.9368
-19.8793 9.8232 -0.9252
-20.4368 9.4913 -0.9450
-20.7646 9.0401 -0.9546
-20.5754 8.3724 -0.9411
-20.2772 7.6853 -0.9233
-19.7029 6.9279 -0.8937
-21.9949 7.1415 -0.9945
-21.9242 6.5373 -0.9887
-21.7731 5.9233 -0.9798
-21.5085 5.2966 -0.9665
-23.9083 5.2782 -1.0734
-29.5603 5.7805 -1.3267
-14.2097 2.4238 -0.6379
-14.5961 2.1281 -0.6557
-17.1280 2.0759 -0.7705
-16.2409 1.5712 -0.7319
-21.1148 1.5287 -0.9538
-20.5055 0.9872 -0.9289
-13.4316 0.3215 -0.6106
-13.0838 -0.0031 -0.5971
-11.9485 -0.2917 -0.5477
-15.2474 -0.7412 -0.7024
-19.6644 -1.4330 -0.9108
-18.9272 -1.8401 -0.8819
-17.9845 -2.1884 -0.8434
-14.0429 -2.0543 -0.6632
-14.9607 -2.5593 -0.7119
-15.2757 -2.9949 -0.7328
-15.6093 -3.4540 -0.7552
-15.6134 -3.8530 -0.7623
-15.5670 -4.2432 -0.7674
-28.7982 -8.6028 -1.4342
-28.0085 -9.1098 -1.4099
-27.1898 -9.5762 -1.3842
-19.0092 -7.2160 -0.9793
-19.4571 -7.9293 -1.0149
-19.9402 -8.6939 -1.0538
-19.9627 -9.2842 -1.0695
-42.8818 -21.2189 -2.3303
-73.3790 -50.6919 -4.4050
-61.7500 -44.9015 -3.7785
-56.5898 -43.2784 -3.5324
-50.2163 -40.3647 -3.2004
-43.6790 -36.8857 -2.2099
-42.1420 -37.3697 -2.1817
-38.5757 -35.9098 -2.0454
-33.9447 -33.1660 -1.8451
-32.1486 -32.9671 -1.7933
-29.3782 -31.6205 -1.6835
-26.8843 -30.3767 -1.5845
-24.4844 -29.0507 -1.4859
-22.6961 -28.2892 -1.4201
-20.9154 -27.4011 -1.3511
-19.1536 -26.3921 -1.2793
-17.8315 -25.8631 -1.2333
-16.0386 -24.5100 -1.1507
-15.1262 -24.3824 -1.1278
-14.0970 -23.9994 -1.0944
-12.9325 -23.2883 -1.0477
-12.0408 -22.9740 -1.0202
-11.0279 -22.3385 -0.9799
-10.1643 -21.9077 -0.9498
-9.4238 -21.6688 -0.9290
-8.5841 -21.1197 -0.8959
-7.7336 -20.4296 -0.8580
-7.4052 -21.0880 -0.8773
-7.0611 -21.7781 -0.8979
-5.3593 -18.0013 -0.7359
-4.9180 -18.1086 -0.7344
-4.3857 -17.8431 -0.7183
-3.8772 -17.5993 -0.7035
-3.3842 -17.3472 -0.6890
-2.9085 -17.0984 -0.6750
-2.4531 -16.8793 -0.6627
-2.0054 -16.6106 -0.6489
-1.5769 -16.3799 -0.6369
-1.1624 -16.1611 -0.6258
-0.7608 -15.9608 -0.6158
-0.3700 -15.7712 -0.6065
0.0112 -15.6503 -0.6002
0.3838 -15.4189 -0.5899
0.7487 -15.2478 -0.5823
1.1063 -15.0797 -0.5751
1.4574 -14.9144 -0.5683
1.8023 -14.7515 -0.5618
2.1414 -14.5879 -0.5556
2.4744 -14.4218 -0.5495
2.7441 -13.9599 -0.5324
3.1472 -14.1894 -0.5420
3.4360 -13.8942 -0.5317
3.8303 -14.0250 -0.5380
4.1495 -13.8658 -0.5335
4.4578 -13.6830 -0.5283
4.7731 -13.5312 -0.5245
5.0865 -13.3799 -0.5210
5.3985 -13.2289 -0.5178
5.7095 -13.0781 -0.5148
6.0197 -12.9273 -0.5121
6.3304 -12.7781 -0.5096
6.6389 -12.6243 -0.5073
6.9477 -12.4703 -0.5052
7.2572 -12.3159 -0.5033
7.5677 -12.1611 -0.5017
7.8796 -12.0055 -0.5003
8.1934 -11.8490 -0.4992
8.4230 -11.5730 -0.4933
8.5930 -11.2259 -0.4845
8.7591 -10.8875 -0.4762
8.9158 -10.5496 -0.4680
8.9935 -10.1344 -0.4564
9.0688 -9.7349 -0.4455
9.1419 -9.3497 -0.4352
9.2129 -8.9777 -0.4255
9.2821 -8.6178 -0.4163
9.3496 -8.2689 -0.4077
9.3803 -7.9004 -0.3980
9.4025 -7.5384 -0.3886
9.3225 -7.1111 -0.3756
9.0820 -6.5867 -0.3571
9.8402 -6.7799 -0.3778
10.1773 -6.6553 -0.3819
10.5389 -6.5337 -0.3867
10.2589 -6.0220 -0.3685
8.5654 -4.7534 -0.3013
8.5498 -4.4780 -0.2948
8.5036 -4.1952 -0.2876
8.3665 -3.8791 -0.2778
8.0961 -3.5186 -0.2640
7.7285 -3.1391 -0.2477
7.3997 -2.7992 -0.2332
7.1035 -2.4927 -0.2203
6.8350 -2.2145 -0.2088
6.5902 -1.9606 -0.1983
6.3660 -1.7276 -0.1889
6.1595 -1.5128 -0.1803
5.9138 -1.3017 -0.1709
5.5695 -1.0856 -0.1590
10.2817 -1.7473 -0.2901
8.4502 -1.2268 -0.2357
8.6099 -1.0383 -0.2377
8.8707 -0.8529 -0.2425
9.1697 -0.6585 -0.2483
8.3748 -0.3983 -0.2248
8.5110 -0.1989 -0.2266
8.4446 0.0068 -0.2232
8.6875 0.2169 -0.2280
8.7728 0.4313 -0.2289
8.0278 0.5894 -0.2082
9.2993 0.9091 -0.2400
8.9822 1.0978 -0.2309
8.8104 1.2935 -0.2256
8.9243 1.5313 -0.2279
8.8016 1.7302 -0.2242
8.9967 1.9954 -0.2288
8.8680 2.1929 -0.2253
8.6987 2.3755 -0.2210
8.5335 2.5534 -0.2169
9.0542 2.9494 -0.2304
21.7558 7.6730 -0.5548
20.8811 7.9368 -0.5340
19.9680 8.1471 -0.5125
19.0618 8.3201 -0.4914
18.2666 8.5041 -0.4734
17.4987 8.6670 -0.4563
16.8323 8.8496 -0.4420
16.1649 9.0038 -0.4278
15.5635 9.1683 -0.4155
15.0140 9.3403 -0.4048
14.5133 9.5228 -0.3955
14.0403 9.7056 -0.3871
13.5942 9.8910 -0.3797
13.1877 10.0913 -0.3735
12.7831 10.2807 -0.3675
12.3709 10.4513 -0.3614
11.9944 10.6403 -0.3565
11.4695 10.6808 -0.3473
11.0950 10.8442 -0.3427
10.8913 11.1721 -0.3437
10.5849 11.3961 -0.3417
10.2596 11.5956 -0.3392
9.9484 11.8066 -0.3375
9.6341 12.0110 -0.3359
9.3184 12.2104 -0.3345
9.0135 12.4219 -0.3337
8.7158 12.6435 -0.3334
8.4143 12.8603 -0.3333
8.1103 13.0745 -0.3334
7.8193 13.3129 -0.3343
7.5322 13.5643 -0.3358
5.3556 10.2186 -0.2496
4.9294 9.9849 -0.2410
4.7084 10.1479 -0.2421
4.4820 10.3047 -0.2434
4.2368 10.4225 -0.2438
3.9846 10.5241 -0.2441
3.7293 10.6176 -0.2444
3.4773 10.7218 -0.2452
4.9371 16.5772 -0.3769
4.6365 17.0645 -0.3861
4.3257 17.5896 -0.3963
4.0148 18.2120 -0.4090
3.6932 18.9163 -0.4238
3.3552 19.7050 -0.4408
2.4298 16.6990 -0.3732
1.9758 16.3402 -0.3652
1.5674 16.2477 -0.3635
1.1465 15.8931 -0.3561
0.7475 15.6100 -0.3506
0.3748 15.8202 -0.3564
-0.0075 16.0359 -0.3627
-0.3944 16.0093 -0.3638
-0.7967 16.3152 -0.3728
-1.1803 16.1496 -0.3714
-1.2994 13.3384 -0.3089
-1.9947 16.3669 -0.3820
-4.0208 27.4511 -0.6461
-4.7907 27.9761 -0.6646
-5.7355 29.2296 -0.7013
-9.8031 44.2704 -1.0737
-10.8647 44.0004 -1.0795
-11.2659 41.3099 -1.0260
-14.8199 49.5894 -1.2477
-20.3944 62.6810 -1.5989
-15.2196 43.2000 -1.1181
-15.9096 41.9000 -1.1011
-29.9646 73.5129 -1.9630
-32.2832 74.0316 -2.0104
-43.1463 77.5243 -2.2695
-45.3312 77.0106 -2.3019
-46.5652 74.9062 -2.2880
-31.9436 48.7194 -1.5220
-30.2347 43.7690 -1.3998
-30.9922 42.6253 -1.3967
-32.7895 42.8796 -1.4410
-32.4049 40.3193 -1.3909
-33.1409 39.2538 -1.3915
-34.1074 38.4729 -1.4028
-34.5864 37.1643 -1.3953
-31.7350 32.4897 -1.2574
-17.8891 17.4504 -0.6970
-18.3552 17.0593 -0.7040
-18.7870 16.6330 -0.7101
-19.1367 16.1347 -0.7136
-19.4855 15.6393 -0.7175
-19.7836 15.1073 -0.7201
-20.0608 14.5653 -0.7224
-16.7552 11.5575 -0.5974
-20.1655 13.2024 -0.7125
-20.0947 12.4730 -0.7042
-16.9658 9.9712 -0.5902
-16.9112 9.3969 -0.5843
-18.0359 9.4589 -0.6194
-19.2904 9.5298 -0.6590
-19.5851 9.0934 -0.6660
-20.1248 8.7593 -0.6817
-19.9448 8.1135 -0.6733
-19.6089 7.4298 -0.6602
-19.0767 6.7057 -0.6409
-21.1807 6.8749 -0.7105
-21.3423 6.3616 -0.7153
-21.2170 5.7699 -0.7108
-37.1856 9.1533 -1.2460
-23.9030 5.2747 -0.8015
-16.9379 3.3106 -0.5686
-14.2086 2.4223 -0.4779
-14.5951 2.1266 -0.4920
-15.5567 1.8840 -0.5259
-20.2778 1.9599 -0.6877
-23.2641 1.6822 -0.7920
-23.5386 1.1311 -0.8048
-23.8206 0.5682 -0.8183
-20.1776 -0.0065 -0.6969
-19.9612 -0.4890 -0.6934
-15.2456 -0.7424 -0.5329
-18.9879 -1.3853 -0.6682
-18.1805 -1.7690 -0.6444
-27.5558 -3.3553 -0.9842
-28.3181 -4.1449 -1.0197
-20.4323 -3.4969 -0.7422
-14.4445 -2.8331 -0.5295
-14.6202 -3.2363 -0.5411
-14.8038 -3.6544 -0.5535
-14.9927 -4.0878 -0.5666
-14.9467 -4.4661 -0.5712
-17.8056 -5.7927 -0.6885
-17.6496 -6.2175 -0.6908
-34.2396 -13.0001 -1.3574
-33.8435 -13.7946 -1.3597
-16.6475 -7.2595 -0.6782
-16.1579 -7.5159 -0.6678
-42.8716 -21.2169 -1.7987
-73.1322 -50.5265 -3.4034
-61.7964 -44.9394 -2.9331
-56.8338 -43.4688 -2.7534
-50.2134 -40.3657 -2.4849
-43.6149 -36.8344 -1.5734
-42.1411 -37.3715 -1.5569
-38.5749 -35.9114 -1.4607
-33.9440 -33.1673 -1.3186
-32.1480 -32.9684 -1.2825
-29.3753 -31.6190 -1.2046
-26.8819 -30.3755 -1.1344
-24.4825 -29.0497 -1.0644
-22.6946 -28.2884 -1.0177
-20.9142 -27.4005 -0.9687
-19.1527 -26.3916 -0.9175
-17.8160 -25.8413 -0.8841
-16.0381 -24.5097 -0.8257
-15.1259 -24.3822 -0.8095
-14.0423 -23.9067 -0.7826
-12.9324 -23.2883 -0.7521
-11.9780 -22.8541 -0.7286
-11.0280 -22.3385 -0.7035
-10.1644 -21.9078 -0.6818
-9.3591 -21.5196 -0.6622
-8.5843 -21.1198 -0.6430
-7.7338 -20.4293 -0.6156
-7.4054 -21.0876 -0.6293
-7.0613 -21.7777 -0.6439
-5.3597 -18.0015 -0.5275
-4.9184 -18.1088 -0.5263
-4.3861 -17.8434 -0.5144
-3.8753 -17.5886 -0.5033
-3.3840 -17.3435 -0.4928
-2.9106 -17.1075 -0.4829
-2.4537 -16.8796 -0.4735
-2.0118 -16.6592 -0.4646
-1.5838 -16.4458 -0.4562
-1.1686 -16.2387 -0.4482
-0.7651 -16.0374 -0.4406
-0.3723 -15.8415 -0.4334
0.0105 -15.6506 -0.4266
0.3842 -15.4642 -0.4201
0.7496 -15.2820 -0.4139
1.1073 -15.1036 -0.4080
1.4580 -14.9287 -0.4024
1.8022 -14.7571 -0.3971
2.1406 -14.5883 -0.3920
2.4736 -14.4222 -0.3872
2.7433 -13.9603 -0.3746
3.1455 -14.1860 -0.3807
3.4352 -13.8946 -0.3730
3.8294 -14.0254 -0.3768
4.1486 -13.8663 -0.3730
4.4650 -13.7084 -0.3694
4.7792 -13.5517 -0.3659
5.0915 -13.3960 -0.3627
5.4023 -13.2410 -0.3596
5.7120 -13.0865 -0.3567
6.0209 -12.9325 -0.3540
6.3294 -12.7786 -0.3515
6.6379 -12.6248 -0.3491
6.9466 -12.4708 -0.3468
7.2561 -12.3165 -0.3447
7.5666 -12.1616 -0.3428
7.8785 -12.0061 -0.3411
8.1922 -11.8496 -0.3394
8.2551 -11.3444 -0.3279
8.4238 -11.0069 -0.3213
8.5882 -10.6769 -0.3150
8.6713 -10.2623 -0.3062
8.7515 -9.8635 -0.2979
8.8291 -9.4793 -0.2901
8.9043 -9.1084 -0.2826
8.9773 -8.7497 -0.2756
9.0482 -8.4022 -0.2689
9.1174 -8.0650 -0.2626
9.1723 -7.7267 -0.2563
9.1975 -7.3755 -0.2494
9.0871 -6.9329 -0.2394
9.8632 -7.1547 -0.2527
9.9708 -6.8713 -0.2485
10.2314 -6.6921 -0.2483
9.8693 -6.1199 -0.2334
10.5993 -6.2232 -0.2444
8.4254 -4.6768 -0.1896
8.4121 -4.4070 -0.1848
8.3298 -4.1105 -0.1788
8.0396 -3.7285 -0.1687
7.6734 -3.3358 -0.1575
7.3460 -2.9846 -0.1475
7.0515 -2.6683 -0.1387
6.7847 -2.3815 -0.1307
6.5416 -2.1201 -0.1236
6.3190 -1.8805 -0.1171
6.1142 -1.6599 -0.1112
5.9249 -1.4557 -0.1058
5.6279 -1.2394 -0.0987
10.1552 -1.9804 -0.1752
9.2749 -1.5771 -0.1573
8.9987 -1.3073 -0.1502
8.7402 -1.0548 -0.1437
9.4409 -0.9086 -0.1529
9.1027 -0.6545 -0.1453
8.6339 -0.4114 -0.1360
8.8793 -0.2083 -0.1380
8.5690 0.0061 -0.1315
9.0251 0.2246 -0.1368
8.6726 0.4257 -0.1300
8.1901 0.6006 -0.1214
9.8201 0.9592 -0.1441
9.0447 1.1047 -0.1315
8.9679 1.3159 -0.1292
9.2067 1.5790 -0.1315
8.8314 1.7353 -0.1252
8.6078 1.9085 -0.1212
8.8760 2.1942 -0.1242
8.7064 2.3769 -0.1211
8.5409 2.5550 -0.1183
8.9530 2.9157 -0.1235
21.1697 7.4647 -0.2910
20.2813 7.7073 -0.2782
19.4100 7.9180 -0.2658
18.5799 8.1083 -0.2543
17.7884 8.2802 -0.2435
17.0992 8.4679 -0.2343
16.4285 8.6361 -0.2256
15.8022 8.8006 -0.2177
15.2227 8.9665 -0.2106
14.7020 9.1452 -0.2044
14.2008 9.3167 -0.1987
13.7449 9.5005 -0.1938
13.3255 9.6945 -0.1895
12.9222 9.8873 -0.1856
12.5115 10.0615 -0.1817
12.1210 10.2394 -0.1782
11.7556 10.4277 -0.1752
11.3982 10.6137 -0.1725
11.0489 10.7985 -0.1701
10.7096 10.9852 -0.1679
10.3732 11.1677 -0.1659
10.0640 11.3738 -0.1644
9.7473 11.5674 -0.1630
9.4403 11.7688 -0.1619
9.1313 11.9648 -0.1609
8.8360 12.1770 -0.1603
8.5418 12.3908 -0.1599
8.2444 12.6003 -0.1596
7.9463 12.8098 -0.1595
7.6610 13.0433 -0.1598
6.1643 11.1008 -0.1341
5.2736 10.0622 -0.1199
4.8922 9.9097 -0.1166
4.6783 10.0829 -0.1174
4.4579 10.2496 -0.1182
4.2140 10.3667 -0.1185
3.9378 10.4007 -0.1180
3.6735 10.4592 -0.1179
3.4264 10.5654 -0.1185
3.3285 11.1769 -0.1249
4.5681 16.8142 -0.1873
4.2613 17.3295 -0.1926
3.9593 17.9625 -0.1995
3.6409 18.6508 -0.2072
3.3069 19.4246 -0.2161
2.4231 16.6563 -0.1857
1.9748 16.3369 -0.1827
1.5642 16.2207 -0.1822
1.1646 16.1535 -0.1824
0.7454 15.5793 -0.1770
0.3734 15.7888 -0.1807
-0.0082 16.0037 -0.1846
-0.3948 15.9930 -0.1861
-0.7957 16.2790 -0.1914
-1.1809 16.1469 -0.1918
-1.2999 13.3361 -0.1603
-1.9781 16.2231 -0.1974
-3.9995 27.2949 -0.3366
-4.6850 27.3492 -0.3421
-5.7060 29.0703 -0.3691
-6.4853 29.2787 -0.3777
-10.8898 44.0896 -0.5783
-11.9602 43.8446 -0.5851
-13.8586 46.3612 -0.6301
-16.1702 49.6863 -0.6882
-20.7165 58.7894 -0.8306
-25.4476 67.0049 -0.9663
-30.3096 74.3436 -1.0953
-31.6877 72.6511 -1.0943
-35.5670 57.2034 -1.0006
-53.8097 82.0538 -1.4758
-38.1791 55.2596 -1.0227
-31.7718 43.6896 -0.8328
-33.1174 43.3005 -0.8509
-33.9356 42.2161 -0.8560
-35.6003 42.1590 -0.8828
-43.6342 49.2099 -1.0653
-40.2325 43.2231 -0.9683
-30.4475 31.1658 -0.7232
-17.5748 17.1406 -0.4125
-18.0319 16.7556 -0.4186
-18.3792 16.2687 -0.4225
-18.7222 15.7822 -0.4266
-19.0642 15.2981 -0.4310
-19.4056 14.8157 -0.4356
-19.6941 14.2961 -0.4393
-16.7539 11.5542 -0.3717
-19.8051 12.9637 -0.4373
-34.7804 21.5838 -0.7650
-16.9654 9.9688 -0.3719
-20.1349 11.1856 -0.4403
-20.2606 10.6231 -0.4422
-20.1215 9.9379 -0.4386
-18.8022 8.7277 -0.4095
-19.1894 8.3499 -0.4179
-19.3521 7.8702 -0.4216
-18.9837 7.1908 -0.4140
-19.9787 7.0206 -0.4364
-20.2487 6.5702 -0.4432
-20.5227 6.1151 -0.4503
-20.6882 5.6239 -0.4553
-27.1035 6.6689 -0.5986
-23.8978 5.2711 -0.5299
-43.5731 8.5123 -0.9705
-14.2075 2.4207 -0.3180
-14.5942 2.1251 -0.3284
-19.4149 2.3495 -0.4394
-19.5577 1.8885 -0.4454
-19.6990 1.4226 -0.4516
-19.6092 0.9405 -0.4527
-19.5214 0.4639 -0.4541
-19.3829 -0.0079 -0.4544
-19.1829 -0.4715 -0.4535
-15.2439 -0.7436 -0.3636
-18.2487 -1.3329 -0.4392
-39.2758 -3.8249 -0.9544
-38.8213 -4.7302 -0.9528
-32.0335 -4.6913 -0.7945
-20.4290 -3.4980 -0.5122
-37.5055 -7.3591 -0.9510
-17.4254 -3.8586 -0.4470
-17.5184 -4.3259 -0.4549
-17.4617 -4.7624 -0.4592
-17.3097 -5.1735 -0.4611
-17.1587 -5.5835 -0.4633
-16.9214 -5.9622 -0.4633
-16.6801 -6.3344 -0.4634
-16.3795 -6.6775 -0.4619
-15.9066 -6.9376 -0.4555
-15.4517 -7.1885 -0.4496
-42.8682 -21.2183 -1.2681
-73.1227 -50.5249 -2.4171
-61.7868 -44.9366 -2.0852
-56.3847 -43.1291 -1.9442
-50.2104 -40.3665 -1.7702
-43.6852 -36.8966 -0.9420
-42.1402 -37.3734 -0.9324
-38.5741 -35.9130 -0.8764
-33.9433 -33.1687 -0.7925
-32.0734 -32.8939 -0.7702
-29.2144 -31.4475 -0.7221
-26.7066 -30.1789 -0.6802
-24.4806 -29.0488 -0.6431
-22.4229 -27.9509 -0.6083
-20.7122 -27.1368 -0.5808
-19.1517 -26.3911 -0.5560
-17.6930 -25.6636 -0.5324
-16.0376 -24.5095 -0.5010
-15.1255 -24.3820 -0.4913
-13.9882 -23.8148 -0.4733
-12.9323 -23.2882 -0.4568
-11.9483 -22.7975 -0.4415
-11.0280 -22.3385 -0.4273
-10.1645 -21.9079 -0.4141
-9.3518 -21.5025 -0.4017
-8.5846 -21.1199 -0.3902
-7.7339 -20.4290 -0.3734
-7.4056 -21.0873 -0.3815
-7.0615 -21.7772 -0.3900
-5.3601 -18.0017 -0.3193
-4.9189 -18.1091 -0.3182
-4.3866 -17.8436 -0.3107
-3.8758 -17.5888 -0.3036
-3.3845 -17.3438 -0.2969
-2.9112 -17.1077 -0.2905
-2.4542 -16.8799 -0.2844
-2.0124 -16.6595 -0.2786
-1.5845 -16.4461 -0.2730
-1.1692 -16.2390 -0.2677
-0.7657 -16.0378 -0.2626
-0.3730 -15.8419 -0.2577
0.0098 -15.6510 -0.2531
0.3835 -15.4646 -0.2486
0.7489 -15.2824 -0.2443
1.1065 -15.1040 -0.2401
1.4572 -14.9291 -0.2361
1.8014 -14.7574 -0.2323
2.1398 -14.5887 -0.2286
2.4728 -14.4226 -0.2250
2.7424 -13.9607 -0.2169
3.1438 -14.1827 -0.2195
3.4343 -13.8951 -0.2143
3.8286 -14.0258 -0.2156
4.1477 -13.8667 -0.2125
4.4641 -13.7089 -0.2095
4.7783 -13.5522 -0.2066
5.0906 -13.3964 -0.2038
5.4014 -13.2415 -0.2011
5.7110 -13.0870 -0.1985
6.0199 -12.9330 -0.1959
6.3284 -12.7791 -0.1934
6.6368 -12.6253 -0.1909
6.9456 -12.4713 -0.1886
7.2550 -12.3170 -0.1863
7.5655 -12.1622 -0.1840
7.8774 -12.0066 -0.1819
8.1911 -11.8502 -0.1797
8.0939 -11.1248 -0.1691
8.2612 -10.7964 -0.1644
8.3546 -10.3885 -0.1587
8.4400 -9.9903 -0.1531
8.5223 -9.6069 -0.1478
8.6018 -9.2369 -0.1427
8.6788 -8.8793 -0.1379
8.7534 -8.5331 -0.1333
8.8259 -8.1973 -0.1289
8.8965 -7.8711 -0.1246
8.9652 -7.5538 -0.1206
9.0013 -7.2196 -0.1162
30.1337 -22.9949 -0.3739
9.9782 -7.2396 -0.1190
9.9147 -6.8340 -0.1137
10.2861 -6.7293 -0.1134
10.0119 -6.2097 -0.1062
10.7193 -6.2950 -0.1094
8.2900 -4.6027 -0.0815
8.2623 -4.3295 -0.0781
7.9833 -3.9405 -0.0727
7.6184 -3.5341 -0.0668
7.2927 -3.1711 -0.0615
6.9998 -2.8447 -0.0568
6.7347 -2.5491 -0.0526
6.4934 -2.2800 -0.0489
6.2725 -2.0336 -0.0454
6.0693 -1.8069 -0.0423
5.8817 -1.5974 -0.0394
5.6885 -1.3982 -0.0367
5.3684 -1.1828 -0.0333
10.1011 -1.9708 -0.0602
9.2736 -1.5778 -0.0531
8.9974 -1.3080 -0.0495
8.7390 -1.0555 -0.0461
9.3623 -0.9019 -0.0474
8.2155 -0.5914 -0.0399
8.8391 -0.4220 -0.0411
8.8268 -0.2078 -0.0393
8.6971 0.0055 -0.0371
8.7912 0.2180 -0.0358
8.4817 0.4156 -0.0330
8.1098 0.5941 -0.0301
9.0005 0.8784 -0.0319
9.0447 1.1039 -0.0305
9.0522 1.3275 -0.0290
9.3572 1.6041 -0.0284
8.9359 1.7551 -0.0257
8.7805 1.9461 -0.0239
8.4201 2.0809 -0.0217
8.7141 2.3783 -0.0211
8.5484 2.5566 -0.0195
8.9124 2.9018 -0.0190
20.5750 7.2535 -0.0411
19.7093 7.4884 -0.0367
18.8763 7.6989 -0.0326
18.0899 7.8932 -0.0288
17.3560 8.0776 -0.0254
16.6676 8.2529 -0.0223
16.0495 8.4358 -0.0195
15.4261 8.5900 -0.0168
14.8964 8.7732 -0.0145
14.3859 8.9476 -0.0123
13.9048 9.1216 -0.0103
13.4619 9.3039 -0.0084
13.0556 9.4973 -0.0067
12.6503 9.6784 -0.0051
12.2514 9.8515 -0.0037
11.8822 10.0369 -0.0023
11.5121 10.2109 -0.0011
11.1659 10.3966 0.0001
10.8264 10.5804 0.0011
10.4964 10.7658 0.0021
10.1711 10.9495 0.0030
9.8589 11.1416 0.0038
9.5522 11.3354 0.0045
9.2537 11.5357 0.0052
8.9549 11.7333 0.0058
8.6649 11.9409 0.0063
8.3711 12.1427 0.0067
8.0812 12.3506 0.0071
7.7906 12.5586 0.0074
7.5109 12.7876 0.0076
6.0908 10.9683 0.0066
5.1081 9.7463 0.0058
4.8584 9.8412 0.0058
4.6483 10.0185 0.0058
4.4331 10.1928 0.0057
4.1812 10.2863 0.0055
3.8921 10.2803 0.0052
3.6186 10.3033 0.0049
3.3751 10.4079 0.0045
3.1833 10.6901 0.0042
4.5017 16.5712 0.0057
4.1988 17.0770 0.0050
3.9014 17.7018 0.0043
3.5870 18.3776 0.0033
3.2599 19.1522 0.0022
2.9228 20.0961 0.0010
1.9739 16.3336 -0.0004
1.5656 16.2412 -0.0016
1.1542 16.0170 -0.0029
0.7774 16.2613 -0.0044
0.3712 15.7244 -0.0056
-0.0090 16.0198 -0.0073
-0.3951 15.9768 -0.0089
-0.7947 16.2430 -0.0107
-1.1815 16.1441 -0.0124
-1.3004 13.3338 -0.0118
-1.9800 16.2313 -0.0163
-3.9705 27.0861 -0.0307
-4.6580 27.1821 -0.0344
-5.6769 28.9127 -0.0406
-6.4495 29.1086 -0.0451
-8.3360 33.7407 -0.0574
-11.9141 43.6641 -0.0812
-13.2399 44.2807 -0.0896
-15.9431 48.9771 -0.1076
-18.8269 53.4151 -0.1270
-25.4920 67.1072 -0.1723
-30.4331 74.6305 -0.2064
-32.1954 73.7999 -0.2194
-32.8393 50.0669 -0.2370
-46.9138 67.8895 -0.3420
-31.1683 42.8517 -0.2297
-40.9217 53.4947 -0.3049
-35.5855 44.2605 -0.2681
-41.9972 49.7254 -0.3200
-36.2657 40.8923 -0.2796
-37.4528 40.2294 -0.2921
-38.5553 39.4574 -0.3043
-17.2716 16.8417 -0.1380
-17.6506 16.3982 -0.1427
-17.9888 15.9202 -0.1473
-18.3255 15.4448 -0.1519
-18.6609 14.9715 -0.1567
-18.9956 14.4997 -0.1615
-19.3298 14.0289 -0.1664
-16.7526 11.5509 -0.1461
-25.1514 16.4596 -0.2222
-34.0719 21.1396 -0.3049
-16.9650 9.9663 -0.1538
-19.8536 11.0268 -0.1824
-19.7791 10.3682 -0.1841
-19.5141 9.6355 -0.1841
-19.2624 8.9390 -0.1842
-19.0227 8.2751 -0.1843
-18.7940 7.6411 -0.1846
-18.3974 6.9667 -0.1832
-29.2187 10.2643 -0.2949
-48.6246 15.7722 -0.4976
-47.8698 14.2586 -0.4967
-45.4333 12.3459 -0.4781
-36.1423 8.8892 -0.3857
-23.8926 5.2676 -0.2586
-43.1533 8.4261 -0.4738
-14.2064 2.4192 -0.1582
-14.5932 2.1236 -0.1649
-18.7525 2.2675 -0.2150
-18.7907 1.8127 -0.2187
-18.7096 1.3495 -0.2210
-18.6299 0.8919 -0.2234
-18.5514 0.4392 -0.2258
-18.4741 -0.0092 -0.2284
-18.3978 -0.4538 -0.2310
-15.2421 -0.7448 -0.1944
-21.9676 -1.6064 -0.2846
-38.8676 -3.7884 -0.5116
-38.4206 -4.6845 -0.5139
-32.0302 -4.6934 -0.4355
-20.4258 -3.4991 -0.2824
-37.1222 -7.2869 -0.5219
-17.0268 -3.7717 -0.2435
-16.9945 -4.1978 -0.2472
-16.7590 -4.5720 -0.2481
-16.5247 -4.9401 -0.2490
-16.2939 -5.3033 -0.2500
-16.0663 -5.6621 -0.2511
-15.8416 -6.0171 -0.2522
-15.6194 -6.3688 -0.2534
-15.2292 -6.6433 -0.2519
-42.8637 -21.2192 -0.7377
-73.2811 -50.6393 -1.4349
-61.6650 -44.8521 -1.2358
-56.7146 -43.3852 -1.1640
-50.2177 -40.3757 -1.0561
-43.6819 -36.8966 -0.3083
-42.1393 -37.3752 -0.3082
-38.3000 -35.6602 -0.2902
-33.9426 -33.1701 -0.2665
-31.9568 -32.7761 -0.2601
-29.1439 -31.3732 -0.2458
-26.6707 -30.1398 -0.2333
-24.4788 -29.0479 -0.2221
-22.5172 -28.0696 -0.2120
-20.7511 -27.1888 -0.2029
-18.7785 -25.8776 -0.1908
-17.3483 -25.1643 -0.1833
-16.0370 -24.5092 -0.1764
-15.1251 -24.3818 -0.1733
-13.9879 -23.8147 -0.1672
-12.9321 -23.2881 -0.1615
-11.9482 -22.7974 -0.1562
-11.0281 -22.3385 -0.1512
-9.9671 -21.4820 -0.1435
-9.1702 -21.0846 -0.1391
-8.4179 -20.7094 -0.1349
-7.7341 -20.4287 -0.1313
-7.4058 -21.0869 -0.1338
-7.0617 -21.7768 -0.1363
-5.3605 -18.0019 -0.1111
-4.8165 -17.7306 -0.1079
-4.2954 -17.4707 -0.1048
-3.7952 -17.2213 -0.1019
-3.3143 -16.9814 -0.0989
-2.8508 -16.7503 -0.0961
-2.4035 -16.5272 -0.0934
-1.9710 -16.3114 -0.0907
-1.5520 -16.1025 -0.0880
-1.1454 -15.8997 -0.0854
-0.7504 -15.7027 -0.0829
-0.3659 -15.5109 -0.0804
0.0089 -15.3240 -0.0780
0.3748 -15.1415 -0.0755
0.7325 -14.9631 -0.0731
1.0827 -14.7885 -0.0708
1.4260 -14.6173 -0.0684
1.7630 -14.4492 -0.0661
2.0942 -14.2840 -0.0638
2.4203 -14.1214 -0.0615
2.7417 -13.9611 -0.0592
3.1421 -14.1793 -0.0585
3.4335 -13.8955 -0.0557
3.7490 -13.7381 -0.0534
4.0616 -13.5822 -0.0511
4.3715 -13.4277 -0.0487
4.6792 -13.2742 -0.0464
4.9851 -13.1217 -0.0441
5.2895 -12.9699 -0.0417
5.5927 -12.8186 -0.0394
5.8953 -12.6677 -0.0370
6.1974 -12.5171 -0.0346
6.4995 -12.3664 -0.0322
6.8019 -12.2156 -0.0298
7.1049 -12.0645 -0.0273
7.4090 -11.9128 -0.0248
7.7145 -11.7605 -0.0223
7.7687 -11.2412 -0.0191
7.9388 -10.9137 -0.0163
8.0428 -10.5130 -0.0134
8.1334 -10.1153 -0.0106
8.2207 -9.7325 -0.0079
8.3047 -9.3634 -0.0053
8.3859 -9.0067 -0.0028
8.4644 -8.6616 -0.0003
8.5405 -8.3271 0.0021
8.6143 -8.0023 0.0045
8.6860 -7.6864 0.0069
8.7559 -7.3788 0.0091
8.8032 -7.0620 0.0114
29.3170 -22.3761 0.0449
10.0960 -7.3265 0.0178
9.9668 -6.8714 0.0198
10.3413 -6.7669 0.0229
9.8940 -6.1379 0.0240
10.6627 -6.2632 0.0282
10.7550 -5.9727 0.0306
7.9267 -4.1546 0.0242
7.5633 -3.7341 0.0246
7.2392 -3.3590 0.0250
6.9480 -3.0221 0.0253
6.6847 -2.7174 0.0257
6.4452 -2.4403 0.0260
6.2260 -2.1868 0.0263
6.0246 -1.9539 0.0266
5.8387 -1.7388 0.0268
5.6662 -1.5394 0.0271
5.4222 -1.3333 0.0269
9.8975 -2.1816 0.0510
10.0476 -1.9614 0.0536
9.2723 -1.5785 0.0512
8.9962 -1.3087 0.0513
8.7378 -1.0562 0.0514
9.2849 -0.8953 0.0564
8.4649 -0.6102 0.0530
8.9180 -0.4265 0.0575
8.7750 -0.2073 0.0582
8.7831 0.0047 0.0599
8.8177 0.2179 0.0618
8.2990 0.4059 0.0598
8.9568 0.6554 0.0663
9.0284 0.8804 0.0686
9.0037 1.0982 0.0702
9.1840 1.3461 0.0734
8.8510 1.5166 0.0726
8.9619 1.7595 0.0754
8.4303 1.8678 0.0727
8.5863 2.1212 0.0759
8.7218 2.3797 0.0790
8.5559 2.5582 0.0795
8.8721 2.8880 0.0844
19.9987 7.0488 0.1950
19.1574 7.2773 0.1915
18.3789 7.4946 0.1882
17.6237 7.6885 0.1850
16.9042 7.8661 0.1819
16.2755 8.0576 0.1795
15.6658 8.2329 0.1771
15.0955 8.4049 0.1750
14.5684 8.5790 0.1732
14.0705 8.7505 0.1716
13.6209 8.9344 0.1704
13.1872 9.1132 0.1694
12.7859 9.3003 0.1686
12.3893 9.4779 0.1678
12.0035 9.6514 0.1671
11.6339 9.8264 0.1665
11.2801 10.0045 0.1660
10.9428 10.1883 0.1658
