ply
format ascii 1.0
element vertex 2080
property float32 x
property float32 y
property float32 z
end_header
7.3914 -5.3657 0.2134
7.8425 -5.4087 0.2244
9.2904 -6.0814 0.2636
7.7026 -4.7802 0.2169
7.6219 -4.4787 0.2132
7.8950 -4.3861 0.2195
8.6703 -4.5462 0.2397
8.3011 -4.1000 0.2285
8.4148 -3.9061 0.2307
8.5059 -3.7013 0.2324
8.5402 -3.4733 0.2327
8.4535 -3.2022 0.2299
9.0132 -3.1674 0.2447
8.6400 -2.8036 0.2344
8.7958 -2.6210 0.2385
8.7958 -2.3912 0.2386
8.6415 -2.1264 0.2346
8.4943 -1.8737 0.2309
8.8639 -1.7318 0.2414
23.0610 -3.9295 0.6296
22.8125 -3.3221 0.6246
22.4954 -2.7226 0.6181
22.1100 -2.1352 0.6099
21.6020 -1.5604 0.5985
20.9821 -1.0067 0.5842
20.2273 -0.4810 0.5662
19.4179 0.0076 0.5467
18.6922 0.4592 0.5296
17.8812 0.8720 0.5101
17.2077 1.2566 0.4945
16.5974 1.6161 0.4807
16.0449 1.9548 0.4685
15.4886 2.2681 0.4563
15.0458 2.5761 0.4473
14.6099 2.8665 0.4386
14.2113 3.1467 0.4310
13.8671 3.4240 0.4251
13.5215 3.6876 0.4191
13.1730 3.9369 0.4132
12.8663 4.1865 0.4085
12.5763 4.4310 0.4044
12.3071 4.6735 0.4010
12.0336 4.9056 0.3976
11.7708 5.1336 0.3945
11.5210 5.3597 0.3920
11.2925 5.5893 0.3902
11.0679 5.8152 0.3886
10.8499 6.0397 0.3874
10.6311 6.2591 0.3863
10.4252 6.4822 0.3857
10.2224 6.7040 0.3853
10.0211 6.9240 0.3851
9.8310 7.1497 0.3855
9.6413 7.3745 0.3861
9.4519 7.5986 0.3868
6.7465 5.6976 0.2823
6.5767 5.8322 0.2818
6.3986 5.9567 0.2809
6.2398 6.0969 0.2809
6.0676 6.2224 0.2804
5.8875 6.3371 0.2796
5.6743 6.4116 0.2773
5.4472 6.4633 0.2742
5.2482 6.5417 0.2725
5.1015 6.6836 0.2735
4.9756 6.8561 0.2759
4.9040 7.1130 0.2817
7.3022 11.1592 0.4353
6.0172 9.6993 0.3728
5.7148 9.7291 0.3688
5.4826 9.8728 0.3693
5.2767 10.0677 0.3719
5.0610 10.2516 0.3742
5.2049 11.2182 0.4048
5.2914 12.1667 0.4342
5.0544 12.4350 0.4393
4.8880 12.9117 0.4517
4.7164 13.4304 0.4655
4.3032 13.2712 0.4560
3.9728 13.3431 0.4547
3.7127 13.6695 0.4622
3.3840 13.7663 0.4621
3.3145 15.0435 0.5016
3.0490 15.6269 0.5178
2.2964 13.4976 0.4446
1.9605 13.4871 0.4419
1.6464 13.6338 0.4446
1.3274 13.7827 0.4474
1.7487 24.3000 0.7857
1.1849 24.8391 0.8003
0.5957 25.3481 0.8142
-0.0171 25.4165 0.8142
-0.6470 26.0374 0.8323
-1.6778 34.2028 1.0914
-2.8173 38.4255 1.2245
-2.1605 22.1211 0.7044
-5.9930 49.0713 1.5620
-8.6345 58.8434 1.8732
-12.3780 72.1661 2.2985
-14.1670 72.0925 2.2985
-16.6788 75.2185 2.4018
-18.5602 75.0699 2.4018
-20.4468 74.8845 2.4018
-22.3387 74.6628 2.4018
-23.1948 71.2097 2.2987
-25.0138 70.9256 2.2987
-9.7808 25.7328 0.8378
-10.4449 25.5995 0.8377
-11.1106 25.4543 0.8376
-32.6460 70.1191 2.3218
-34.2650 69.1765 2.3062
-35.7472 67.9866 2.2834
-10.8871 19.5442 0.6617
-38.7701 65.8060 2.2474
-33.6279 54.0474 1.8631
-33.5291 51.0932 1.7791
-25.1069 36.3144 1.2781
-32.9407 45.2662 1.6117
-32.5398 42.5165 1.5325
-21.3143 26.4972 0.9677
-27.9277 33.0504 1.2240
-26.8382 30.2470 1.1369
-37.2056 39.9438 1.5254
-38.4658 39.3459 1.5280
-40.0110 38.9951 1.5416
-44.6222 41.4345 1.6694
-14.2011 12.5614 0.5164
-14.6496 12.3402 0.5182
-33.4541 26.8255 1.1524
-14.7400 11.2452 0.4948
-15.0244 10.8980 0.4920
-58.3613 40.2168 1.8656
-60.6377 39.6593 1.8937
-45.5709 28.2569 1.3914
-20.0213 11.7544 0.5981
-44.7224 24.8231 1.3082
-26.6804 13.9765 0.7646
-31.9009 15.7409 0.8964
-42.2877 19.6101 1.1658
-41.9510 18.2356 1.1355
-41.6266 16.9108 1.1068
-41.0343 15.5260 1.0725
-22.5659 7.9203 0.5802
-24.3070 7.8771 0.6151
-41.5962 12.3776 1.0366
-40.6542 11.0354 0.9983
-13.8523 3.4030 0.3354
-13.7704 3.0321 0.3289
-27.9234 5.4445 0.6584
-40.3200 6.8548 0.9391
-40.4872 5.8805 0.9320
-40.2359 4.8545 0.9159
-39.9892 3.8470 0.9007
-39.3334 2.8268 0.8772
-39.0970 1.8617 0.8638
-15.4449 0.3617 0.3382
-32.7346 -0.0245 0.7110
-38.4067 -0.9569 0.8280
-38.1818 -1.8752 0.8174
-21.0748 -1.5462 0.4483
-46.5647 -4.5499 0.9849
-56.9026 -6.9516 1.1975
-71.8718 -10.5485 1.5059
-77.9978 -13.3801 1.6281
-36.8404 -7.2402 0.7666
-69.4267 -15.3954 1.4412
-27.7579 -9.0409 0.5747
-57.6750 -21.9197 1.1979
-57.2986 -23.3761 1.1934
-60.5991 -26.4480 1.2666
-67.5582 -31.4495 1.4182
-65.0982 -32.2404 1.3738
-55.7546 -29.3111 1.1838
-51.7104 -28.8007 1.1056
-50.1140 -29.5200 1.0800
-46.6566 -29.0241 1.0144
-42.7306 -28.0360 0.9383
-40.0037 -27.6520 0.8880
-36.9932 -26.9147 0.8311
-34.3181 -26.2596 0.7811
-31.9229 -25.6729 0.7369
-29.7618 -25.1447 1.1296
-27.8025 -24.6649 1.0746
-26.0149 -24.2270 1.0252
-24.3755 -23.8255 0.9806
-22.8245 -23.4141 0.9385
-21.4656 -23.1117 0.9034
-20.1667 -22.7936 0.8699
-18.9553 -22.4969 0.8393
-17.8216 -22.2192 0.8112
-16.7570 -21.9585 0.7854
-15.7545 -21.7130 0.7618
-14.8074 -21.4810 0.7399
-13.8898 -21.2297 0.7187
-13.0589 -21.0528 0.7012
-12.3906 -21.0968 0.6919
-12.1837 -21.9416 0.7093
-11.9657 -22.8318 0.7282
-9.4144 -19.0705 0.6006
-8.7754 -18.9140 0.5887
-8.1606 -18.7634 0.5778
-7.5681 -18.6183 0.5676
-6.9959 -18.4781 0.5582
-6.4424 -18.3426 0.5495
-5.9060 -18.2112 0.5415
-5.3855 -18.0837 0.5341
-4.8795 -17.9598 0.5273
-4.3868 -17.8391 0.5211
-3.9064 -17.7215 0.5154
-3.4373 -17.6066 0.5103
-2.9786 -17.4942 0.5056
-2.5294 -17.3842 0.5014
-2.0889 -17.2763 0.4976
-1.6563 -17.1703 0.4943
-1.2310 -17.0662 0.4914
-0.8122 -16.9636 0.4888
-0.4114 -17.3693 0.5013
0.0044 -9.2612 0.2679
0.4170 -16.9200 0.4910
0.8215 -16.8209 0.4900
1.2222 -16.7227 0.4893
1.6197 -16.6254 0.4890
2.0145 -16.5287 0.4891
2.4070 -16.4326 0.4894
2.7976 -16.3369 0.4902
3.1870 -16.2415 0.4913
3.5755 -16.1464 0.4927
3.9635 -16.0514 0.4945
4.3516 -15.9563 0.4966
4.7402 -15.8611 0.4991
5.1297 -15.7657 0.5019
5.5207 -15.6700 0.5051
5.9135 -15.5738 0.5086
6.3086 -15.4770 0.5126
6.7066 -15.3795 0.5169
7.1079 -15.2812 0.5216
7.5131 -15.1820 0.5267
7.9227 -15.0817 0.5322
8.3372 -14.9802 0.5381
7.3094 -12.4175 0.4545
7.7637 -12.4889 0.4661
8.2274 -12.5483 0.4780
7.9447 -11.5012 0.4475
8.3493 -11.4834 0.4568
8.4303 -11.0246 0.4489
4.5287 -5.6349 0.2350
8.5185 -10.0898 0.4315
8.6996 -9.8132 0.4308
9.0124 -9.6842 0.4368
8.9592 -9.1723 0.4256
9.2632 -9.0361 0.4319
9.8685 -9.1718 0.4520
8.4307 -7.4640 0.3798
8.4994 -7.1662 0.3770
8.5824 -6.8883 0.3752
7.3919 -5.6447 0.3188
7.5079 -5.4512 0.3197
7.8406 -5.4083 0.3300
8.1867 -5.3599 0.3408
8.1810 -5.0780 0.3372
7.6795 -4.5134 0.3136
7.8341 -4.3531 0.3172
8.0688 -4.2317 0.3242
8.3164 -4.1085 0.3318
8.1998 -3.8073 0.3250
8.3899 -3.6517 0.3307
8.4257 -3.4276 0.3305
8.3843 -3.1769 0.3274
8.4807 -2.9811 0.3300
8.6748 -2.8157 0.3365
8.4714 -2.5251 0.3278
8.4247 -2.2911 0.3254
8.6231 -2.1226 0.3326
8.5033 -1.8765 0.3278
8.8158 -1.7231 0.3398
22.5198 -3.8392 0.8683
22.2094 -3.2361 0.8571
21.9096 -2.6535 0.8468
21.5144 -2.0795 0.8332
20.9237 -1.5131 0.8124
20.2753 -0.9744 0.7897
19.5331 -0.4660 0.7635
18.7858 0.0059 0.7373
18.0566 0.4422 0.7120
17.3309 0.8439 0.6869
16.7042 1.2186 0.6658
16.1434 1.5707 0.6475
15.5876 1.8979 0.6294
15.1092 2.2114 0.6145
14.6706 2.5107 0.6013
14.2447 2.7938 0.5887
13.8976 3.0762 0.5794
13.5527 3.3454 0.5703
13.1997 3.5989 0.5610
12.8835 3.8495 0.5533
12.5879 4.0951 0.5465
12.3125 4.3372 0.5408
12.0391 4.5709 0.5352
11.7781 4.8006 0.5303
11.5238 5.0251 0.5257
11.2923 5.2525 0.5224
11.0686 5.4777 0.5195
10.8444 5.6970 0.5167
10.6290 5.9160 0.5145
10.4174 6.1326 0.5126
10.2211 6.3546 0.5117
10.0248 6.5737 0.5109
9.8326 6.7931 0.5105
9.6435 7.0128 0.5105
9.4493 7.2271 0.5104
9.2694 7.4514 0.5113
6.6734 5.6354 0.3762
6.4982 5.7622 0.3748
6.3326 5.8949 0.3740
6.1653 6.0237 0.3732
5.9681 6.1199 0.3707
5.7913 6.2333 0.3695
5.5944 6.3210 0.3670
5.3820 6.3856 0.3636
5.2163 6.5017 0.3633
5.0697 6.6416 0.3645
4.9430 6.8110 0.3675
4.8764 7.0727 0.3755
6.2825 9.6007 0.5018
5.9147 9.5338 0.4910
5.6314 9.5869 0.4868
5.4041 9.7311 0.4876
5.1973 9.9162 0.4905
4.9873 10.1022 0.4937
5.2164 11.2429 0.5432
4.8943 11.2535 0.5378
4.9765 12.2434 0.5792
4.8292 12.7566 0.5976
4.6628 13.2780 0.6164
4.3946 13.5535 0.6238
3.9514 13.2721 0.6059
3.7637 13.8578 0.6279
3.6237 14.7425 0.6634
3.3033 14.9936 0.6703
2.7634 14.1646 0.6295
2.2911 13.4680 0.5953
1.9612 13.4938 0.5935
1.6469 13.6406 0.5973
1.3191 13.7008 0.5975
1.7464 24.2779 1.0551
1.1829 24.8130 1.0751
0.5955 25.3756 1.0967
-0.0180 25.4378 1.0972
-0.6501 26.1228 1.1250
-1.6207 33.0118 1.4202
-2.7556 37.5633 1.6150
-4.2278 43.2692 1.8602
-5.9677 48.8456 2.1009
-7.7955 53.1087 2.2863
-7.0858 41.2999 1.7804
-10.9303 55.6069 2.4018
-12.3033 55.4722 2.4018
-13.6776 55.3088 2.4018
-15.0527 55.1169 2.4018
-16.4281 54.8962 2.4018
-17.8033 54.6468 2.4018
-18.3548 52.0343 2.2987
-8.4489 22.2245 0.9874
-8.6685 21.2417 0.9497
-9.2182 21.1150 0.9505
-9.7729 20.9872 0.9518
-25.1577 50.7815 2.3218
-26.1624 49.7492 2.2946
-26.8211 48.1405 2.2413
-27.6109 46.8574 2.2037
-28.1501 45.2361 2.1506
-28.8539 43.9618 2.1142
-25.1074 36.3095 1.7678
-30.2992 41.6297 2.0535
-31.1628 40.7109 2.0363
-21.3183 26.4979 1.3451
-27.9195 33.0355 1.7034
-26.8356 30.2393 1.5853
-33.2189 35.6580 1.9024
-31.6840 32.4037 1.7612
-30.7435 29.9581 1.6607
-30.6785 28.4823 1.6120
-14.2003 12.5586 0.7266
-14.6496 12.3381 0.7307
-31.8271 25.5165 1.5488
-14.7382 11.2419 0.7004
-15.0241 10.8959 0.6978
-34.0777 23.4787 1.5483
-52.1974 34.1327 2.3218
-45.5694 28.2505 1.9860
-20.0126 11.7469 0.8552
-29.7472 16.5078 1.2474
-26.6784 13.9725 1.0986
-31.6916 15.6342 1.2825
-42.2864 19.6050 1.6827
-41.9498 18.2307 1.6427
-41.6254 16.9061 1.6051
-41.0332 15.5215 1.5591
-22.5620 7.9168 0.8452
-24.3037 7.8737 0.8983
-41.5952 12.3734 1.5178
-40.6532 11.0314 1.4654
-13.8497 3.4011 0.4935
-13.7695 3.0307 0.4853
-27.9206 5.4415 0.9738
-40.3191 6.8512 1.3926
-40.0655 5.8159 1.3713
-39.8169 4.8007 1.3512
-39.5727 3.8037 1.3322
-39.3326 2.8235 1.3145
-39.0963 1.8585 1.2978
-15.4434 0.3605 0.5095
-32.7317 -0.0271 1.0740
-38.4060 -0.9599 1.2540
-38.1811 -1.8781 1.2413
-21.0720 -1.5476 0.6826
-46.5888 -4.5558 1.5046
-56.9412 -6.9606 1.8345
-71.4169 -10.4870 2.2968
-56.6302 -9.7188 1.8192
-36.8420 -7.2432 1.1830
-71.5128 -15.8632 2.2968
-55.6780 -13.7699 1.7898
-71.3902 -19.4975 2.2985
-74.4273 -22.2726 2.4018
-74.2051 -24.1743 2.4018
-73.9299 -26.0765 2.4018
-57.6741 -21.9233 1.8821
-57.2977 -23.3797 1.8795
-60.4796 -26.3999 1.9958
-67.5407 -31.4460 2.2440
-65.0918 -32.2417 2.1791
-54.0963 -28.4430 1.8263
-52.0625 -29.0003 1.7740
-50.1129 -29.5227 1.7249
-46.6483 -29.0221 1.6235
-42.7237 -28.0343 1.5048
-39.9978 -27.6506 1.4271
-36.9882 -26.9135 1.3382
-34.3139 -26.2585 1.2601
-31.9192 -25.6720 1.1910
-29.7586 -25.1439 1.5618
-27.7998 -24.6642 1.4869
-26.0125 -24.2264 1.4195
-24.3734 -23.8250 1.3587
-22.8236 -23.4146 1.3013
-21.4640 -23.1113 1.2533
-20.1654 -22.7933 1.2075
-18.9542 -22.4966 1.1656
-17.8206 -22.2190 1.1272
-16.7562 -21.9583 1.0919
-15.7537 -21.7128 1.0593
-14.8068 -21.4809 1.0293
-13.8893 -21.2296 1.0001
-13.0585 -21.0527 0.9760
-12.3905 -21.0971 0.9633
-12.1836 -21.9419 0.9877
-11.9656 -22.8319 1.0142
-9.4143 -19.0705 0.8366
-8.7754 -18.9140 0.8201
-8.1607 -18.7634 0.8048
-7.5682 -18.6183 0.7906
-6.9960 -18.4782 0.7774
-6.4426 -18.3426 0.7652
-5.9063 -18.2113 0.7539
-5.3858 -18.0838 0.7435
-4.8797 -17.9598 0.7338
-4.3871 -17.8392 0.7249
-3.9068 -17.7215 0.7168
-3.4377 -17.6066 0.7093
-2.9790 -17.4943 0.7025
-2.5258 -17.3567 0.6952
-2.0860 -17.2490 0.6896
-1.6542 -17.1433 0.6846
-1.2315 -17.0663 0.6812
-0.8128 -16.9637 0.6773
-0.4120 -17.3671 0.6940
0.0041 -9.2594 0.3706
0.4163 -16.9201 0.6788
0.8208 -16.8211 0.6768
1.2216 -16.7229 0.6754
1.6190 -16.6256 0.6743
2.0138 -16.5289 0.6738
2.4062 -16.4328 0.6737
2.7969 -16.3371 0.6741
3.1862 -16.2417 0.6749
3.5746 -16.1466 0.6762
3.9627 -16.0516 0.6779
4.3507 -15.9565 0.6801
4.7393 -15.8614 0.6827
5.1288 -15.7660 0.6858
5.5197 -15.6702 0.6894
5.9125 -15.5740 0.6935
6.3076 -15.4773 0.6980
6.7056 -15.3798 0.7030
7.0958 -15.2577 0.7075
7.5003 -15.1586 0.7135
7.9092 -15.0584 0.7201
8.3360 -14.9804 0.7284
8.7561 -14.8776 0.7361
7.8396 -12.6131 0.6355
8.3096 -12.6756 0.6510
8.3172 -12.0423 0.6310
11.1437 -15.3290 0.8201
8.2806 -10.8305 0.5922
8.6998 -10.8263 0.6056
8.3361 -9.8753 0.5657
8.8677 -10.0043 0.5875
9.0339 -9.7088 0.5851
8.8267 -9.0381 0.5596
9.1195 -8.8974 0.5666
8.6112 -8.0045 0.5249
8.3994 -7.4376 0.5029
8.4726 -7.1447 0.4988
8.5674 -6.8775 0.4965
7.1683 -5.4749 0.4093
7.6282 -5.5396 0.4295
8.1323 -5.6106 0.4519
8.2593 -5.4084 0.4534
8.0717 -5.0112 0.4381
7.7379 -4.5487 0.4156
8.1570 -4.5335 0.4339
8.7312 -4.5801 0.4602
8.2030 -4.0533 0.4288
8.2404 -3.8269 0.4275
8.2770 -3.6034 0.4265
8.3129 -3.3826 0.4257
8.3162 -3.1519 0.4235
8.4480 -2.9704 0.4281
8.6965 -2.8236 0.4389
8.6543 -2.5805 0.4351
8.8154 -2.3981 0.4419
8.6603 -2.1326 0.4331
8.5123 -1.8792 0.4249
8.7681 -1.7146 0.4371
21.8942 -3.7345 1.0907
21.6664 -3.1588 1.0793
21.3278 -2.5848 1.0628
20.8229 -2.0144 1.0387
20.2422 -1.4655 1.0113
19.5437 -0.9408 0.9784
18.8644 -0.4516 0.9469
18.1685 0.0043 0.9148
17.4685 0.4264 0.8828
16.8053 0.8170 0.8529
16.2386 1.1834 0.8281
15.6668 1.5231 0.8031
15.1718 1.8461 0.7823
14.7101 2.1519 0.7633
14.3037 2.4469 0.7474
13.9270 2.7304 0.7331
13.5725 3.0033 0.7202
13.2312 3.2651 0.7081
12.8998 3.5162 0.6967
12.6063 3.7658 0.6875
12.3171 4.0061 0.6786
12.0463 4.2426 0.6709
11.7845 4.4734 0.6638
11.5330 4.6999 0.6575
8.5716 3.7371 0.4949
8.4542 3.9318 0.4946
8.5204 4.2160 0.5055
10.6264 5.5818 0.6396
10.4168 5.7972 0.6366
10.2163 6.0136 0.6344
10.0247 6.2318 0.6329
9.8341 6.4480 0.6318
9.6425 6.6612 0.6308
9.4518 6.8727 0.6301
9.2672 7.0871 0.6301
9.0934 7.3092 0.6311
6.6184 5.5885 0.4693
6.4274 5.6990 0.4661
6.2848 5.8499 0.4665
6.1326 5.9914 0.4664
5.9202 6.0705 0.4619
5.7123 6.1479 0.4576
5.5166 6.2328 0.4544
5.3494 6.3466 0.4536
5.1848 6.4620 0.4531
5.0386 6.6006 0.4545
4.9108 6.7663 0.4580
4.8491 7.0328 0.4682
6.2269 9.5154 0.6237
5.8654 9.4541 0.6105
5.5788 9.4973 0.6046
5.3692 9.6681 0.6073
5.1671 9.8586 0.6113
4.9382 10.0026 0.6128
4.7737 10.2888 0.6231
4.9052 11.2787 0.6757
4.9287 12.1260 0.7190
4.7803 12.6277 0.7416
4.6235 13.1664 0.7662
4.4549 13.7402 0.7928
4.0743 13.6854 0.7834
3.7128 13.6711 0.7768
3.6108 14.6911 0.8291
3.2921 14.9440 0.8381
2.7517 14.1058 0.7865
2.3254 13.6712 0.7583
1.9657 13.5273 0.7468
1.6373 13.5643 0.7457
1.4307 14.8641 0.8141
1.6728 23.2649 1.2702
1.1823 24.8167 1.3513
0.5953 25.4031 1.3802
-0.0189 25.4393 1.3798
-0.6533 26.2089 1.4199
-1.5823 32.2052 1.7436
-2.7161 37.0042 2.0031
-4.1492 42.4455 2.2985
-5.1832 42.4084 2.2985
-4.4535 30.3308 1.6462
-7.2542 42.2686 2.2985
-8.6628 44.0597 2.4018
-9.7455 43.9289 2.4018
-10.8278 43.7747 2.4018
-11.9092 43.5974 2.4018
-12.9894 43.3965 2.4018
-14.0678 43.1720 2.4018
-15.1441 42.9241 2.4018
-8.4465 22.2142 1.2509
-8.6703 21.2425 1.2045
-9.2201 21.1158 1.2064
-9.7749 20.9879 1.2090
-19.7953 39.9506 2.3218
-20.8141 39.5726 2.3218
-21.8276 39.1714 2.3218
-22.8354 38.7468 2.3218
-23.8370 38.2990 2.3218
-24.8319 37.8279 2.3218
-25.1080 36.3045 2.2578
-26.6044 36.5475 2.3049
-27.4365 35.8372 2.2938
-21.3131 26.4873 1.7221
-27.9112 33.0205 2.1828
-26.8330 30.2316 2.0338
-28.6630 30.7627 2.1082
-28.5809 29.2255 2.0425
-28.7177 27.9795 1.9963
-29.0001 26.9195 1.9630
-14.1995 12.5558 0.9369
-14.6495 12.3360 0.9432
-29.1776 23.3883 1.8349
-14.7364 11.2386 0.9060
-15.0238 10.8938 0.9038
-27.0582 18.6391 1.5941
-27.1249 17.7341 1.5663
-27.3938 16.9794 1.5516
-20.0044 11.7398 1.1123
-28.1167 15.5998 1.5360
-26.6763 13.9685 1.4327
-29.1769 14.3905 1.5418
-30.0196 13.9147 1.5618
-41.8106 18.1660 2.1432
-41.6243 16.9015 2.1036
-41.0321 15.5170 2.0459
-22.5581 7.9132 1.1104
-24.3004 7.8703 1.1817
-41.5942 12.3693 1.9994
-40.6522 11.0274 1.9329
-13.8471 3.3992 0.6516
-13.7686 3.0292 0.6417
-27.9177 5.4385 1.2894
-40.3182 6.8476 1.8465
-40.0646 5.8124 1.8205
-39.8160 4.7972 1.7962
-39.5719 3.8004 1.7734
-39.3318 2.8202 1.7521
-39.0955 1.8553 1.7321
-15.4419 0.3592 0.6809
-32.7288 -0.0296 1.4371
-38.4053 -0.9629 1.6803
-38.1804 -1.8811 1.6655
-21.0691 -1.5490 0.9169
-46.6132 -4.5617 2.0251
-42.1601 -5.1569 1.8296
-42.7112 -6.2750 1.8527
-52.9408 -9.0895 2.2968
-36.8545 -7.2483 1.6002
-41.2147 -9.1453 1.7922
-41.7257 -10.3223 1.8183
-52.5981 -14.3689 2.2985
-54.7685 -16.3936 2.4018
-54.5393 -17.7714 2.4018
-54.2725 -19.1467 2.4018
-53.9680 -20.5183 2.4018
-53.6258 -21.8851 2.4018
-53.2458 -23.2460 2.4018
-50.5604 -23.5437 2.2987
-50.1241 -24.8312 2.2987
-49.6518 -26.1095 2.2987
-23.6204 -13.1588 1.1049
-21.2763 -12.5358 1.0064
-20.9619 -13.0427 1.0035
-20.8005 -13.6502 1.0087
-39.9919 -27.6491 1.9664
-36.9831 -26.9123 1.8455
-34.3096 -26.2575 1.7393
-31.9155 -25.6711 1.6453
-29.7554 -25.1432 1.9942
-27.7971 -24.6635 1.8994
-26.0102 -24.2259 1.8141
-24.3714 -23.8245 1.7371
-22.8227 -23.4151 1.6644
-21.4626 -23.1110 1.6035
-20.1640 -22.7929 1.5454
-18.9530 -22.4963 1.4922
-17.8196 -22.2188 1.4434
-16.7554 -21.9581 1.3985
-15.7530 -21.7126 1.3572
-14.8063 -21.4807 1.3190
-13.8889 -21.2295 1.2818
-13.0581 -21.0526 1.2511
-12.3905 -21.0974 1.2350
-12.1836 -21.9421 1.2664
-11.9656 -22.8322 1.3004
-9.4143 -19.0705 1.0727
-8.7754 -18.9140 1.0516
-8.1607 -18.7634 1.0320
-7.5683 -18.6183 1.0137
-6.9961 -18.4782 0.9968
-6.4427 -18.3427 0.9811
-5.9065 -18.2113 0.9665
-5.3860 -18.0838 0.9530
-4.8800 -17.9599 0.9405
-4.3874 -17.8393 0.9289
-3.9071 -17.7216 0.9183
-3.4381 -17.6067 0.9085
-2.9794 -17.4944 0.8995
-2.5262 -17.3569 0.8900
-2.0865 -17.2491 0.8825
-1.6546 -17.1434 0.8758
-1.2320 -17.0664 0.8712
-0.8133 -16.9639 0.8659
-0.4125 -17.3649 0.8868
0.0038 -9.2577 0.4733
0.4157 -16.9203 0.8668
0.8202 -16.8212 0.8639
1.2209 -16.7231 0.8616
1.6183 -16.6257 0.8598
2.0130 -16.5291 0.8587
2.4054 -16.4330 0.8581
2.7961 -16.3373 0.8581
3.1854 -16.2419 0.8587
3.5738 -16.1468 0.8598
3.9618 -16.0518 0.8615
4.3498 -15.9567 0.8638
4.7384 -15.8616 0.8666
5.1278 -15.7662 0.8700
5.5187 -15.6705 0.8739
5.9115 -15.5743 0.8785
6.3066 -15.4775 0.8836
6.7045 -15.3800 0.8894
7.0947 -15.2579 0.8943
7.4992 -15.1589 0.9013
7.9080 -15.0587 0.9090
8.3348 -14.9807 0.9187
8.7548 -14.8779 0.9278
7.8690 -12.6623 0.8036
8.3936 -12.8058 0.8277
8.7374 -12.6527 0.8337
8.3632 -11.5061 0.7736
8.7226 -11.4104 0.7834
8.6473 -10.7627 0.7554
8.4413 -10.0015 0.7183
8.7942 -9.9230 0.7300
9.3149 -10.0124 0.7553
9.0625 -9.2810 0.7187
8.9801 -8.7628 0.6974
8.3438 -7.7572 0.6352
8.3683 -7.4113 0.6253
8.4448 -7.1226 0.6200
8.5524 -6.8666 0.6175
7.2801 -5.5612 0.5175
7.7526 -5.6309 0.5430
8.2715 -5.7076 0.5714
8.1613 -5.3453 0.5565
8.0473 -4.9970 0.5421
7.7974 -4.5845 0.5193
8.5547 -4.7555 0.5638
8.2614 -4.3345 0.5392
8.0925 -3.9996 0.5234
8.1301 -3.7766 0.5214
8.1670 -3.5564 0.5198
8.3569 -3.4013 0.5282
8.2446 -3.1256 0.5179
8.4156 -2.9599 0.5256
9.1580 -2.9743 0.5692
8.8456 -2.6383 0.5474
8.8253 -2.4016 0.5441
8.6697 -2.1357 0.5328
8.5214 -1.8820 0.5223
8.7209 -1.7061 0.5335
21.2716 -3.6301 1.2996
21.0241 -3.0670 1.2834
20.5870 -2.4968 1.2564
20.1079 -1.9469 1.2276
19.5756 -1.4188 1.1961
18.8869 -0.9107 1.1557
18.2316 -0.4379 1.1178
17.5795 0.0028 1.0806
16.8786 0.4107 1.0407
16.3212 0.7922 1.0100
15.7225 1.1446 0.9770
15.2383 1.4803 0.9514
14.7662 1.7957 0.9268
14.3388 2.0965 0.9052
13.9552 2.3862 0.8866
13.5937 2.6641 0.8696
13.2491 2.9308 0.8539
12.9243 3.1884 0.8397
12.6233 3.4399 0.8272
9.1450 2.7311 0.6048
8.8754 2.8861 0.5927
8.6807 3.0567 0.5858
8.4462 3.2056 0.5762
8.2352 3.3555 0.5684
8.0742 3.5198 0.5641
7.9666 3.7045 0.5638
7.9474 3.9320 0.5701
7.9952 4.1991 0.5817
8.0452 4.4768 0.5940
10.0227 5.8989 0.7517
9.8310 6.1108 0.7494
9.6397 6.3199 0.7474
9.4538 6.5302 0.7462
9.2674 6.7380 0.7452
9.0917 6.9523 0.7454
6.9521 5.5876 0.5817
6.5488 5.5294 0.5597
6.3791 5.6558 0.5574
6.2376 5.8056 0.5578
6.0959 5.9552 0.5584
5.8893 6.0384 0.5533
5.6827 6.1157 0.5481
5.4655 6.1748 0.5419
5.3171 6.3080 0.5426
5.1536 6.4229 0.5420
5.0078 6.5601 0.5435
4.8792 6.7225 0.5474
4.8220 6.9933 0.5601
4.9344 7.5401 0.5944
5.8129 9.3693 0.7276
5.5456 9.4405 0.7228
5.3381 9.6120 0.7260
5.1421 9.8106 0.7316
4.9224 9.9705 0.7345
4.7420 10.2204 0.7443
4.9081 11.2854 0.8130
4.8913 12.0342 0.8581
4.7402 12.5221 0.8843
4.5919 13.0766 0.9151
4.4758 13.8049 0.9580
4.1311 13.8769 0.9554
3.9612 14.5866 0.9970
3.6421 14.8192 1.0061
3.2809 14.8947 1.0050
2.7404 14.0497 0.9426
2.4082 14.1603 0.9452
2.0152 13.8705 0.9216
1.6251 13.4662 0.8911
1.4230 14.7893 0.9753
1.6197 22.5355 1.4816
1.1822 24.8329 1.6286
0.5948 25.4216 1.6640
-0.0199 25.4419 1.6629
-0.6562 26.2880 1.7167
-1.5726 31.9820 2.0877
-2.5857 35.2083 2.2985
-3.4410 35.1854 2.2985
-3.0821 25.2089 1.6488
-4.8678 33.1415 2.1713
-6.2793 36.5776 2.4018
-7.1736 36.4760 2.4018
-8.0672 36.3546 2.4018
-8.9596 36.2137 2.4018
-9.8505 36.0531 2.4018
-10.7396 35.8726 2.4018
-11.6263 35.6725 2.4018
-12.5104 35.4525 2.4018
-8.4441 22.2038 1.5145
-8.6722 21.2432 1.4597
-9.2221 21.1165 1.4627
-9.7769 20.9886 1.4665
-16.1525 32.5932 2.2987
-16.9752 32.2687 2.2987
-17.9714 32.2458 2.3218
-18.7912 31.8796 2.3218
-19.6050 31.4944 2.3218
-20.4121 31.0900 2.3218
-21.2122 30.6665 2.3218
-22.0048 30.2240 2.3218
-22.7895 29.7626 2.3218
-21.3227 26.4951 2.1008
-24.2455 28.6791 2.3134
-24.8718 28.0175 2.3014
-25.4692 27.3305 2.2884
-25.9192 26.4994 2.2641
-26.3590 25.6772 2.2412
-26.7406 24.8181 2.2155
-14.1986 12.5530 1.1475
-14.6495 12.3338 1.1560
-25.7502 20.6374 1.9860
-14.7347 11.2352 1.1117
-15.0236 10.8916 1.1099
-25.2810 17.4117 1.8304
-25.4817 16.6567 1.8096
-25.7510 15.9581 1.7952
-20.0005 11.7352 1.3697
-26.4208 14.6559 1.7790
-26.6743 13.9645 1.7671
-27.4111 13.5167 1.7880
-28.0929 13.0187 1.8056
-28.9837 12.5899 1.8368
-30.5954 12.4201 1.9131
-37.4572 14.1615 2.3126
-22.5541 7.9097 1.3757
-24.2972 7.8670 1.4652
-38.1412 11.3389 2.2755
-38.3072 10.3878 2.2623
-13.8444 3.3974 0.8099
-13.7677 3.0278 0.7983
-27.9149 5.4356 1.6052
-39.3208 6.6748 2.2439
-39.6973 5.7557 2.2494
-39.8152 4.7938 2.2417
-39.5710 3.7970 2.2150
-39.3310 2.8170 2.1901
-39.0947 1.8521 2.1669
-15.4403 0.3579 0.8524
-32.7259 -0.0322 1.8005
-38.4045 -0.9659 2.1070
-38.1797 -1.8840 2.0901
-21.0662 -1.5504 1.1514
-42.0616 -4.1194 2.2968
-42.0754 -5.1497 2.2968
-42.0630 -6.1829 2.2968
-42.0239 -7.2183 2.2968
-41.9579 -8.2551 2.2968
-41.5473 -9.2222 2.2794
-41.7767 -10.3379 2.2985
-41.6291 -11.3753 2.2985
-41.4542 -12.4112 2.2985
-43.1047 -14.0486 2.4018
-42.8643 -15.1250 2.4018
-42.5949 -16.1973 2.4018
-42.2966 -17.2646 2.4018
-41.9695 -18.3259 2.4018
-41.6136 -19.3804 2.4018
-41.2287 -20.4273 2.4018
-39.4655 -20.7557 2.3224
-23.6164 -13.1582 1.4049
-21.2730 -12.5353 1.2804
-20.9618 -13.0441 1.2777
-20.8004 -13.6515 1.2850
-37.4463 -25.8916 2.3468
-36.8780 -26.8381 2.3468
-34.3054 -26.2564 2.2189
-31.9119 -25.6702 2.1000
-28.1546 -23.7923 2.2968
-27.6068 -24.4965 2.2968
-26.0078 -24.2253 2.2092
-24.3694 -23.8240 2.1158
-22.8219 -23.4155 2.0278
-21.4610 -23.1106 1.9540
-20.1627 -22.7926 1.8836
-18.9519 -22.4961 1.8192
-17.8186 -22.2185 1.7600
-16.7545 -21.9579 1.7056
-15.7523 -21.7124 1.6554
-14.8057 -21.4806 1.6090
-13.8884 -21.2294 1.5638
-13.0577 -21.0525 1.5264
-12.3904 -21.0977 1.5070
-12.1835 -21.9424 1.5454
-11.9656 -22.8323 1.5870
-9.4142 -19.0704 1.3091
-8.7754 -18.9140 1.2834
-8.1607 -18.7634 1.2594
-7.5683 -18.6183 1.2371
-6.9963 -18.4782 1.2164
-6.4429 -18.3427 1.1972
-5.9067 -18.2114 1.1793
-5.3862 -18.0839 1.1627
-4.8803 -17.9600 1.1474
-4.3878 -17.8393 1.1332
-3.9075 -17.7217 1.1200
-3.4385 -17.6068 1.1079
-2.9798 -17.4945 1.0968
-2.5267 -17.3570 1.0849
-2.0869 -17.2493 1.0757
-1.6551 -17.1435 1.0673
-1.2325 -17.0665 1.0614
-0.8139 -16.9640 1.0547
-0.4130 -17.3627 1.0798
0.0034 -9.2559 0.5762
0.4150 -16.9204 1.0549
0.8195 -16.8214 1.0511
1.2202 -16.7232 1.0480
1.6176 -16.6259 1.0456
2.0123 -16.5292 1.0438
2.4047 -16.4331 1.0428
2.7953 -16.3375 1.0424
3.1846 -16.2421 1.0427
3.5730 -16.1470 1.0437
3.9609 -16.0520 1.0453
4.3489 -15.9570 1.0477
4.7375 -15.8618 1.0506
5.1269 -15.7664 1.0543
5.5177 -15.6707 1.0587
5.9105 -15.5745 1.0637
6.3055 -15.4778 1.0694
6.7034 -15.3803 1.0759
7.0936 -15.2582 1.0814
7.4980 -15.1591 1.0894
7.9069 -15.0590 1.0981
8.3336 -14.9810 1.1094
8.7536 -14.8782 1.1197
7.8605 -12.6508 0.9684
10.4428 -15.9347 1.2418
7.9814 -11.5598 0.9179
8.4355 -11.6075 0.9399
8.7987 -11.5119 0.9515
8.4924 -10.5716 0.8928
8.5734 -10.1597 0.8775
8.7219 -9.8430 0.8703
9.0334 -9.7114 0.8800
9.0925 -9.3133 0.8659
9.3171 -9.0931 0.8684
8.3357 -7.7510 0.7613
8.3376 -7.3854 0.7469
8.4172 -7.1005 0.7405
8.5383 -6.8565 0.7383
7.3344 -5.6037 0.6240
7.8813 -5.7254 0.6604
8.4156 -5.8082 0.6951
8.4086 -5.5082 0.6852
8.2120 -5.1002 0.6608
7.8533 -4.6183 0.6244
8.6349 -4.8010 0.6790
8.3838 -4.3997 0.6525
7.9848 -3.9472 0.6155
8.0227 -3.7275 0.6130
8.3986 -3.6581 0.6365
8.2885 -3.3743 0.6235
8.1640 -3.0958 0.6100
8.3834 -2.9493 0.6225
9.1422 -2.9701 0.6752
8.9451 -2.6688 0.6574
8.8352 -2.4051 0.6466
8.6792 -2.1388 0.6329
8.5305 -1.8847 0.6201
9.9310 -1.9437 0.7202
10.0446 -1.7150 0.7271
20.2868 -2.9612 1.4666
19.9138 -2.4168 1.4386
19.4083 -1.8807 1.4019
9.4498 -0.6857 0.6829
9.5747 -0.4624 0.6926
9.4444 -0.2276 0.6842
9.4436 0.0007 0.6856
16.3788 0.3973 1.1922
15.8108 0.7662 1.1546
15.2877 1.1117 1.1206
14.8105 1.4376 1.0903
14.3705 1.7465 1.0631
13.9890 2.0443 1.0405
13.6133 2.3268 1.0186
13.2617 2.5981 0.9988
12.9426 2.8620 0.9817
9.3179 2.2981 0.7122
9.2316 2.5150 0.7115
8.8638 2.6465 0.6892
8.6874 2.8243 0.6819
8.4975 2.9916 0.6737
8.1688 3.0998 0.6546
7.9680 3.2460 0.6457
7.8578 3.4248 0.6444
7.7566 3.6063 0.6442
7.7013 3.8097 0.6481
7.6916 4.0392 0.6563
7.6693 4.2671 0.6640
7.7044 4.5340 0.6773
7.7717 4.8302 0.6943
7.8407 5.1399 0.7123
9.2722 6.4041 0.8573
6.7564 4.9119 0.6363
6.6413 5.0781 0.6376
6.5531 5.2666 0.6419
6.4839 5.4741 0.6486
6.3214 5.6043 0.6464
6.1910 5.7619 0.6478
6.0504 5.9104 0.6484
5.8586 6.0066 0.6438
5.6412 6.0707 0.6364
5.4176 6.1204 0.6281
5.2733 6.2557 0.6292
5.1227 6.3841 0.6299
4.9774 6.5199 0.6316
4.8493 6.6811 0.6360
4.7952 6.9542 0.6511
4.8892 7.4707 0.6884
5.7791 9.3146 0.8455
5.5193 9.3955 0.8407
5.3137 9.5679 0.8446
5.1148 9.7585 0.8504
4.9027 9.9306 0.8549
4.7126 10.1571 0.8644
4.9065 11.2817 0.9497
4.8558 11.9469 0.9955
4.7378 12.5160 1.0329
4.6220 13.1628 1.0766
4.5838 14.1384 1.1467
4.1355 13.8920 1.1179
3.8560 14.2002 1.1345
3.5671 14.5151 1.1519
3.2698 14.8457 1.1710
2.7293 13.9940 1.0977
2.3962 14.0916 1.0998
2.0613 14.1902 1.1026
1.7451 14.4637 1.1194
1.4185 14.7461 1.1374
1.7510 24.3728 1.8746
1.1793 24.7887 1.9021
0.5930 25.3798 1.9440
-0.0208 25.4582 1.9475
-0.6622 26.4859 2.0247
-1.4801 30.0752 2.2985
-2.2093 30.0655 2.2985
-2.9391 30.0397 2.2985
-3.2590 26.6450 2.0416
-4.3990 29.9399 2.2985
-5.3589 31.2073 2.4018
-6.1205 31.1129 2.4018
-6.8810 31.0017 2.4018
-7.6401 30.8732 2.4018
-8.3974 30.7280 2.4018
-9.1526 30.5656 2.4018
-9.9054 30.3863 2.4018
-10.6554 30.1899 2.4018
-8.3477 21.9463 1.7584
-8.6741 21.2439 1.7153
-9.2240 21.1172 1.7194
-9.7789 20.9894 1.7244
-13.7348 27.7100 2.2987
-14.4293 27.4245 2.2987
-15.1187 27.1228 2.2987
-15.8026 26.8050 2.2987
-16.6462 26.7369 2.3218
-17.3248 26.3835 2.3218
-17.9969 26.0140 2.3218
-18.6619 25.6284 2.3218
-19.3195 25.2269 2.3218
-19.9695 24.8097 2.3218
-20.6114 24.3766 2.3218
-21.2447 23.9278 2.3218
-21.8690 23.4635 2.3218
-22.4841 22.9837 2.3218
-23.0360 22.4365 2.3164
-23.3106 21.6311 2.2851
-14.1978 12.5502 1.3582
-14.6494 12.3317 1.3690
-23.1954 18.5867 2.1197
-14.7329 11.2319 1.3177
-15.0233 10.8895 1.3163
-23.4906 16.1756 2.0181
-23.7212 15.5030 1.9998
-23.9886 14.8631 1.9862
-19.9743 11.7175 1.6256
-24.6662 13.6798 1.9746
-25.0814 13.1278 1.9765
-25.5574 12.5999 1.9841
-26.0690 12.0780 1.9951
-26.6271 11.5635 2.0104
-27.3565 11.1026 2.0390
-28.3119 10.7011 2.0846
-22.5502 7.9061 1.6413
-24.2939 7.8636 1.7491
-32.4749 9.6513 2.3143
-32.8950 8.9172 2.3218
-13.8418 3.3955 0.9683
-13.7668 3.0264 0.9550
-27.9121 5.4326 1.9213
-33.9707 5.7637 2.3218
-34.1925 4.9547 2.3218
-34.3948 4.1383 2.3218
-34.5774 3.3150 2.3218
-34.6172 2.4766 2.3136
-34.4108 1.6275 2.2904
-15.4388 0.3567 1.0240
-32.7230 -0.0348 2.1643
-34.4827 -0.8699 2.2755
-34.5402 -1.7070 2.2755
-21.0634 -1.5518 1.3862
-34.5919 -3.3905 2.2755
-34.5858 -4.2356 2.2755
-34.5582 -5.0823 2.2755
-34.5089 -5.9300 2.2755
-34.4378 -6.7781 2.2755
-34.6931 -7.7033 2.2985
-34.5769 -8.5588 2.2985
-34.4386 -9.4130 2.2985
-34.2779 -10.2651 2.2985
-34.0947 -11.1145 2.2985
-35.4115 -12.4978 2.4018
-35.1735 -13.3777 2.4018
-34.9120 -14.2528 2.4018
-34.6273 -15.1223 2.4018
-34.3193 -15.9857 2.4018
-33.9882 -16.8422 2.4018
-33.6341 -17.6911 2.4018
-23.6124 -13.1575 1.7053
-21.2698 -12.5348 1.5548
-20.9617 -13.0454 1.5522
-20.8003 -13.6528 1.5616
-30.1708 -20.8631 2.2987
-23.6734 -17.2300 1.8321
-29.1909 -22.3438 2.2968
-28.6827 -23.0745 2.2968
-23.9059 -20.2034 2.2987
-23.4169 -20.7801 2.2968
-22.9316 -21.3614 2.2968
-22.4307 -21.9301 2.2968
-21.9145 -22.4859 2.2968
-21.3833 -23.0282 2.2968
-20.1614 -22.7923 2.2223
-18.9507 -22.4958 2.1465
-17.8177 -22.2183 2.0770
-16.7537 -21.9577 2.0130
-15.7516 -21.7123 1.9539
-14.8051 -21.4804 1.8994
-13.8879 -21.2293 1.8462
-13.0573 -21.0524 1.8022
-12.3903 -21.0980 1.7794
-12.1835 -21.9427 1.8248
-11.9655 -22.8325 1.8739
-9.4141 -19.0704 1.5459
-8.7753 -18.9140 1.5155
-8.1608 -18.7635 1.4872
-7.5684 -18.6184 1.4609
-6.9964 -18.4783 1.4364
-6.4431 -18.3427 1.4136
-5.9069 -18.2114 1.3925
-5.3865 -18.0840 1.3728
-4.8806 -17.9601 1.3546
-4.3881 -17.8394 1.3377
-3.9078 -17.7218 1.3221
-3.4388 -17.6069 1.3077
-2.9802 -17.4946 1.2944
-2.5271 -17.3571 1.2802
-2.0874 -17.2494 1.2691
-1.6556 -17.1436 1.2591
-1.2330 -17.0667 1.2519
-0.8144 -16.9641 1.2438
-0.4136 -17.3605 1.2730
0.0031 -9.2542 0.6791
0.4144 -16.9206 1.2434
0.8188 -16.8215 1.2386
1.2195 -16.7234 1.2347
1.6169 -16.6261 1.2315
2.0116 -16.5294 1.2292
2.4039 -16.4333 1.2277
2.7945 -16.3377 1.2270
3.1838 -16.2423 1.2270
3.5721 -16.1472 1.2278
3.9601 -16.0522 1.2294
4.3481 -15.9572 1.2318
4.7365 -15.8620 1.2350
5.1259 -15.7667 1.2389
5.5168 -15.6709 1.2436
5.9095 -15.5748 1.2492
6.3045 -15.4780 1.2555
6.7024 -15.3806 1.2627
7.0925 -15.2585 1.2688
7.4969 -15.1594 1.2777
7.9057 -15.0593 1.2875
8.3324 -14.9813 1.3002
8.7523 -14.8785 1.3119
8.0774 -13.0019 1.1657
10.2855 -15.6971 1.4322
8.0854 -11.7122 1.0884
8.5093 -11.7107 1.1094
8.5329 -11.1657 1.0793
8.5440 -10.6375 1.0502
8.9983 -10.6649 1.0765
8.7870 -9.9180 1.0245
9.1982 -9.8902 1.0466
9.7199 -9.9575 1.0807
8.6587 -8.4519 0.9419
8.3329 -7.7497 0.8878
8.3299 -7.3798 0.8703
8.3898 -7.0785 0.8604
8.5412 -6.8600 0.8607
7.5149 -5.7426 0.7448
8.0146 -5.8233 0.7820
9.0101 -6.2196 0.8662
9.2201 -6.0409 0.8742
8.2841 -5.1460 0.7753
7.9212 -4.6592 0.7323
8.1527 -4.5338 0.7451
8.4865 -4.4545 0.7673
8.4091 -4.1579 0.7528
8.3973 -3.9025 0.7448
8.3286 -3.6285 0.7325
8.3436 -3.3976 0.7281
8.0847 -3.0666 0.7004
8.3745 -2.9470 0.7208
9.3064 -3.0243 0.7964
8.9099 -2.6592 0.7585
8.8451 -2.4087 0.7495
8.6887 -2.1419 0.7333
8.5396 -1.8875 0.7183
9.8663 -1.9319 0.8276
9.9788 -1.7047 0.8352
10.0927 -1.4740 0.8433
9.2084 -1.1183 0.7687
9.2184 -0.8941 0.7691
9.1941 -0.6679 0.7672
9.1652 -0.4434 0.7653
9.2404 -0.2234 0.7725
9.3259 0.0000 0.7811
9.2829 0.2244 0.7793
15.3333 0.7419 1.2909
14.8148 1.0762 1.2515
14.4172 1.3983 1.2228
14.0079 1.7013 1.1936
13.6046 1.9871 1.1652
13.2812 2.2690 1.1440
9.2908 1.8194 0.8053
9.1813 2.0296 0.8013
9.0078 2.2209 0.7920
8.7148 2.3736 0.7724
8.6779 2.5904 0.7757
8.5069 2.7650 0.7675
7.7586 2.7309 0.7068
7.7636 2.9454 0.7147
7.7496 3.1565 0.7213
7.6562 3.3365 0.7210
7.5571 3.5131 0.7205
7.5662 3.7423 0.7308
7.5678 3.9737 0.7411
7.5447 4.1973 0.7495
7.5345 4.4334 0.7599
7.5035 4.6630 0.7689
7.4553 4.8868 0.7767
6.7462 4.6590 0.7152
6.5698 4.7759 0.7093
6.4476 4.9296 0.7095
6.3622 5.1127 0.7142
6.3164 5.3323 0.7241
6.2632 5.5522 0.7338
6.1339 5.7083 0.7352
6.0039 5.8646 0.7371
5.8211 5.9678 0.7327
5.5939 6.0195 0.7227
5.3728 6.0694 0.7134
5.2180 6.1898 0.7129
5.0836 6.3352 0.7157
4.9476 6.4806 0.7188
4.8297 6.6538 0.7251
4.7804 6.9326 0.7430
4.8447 7.4025 0.7809
5.7433 9.2566 0.9618
5.4927 9.3501 0.9577
5.2958 9.5355 0.9634
5.1027 9.7353 0.9710
4.8955 9.9159 0.9770
4.7209 10.1750 0.9911
4.9147 11.3006 1.0888
4.8583 11.9531 1.1399
4.7507 12.5500 1.1854
4.6911 13.3597 1.2506
4.6870 14.4573 1.3421
4.3718 14.6865 1.3528
3.9336 14.4868 1.3248
3.4732 14.1342 1.2841
3.2588 14.7969 1.3361
2.8507 14.6181 1.3128
2.4321 14.3042 1.2783
2.0523 14.1301 1.2572
1.7373 14.4015 1.2764
1.7925 18.6395 1.6466
1.7650 24.5781 2.1653
1.1803 24.8262 2.1823
0.5907 25.3166 2.2217
-0.0217 25.4745 2.2330
-0.6570 26.2385 2.2985
-1.2924 26.2403 2.2985
-1.9284 26.2279 2.2985
-2.5647 26.2014 2.2985
-3.2009 26.1607 2.2985
-4.0093 27.2784 2.4018
-4.6732 27.2061 2.4018
-5.3362 27.1189 2.4018
-5.9980 27.0167 2.4018
-6.6583 26.8997 2.4018
-7.3167 26.7676 2.4018
-7.9730 26.6206 2.4018
-8.6268 26.4587 2.4018
-9.2779 26.2819 2.4018
-8.2930 21.7982 2.0067
-8.6759 21.2447 1.9714
-9.2259 21.1179 1.9765
-9.7809 20.9901 1.9828
-11.9445 24.0940 2.2987
-12.5451 23.8395 2.2987
-13.1410 23.5710 2.2987
-13.7317 23.2885 2.2987
-14.3169 22.9920 2.2987
-14.8964 22.6817 2.2987
-15.6251 22.5821 2.3218
-16.1978 22.2409 2.3218
-16.7635 21.8859 2.3218
-17.3222 21.5173 2.3218
-17.8734 21.1351 2.3218
-18.4168 20.7395 2.3218
-18.9521 20.3306 2.3218
-19.4788 19.9084 2.3218
-19.9969 19.4733 2.3218
-20.4268 18.9520 2.3129
-14.1970 12.5474 1.5693
-14.6494 12.3296 1.5824
-21.2997 17.0647 2.2505
-14.7311 11.2286 1.5239
-15.0230 10.8873 1.5230
-22.0865 15.2060 2.1962
-22.3259 14.5883 2.1793
-22.6098 14.0061 2.1684
-19.9605 11.7071 1.8823
-23.2613 12.8980 2.1585
-23.6393 12.3704 2.1601
-24.0682 11.8631 2.1674
-24.5004 11.3487 2.1759
-24.9726 10.8424 2.1888
-25.4505 10.3265 2.2029
-26.0306 9.8362 2.2266
-22.5462 7.9025 1.9072
-24.2906 7.8602 2.0333
-27.7852 8.2550 2.3030
-28.1765 7.6355 2.3140
-13.8391 3.3936 1.1268
-13.7659 3.0250 1.1119
-27.9092 5.4296 2.2379
-29.1516 4.9435 2.3218
-29.3307 4.2477 2.3218
-29.4930 3.5461 2.3218
-29.6382 2.8390 2.3218
-29.7663 2.1271 2.3218
-29.8768 1.4106 2.3218
-15.4372 0.3554 1.1959
-30.0450 -0.0343 2.3218
-30.1021 -0.7618 2.3218
-30.1412 -1.4920 2.3218
-21.0605 -1.5532 1.6212
-30.1643 -2.9588 2.3218
-30.1480 -3.6944 2.3218
-30.1132 -4.4309 2.3218
-30.0597 -5.1677 2.3218
-29.9873 -5.9043 2.3218
-29.5967 -6.5738 2.2985
-29.4876 -7.3012 2.2985
-29.3598 -8.0269 2.2985
-29.2132 -8.7505 2.2985
-29.0477 -9.4713 2.2985
-30.1600 -10.6465 2.4018
-29.9479 -11.3923 2.4018
-29.7163 -12.1337 2.4018
-29.4651 -12.8700 2.4018
-29.1945 -13.6006 2.4018
-28.9046 -14.3251 2.4018
-28.5956 -15.0429 2.4018
-23.6083 -13.1569 2.0059
-21.2666 -12.5344 1.8294
-20.9615 -13.0467 1.8271
-20.8002 -13.6541 1.8387
-25.6185 -17.7169 2.2987
-23.6409 -17.2079 2.1552
-24.7960 -18.9814 2.2987
-24.3593 -19.5980 2.2987
-20.7541 -17.5411 2.2987
-20.3436 -18.0541 2.2987
-19.9193 -18.5566 2.2987
-19.4818 -19.0482 2.2987
-19.0153 -19.5123 2.2968
-18.5523 -19.9806 2.2968
-18.0769 -20.4368 2.2968
-17.5893 -20.8807 2.2968
-17.0900 -21.3118 2.2968
-16.5792 -21.7299 2.2968
-15.7509 -21.7121 2.2530
-14.8045 -21.4803 2.1902
-13.8874 -21.2291 2.1290
-13.0569 -21.0523 2.0784
-12.3902 -21.0983 2.0522
-12.1834 -21.9429 2.1047
-11.9655 -22.8327 2.1613
-9.4140 -19.0704 1.7830
-8.7753 -18.9140 1.7479
-8.1608 -18.7635 1.7153
-7.5685 -18.6184 1.6850
-6.9965 -18.4783 1.6567
-6.4432 -18.3428 1.6304
-5.9071 -18.2115 1.6059
-5.3867 -18.0840 1.5832
-4.8809 -17.9601 1.5621
-4.3884 -17.8395 1.5425
-3.9082 -17.7219 1.5244
-3.4392 -17.6070 1.5077
-2.9807 -17.4947 1.4923
-2.5276 -17.3572 1.4758
-2.0879 -17.2495 1.4629
-1.6561 -17.1437 1.4511
-1.2336 -17.0668 1.4427
-0.8150 -16.9643 1.4331
-0.4141 -17.3583 1.4664
0.0028 -9.2525 0.7821
0.4138 -16.9207 1.4321
0.8182 -16.8217 1.4264
1.2188 -16.7236 1.4216
1.6162 -16.6263 1.4178
2.0108 -16.5296 1.4149
2.4032 -16.4335 1.4129
2.7937 -16.3379 1.4118
3.1829 -16.2425 1.4116
3.5713 -16.1474 1.4123
3.9592 -16.0524 1.4138
4.3472 -15.9574 1.4163
4.7356 -15.8623 1.4196
5.1250 -15.7669 1.4238
5.5158 -15.6712 1.4289
5.9085 -15.5750 1.4350
6.3035 -15.4783 1.4419
6.7013 -15.3808 1.4498
7.0914 -15.2587 1.4564
7.4958 -15.1597 1.4663
7.9046 -15.0596 1.4772
8.3312 -14.9816 1.4914
8.7511 -14.8788 1.5045
9.9636 -16.0407 1.6488
10.0814 -15.3882 1.6092
8.1923 -11.8690 1.2638
8.1841 -11.2651 1.2225
8.6936 -11.3779 1.2595
8.4931 -10.5759 1.1954
8.8984 -10.5481 1.2186
9.1290 -10.3057 1.2181
9.1209 -9.8087 1.1873
9.6836 -9.9219 1.2315
8.5441 -8.3414 1.0627
8.3300 -7.7483 1.0146
8.3223 -7.3742 0.9936
8.3652 -7.0590 0.9801
8.4299 -6.7717 0.9702
7.6384 -5.8380 0.8644
8.1049 -5.8899 0.9027
8.9131 -6.1538 0.9778
9.1774 -6.0141 0.9926
8.3577 -5.1927 0.8920
8.1673 -4.8049 0.8608
8.2512 -4.5896 0.8595
8.5919 -4.5108 0.8852
8.3752 -4.1420 0.8541
8.3638 -3.8878 0.8449
8.2597 -3.5993 0.8270
8.3415 -3.3975 0.8285
8.3305 -3.1606 0.8212
8.6272 -3.0368 0.8447
9.2727 -3.0142 0.9024
8.8503 -2.6422 0.8565
8.8550 -2.4122 0.8528
8.6983 -2.1451 0.8342
8.5488 -1.8903 0.8168
9.8024 -1.9203 0.9338
8.9284 -1.5260 0.8485
8.9850 -1.3130 0.8522
9.0138 -1.0954 0.8539
9.0018 -0.8738 0.8521
9.0241 -0.6563 0.8541
9.0888 -0.4404 0.8605
9.1315 -0.2215 0.8654
9.2109 -0.0007 0.8743
9.1689 0.2210 0.8722
9.1630 0.4426 0.8739
9.3096 0.6756 0.8908
9.6193 0.9323 0.9239
13.6004 1.6508 1.3119
13.2761 1.9382 1.2869
8.9052 1.5207 0.8680
9.0250 1.7667 0.8850
8.1945 1.8109 0.8089
8.0360 1.9807 0.7990
7.7028 2.0974 0.7719
7.5485 2.2528 0.7628
7.4052 2.4064 0.7551
7.3045 2.5705 0.7520
7.2959 2.7675 0.7588
7.3207 2.9813 0.7697
7.3881 3.2191 0.7858
7.4326 3.4547 0.8002
7.4355 3.6772 0.8109
7.4478 3.9101 0.8233
7.4238 4.1295 0.8324
7.4430 4.3791 0.8472
7.4162 4.6083 0.8575
6.8560 4.4935 0.8059
6.5684 4.5358 0.7855
6.4102 4.6594 0.7806
6.3213 4.8326 0.7845
6.2462 5.0191 0.7908
6.1942 5.2287 0.8006
6.2059 5.5011 0.8198
6.0777 5.6557 0.8213
5.9306 5.7926 0.8207
5.7561 5.9008 0.8166
5.5474 5.9690 0.8078
5.3287 6.0193 0.7974
5.1637 6.1251 0.7950
5.0400 6.2805 0.7995
4.9357 6.4647 0.8079
4.8179 6.6373 0.8150
4.7783 6.9293 0.8367
4.8009 7.3354 0.8718
4.9932 8.0475 0.9420
5.4950 9.3538 1.0793
5.3028 9.5480 1.0868
5.1184 9.7651 1.0972
4.9182 9.9618 1.1058
4.7602 10.2595 1.1257
4.9088 11.2871 1.2251
4.8560 11.9477 1.2836
4.7749 12.6142 1.3423
4.7950 13.6561 1.4402
4.7913 14.7796 1.5457
4.4275 14.8743 1.5436
4.0720 14.9972 1.5453
3.6852 14.9980 1.5352
3.2478 14.7483 1.5006
2.9386 15.0706 1.5251
2.4780 14.5764 1.4679
2.0432 14.0704 1.4108
2.1080 17.4784 1.7459
1.7929 18.6493 1.8569
1.6395 22.8392 2.2680
1.1021 23.1958 2.2985
0.5413 23.2326 2.2985
-0.0206 23.2569 2.2985
-0.5835 23.2686 2.2985
-0.8469 17.1808 1.6972
-1.7107 23.2540 2.2985
-2.2746 23.2277 2.2985
-2.8384 23.1887 2.2985
-3.5545 24.1763 2.4018
-4.1424 24.1090 2.4018
-4.7294 24.0283 2.4018
-5.3150 23.9343 2.4018
-5.8991 23.8270 2.4018
-6.4813 23.7063 2.4018
-7.0615 23.5723 2.4018
-7.6392 23.4251 2.4018
-8.2142 23.2645 2.4018
-8.3374 21.9110 2.2791
-9.3551 22.9036 2.4018
-9.9203 22.7034 2.4018
-10.0047 21.4666 2.2925
-10.8079 21.7977 2.3515
-11.0942 21.0787 2.2987
-11.6187 20.8370 2.2987
-12.1384 20.5829 2.2987
-12.6530 20.3166 2.2987
-13.1622 20.0380 2.2987
-13.6658 19.7473 2.2987
-14.1634 19.4445 2.2987
-14.8019 19.3219 2.3218
-15.2917 18.9920 2.3218
-15.7745 18.6502 2.3218
-16.2501 18.2966 2.3218
-16.7183 17.9315 2.3218
-17.1788 17.5548 2.3218
-17.6312 17.1667 2.3218
-18.0753 16.7675 2.3218
-14.1962 12.5446 1.7806
-14.6493 12.3274 1.7961
-19.3548 15.5038 2.3218
-14.7293 11.2252 1.7304
-15.0227 10.8852 1.7301
-20.4857 14.1013 2.3146
-20.8454 13.6184 2.3127
-21.1703 13.1118 2.3083
-19.9479 11.6974 2.1392
-21.7993 12.0849 2.3010
-22.1245 11.5753 2.3004
-22.4422 11.0592 2.3002
-22.7987 10.5580 2.3052
-23.1297 10.0399 2.3086
-23.4699 9.5204 2.3141
-23.7781 8.9827 2.3176
-22.5423 7.8990 2.1734
-24.2873 7.8568 2.3179
-24.5626 7.2952 2.3218
-24.7829 6.7136 2.3218
-13.8365 3.3917 1.2856
-13.7650 3.0235 1.2691
-25.3605 4.9315 2.3218
-25.5245 4.3263 2.3218
-25.6740 3.7159 2.3218
-25.8086 3.1009 2.3218
-25.9283 2.4815 2.3218
-26.0328 1.8582 2.3218
-26.1221 1.2312 2.3218
-15.4357 0.3541 1.3681
-26.2543 -0.0320 2.3218
-26.2969 -0.6675 2.3218
-26.3237 -1.3050 2.3218
-21.0576 -1.5546 1.8565
-26.3295 -2.5846 2.3218
-26.3083 -3.2259 2.3218
-26.2709 -3.8675 2.3218
-26.2173 -4.5091 2.3218
-25.8856 -5.0986 2.2985
-25.8002 -5.7325 2.2985
-25.6987 -6.3649 2.2985
-25.5809 -6.9956 2.2985
-25.4469 -7.6241 2.2985
-25.2967 -8.2500 2.2985
-25.1303 -8.8728 2.2985
-26.0684 -9.9184 2.4018
-25.8609 -10.5613 2.4018
-25.6367 -11.1995 2.4018
-25.3957 -11.8326 2.4018
-25.1383 -12.4602 2.4018
-24.8644 -13.0817 2.4018
-23.7578 -13.2418 2.3220
-21.2497 -12.5259 2.1031
-20.9614 -13.0481 2.1025
-20.8001 -13.6554 2.1162
-23.2530 -16.0826 2.4018
-22.8836 -16.6582 2.4018
-21.5333 -16.4852 2.2987
-21.1507 -17.0180 2.2987
-18.4414 -15.5876 2.3124
-17.9671 -15.9463 2.2986
-17.5911 -16.3887 2.2987
-17.2033 -16.8215 2.2987
-16.8038 -17.2440 2.2987
-16.3933 -17.6563 2.2987
-15.9719 -18.0580 2.2987
-15.5270 -18.4334 2.2968
-15.0853 -18.8127 2.2968
-14.6335 -19.1805 2.2968
-14.1722 -19.5365 2.2968
-13.7015 -19.8805 2.2968
-13.2218 -20.2123 2.2968
-12.7336 -20.5315 2.2968
-12.2370 -20.8378 2.2968
-11.7325 -21.1312 2.2968
-11.2204 -21.4113 2.2968
-9.4139 -19.0704 2.0205
-8.7753 -18.9140 1.9808
-8.1608 -18.7635 1.9439
-7.5686 -18.6184 1.9095
-6.9966 -18.4783 1.8774
-6.4434 -18.3428 1.8476
-5.9073 -18.2115 1.8198
-5.3870 -18.0841 1.7940
-4.8812 -17.9602 1.7700
-4.3887 -17.8396 1.7478
-3.9085 -17.7220 1.7272
-3.4396 -17.6071 1.7081
-2.9811 -17.4948 1.6905
-2.5280 -17.3573 1.6718
-2.0884 -17.2496 1.6570
-1.6566 -17.1439 1.6435
-1.2341 -17.0669 1.6339
-0.8155 -16.9644 1.6229
-0.4147 -17.3561 1.6602
0.0024 -9.2507 0.8853
0.4131 -16.9209 1.6212
0.8175 -16.8219 1.6146
1.2181 -16.7237 1.6090
1.6155 -16.6264 1.6045
2.0101 -16.5298 1.6010
2.4024 -16.4337 1.5985
2.7929 -16.3380 1.5970
3.1821 -16.2427 1.5965
3.5704 -16.1476 1.5970
3.9583 -16.0526 1.5985
4.3463 -15.9576 1.6010
4.7347 -15.8625 1.6045
5.1241 -15.7671 1.6090
5.5148 -15.6714 1.6146
5.9074 -15.5753 1.6211
6.3024 -15.4785 1.6287
6.7002 -15.3811 1.6373
7.0903 -15.2590 1.6445
7.4946 -15.1600 1.6553
7.9034 -15.0599 1.6672
8.3300 -14.9819 1.6830
8.7499 -14.8791 1.6973
9.8661 -15.8863 1.8419
9.9039 -15.1196 1.7831
8.3023 -12.0302 1.4443
8.3372 -11.4775 1.4041
8.8609 -11.5986 1.4471
9.2082 -11.4682 1.4606
8.8004 -10.4336 1.3578
9.0288 -10.1942 1.3570
9.1411 -9.8319 1.3402
9.6474 -9.8865 1.3814
8.4363 -8.2374 1.1812
8.3117 -7.7325 1.1393
8.3146 -7.3687 1.1170
8.3021 -7.0069 1.0942
8.2694 -6.6440 1.0704
7.7663 -5.9368 0.9882
8.5845 -6.2396 1.0748
8.8180 -6.0892 1.0873
9.1090 -5.9704 1.1071
8.2350 -5.1175 0.9874
8.0234 -4.7212 0.9498
8.3524 -4.6468 0.9770
8.5999 -4.5159 0.9947
8.4114 -4.1609 0.9628
8.2991 -3.8586 0.9407
8.3198 -3.6263 0.9346
8.3091 -3.3852 0.9256
8.8181 -3.3465 0.9748
8.4012 -2.9580 0.9223
8.4407 -2.7445 0.9208
8.5558 -2.5551 0.9280
8.6303 -2.3517 0.9313
8.5827 -2.1173 0.9220
8.5580 -1.8931 0.9158
8.7322 -1.7114 0.9314
8.7761 -1.5007 0.9336
8.8204 -1.2897 0.9364
8.8269 -1.0735 0.9357
8.8504 -0.8598 0.9373
8.9498 -0.6516 0.9475
9.0135 -0.4375 0.9544
9.0454 -0.2201 0.9586
9.0984 -0.0014 0.9655
9.0794 0.2181 0.9653
9.0983 0.4388 0.9697
9.1074 0.6602 0.9736
9.3057 0.9012 0.9984
8.9284 1.0831 0.9619
8.5437 1.2466 0.9248
8.1832 1.3968 0.8905
8.0207 1.5695 0.8780
7.9513 1.7565 0.8760
7.7072 1.8992 0.8552
7.5475 2.0546 0.8439
7.4051 2.2094 0.8348
7.2661 2.3607 0.8264
7.1824 2.5271 0.8247
7.1812 2.7235 0.8329
7.2445 2.9497 0.8493
7.3097 3.1844 0.8667
7.3364 3.4094 0.8805
7.3298 3.6244 0.8909
7.3225 3.8438 0.9020
7.3320 4.0779 0.9161
7.3535 4.3260 0.9325
7.3308 4.5547 0.9443
6.7637 4.4326 0.8856
6.5137 4.4976 0.8676
6.3487 4.6142 0.8610
6.2518 4.7791 0.8641
6.1564 4.9465 0.8678
6.1203 5.1660 0.8808
6.1376 5.4401 0.9026
5.9860 5.5699 0.9005
5.8351 5.6990 0.8988
5.6721 5.8144 0.8957
5.4716 5.8872 0.8867
5.2748 5.9580 0.8784
5.1240 6.0778 0.8780
5.0190 6.2540 0.8860
4.9237 6.4489 0.8969
4.8062 6.6209 0.9047
4.7762 6.9260 0.9306
4.7909 7.3200 0.9680
4.8000 7.7359 1.0076
5.4933 9.3507 1.2005
5.3068 9.5550 1.2101
5.1343 9.7952 1.2245
4.9567 10.0397 1.2399
4.7804 10.3031 1.2578
4.9100 11.2899 1.3633
4.8732 11.9900 1.4332
4.8583 12.8348 1.5195
4.8343 13.7682 1.6155
4.8347 14.9140 1.7354
4.5671 15.3438 1.7717
4.4510 16.3937 1.8794
3.6992 15.0558 1.7148
3.2674 14.8385 1.6800
2.9256 15.0055 1.6897
2.4519 14.4245 1.6165
2.1893 15.0790 1.6826
2.0850 17.2917 1.9224
1.7863 18.5864 2.0598
1.4807 20.6359 2.2810
0.9894 20.8375 2.2985
0.4855 20.8690 2.2985
-0.0193 20.8892 2.2985
-0.5248 20.8979 2.2985
-0.8471 17.1723 1.8890
-1.5370 20.8812 2.2985
-2.0433 20.8556 2.2985
-2.6637 21.7536 2.4018
-3.1919 21.7029 2.4018
-3.7193 21.6401 2.4018
-4.2457 21.5652 2.4018
-4.7708 21.4784 2.4018
-5.2944 21.3795 2.4018
-5.8161 21.2685 2.4018
-6.3358 21.1456 2.4018
-6.8532 21.0107 2.4018
-7.3680 20.8639 2.4018
-7.8800 20.7051 2.4018
-8.3889 20.5344 2.4018
-8.8944 20.3518 2.4018
-9.3962 20.1575 2.4018
-9.8941 19.9514 2.4018
-10.2279 19.4297 2.3648
-10.4104 18.6670 2.2987
-10.8742 18.4363 2.2987
-11.3333 18.1946 2.2987
-11.7874 17.9421 2.2987
-12.2362 17.6786 2.2987
-12.6794 17.4044 2.2987
-13.1169 17.1196 2.2987
-13.5483 16.8241 2.2987
-14.1138 16.6842 2.3218
-14.5367 16.3647 2.3218
-14.9526 16.0350 2.3218
-15.3614 15.6951 2.3218
-15.7628 15.3451 2.3218
-16.1566 14.9851 2.3218
-14.1954 12.5417 1.9924
-14.6493 12.3253 2.0102
-17.2896 13.8472 2.3218
-14.7275 11.2219 1.9373
-15.0225 10.8830 1.9375
-18.3449 12.6254 2.3218
-18.6783 12.2003 2.3218
-19.0020 11.7666 2.3218
-19.3160 11.3246 2.3218
-19.6198 10.8744 2.3218
-19.9133 10.4162 2.3218
-20.1963 9.9503 2.3218
-20.4686 9.4768 2.3218
-20.7299 8.9961 2.3218
-20.9800 8.5083 2.3218
-21.2187 8.0138 2.3218
-21.4459 7.5126 2.3218
-21.6612 7.0052 2.3218
-21.8646 6.4919 2.3218
-22.0558 5.9728 2.3218
-13.8339 3.3897 1.4446
-13.7640 3.0221 1.4266
-22.5546 4.3839 2.3218
-22.6953 3.8448 2.3218
-22.8230 3.3013 2.3218
-22.9375 2.7540 2.3218
-23.0388 2.2030 2.3218
-23.1265 1.6488 2.3218
-23.2007 1.0916 2.3218
-15.4341 0.3529 1.5405
-23.3079 -0.0303 2.3218
-23.3406 -0.5943 2.3218
-23.3594 -1.1599 2.3218
-21.0547 -1.5560 2.0923
-23.3547 -2.2944 2.3218
-23.3310 -2.8625 2.3218
-23.2930 -3.4308 2.3218
-23.2407 -3.9988 2.3218
-22.9421 -4.5205 2.2985
-22.8619 -5.0813 2.2985
-22.7674 -5.6406 2.2985
-22.6587 -6.1981 2.2985
-22.5358 -6.7535 2.2985
-22.3986 -7.3065 2.2985
-22.2472 -7.8564 2.2985
-23.0736 -8.7805 2.4018
-22.8860 -9.3479 2.4018
-22.6836 -9.9110 2.4018
-22.4667 -10.4695 2.4018
-22.2353 -11.0229 2.4018
-21.9896 -11.5707 2.4018
-21.7295 -12.1128 2.4018
-21.4554 -12.6485 2.4018
-21.1673 -13.1777 2.4018
-20.8653 -13.6996 2.4018
-20.5497 -14.2142 2.4018
-20.2207 -14.7210 2.4018
-19.8783 -15.2195 2.4018
-19.5229 -15.7094 2.4018
-17.1491 -14.4964 2.4018
-16.8066 -14.9173 2.4018
-16.1055 -15.0057 2.3511
-15.3984 -15.0576 2.2987
-15.0398 -15.4347 2.2987
-14.6714 -15.8026 2.2987
-14.2934 -16.1610 2.2987
-13.9060 -16.5097 2.2987
-13.5097 -16.8485 2.2987
-13.1045 -17.1770 2.2987
-12.6908 -17.4951 2.2987
-12.2587 -17.7876 2.2968
-11.8291 -18.0838 2.2968
-11.3920 -18.3687 2.2968
-10.9475 -18.6424 2.2968
-10.4960 -18.9044 2.2968
-10.0378 -19.1547 2.2968
-9.4139 -19.0704 2.2586
-8.7753 -18.9140 2.2142
-8.1609 -18.7635 2.1729
-7.5687 -18.6184 2.1344
-6.9968 -18.4784 2.0986
-6.4436 -18.3429 2.0652
-5.9075 -18.2116 2.0341
-5.3872 -18.0841 2.0052
-4.8815 -17.9603 1.9784
-4.3890 -17.8397 1.9534
-3.9089 -17.7221 1.9303
-3.4400 -17.6072 1.9089
-2.9815 -17.4949 1.8892
-2.5284 -17.3574 1.8681
-2.0888 -17.2497 1.8515
-1.6571 -17.1440 1.8364
-1.2346 -17.0671 1.8255
-0.8161 -16.9645 1.8130
-0.4152 -17.3539 1.8543
0.0021 -9.2490 0.9887
0.4125 -16.9211 1.8107
0.8169 -16.8220 1.8031
1.2174 -16.7239 1.7967
1.6148 -16.6266 1.7915
2.0093 -16.5300 1.7874
2.4016 -16.4339 1.7844
2.7922 -16.3382 1.7826
3.1813 -16.2429 1.7819
3.5696 -16.1478 1.7822
3.9575 -16.0528 1.7837
4.3454 -15.9578 1.7862
4.7338 -15.8627 1.7899
5.1231 -15.7674 1.7947
5.5138 -15.6717 1.8006
5.9064 -15.5755 1.8076
6.3014 -15.4788 1.8158
6.6992 -15.3813 1.8252
7.0892 -15.2593 1.8329
7.4935 -15.1603 1.8447
7.9022 -15.0602 1.8577
8.3288 -14.9822 1.8750
8.7486 -14.8794 1.8907
9.7918 -15.7691 2.0361
9.7913 -14.9501 1.9632
8.4155 -12.1963 1.6302
8.4964 -11.6986 1.5930
8.3533 -10.9360 1.5185
9.1158 -11.3549 1.6092
9.3735 -11.1148 1.6093
9.2832 -10.4831 1.5523
9.9790 -10.7349 1.6273
10.0850 -10.3365 1.6060
8.3920 -8.1956 1.3066
8.2811 -7.7053 1.2620
8.2795 -7.3387 1.2363
8.2396 -6.9553 1.2069
8.1984 -6.5881 1.1791
7.8989 -6.0393 1.1166
8.4944 -6.1752 1.1813
8.7246 -6.0258 1.1947
9.0531 -5.9349 1.2217
8.0909 -5.0289 1.0769
