ply
format ascii 1.0
element vertex 2149
property float32 x
property float32 y
property float32 z
end_header
2.7911 10.2961 2.0412
2.5445 10.3748 2.0432
2.3257 10.5837 2.0718
2.1204 10.9019 2.1224
1.9340 11.4108 2.2107
1.6894 11.6762 2.2524
1.4175 11.8066 2.2691
1.1466 11.9976 2.2985
0.8564 12.0288 2.2985
0.5654 12.0534 2.2985
0.2738 12.0712 2.2985
-0.0184 12.0823 2.2985
-0.3110 12.0866 2.2985
-0.6038 12.0841 2.2985
-0.8967 12.0749 2.2985
-1.1896 12.0588 2.2985
-1.4821 12.0360 2.2985
-1.7744 12.0063 2.2985
-2.0661 11.9698 2.2985
-2.3571 11.9266 2.2985
-2.7138 12.1750 2.3563
-3.0681 12.3497 2.4016
-3.3691 12.2832 2.4016
-3.6687 12.2096 2.4016
-3.9668 12.1290 2.4016
-4.2632 12.0413 2.4016
-4.5578 11.9466 2.4016
-4.8504 11.8450 2.4016
-5.1408 11.7364 2.4016
-5.4289 11.6209 2.4016
-5.7145 11.4986 2.4016
-5.9975 11.3694 2.4016
-6.2776 11.2335 2.4016
-6.5548 11.0909 2.4016
-6.8288 10.9416 2.4016
-7.0996 10.7857 2.4016
-7.3669 10.6233 2.4016
-7.6306 10.4543 2.4016
-7.8905 10.2791 2.4016
-8.1465 10.0974 2.4016
-8.3984 9.9095 2.4016
-8.6461 9.7155 2.4016
-8.8894 9.5154 2.4016
-9.1281 9.3093 2.4016
-9.3622 9.0973 2.4016
-9.5914 8.8796 2.4016
-9.8157 8.6561 2.4016
-9.7087 8.1532 2.3236
-9.8086 7.8409 2.2985
-10.0081 7.6113 2.2985
-10.2022 7.3767 2.2985
-10.3909 7.1372 2.2985
-10.5740 6.8930 2.2985
-10.7513 6.6440 2.2985
-10.9228 6.3906 2.2985
-11.0884 6.1328 2.2985
-11.2479 5.8707 2.2985
-11.4011 5.6045 2.2985
-11.5481 5.3343 2.2985
-11.6886 5.0603 2.2985
-11.8226 4.7826 2.2985
-11.9500 4.5014 2.2985
-12.1918 4.2592 2.3216
-12.3068 3.9685 2.3216
-12.4147 3.6748 2.3216
-12.5155 3.3781 2.3216
-12.6091 3.0787 2.3216
-12.6955 2.7768 2.3216
-12.7745 2.4724 2.3216
-12.8462 2.1659 2.3216
-12.9103 1.8573 2.3216
-12.9668 1.5469 2.3216
-13.0158 1.2348 2.3216
-13.0570 0.9212 2.3216
-13.0906 0.6065 2.3216
-13.1163 0.2906 2.3216
-13.1343 -0.0262 2.3216
-13.1444 -0.3436 2.3216
-13.1466 -0.6615 2.3216
-13.1408 -0.9797 2.3216
-13.1272 -1.2980 2.3216
-13.1056 -1.6162 2.3216
-13.0761 -1.9340 2.3216
-13.0385 -2.2513 2.3216
-12.9931 -2.5678 2.3216
-12.9396 -2.8834 2.3216
-12.7502 -3.1660 2.2985
-12.6815 -3.4759 2.2985
-12.6051 -3.7843 2.2985
-12.5209 -4.0909 2.2985
-12.4289 -4.3955 2.2985
-12.3292 -4.6980 2.2985
-12.2218 -4.9980 2.2985
-12.1069 -5.2955 2.2985
-11.9843 -5.5902 2.2985
-11.8543 -5.8819 2.2985
-11.7169 -6.1704 2.2985
-11.5721 -6.4555 2.2985
-11.4201 -6.7370 2.2985
-11.7659 -7.3293 2.4016
-11.5922 -7.6154 2.4016
-11.4112 -7.8970 2.4016
-11.2230 -8.1742 2.4016
-11.0277 -8.4465 2.4016
-10.8255 -8.7140 2.4016
-9.9572 -8.4193 2.4016
-9.7547 -8.6602 2.4016
-9.5460 -8.8959 2.4016
-9.3315 -9.1263 2.4016
-9.1111 -9.3512 2.4016
-8.8850 -9.5706 2.4016
-8.6533 -9.7841 2.4016
-8.4163 -9.9918 2.4016
-8.1740 -10.1934 2.4016
-7.9267 -10.3888 2.4016
-7.6745 -10.5779 2.4016
-7.4175 -10.7605 2.4016
-7.1559 -10.9365 2.4016
-6.8900 -11.1059 2.4016
-6.6199 -11.2684 2.4016
-6.3457 -11.4240 2.4016
-6.0677 -11.5726 2.4016
-5.7860 -11.7141 2.4016
-5.5009 -11.8483 2.4016
-5.2125 -11.9753 2.4016
-4.9182 -12.0878 2.4002
-4.4817 -11.8245 2.3264
-4.1438 -11.7830 2.2985
-3.8572 -11.8758 2.2985
-3.5684 -11.9613 2.2985
-3.2776 -12.0394 2.2985
-2.9850 -12.1101 2.2985
-2.6908 -12.1734 2.2985
-2.3953 -12.2291 2.2985
-2.0985 -12.2774 2.2985
-1.8008 -12.3181 2.2985
-1.5023 -12.3512 2.2985
-1.2032 -12.3768 2.2985
-0.9037 -12.3948 2.2985
-0.6040 -12.4053 2.2985
-0.3044 -12.4081 2.2985
-0.0049 -12.4035 2.2985
0.2941 -12.3913 2.2985
0.5926 -12.3716 2.2985
0.8903 -12.3444 2.2985
1.1860 -12.2996 2.2966
1.4812 -12.2576 2.2966
1.7751 -12.2082 2.2966
2.0675 -12.1516 2.2966
2.3581 -12.0877 2.2966
2.6467 -12.0166 2.2966
2.9333 -11.9384 2.2966
3.2176 -11.8531 2.2966
3.4994 -11.7609 2.2966
3.7786 -11.6617 2.2966
4.0549 -11.5557 2.2966
4.3283 -11.4430 2.2966
4.5986 -11.3237 2.2966
4.8656 -11.1978 2.2966
5.1290 -11.0654 2.2966
5.3889 -10.9267 2.2966
5.6450 -10.7818 2.2966
2.6812 -4.8333 1.0442
6.1453 -10.4736 2.2966
6.3893 -10.3106 2.2966
6.6288 -10.1419 2.2966
6.8639 -9.9675 2.2966
7.0944 -9.7875 2.2966
7.3202 -9.6022 2.2966
7.5411 -9.4116 2.2966
7.7570 -9.2158 2.2966
7.9678 -9.0151 2.2966
8.1735 -8.8095 2.2966
8.3738 -8.5992 2.2966
8.5687 -8.3843 2.2966
8.7581 -8.1650 2.2966
8.9420 -7.9414 2.2966
9.1201 -7.7137 2.2966
9.2924 -7.4820 2.2966
9.4589 -7.2465 2.2966
9.6194 -7.0073 2.2966
9.7739 -6.7645 2.2966
9.9224 -6.5184 2.2966
10.0647 -6.2691 2.2966
10.2538 -6.0480 2.3085
10.3981 -5.7991 2.3116
10.5225 -5.5394 2.3116
10.6404 -5.2771 2.3116
10.7518 -5.0123 2.3116
10.8568 -4.7453 2.3116
10.9553 -4.4762 2.3116
11.0471 -4.2051 2.3116
11.1324 -3.9322 2.3116
11.2111 -3.6576 2.3116
11.2831 -3.3816 2.3116
11.3484 -3.1042 2.3116
11.4071 -2.8257 2.3116
11.4591 -2.5462 2.3116
10.9000 -2.1468 2.1901
10.6632 -1.8335 2.1354
10.5016 -1.5453 2.0972
10.4011 -1.2744 2.0727
10.3129 -1.0111 2.0518
10.1706 -0.7493 2.0214
9.8833 -0.4882 1.9634
9.6807 -0.2437 1.9234
9.5512 -0.0094 1.8990
9.4373 0.2191 1.8787
9.3917 0.4455 1.8731
9.3464 0.6703 1.8685
9.3138 0.8949 1.8676
9.5382 1.1499 1.9193
9.7990 1.4226 1.9799
9.9777 1.6960 2.0255
10.1279 1.9748 2.0669
12.0399 2.6515 2.4716
11.9624 2.9396 2.4716
9.2879 2.5222 1.9326
9.6276 2.8663 2.0187
9.1388 2.9633 1.9321
9.2388 3.2448 1.9708
9.3416 3.5371 2.0118
9.4570 3.8450 2.0575
9.0312 3.9292 1.9863
8.5569 3.9718 1.9038
8.2099 4.0551 1.8490
7.9547 4.1715 1.8149
7.7847 4.3257 1.8005
7.7193 4.5373 1.8112
7.6648 4.7585 1.8258
7.6130 4.9857 1.8426
7.5582 5.2154 1.8602
7.4647 5.4223 1.8698
7.3674 5.6290 1.8798
7.2689 5.8377 1.8909
7.1714 6.0507 1.9037
7.0748 6.2686 1.9185
6.9731 6.4865 1.9335
6.8862 6.7239 1.9545
6.8026 6.9718 1.9786
6.6772 7.1833 1.9925
6.4511 7.2860 1.9775
6.2151 7.3717 1.9596
5.9946 7.4698 1.9468
5.7781 7.5683 1.9357
5.6007 7.7164 1.9384
5.4356 7.8835 1.9469
5.2686 8.0517 1.9564
5.1191 8.2526 1.9745
5.1243 8.7257 2.0573
5.1333 9.2467 2.1501
5.0049 9.5532 2.1923
4.7725 9.6722 2.1922
4.5284 9.7665 2.1878
4.2938 9.8806 2.1890
4.0512 9.9764 2.1874
3.8007 10.0509 2.1824
3.5991 10.2620 2.2081
3.2955 10.1789 2.1718
3.0076 10.1193 2.1422
2.7643 10.1987 2.1435
2.5239 10.2922 2.1489
2.3139 10.5319 2.1857
2.1030 10.8146 2.2322
1.8961 11.1897 2.2985
1.6255 11.2377 2.2985
1.3536 11.2794 2.2985
1.0808 11.3148 2.2985
0.8071 11.3439 2.2985
0.5326 11.3667 2.2985
0.2575 11.3831 2.2985
-0.0181 11.3931 2.2985
-0.2940 11.3968 2.2985
-0.5701 11.3940 2.2985
-0.8462 11.3848 2.2985
-1.1223 11.3692 2.2985
-1.3981 11.3472 2.2985
-1.6736 11.3187 2.2985
-1.9485 11.2838 2.2985
-2.2795 11.5297 2.3572
-2.6081 11.6968 2.4016
-2.8928 11.6402 2.4016
-3.1764 11.5769 2.4016
-3.4586 11.5069 2.4016
-3.7394 11.4303 2.4016
-4.0185 11.3470 2.4016
-4.2959 11.2572 2.4016
-4.5714 11.1608 2.4016
-4.8448 11.0578 2.4016
-5.1159 10.9483 2.4016
-5.3847 10.8324 2.4016
-5.6509 10.7101 2.4016
-5.9145 10.5814 2.4016
-6.1752 10.4464 2.4016
-6.4330 10.3051 2.4016
-6.6876 10.1576 2.4016
-6.9389 10.0039 2.4016
-7.1867 9.8442 2.4016
-7.4310 9.6784 2.4016
-7.6716 9.5068 2.4016
-7.9082 9.3292 2.4016
-8.1409 9.1459 2.4016
-8.3694 8.9569 2.4016
-8.5935 8.7622 2.4016
-8.8132 8.5621 2.4016
-9.0284 8.3565 2.4016
-9.2387 8.1456 2.4016
-9.4443 7.9294 2.4016
-9.2308 7.3773 2.2985
-9.4177 7.1607 2.2985
-9.5997 6.9395 2.2985
-9.7765 6.7137 2.2985
-9.9480 6.4834 2.2985
-10.1141 6.2487 2.2985
-10.2747 6.0099 2.2985
-10.4296 5.7670 2.2985
-10.5788 5.5200 2.2985
-10.7222 5.2693 2.2985
-10.8596 5.0148 2.2985
-10.9909 4.7568 2.2985
-11.1160 4.4954 2.2985
-11.2349 4.2307 2.2985
-11.3475 3.9629 2.2985
-11.4536 3.6921 2.2985
-11.6692 3.4528 2.3216
-11.7631 3.1737 2.3216
-11.8503 2.8921 2.3216
-11.9306 2.6082 2.3216
-12.0040 2.3220 2.3216
-12.0704 2.0338 2.3216
-12.1298 1.7438 2.3216
-12.1821 1.4520 2.3216
-12.2272 1.1588 2.3216
-12.2651 0.8642 2.3216
-12.2958 0.5685 2.3216
-12.3192 0.2718 2.3216
-12.3352 -0.0257 2.3216
-12.3439 -0.3238 2.3216
-12.3451 -0.6223 2.3216
-12.3390 -0.9210 2.3216
-12.3254 -1.2198 2.3216
-12.3044 -1.5184 2.3216
-12.2759 -1.8167 2.3216
-12.2400 -2.1144 2.3216
-12.0753 -2.3874 2.2985
-12.0249 -2.6805 2.2985
-11.9672 -2.9725 2.2985
-11.9022 -3.2632 2.2985
-11.8298 -3.5524 2.2985
-11.7502 -3.8400 2.2985
-11.6633 -4.1256 2.2985
-11.5692 -4.4092 2.2985
-11.4679 -4.6905 2.2985
-11.3595 -4.9694 2.2985
-11.2440 -5.2457 2.2985
-11.1216 -5.5191 2.2985
-10.9922 -5.7895 2.2985
-10.8560 -6.0567 2.2985
-11.0844 -6.5397 2.3782
-11.0370 -6.8760 2.4016
-10.8737 -7.1440 2.4016
-10.7036 -7.4080 2.4016
-10.5267 -7.6677 2.4016
-10.3433 -7.9229 2.4016
-10.1534 -8.1735 2.4016
-9.3726 -7.9256 2.4016
-9.1818 -8.1521 2.4016
-8.9853 -8.3738 2.4016
-8.7832 -8.5905 2.4016
-8.5757 -8.8021 2.4016
-8.3627 -9.0084 2.4016
-8.1446 -9.2093 2.4016
-7.9215 -9.4046 2.4016
-7.6934 -9.5943 2.4016
-7.4606 -9.7781 2.4016
-7.2232 -9.9560 2.4016
-6.9813 -10.1278 2.4016
-6.7352 -10.2935 2.4016
-6.4849 -10.4529 2.4016
-6.2307 -10.6058 2.4016
-5.9727 -10.7523 2.4016
-5.7111 -10.8922 2.4016
-5.4461 -11.0254 2.4016
-5.1778 -11.1519 2.4016
-4.9064 -11.2715 2.4016
-4.6321 -11.3841 2.4016
-4.3552 -11.4898 2.4016
-4.0512 -11.5189 2.3872
-3.6667 -11.2884 2.3211
-3.3593 -11.2592 2.2985
-3.0856 -11.3330 2.2985
-2.8103 -11.3998 2.2985
-2.5335 -11.4596 2.2985
-2.2554 -11.5124 2.2985
-1.9761 -11.5581 2.2985
-1.6959 -11.5967 2.2985
-1.4149 -11.6283 2.2985
-1.1334 -11.6528 2.2985
-0.8515 -11.6701 2.2985
-0.5694 -11.6804 2.2985
-0.2873 -11.6835 2.2985
-0.0053 -11.6796 2.2985
0.2763 -11.6685 2.2985
0.5573 -11.6505 2.2985
0.8377 -11.6254 2.2985
1.1171 -11.5933 2.2985
1.3954 -11.5542 2.2985
1.6725 -11.5083 2.2985
1.9481 -11.4554 2.2985
2.2222 -11.3957 2.2985
2.4923 -11.3199 2.2966
2.7624 -11.2467 2.2966
3.0303 -11.1670 2.2966
3.2960 -11.0807 2.2966
3.5592 -10.9879 2.2966
3.8198 -10.8886 2.2966
4.0776 -10.7830 2.2966
4.3325 -10.6712 2.2966
4.5843 -10.5532 2.2966
4.8329 -10.4290 2.2966
5.0781 -10.2989 2.2966
5.3198 -10.1629 2.2966
2.6809 -4.8339 1.1078
5.7921 -9.8737 2.2966
6.0224 -9.7207 2.2966
6.2486 -9.5622 2.2966
6.4706 -9.3984 2.2966
6.6884 -9.2293 2.2966
6.9017 -9.0551 2.2966
7.1104 -8.8760 2.2966
7.3145 -8.6920 2.2966
7.5138 -8.5032 2.2966
7.7083 -8.3099 2.2966
7.8977 -8.1120 2.2966
8.0821 -7.9099 2.2966
8.2613 -7.7035 2.2966
8.4353 -7.4931 2.2966
8.6039 -7.2787 2.2966
8.7671 -7.0606 2.2966
8.9831 -6.8835 2.3116
9.1361 -6.6567 2.3116
9.2836 -6.4266 2.3116
9.4252 -6.1932 2.3116
9.5610 -5.9568 2.3116
9.6910 -5.7174 2.3116
9.8150 -5.4752 2.3116
9.9330 -5.2304 2.3116
10.0449 -4.9831 2.3116
10.1508 -4.7335 2.3116
10.2506 -4.4817 2.3116
10.3442 -4.2278 2.3116
10.4316 -3.9720 2.3116
10.5128 -3.7146 2.3116
10.5878 -3.4555 2.3116
10.6565 -3.1950 2.3116
10.7189 -2.9332 2.3116
10.7749 -2.6703 2.3116
10.8247 -2.4064 2.3116
10.7496 -2.1183 2.2864
10.5931 -1.8226 2.2454
10.4492 -1.5386 2.2087
10.3830 -1.2732 2.1898
10.3024 -1.0111 2.1692
10.1221 -0.7467 2.1289
9.8455 -0.4873 2.0697
9.6622 -0.2441 2.0313
9.5403 -0.0102 2.0070
9.4454 0.2184 1.9894
9.3997 0.4451 1.9833
9.3564 0.6702 1.9788
9.3331 0.8959 1.9797
9.5407 1.1494 2.0308
9.7933 1.4210 2.0931
9.9284 1.6868 2.1318
10.0640 1.9615 2.1723
11.3841 2.5061 2.4716
11.3113 2.7787 2.4716
9.2456 2.5099 2.0344
11.1469 3.3177 2.4716
9.0256 2.9259 2.0178
9.1222 3.2032 2.0576
10.8541 4.1090 2.4716
9.5433 3.8794 2.1953
9.1359 3.9741 2.1244
8.6597 4.0189 2.0370
8.2958 4.0969 1.9753
8.0072 4.1984 1.9313
7.8471 4.3598 1.9186
7.7027 4.5270 1.9105
7.6545 4.7517 1.9275
7.6156 4.9869 1.9484
7.5292 5.1950 1.9588
7.4564 5.4158 1.9742
7.3542 5.6185 1.9834
7.2356 5.8106 1.9895
7.1470 6.0298 2.0053
7.0425 6.2396 2.0184
6.9222 6.4389 2.0287
6.8369 6.6754 2.0510
6.7532 6.9209 2.0760
6.6194 7.1208 2.0877
6.3857 7.2119 2.0688
6.1556 7.3008 2.0513
5.9363 7.3970 2.0376
5.7407 7.5192 2.0326
5.5536 7.6513 2.0315
5.3891 7.8160 2.0400
5.2227 7.9815 2.0496
5.0544 8.1483 2.0604
5.0551 8.6079 2.1450
5.0778 9.1468 2.2478
4.8507 9.2591 2.2457
4.6254 9.3745 2.2456
4.3985 9.4869 2.2460
4.1692 9.5943 2.2465
3.9364 9.6944 2.2466
3.7022 9.7912 2.2471
3.4691 9.8921 2.2497
3.2423 10.0156 2.2587
2.9897 10.0601 2.2511
2.7387 10.1053 2.2449
2.5089 10.2326 2.2583
2.2927 10.4372 2.2896
2.0481 10.5345 2.2985
1.7932 10.5855 2.2985
1.5371 10.6306 2.2985
1.2800 10.6698 2.2985
1.0218 10.7030 2.2985
0.7629 10.7302 2.2985
0.5032 10.7514 2.2985
0.2429 10.7666 2.2985
-0.0177 10.7758 2.2985
-0.2787 10.7788 2.2985
-0.5398 10.7758 2.2985
-0.8010 10.7668 2.2985
-1.0621 10.7516 2.2985
-1.3229 10.7303 2.2985
-1.5833 10.7030 2.2985
-1.8922 10.9530 2.3596
-2.1968 11.1067 2.4016
-2.4668 11.0590 2.4016
-2.7359 11.0050 2.4016
-3.0039 10.9447 2.4016
-3.2706 10.8780 2.4016
-3.5358 10.8051 2.4016
-3.7996 10.7258 2.4016
-4.0616 10.6404 2.4016
-4.3218 10.5487 2.4016
-4.5799 10.4508 2.4016
-4.8360 10.3468 2.4016
-5.0897 10.2367 2.4016
-5.3411 10.1205 2.4016
-5.5899 9.9983 2.4016
-5.8359 9.8702 2.4016
-6.0791 9.7361 2.4016
-6.3193 9.5962 2.4016
-6.5564 9.4504 2.4016
-6.7902 9.2990 2.4016
-7.0205 9.1418 2.4016
-7.2473 8.9791 2.4016
-7.4704 8.8109 2.4016
-7.6897 8.6372 2.4016
-7.9050 8.4581 2.4016
-8.1162 8.2738 2.4016
-8.3231 8.0842 2.4016
-8.5258 7.8896 2.4016
-8.7238 7.6899 2.4016
-8.9173 7.4854 2.4016
-9.1060 7.2760 2.4016
-8.8911 6.7588 2.2985
-9.0623 6.5495 2.2985
-9.2285 6.3359 2.2985
-9.3898 6.1181 2.2985
-9.5459 5.8963 2.2985
-9.6969 5.6705 2.2985
-9.8424 5.4409 2.2985
-9.9825 5.2075 2.2985
-10.1171 4.9706 2.2985
-10.2461 4.7302 2.2985
-10.3693 4.4865 2.2985
-10.4867 4.2396 2.2985
-10.5981 3.9896 2.2985
-10.7036 3.7368 2.2985
-10.8030 3.4811 2.2985
-10.8962 3.2228 2.2985
-10.9831 2.9621 2.2985
-11.1750 2.7261 2.3216
-11.2499 2.4582 2.3216
-11.3184 2.1882 2.3216
-11.3803 1.9164 2.3216
-11.4356 1.6428 2.3216
-11.4842 1.3677 2.3216
-11.5260 1.0912 2.3216
-11.5610 0.8135 2.3216
-11.5892 0.5347 2.3216
-11.6106 0.2551 2.3216
-11.6250 -0.0253 2.3216
-11.6325 -0.3062 2.3216
-11.6330 -0.5874 2.3216
-11.6266 -0.8689 2.3216
-11.6131 -1.1503 2.3216
-11.5927 -1.4316 2.3216
-11.5652 -1.7125 2.3216
-11.4161 -1.9730 2.2985
-11.3750 -2.2499 2.2985
-11.3270 -2.5259 2.2985
-11.2721 -2.8008 2.2985
-11.2103 -3.0744 2.2985
-11.1417 -3.3466 2.2985
-11.0662 -3.6173 2.2985
-10.9838 -3.8861 2.2985
-10.8948 -4.1530 2.2985
-10.7989 -4.4177 2.2985
-10.6964 -4.6801 2.2985
-10.5873 -4.9400 2.2985
-10.4716 -5.1973 2.2985
-10.3495 -5.4517 2.2985
-10.2208 -5.7030 2.2985
-10.5382 -6.2181 2.4016
-10.3906 -6.4740 2.4016
-10.2366 -6.7261 2.4016
-10.0761 -6.9744 2.4016
-9.9094 -7.2186 2.4016
-9.7365 -7.4587 2.4016
-9.5576 -7.6944 2.4016
-8.8508 -7.4848 2.4016
-8.6704 -7.6985 2.4016
-8.4848 -7.9077 2.4016
-8.2938 -8.1122 2.4016
-8.0977 -8.3119 2.4016
-7.8966 -8.5066 2.4016
-7.6906 -8.6961 2.4016
-7.4798 -8.8805 2.4016
-7.2644 -9.0595 2.4016
-7.0446 -9.2330 2.4016
-6.8204 -9.4009 2.4016
-6.5920 -9.5631 2.4016
-6.3596 -9.7195 2.4016
-6.1233 -9.8700 2.4016
-5.8833 -10.0145 2.4016
-5.6398 -10.1528 2.4016
-5.3928 -10.2849 2.4016
-5.1426 -10.4108 2.4016
-4.8893 -10.5302 2.4016
-4.6332 -10.6433 2.4016
-4.3743 -10.7498 2.4016
-4.1129 -10.8500 2.4017
-3.8491 -10.9433 2.4017
-3.5830 -11.0295 2.4016
-3.2799 -10.9919 2.3762
-2.9360 -10.7820 2.3156
-2.6544 -10.7655 2.2985
-2.3930 -10.8222 2.2985
-2.1304 -10.8723 2.2985
-1.8668 -10.9158 2.2985
-1.6022 -10.9526 2.2985
-1.3369 -10.9827 2.2985
-1.0711 -11.0061 2.2985
-0.8048 -11.0228 2.2985
-0.5384 -11.0328 2.2985
-0.2720 -11.0362 2.2985
-0.0057 -11.0328 2.2985
0.2603 -11.0228 2.2985
0.5258 -11.0061 2.2985
0.7906 -10.9829 2.2985
1.0546 -10.9530 2.2985
1.3176 -10.9165 2.2985
1.5795 -10.8735 2.2985
1.8400 -10.8240 2.2985
2.0990 -10.7681 2.2985
2.3563 -10.7058 2.2985
2.6118 -10.6372 2.2985
2.8653 -10.5623 2.2985
3.1167 -10.4811 2.2985
3.3658 -10.3938 2.2985
3.6125 -10.3005 2.2985
3.8785 -10.2592 2.3116
4.1212 -10.1533 2.3116
4.3529 -10.0230 2.3073
4.5744 -9.8738 2.2999
4.7999 -9.7371 2.2966
5.0287 -9.6090 2.2966
2.6806 -4.8345 1.1717
5.4758 -9.3366 2.2966
5.6938 -9.1924 2.2966
5.9081 -9.0431 2.2966
6.1184 -8.8887 2.2966
6.3247 -8.7293 2.2966
6.5268 -8.5651 2.2966
6.7398 -8.4151 2.3018
6.9569 -8.2689 2.3095
7.1534 -8.0970 2.3116
7.3389 -7.9134 2.3116
7.5198 -7.7255 2.3116
7.6958 -7.5334 2.3116
7.8670 -7.3373 2.3116
8.0331 -7.1374 2.3116
8.1942 -6.9336 2.3116
8.3501 -6.7263 2.3116
8.5008 -6.5154 2.3116
8.6462 -6.3012 2.3116
8.7862 -6.0837 2.3116
8.9208 -5.8632 2.3116
9.0499 -5.6397 2.3116
9.1735 -5.4134 2.3116
9.2914 -5.1845 2.3116
9.4037 -4.9530 2.3116
9.5102 -4.7191 2.3116
9.6111 -4.4830 2.3116
9.7061 -4.2448 2.3116
9.7953 -4.0047 2.3116
9.8787 -3.7627 2.3116
9.9561 -3.5190 2.3116
10.0277 -3.2739 2.3116
10.0933 -3.0273 2.3116
10.1530 -2.7795 2.3116
10.2066 -2.5306 2.3116
10.2543 -2.2807 2.3116
10.2961 -2.0300 2.3116
10.3318 -1.7787 2.3116
10.3615 -1.5268 2.3116
10.3852 -1.2745 2.3116
10.2867 -1.0105 2.2858
10.0725 -0.7440 2.2356
9.7448 -0.4832 2.1617
9.6438 -0.2446 2.1394
9.5293 -0.0111 2.1152
9.4536 0.2178 2.1008
9.4109 0.4447 2.0950
9.3739 0.6706 2.0916
9.3613 0.8978 2.0948
9.5235 1.1465 2.1384
9.7857 1.4191 2.2062
9.8794 1.6777 2.2376
10.0006 1.9483 2.2768
10.7934 2.3752 2.4716
10.7248 2.6338 2.4716
10.6502 2.8904 2.4716
10.5697 3.1451 2.4716
10.4833 3.3977 2.4716
10.3911 3.6480 2.4716
10.2931 3.8959 2.4716
9.6317 3.9146 2.3363
9.2411 4.0192 2.2659
8.7654 4.0673 2.1740
8.3979 4.1468 2.1083
8.0606 4.2259 2.0498
7.9068 4.3925 2.0382
7.7561 4.5579 2.0282
7.6545 4.7511 2.0321
7.6181 4.9881 2.0548
7.5307 5.1956 2.0654
7.4526 5.4126 2.0801
7.3410 5.6080 2.0871
7.2154 5.7939 2.0914
7.1293 6.0145 2.1087
7.0103 6.2107 2.1180
6.8814 6.4005 2.1258
6.7888 6.6281 2.1467
6.7341 6.9010 2.1821
6.5527 7.0487 2.1784
6.2827 7.0954 2.1456
6.0925 7.2259 2.1401
5.8930 7.3429 2.1321
5.7037 7.4706 2.1287
5.5146 7.5975 2.1263
5.3437 7.7501 2.1322
5.1784 7.9139 2.1422
5.0174 8.0887 2.1560
4.9984 8.5116 2.2357
4.9221 8.8665 2.2968
4.7051 8.9814 2.2962
4.4783 9.0766 2.2919
4.2518 9.1708 2.2887
4.0331 9.2815 2.2909
3.8079 9.3783 2.2909
3.5819 9.4735 2.2918
3.3561 9.5707 2.2945
3.1285 9.6649 2.2976
2.8955 9.7444 2.2985
2.6595 9.8147 2.2985
2.4219 9.8795 2.2985
2.1828 9.9388 2.2985
1.9423 9.9925 2.2985
1.7005 10.0407 2.2985
1.4575 10.0833 2.2985
1.2136 10.1202 2.2985
0.9687 10.1515 2.2985
0.7230 10.1770 2.2985
0.4767 10.1969 2.2985
0.2298 10.2110 2.2985
-0.0174 10.2194 2.2985
-0.2649 10.2220 2.2985
-0.5126 10.2188 2.2985
-0.7602 10.2099 2.2985
-1.0078 10.1951 2.2985
-1.2551 10.1746 2.2985
-1.5443 10.4339 2.3632
-1.8268 10.5699 2.4016
-2.0836 10.5303 2.4016
-2.3396 10.4847 2.4016
-2.5946 10.4331 2.4016
-2.8485 10.3754 2.4016
-3.1013 10.3118 2.4016
-3.3526 10.2422 2.4016
-3.6025 10.1666 2.4016
-3.8507 10.0851 2.4016
-4.0971 9.9978 2.4016
-4.3416 9.9045 2.4016
-4.5841 9.8055 2.4016
-4.8244 9.7007 2.4016
-5.0623 9.5901 2.4016
-5.2978 9.4738 2.4016
-5.5307 9.3519 2.4016
-5.7609 9.2244 2.4016
-5.9882 9.0913 2.4016
-6.2125 8.9528 2.4016
-6.4336 8.8088 2.4016
-6.6515 8.6595 2.4016
-6.8660 8.5048 2.4016
-7.0769 8.3450 2.4016
-7.2842 8.1800 2.4016
-7.4877 8.0100 2.4016
-7.6873 7.8349 2.4016
-7.8829 7.6550 2.4016
-8.0743 7.4702 2.4016
-8.2614 7.2807 2.4016
-8.4441 7.0866 2.4016
-8.6223 6.8880 2.4016
-8.6328 6.5610 2.3571
-8.5798 6.1994 2.2985
-8.7367 5.9968 2.2985
-8.8889 5.7904 2.2985
-9.0361 5.5800 2.2985
-9.1784 5.3660 2.2985
-9.3156 5.1484 2.2985
-9.4477 4.9272 2.2985
-9.5745 4.7027 2.2985
-9.6959 4.4750 2.2985
-9.8119 4.2441 2.2985
-9.9224 4.0102 2.2985
-10.0273 3.7735 2.2985
-10.1265 3.5341 2.2985
-10.2199 3.2920 2.2985
-10.3074 3.0475 2.2985
-10.3891 2.8007 2.2985
-10.4648 2.5517 2.2985
-10.5344 2.3007 2.2985
-10.7044 2.0684 2.3216
-10.7623 1.8112 2.3216
-10.8140 1.5524 2.3216
-10.8593 1.2922 2.3216
-10.8982 1.0307 2.3216
-10.9308 0.7681 2.3216
-10.9568 0.5045 2.3216
-10.9764 0.2401 2.3216
-10.9895 -0.0249 2.3216
-10.9960 -0.2904 2.3216
-10.9959 -0.5562 2.3216
-10.9893 -0.8222 2.3216
-10.9760 -1.0881 2.3216
-10.9562 -1.3539 2.3216
-10.8210 -1.6032 2.2985
-10.7882 -1.8654 2.2985
-10.7490 -2.1269 2.2985
-10.7031 -2.3876 2.2985
-10.6508 -2.6472 2.2985
-10.5919 -2.9056 2.2985
-10.5266 -3.1627 2.2985
-10.4549 -3.4183 2.2985
-10.3767 -3.6721 2.2985
-10.2921 -3.9240 2.2985
-10.2012 -4.1739 2.2985
-10.1041 -4.4217 2.2985
-10.0006 -4.6670 2.2985
-9.8910 -4.9098 2.2985
-9.7753 -5.1499 2.2985
-9.6536 -5.3872 2.2985
-9.9530 -5.8735 2.4016
-9.8134 -6.1149 2.4016
-9.6676 -6.3529 2.4016
-9.5159 -6.5872 2.4016
-9.3582 -6.8177 2.4016
-9.1947 -7.0442 2.4016
-9.0256 -7.2666 2.4016
-8.3819 -7.0887 2.4016
-8.2110 -7.2910 2.4016
-8.0350 -7.4890 2.4016
-7.8541 -7.6825 2.4016
-7.6683 -7.8715 2.4016
-7.4778 -8.0558 2.4016
-7.2827 -8.2352 2.4016
-7.0831 -8.4097 2.4016
-6.8791 -8.5791 2.4016
-6.6709 -8.7434 2.4016
-6.4586 -8.9023 2.4016
-6.2423 -9.0559 2.4016
-6.0223 -9.2040 2.4016
-5.7985 -9.3464 2.4016
-5.5713 -9.4832 2.4016
-5.3407 -9.6142 2.4016
-5.1069 -9.7394 2.4016
-4.8700 -9.8586 2.4016
-4.6305 -9.9724 2.4017
-4.3883 -10.0802 2.4019
-4.1432 -10.1814 2.4020
-3.8956 -10.2758 2.4019
-3.6456 -10.3639 2.4018
-3.3936 -10.4457 2.4017
-3.1397 -10.5211 2.4017
-2.8841 -10.5901 2.4016
-2.5928 -10.5142 2.3703
-2.2829 -10.3223 2.3148
-2.0182 -10.2972 2.2985
-1.7685 -10.3386 2.2985
-1.5180 -10.3737 2.2985
-1.2668 -10.4024 2.2985
-1.0150 -10.4249 2.2985
-0.7629 -10.4410 2.2985
-0.5106 -10.4508 2.2985
-0.2582 -10.4543 2.2985
-0.0060 -10.4514 2.2985
0.2460 -10.4423 2.2985
0.4975 -10.4268 2.2985
0.7484 -10.4051 2.2985
0.9985 -10.3772 2.2985
1.2477 -10.3430 2.2985
1.4958 -10.3027 2.2985
1.7426 -10.2562 2.2985
1.9881 -10.2036 2.2985
2.2320 -10.1450 2.2985
2.4742 -10.0803 2.2985
2.7146 -10.0098 2.2985
2.9529 -9.9333 2.2985
3.1891 -9.8510 2.2985
3.4230 -9.7629 2.2985
3.6545 -9.6692 2.2985
3.8834 -9.5699 2.2985
4.1096 -9.4650 2.2985
4.3329 -9.3546 2.2985
4.5792 -9.2915 2.3116
4.7977 -9.1697 2.3116
2.6804 -4.8351 1.2360
5.2248 -8.9107 2.3116
5.4331 -8.7735 2.3116
5.6379 -8.6314 2.3116
5.8389 -8.4845 2.3116
6.0361 -8.3328 2.3116
6.2293 -8.1765 2.3116
6.4185 -8.0156 2.3116
6.6035 -7.8503 2.3116
6.7842 -7.6807 2.3116
6.9606 -7.5070 2.3116
7.1325 -7.3291 2.3116
7.2999 -7.1473 2.3116
7.4626 -6.9617 2.3116
7.6206 -6.7723 2.3116
7.7739 -6.5794 2.3116
7.9222 -6.3830 2.3116
8.0656 -6.1833 2.3116
8.2040 -5.9803 2.3116
8.3374 -5.7743 2.3116
8.4655 -5.5653 2.3116
8.5885 -5.3535 2.3116
8.7062 -5.1390 2.3116
8.8187 -4.9220 2.3116
8.9257 -4.7025 2.3116
9.0273 -4.4808 2.3116
9.1235 -4.2568 2.3116
9.2143 -4.0309 2.3116
9.2994 -3.8031 2.3116
9.3790 -3.5735 2.3116
9.4531 -3.3424 2.3116
9.5215 -3.1097 2.3116
9.5843 -2.8757 2.3116
9.6414 -2.6405 2.3116
9.6929 -2.4043 2.3116
9.7387 -2.1671 2.3116
9.7788 -1.9291 2.3116
9.8132 -1.6904 2.3116
9.8419 -1.4512 2.3116
9.8649 -1.2116 2.3116
9.8822 -0.9718 2.3116
9.8937 -0.7318 2.3116
9.6360 -0.4787 2.2500
9.5840 -0.2440 2.2378
9.5184 -0.0120 2.2237
9.4663 0.2172 2.2140
9.4287 0.4447 2.2090
9.3915 0.6710 2.2053
9.3899 0.8997 2.2111
9.5014 1.1430 2.2450
9.7395 1.4115 2.3105
9.8306 1.6686 2.3428
9.9377 1.9352 2.3806
10.2585 2.2567 2.4716
10.1937 2.5025 2.4716
10.1231 2.7466 2.4716
10.0469 2.9888 2.4716
9.9651 3.2290 2.4716
9.8778 3.4670 2.4716
9.7849 3.7028 2.4716
9.6867 3.9363 2.4716
9.3301 4.0572 2.4064
8.8672 4.1139 2.3133
8.4869 4.1901 2.2411
8.1449 4.2696 2.1786
7.9411 4.4110 2.1530
7.7895 4.5770 2.1424
7.6836 4.7687 2.1453
7.6207 4.9893 2.1618
7.5341 5.1975 2.1732
7.4487 5.4093 2.1865
7.3394 5.6063 2.1944
7.2123 5.7910 2.1984
7.1055 5.9940 2.2101
6.9782 6.1820 2.2171
6.8749 6.3941 2.2334
6.8007 6.6394 2.2614
6.7460 6.9130 2.2988
6.4869 6.9778 2.2678
6.1801 6.9793 2.2194
6.0156 7.1344 2.2220
5.8597 7.3012 2.2293
5.6680 7.4237 2.2244
5.4791 7.5485 2.2215
5.2988 7.6849 2.2233
5.1420 7.8582 2.2368
4.9982 8.0578 2.2585
4.9428 8.4169 2.3248
4.7665 8.5864 2.3389
4.4788 8.5496 2.2985
4.2709 8.6565 2.2985
4.0605 8.7585 2.2985
3.8478 8.8556 2.2985
3.6329 8.9478 2.2985
3.4158 9.0349 2.2985
3.1967 9.1170 2.2985
2.9758 9.1941 2.2985
2.7530 9.2659 2.2985
2.5286 9.3326 2.2985
2.3026 9.3941 2.2985
2.0752 9.4504 2.2985
1.8464 9.5013 2.2985
1.6164 9.5469 2.2985
1.3854 9.5872 2.2985
1.1534 9.6221 2.2985
0.9205 9.6516 2.2985
0.6869 9.6757 2.2985
0.4526 9.6943 2.2985
0.2179 9.7075 2.2985
-0.0171 9.7152 2.2985
-0.2524 9.7174 2.2985
-0.4879 9.7141 2.2985
-0.7257 9.7377 2.3062
-0.9586 9.6910 2.2985
-1.2298 9.9637 2.3680
-1.4924 10.0785 2.4016
-1.7371 10.0463 2.4016
-1.9811 10.0083 2.4016
-2.2243 9.9646 2.4016
-2.4667 9.9152 2.4016
-2.7079 9.8600 2.4016
-2.9480 9.7992 2.4016
-3.1867 9.7326 2.4016
-3.4240 9.6604 2.4016
-3.6598 9.5826 2.4016
-3.8938 9.4992 2.4016
-4.1260 9.4102 2.4016
-4.3562 9.3157 2.4016
-4.5843 9.2157 2.4016
-4.8101 9.1102 2.4016
-5.0336 8.9993 2.4016
-5.2546 8.8831 2.4016
-5.4730 8.7616 2.4016
-5.6887 8.6348 2.4016
-5.9015 8.5027 2.4016
-6.1112 8.3656 2.4016
-6.3179 8.2234 2.4016
-6.5212 8.0761 2.4016
-6.7212 7.9239 2.4016
-6.9178 7.7668 2.4016
-7.1107 7.6050 2.4016
-7.2998 7.4384 2.4016
-7.4851 7.2671 2.4016
-7.6664 7.0913 2.4016
-7.8437 6.9111 2.4016
-8.0167 6.7264 2.4016
-8.1854 6.5375 2.4016
-8.3498 6.3444 2.4016
-8.2223 5.9397 2.3205
-8.2927 5.6907 2.2985
-8.4367 5.4945 2.2985
-8.5760 5.2946 2.2985
-8.7105 5.0912 2.2985
-8.8403 4.8844 2.2985
-8.9651 4.6743 2.2985
-9.0849 4.4610 2.2985
-9.1997 4.2447 2.2985
-9.3092 4.0254 2.2985
-9.4135 3.8034 2.2985
-9.5125 3.5786 2.2985
-9.6061 3.3513 2.2985
-9.6942 3.1215 2.2985
-9.7767 2.8895 2.2985
-9.8536 2.6553 2.2985
-9.9249 2.4190 2.2985
-9.9904 2.1808 2.2985
-10.0501 1.9409 2.2985
-10.1040 1.6994 2.2985
-10.2540 1.4710 2.3216
-10.2964 1.2242 2.3216
-10.3328 0.9762 2.3216
-10.3632 0.7272 2.3216
-10.3874 0.4773 2.3216
-10.4054 0.2267 2.3216
-10.4173 -0.0246 2.3216
-10.4230 -0.2762 2.3216
-10.4224 -0.5281 2.3216
-10.4157 -0.7802 2.3216
-10.4026 -1.0322 2.3216
-10.2801 -1.2712 2.2985
-10.2548 -1.5201 2.2985
-10.2234 -1.7686 2.2985
-10.1857 -2.0163 2.2985
-10.1419 -2.2632 2.2985
-10.0919 -2.5091 2.2985
-10.0357 -2.7539 2.2985
-9.9735 -2.9973 2.2985
-9.9051 -3.2393 2.2985
-9.8307 -3.4796 2.2985
-9.7503 -3.7182 2.2985
-9.6639 -3.9548 2.2985
-9.5715 -4.1893 2.2985
-9.4732 -4.4215 2.2985
-9.3691 -4.6514 2.2985
-9.2593 -4.8787 2.2985
-9.1437 -5.1032 2.2985
-9.4271 -5.5638 2.4016
-9.2946 -5.7923 2.4016
-9.1564 -6.0175 2.4016
-9.0124 -6.2392 2.4016
-8.8629 -6.4574 2.4016
-8.7079 -6.6718 2.4016
-8.5476 -6.8823 2.4016
-7.9582 -6.7309 2.4016
-7.7959 -6.9228 2.4016
-7.6287 -7.1107 2.4016
-7.4569 -7.2943 2.4016
-7.2804 -7.4736 2.4016
-7.0995 -7.6485 2.4016
-6.9142 -7.8188 2.4016
-6.7246 -7.9843 2.4016
-6.5309 -8.1451 2.4016
-6.3332 -8.3010 2.4016
-6.1317 -8.4519 2.4016
-5.9264 -8.5976 2.4016
-5.7175 -8.7382 2.4016
-5.5051 -8.8735 2.4016
-5.2897 -9.0038 2.4017
-5.0711 -9.1287 2.4019
-4.8494 -9.2481 2.4020
-4.6248 -9.3619 2.4021
-4.3973 -9.4698 2.4022
-4.1669 -9.5713 2.4021
-3.9341 -9.6669 2.4021
-3.6990 -9.7566 2.4020
-3.4618 -9.8404 2.4019
-3.2226 -9.9182 2.4019
-2.9816 -9.9899 2.4018
-2.7389 -10.0556 2.4017
-2.4948 -10.1153 2.4017
-2.2493 -10.1686 2.4016
-1.9725 -10.0621 2.3654
-1.6899 -9.8765 2.3124
-1.4419 -9.8505 2.2985
-1.2034 -9.8780 2.2985
-0.9644 -9.8996 2.2985
-0.7250 -9.9151 2.2985
-0.4854 -9.9247 2.2985
-0.2458 -9.9282 2.2985
-0.0063 -9.9258 2.2985
0.2330 -9.9174 2.2985
0.4718 -9.9030 2.2985
0.7101 -9.8827 2.2985
0.9477 -9.8565 2.2985
1.1844 -9.8243 2.2985
1.4201 -9.7863 2.2985
1.6546 -9.7425 2.2985
1.8878 -9.6929 2.2985
2.1196 -9.6376 2.2985
2.3498 -9.5766 2.2985
2.5782 -9.5099 2.2985
2.8047 -9.4376 2.2985
3.0292 -9.3598 2.2985
3.2515 -9.2765 2.2985
3.4716 -9.1878 2.2985
3.6892 -9.0938 2.2985
3.9043 -8.9945 2.2985
4.1167 -8.8900 2.2985
4.3263 -8.7804 2.2985
4.5329 -8.6658 2.2985
2.6801 -4.8357 1.3006
4.9370 -8.4217 2.2985
5.1634 -8.3397 2.3116
5.3582 -8.2050 2.3116
5.5495 -8.0657 2.3116
5.7372 -7.9219 2.3116
5.9212 -7.7737 2.3116
6.1013 -7.6211 2.3116
6.2774 -7.4643 2.3116
6.4496 -7.3035 2.3116
6.6176 -7.1386 2.3116
6.7814 -6.9698 2.3116
6.9409 -6.7973 2.3116
7.0959 -6.6211 2.3116
7.2466 -6.4413 2.3116
7.3927 -6.2582 2.3116
7.5341 -6.0717 2.3116
7.6709 -5.8820 2.3116
7.8029 -5.6892 2.3116
7.9301 -5.4935 2.3116
8.0524 -5.2950 2.3116
8.1698 -5.0938 2.3116
8.2822 -4.8900 2.3116
8.3896 -4.6837 2.3116
8.4918 -4.4751 2.3116
8.5889 -4.2643 2.3116
8.6809 -4.0515 2.3116
8.7676 -3.8367 2.3116
8.8491 -3.6201 2.3116
8.9253 -3.4018 2.3116
8.9962 -3.1819 2.3116
9.0617 -2.9606 2.3116
9.1219 -2.7381 2.3116
9.1767 -2.5143 2.3116
9.2261 -2.2895 2.3116
9.2701 -2.0638 2.3116
9.3087 -1.8373 2.3116
9.3418 -1.6102 2.3116
9.3695 -1.3826 2.3116
9.3918 -1.1545 2.3116
9.4087 -0.9262 2.3116
9.4201 -0.6977 2.3116
9.4261 -0.4692 2.3116
9.4267 -0.2409 2.3116
9.4219 -0.0127 2.3116
9.4117 0.2151 2.3116
9.3962 0.4423 2.3116
9.3753 0.6690 2.3116
9.3491 0.8950 2.3116
9.3176 1.1201 2.3116
9.6953 1.4043 2.4148
9.7822 1.6595 2.4476
9.8278 1.9130 2.4716
9.7718 2.1488 2.4716
9.7103 2.3831 2.4716
9.6434 2.6157 2.4716
9.5710 2.8465 2.4716
9.4934 3.0754 2.4716
9.4104 3.3023 2.4716
9.3223 3.5270 2.4716
9.2289 3.7495 2.4716
9.1304 3.9697 2.4716
8.9754 4.1635 2.4575
8.5733 4.2321 2.3760
8.2329 4.3151 2.3111
8.0014 4.4440 2.2767
7.8254 4.5976 2.2587
7.7291 4.7965 2.2647
7.6277 4.9934 2.2707
7.5462 5.2053 2.2842
7.4557 5.4140 2.2966
7.3462 5.6111 2.3049
7.2092 5.7881 2.3059
7.0917 5.9819 2.3147
6.9930 6.1946 2.3314
6.8930 6.4107 2.3498
6.8126 6.6508 2.3771
6.7542 6.9211 2.4150
6.4156 6.9008 2.3535
6.0919 6.8795 2.2956
5.9700 7.0801 2.3139
5.8303 7.2645 2.3275
5.6397 7.3865 2.3224
5.4495 7.5076 2.3184
5.2660 7.6373 2.3185
5.1226 7.8285 2.3382
4.8478 7.8153 2.2985
4.6572 7.9307 2.2985
4.4640 8.0416 2.2985
4.2683 8.1480 2.2985
4.0701 8.2498 2.2985
3.8695 8.3469 2.2985
3.6668 8.4394 2.2985
3.4619 8.5272 2.2985
3.2550 8.6102 2.2985
3.0462 8.6884 2.2985
2.8356 8.7617 2.2985
2.6232 8.8301 2.2985
2.4093 8.8935 2.2985
2.1939 8.9520 2.2985
1.9771 9.0055 2.2985
1.7591 9.0539 2.2985
1.5399 9.0972 2.2985
1.3197 9.1354 2.2985
1.0985 9.1685 2.2985
0.8766 9.1964 2.2985
0.6540 9.2192 2.2985
0.4308 9.2367 2.2985
0.2071 9.2491 2.2985
-0.0169 9.2562 2.2985
-0.2411 9.2580 2.2985
-0.4701 9.3475 2.3215
-0.6897 9.2460 2.2985
-0.9444 9.5408 2.3753
-1.1888 9.6262 2.4016
-1.4224 9.6007 2.4016
-1.6554 9.5697 2.4016
-1.8878 9.5333 2.4016
-2.1195 9.4913 2.4016
-2.3502 9.4439 2.4016
-2.5799 9.3910 2.4016
-2.8085 9.3327 2.4016
-3.0358 9.2691 2.4016
-3.2617 9.2000 2.4016
-3.4861 9.1255 2.4016
-3.7089 9.0457 2.4016
-3.9298 8.9606 2.4016
-4.1489 8.8703 2.4016
-4.3659 8.7747 2.4016
-4.5808 8.6739 2.4016
-4.7935 8.5680 2.4016
-5.0037 8.4570 2.4016
-5.2114 8.3409 2.4016
-5.4165 8.2198 2.4016
-5.6188 8.0937 2.4016
-5.8183 7.9628 2.4016
-6.0147 7.8271 2.4016
-6.2080 7.6866 2.4016
-6.3981 7.5413 2.4016
-6.5849 7.3915 2.4016
-6.7681 7.2371 2.4016
-6.9479 7.0782 2.4016
-7.1239 6.9149 2.4016
-7.2961 6.7473 2.4016
-7.4644 6.5755 2.4016
-7.6287 6.3994 2.4016
-7.7889 6.2194 2.4016
-7.9448 6.0353 2.4016
-8.0965 5.8474 2.4016
-7.8898 5.4130 2.2985
-8.0263 5.2260 2.2985
-8.1584 5.0356 2.2985
-8.2861 4.8418 2.2985
-8.4091 4.6449 2.2985
-8.5274 4.4449 2.2985
-8.6409 4.2418 2.2985
-8.7496 4.0359 2.2985
-8.8534 3.8272 2.2985
-8.9521 3.6158 2.2985
-9.0458 3.4019 2.2985
-9.1343 3.1856 2.2985
-9.2177 2.9670 2.2985
-9.2957 2.7463 2.2985
-9.3684 2.5235 2.2985
-9.4357 2.2987 2.2985
-9.4975 2.0722 2.2985
-9.5538 1.8441 2.2985
-9.6046 1.6144 2.2985
-9.6498 1.3833 2.2985
-9.6893 1.1511 2.2985
-9.7231 0.9177 2.2985
-9.8492 0.6902 2.3216
-9.8717 0.4527 2.3216
-9.8885 0.2145 2.3216
-9.8993 -0.0243 2.3216
-9.9043 -0.2634 2.3216
-9.8049 -0.4977 2.2985
-9.7981 -0.7348 2.2985
-9.7855 -0.9718 2.2985
-9.7670 -1.2086 2.2985
-9.7426 -1.4450 2.2985
-9.7123 -1.6810 2.2985
-9.6762 -1.9162 2.2985
-9.6342 -2.1507 2.2985
-9.5864 -2.3842 2.2985
-9.5327 -2.6166 2.2985
-9.4732 -2.8477 2.2985
-9.4080 -3.0774 2.2985
-9.3370 -3.3056 2.2985
-9.2603 -3.5320 2.2985
-9.1780 -3.7566 2.2985
-9.0900 -3.9792 2.2985
-8.9965 -4.1997 2.2985
-8.8973 -4.4178 2.2985
-8.7928 -4.6335 2.2985
-8.6828 -4.8466 2.2985
-8.9518 -5.2838 2.4016
-8.8257 -5.5007 2.4016
-8.6943 -5.7144 2.4016
-8.5575 -5.9248 2.4016
-8.4153 -6.1318 2.4016
-8.2680 -6.3352 2.4016
-8.1156 -6.5349 2.4016
-7.5734 -6.4058 2.4016
-7.4189 -6.5884 2.4016
-7.2597 -6.7671 2.4016
-7.0961 -6.9417 2.4016
-6.9281 -7.1123 2.4016
-6.7559 -7.2786 2.4016
-6.5795 -7.4406 2.4016
-6.3991 -7.5981 2.4016
-6.2149 -7.7512 2.4016
-6.0270 -7.8998 2.4017
-5.8354 -8.0436 2.4018
-5.6403 -8.1826 2.4019
-5.4417 -8.3167 2.4020
-5.2399 -8.4458 2.4021
-5.0348 -8.5699 2.4023
-4.8267 -8.6887 2.4024
-4.6157 -8.8023 2.4025
-4.4016 -8.9098 2.4024
-4.1848 -9.0119 2.4023
-3.9656 -9.1085 2.4022
-3.7441 -9.1996 2.4022
-3.5205 -9.2851 2.4021
-3.2948 -9.3649 2.4020
-3.0673 -9.4395 2.4021
-2.8382 -9.5085 2.4022
-2.6073 -9.5711 2.4021
-2.3749 -9.6276 2.4019
-2.1412 -9.6782 2.4018
-1.9065 -9.7230 2.4017
-1.6708 -9.7622 2.4016
-1.4117 -9.6410 2.3637
-1.1543 -9.4708 2.3154
-0.9184 -9.4223 2.2985
-0.6923 -9.4606 2.3042
-0.4626 -9.4466 2.2985
-0.2345 -9.4502 2.2985
-0.0065 -9.4482 2.2985
0.2212 -9.4404 2.2985
0.4485 -9.4270 2.2985
0.6754 -9.4079 2.2985
0.9015 -9.3832 2.2985
1.1269 -9.3529 2.2985
1.3513 -9.3170 2.2985
1.5746 -9.2756 2.2985
1.7967 -9.2287 2.2985
2.0174 -9.1763 2.2985
2.2366 -9.1185 2.2985
2.4541 -9.0553 2.2985
2.6699 -8.9868 2.2985
2.8838 -8.9131 2.2985
3.0956 -8.8341 2.2985
3.3053 -8.7500 2.2985
3.5126 -8.6608 2.2985
3.7176 -8.5665 2.2985
3.9200 -8.4673 2.2985
4.1198 -8.3633 2.2985
4.3168 -8.2544 2.2985
2.6798 -4.8363 1.3655
4.7020 -8.0226 2.2985
4.8899 -7.8999 2.2985
5.0747 -7.7726 2.2985
5.2562 -7.6410 2.2985
5.4342 -7.5051 2.2985
5.6406 -7.4069 2.3116
5.8124 -7.2619 2.3116
5.9805 -7.1128 2.3116
6.1448 -6.9599 2.3116
6.3052 -6.8031 2.3116
6.4615 -6.6426 2.3116
6.6138 -6.4784 2.3116
6.7619 -6.3108 2.3116
6.9057 -6.1398 2.3116
7.0453 -5.9654 2.3116
7.1804 -5.7880 2.3116
7.3111 -5.6074 2.3116
7.4373 -5.4239 2.3116
7.5589 -5.2376 2.3116
7.6758 -5.0486 2.3116
7.7881 -4.8570 2.3116
7.8956 -4.6629 2.3116
7.9983 -4.4664 2.3116
8.0961 -4.2677 2.3116
8.1891 -4.0669 2.3116
8.2771 -3.8641 2.3116
8.3602 -3.6595 2.3116
8.4382 -3.4531 2.3116
8.5113 -3.2450 2.3116
8.5792 -3.0355 2.3116
8.6421 -2.8246 2.3116
8.6999 -2.6124 2.3116
8.7525 -2.3991 2.3116
8.8000 -2.1847 2.3116
8.8423 -1.9695 2.3116
8.8795 -1.7536 2.3116
8.9114 -1.5370 2.3116
8.9382 -1.3198 2.3116
8.9599 -1.1023 2.3116
8.9763 -0.8845 2.3116
8.9875 -0.6665 2.3116
8.9936 -0.4486 2.3116
8.9945 -0.2307 2.3116
8.9902 -0.0130 2.3116
8.9808 0.2044 2.3116
8.9663 0.4213 2.3116
8.9467 0.6376 2.3116
8.9220 0.8533 2.3116
8.8922 1.0682 2.3116
8.8574 1.2822 2.3116
8.8176 1.4951 2.3116
8.7728 1.7069 2.3116
8.7230 1.9175 2.3116
8.6684 2.1266 2.3116
9.2048 2.4960 2.4716
9.1360 2.7164 2.4716
9.0621 2.9350 2.4716
8.9831 3.1516 2.4716
8.8992 3.3663 2.4716
8.8103 3.5788 2.4716
8.7164 3.7891 2.4716
8.6177 3.9970 2.4716
8.5142 4.2024 2.4716
8.3232 4.3618 2.4473
8.0876 4.4913 2.4103
7.8611 4.6181 2.3765
7.7486 4.8080 2.3780
7.6496 5.0072 2.3851
7.5718 5.2225 2.4004
7.4638 5.4193 2.4079
7.3441 5.6090 2.4132
7.2006 5.7808 2.4121
7.0906 5.9806 2.4238
7.0022 6.2024 2.4448
6.8696 6.3885 2.4524
6.6839 6.5248 2.4424
6.5152 6.6759 2.4396
6.3454 6.8250 2.4377
6.0769 6.8623 2.3981
5.9236 7.0249 2.4043
5.8011 7.2279 2.4253
5.3300 6.9807 2.2985
5.1590 7.1073 2.2985
4.9851 7.2299 2.2985
4.8085 7.3484 2.2985
4.6291 7.4628 2.2985
4.4471 7.5729 2.2985
4.2626 7.6788 2.2985
4.0756 7.7804 2.2985
3.8863 7.8776 2.2985
3.6948 7.9703 2.2985
3.5012 8.0586 2.2985
3.3055 8.1424 2.2985
3.1079 8.2216 2.2985
2.9084 8.2961 2.2985
2.7073 8.3661 2.2985
2.5045 8.4313 2.2985
2.3002 8.4918 2.2985
2.0944 8.5475 2.2985
1.8874 8.5984 2.2985
1.6792 8.6445 2.2985
1.4699 8.6858 2.2985
1.2596 8.7221 2.2985
1.0484 8.7535 2.2985
0.8365 8.7801 2.2985
0.6239 8.8016 2.2985
0.4108 8.8182 2.2985
0.1972 8.8298 2.2985
-0.0166 8.8364 2.2985
-0.2307 8.8380 2.2985
-0.4465 8.8681 2.3072
-0.6841 9.1625 2.3861
-0.9121 9.2078 2.4016
-1.1354 9.1885 2.4016
-1.3584 9.1639 2.4016
-1.5808 9.1341 2.4016
-1.8026 9.0990 2.4016
-2.0236 9.0587 2.4016
-2.2438 9.0131 2.4016
-2.4630 8.9624 2.4016
-2.6811 8.9065 2.4016
-2.8979 8.8454 2.4016
-3.1134 8.7792 2.4016
-3.3274 8.7078 2.4016
-3.5399 8.6314 2.4016
-3.7506 8.5499 2.4016
-3.9595 8.4634 2.4016
-4.1665 8.3718 2.4016
-4.3714 8.2754 2.4016
-4.5741 8.1740 2.4016
-4.7745 8.0677 2.4016
-4.9725 7.9567 2.4016
-5.1679 7.8409 2.4016
-5.3607 7.7203 2.4016
-5.5508 7.5951 2.4016
-5.7379 7.4653 2.4016
-5.9221 7.3310 2.4016
-6.1032 7.1922 2.4016
-6.2811 7.0489 2.4016
-6.4556 6.9014 2.4016
-6.6267 6.7496 2.4016
-6.7943 6.5936 2.4016
-6.9582 6.4334 2.4016
-7.1184 6.2693 2.4016
-7.2748 6.1012 2.4016
-7.4272 5.9292 2.4016
-7.5755 5.7535 2.4016
-7.7198 5.5741 2.4016
-7.8346 5.3738 2.3939
-7.6522 4.9812 2.2985
-7.7778 4.7995 2.2985
-7.8991 4.6146 2.2985
-8.0160 4.4266 2.2985
-8.1284 4.2358 2.2985
-8.2363 4.0421 2.2985
-8.3395 3.8456 2.2985
-8.4380 3.6466 2.2985
-8.5318 3.4450 2.2985
-8.6207 3.2410 2.2985
-8.7047 3.0347 2.2985
-8.7837 2.8263 2.2985
-8.8576 2.6158 2.2985
-8.9265 2.4034 2.2985
-8.9902 2.1892 2.2985
-9.0488 1.9733 2.2985
-9.1020 1.7559 2.2985
-9.1500 1.5370 2.2985
-9.1926 1.3169 2.2985
-9.2299 1.0956 2.2985
-9.2617 0.8732 2.2985
-9.2881 0.6500 2.2985
-9.3090 0.4260 2.2985
-9.3245 0.2014 2.2985
-9.3343 -0.0237 2.2985
-9.3387 -0.2492 2.2985
-9.3374 -0.4748 2.2985
-9.3307 -0.7006 2.2985
-9.3183 -0.9262 2.2985
-9.3003 -1.1517 2.2985
-9.2767 -1.3767 2.2985
-9.2476 -1.6013 2.2985
-9.2129 -1.8252 2.2985
-9.1726 -2.0484 2.2985
-9.1268 -2.2706 2.2985
-9.0754 -2.4918 2.2985
-9.0185 -2.7117 2.2985
-8.9562 -2.9303 2.2985
-8.8883 -3.1474 2.2985
-8.8151 -3.3629 2.2985
-8.7365 -3.5765 2.2985
-8.6525 -3.7883 2.2985
-8.5632 -3.9980 2.2985
-8.4687 -4.2055 2.2985
-8.3690 -4.4107 2.2985
-8.4728 -4.7299 2.3565
-8.5199 -5.0295 2.4016
-8.3998 -5.2357 2.4016
-8.2746 -5.4390 2.4016
-8.1442 -5.6391 2.4016
-8.0088 -5.8360 2.4016
-7.8685 -6.0295 2.4016
-7.7233 -6.2195 2.4016
-7.2228 -6.1096 2.4017
-7.0754 -6.2837 2.4018
-6.9236 -6.4541 2.4018
-6.7676 -6.6208 2.4018
-6.6075 -6.7835 2.4019
-6.4434 -6.9422 2.4020
-6.2753 -7.0968 2.4020
-6.1034 -7.2471 2.4021
-5.9278 -7.3932 2.4022
-5.7485 -7.5349 2.4022
-5.5658 -7.6720 2.4023
-5.3796 -7.8045 2.4024
-5.1903 -7.9324 2.4025
-4.9977 -8.0555 2.4026
-4.8021 -8.1737 2.4027
-4.6033 -8.2864 2.4026
-4.4018 -8.3941 2.4026
-4.1976 -8.4967 2.4025
-3.9910 -8.5941 2.4024
-3.7821 -8.6865 2.4024
-3.5711 -8.7739 2.4024
-3.3580 -8.8559 2.4025
-3.1429 -8.9327 2.4026
-2.9260 -9.0038 2.4026
-2.7073 -9.0688 2.4024
-2.4870 -9.1284 2.4023
-2.2654 -9.1825 2.4022
-2.0426 -9.2309 2.4020
-1.8188 -9.2738 2.4019
-1.5940 -9.3111 2.4018
-1.3684 -9.3427 2.4017
-1.1423 -9.3690 2.4016
-0.9026 -9.2558 2.3673
-0.6639 -9.0659 2.3150
-0.4417 -9.0103 2.2985
-0.2242 -9.0140 2.2985
-0.0068 -9.0122 2.2985
0.2104 -9.0050 2.2985
0.4273 -8.9924 2.2985
0.6437 -8.9745 2.2985
0.8594 -8.9511 2.2985
1.0744 -8.9225 2.2985
1.2885 -8.8885 2.2985
1.5016 -8.8492 2.2985
1.7134 -8.8047 2.2985
1.9240 -8.7550 2.2985
2.1332 -8.7001 2.2985
2.3408 -8.6401 2.2985
2.5468 -8.5751 2.2985
2.7509 -8.5050 2.2985
2.9531 -8.4299 2.2985
3.1533 -8.3499 2.2985
3.3513 -8.2651 2.2985
3.5470 -8.1754 2.2985
3.7403 -8.0811 2.2985
3.9310 -7.9821 2.2985
4.1192 -7.8785 2.2985
2.6795 -4.8369 1.4308
4.4871 -7.6578 2.2985
4.6667 -7.5409 2.2985
4.8433 -7.4198 2.2985
5.0166 -7.2944 2.2985
5.1868 -7.1649 2.2985
5.3535 -7.0315 2.2985
5.5169 -6.8941 2.2985
5.6767 -6.7529 2.2985
5.8328 -6.6079 2.2985
6.0194 -6.4961 2.3116
6.1689 -6.3431 2.3116
6.3145 -6.1866 2.3116
6.4562 -6.0268 2.3116
6.5939 -5.8637 2.3116
6.7274 -5.6975 2.3116
6.8567 -5.5283 2.3116
6.9818 -5.3561 2.3116
7.1026 -5.1810 2.3116
7.2190 -5.0033 2.3116
7.3310 -4.8229 2.3116
7.4385 -4.6401 2.3116
7.5415 -4.4549 2.3116
7.6399 -4.2674 2.3116
7.7337 -4.0778 2.3116
7.8228 -3.8861 2.3116
7.9072 -3.6925 2.3116
7.9869 -3.4971 2.3116
8.0618 -3.3000 2.3116
8.1319 -3.1014 2.3116
8.1971 -2.9013 2.3116
8.2575 -2.6999 2.3116
8.3131 -2.4972 2.3116
8.3637 -2.2934 2.3116
8.4094 -2.0887 2.3116
8.4501 -1.8831 2.3116
8.4860 -1.6768 2.3116
8.5168 -1.4698 2.3116
8.5428 -1.2623 2.3116
8.5637 -1.0544 2.3116
8.5797 -0.8463 2.3116
8.5908 -0.6380 2.3116
8.5969 -0.4296 2.3116
8.5980 -0.2213 2.3116
8.5942 -0.0132 2.3116
8.5855 0.1946 2.3116
8.5719 0.4020 2.3116
8.5534 0.6089 2.3116
8.5300 0.8151 2.3116
8.5018 1.0206 2.3116
8.4688 1.2252 2.3116
8.4310 1.4288 2.3116
8.3884 1.6314 2.3116
8.3410 1.8328 2.3116
8.2890 2.0329 2.3116
8.2323 2.2316 2.3116
8.1710 2.4288 2.3116
8.1052 2.6244 2.3116
8.0347 2.8183 2.3116
7.9598 3.0103 2.3116
7.8804 3.2005 2.3116
7.7967 3.3886 2.3116
8.2421 3.8221 2.4716
8.1433 4.0187 2.4716
8.0399 4.2128 2.4716
7.9321 4.4044 2.4716
7.8191 4.5928 2.4714
7.6995 4.7771 2.4704
7.5787 4.9603 2.4704
7.4538 5.1406 2.4704
7.3248 5.3180 2.4705
7.1837 5.4861 2.4677
7.0433 5.6541 2.4666
6.8994 5.8190 2.4655
6.3331 5.6094 2.3116
6.1939 5.7598 2.3116
6.0513 5.9069 2.3116
5.9053 6.0506 2.3116
5.7235 6.1558 2.2985
5.5718 6.2917 2.2985
5.4171 6.4241 2.2985
5.2594 6.5527 2.2985
5.0987 6.6777 2.2985
4.9351 6.7988 2.2985
4.7688 6.9161 2.2985
4.5998 7.0295 2.2985
4.4282 7.1389 2.2985
4.2540 7.2443 2.2985
4.0775 7.3455 2.2985
3.8986 7.4427 2.2985
3.7175 7.5356 2.2985
3.5343 7.6244 2.2985
3.3490 7.7088 2.2985
3.1618 7.7888 2.2985
2.9727 7.8645 2.2985
2.7819 7.9358 2.2985
2.5894 8.0026 2.2985
2.3954 8.0650 2.2985
2.1999 8.1227 2.2985
2.0031 8.1760 2.2985
1.8050 8.2246 2.2985
1.6058 8.2685 2.2985
1.4055 8.3079 2.2985
1.2043 8.3425 2.2985
1.0023 8.3724 2.2985
0.7996 8.3976 2.2985
0.5962 8.4181 2.2985
0.3924 8.4338 2.2985
0.1881 8.4447 2.2985
-0.0164 8.4509 2.2985
-0.2233 8.5343 2.3208
-0.4445 8.8159 2.3984
-0.6590 8.8190 2.4016
-0.8729 8.8053 2.4016
-1.0864 8.7866 2.4016
-1.2996 8.7629 2.4016
-1.5122 8.7341 2.4016
-1.7243 8.7003 2.4016
-1.9356 8.6616 2.4016
-2.1461 8.6178 2.4016
-2.3556 8.5690 2.4016
-2.5641 8.5153 2.4016
-2.7714 8.4567 2.4016
-2.9773 8.3931 2.4016
-3.1819 8.3246 2.4016
-3.3849 8.2512 2.4016
-3.5862 8.1731 2.4016
-3.7858 8.0901 2.4016
-3.9835 8.0023 2.4016
-4.1793 7.9098 2.4016
-4.3729 7.8127 2.4016
-4.5643 7.7108 2.4016
-4.7534 7.6044 2.4016
-4.9400 7.4934 2.4016
-5.1241 7.3779 2.4016
-5.3056 7.2580 2.4016
-5.4842 7.1337 2.4016
-5.6600 7.0050 2.4016
-5.8329 6.8721 2.4016
-6.0026 6.7350 2.4016
-6.1692 6.5937 2.4016
-6.3324 6.4484 2.4016
-6.4923 6.2991 2.4016
-6.6487 6.1459 2.4016
-6.8015 5.9888 2.4016
-6.9506 5.8280 2.4016
-7.0959 5.6635 2.4016
-7.2373 5.4953 2.4016
-7.3748 5.3237 2.4016
-7.5082 5.1487 2.4016
-7.5284 4.8994 2.3673
-7.4293 4.5833 2.2985
-7.5449 4.4065 2.2985
-7.6562 4.2268 2.2985
-7.7632 4.0444 2.2985
-7.8659 3.8592 2.2985
-7.9642 3.6715 2.2985
-8.0580 3.4812 2.2985
-8.1471 3.2886 2.2985
-8.2317 3.0937 2.2985
-8.3115 2.8967 2.2985
-8.3866 2.6975 2.2985
-8.4569 2.4965 2.2985
-8.5223 2.2936 2.2985
-8.5828 2.0890 2.2985
-8.6384 1.8829 2.2985
-8.6889 1.6752 2.2985
-8.7343 1.4663 2.2985
-8.7747 1.2561 2.2985
-8.8099 1.0448 2.2985
-8.8400 0.8326 2.2985
-8.8649 0.6195 2.2985
-8.8845 0.4057 2.2985
-8.8989 0.1913 2.2985
-8.9080 -0.0235 2.2985
-8.9118 -0.2386 2.2985
-8.9103 -0.4539 2.2985
-8.9035 -0.6693 2.2985
-8.8914 -0.8846 2.2985
-8.8740 -1.0996 2.2985
-8.8512 -1.3143 2.2985
-8.8232 -1.5286 2.2985
-8.7898 -1.7421 2.2985
-8.7511 -1.9550 2.2985
-8.7071 -2.1669 2.2985
-8.6578 -2.3778 2.2985
-8.6033 -2.5875 2.2985
-8.5436 -2.7960 2.2985
-8.4787 -3.0030 2.2985
-8.4086 -3.2084 2.2985
-8.3334 -3.4122 2.2985
-8.2531 -3.6140 2.2985
-8.1678 -3.8140 2.2985
-8.0774 -4.0118 2.2985
-7.9821 -4.2074 2.2985
-8.2355 -4.5980 2.4016
-8.1259 -4.7975 2.4016
-8.0115 -4.9942 2.4017
-7.8918 -5.1879 2.4017
-7.7673 -5.3787 2.4017
-7.6381 -5.5664 2.4017
-7.5042 -5.7508 2.4017
-7.3658 -5.9320 2.4017
-6.9024 -5.8390 2.4022
-6.7615 -6.0053 2.4022
-6.6164 -6.1681 2.4023
-6.4673 -6.3272 2.4023
-6.3142 -6.4827 2.4024
-6.1573 -6.6343 2.4024
-5.9967 -6.7819 2.4025
-5.8324 -6.9256 2.4025
-5.6645 -7.0651 2.4026
-5.4932 -7.2004 2.4027
-5.3186 -7.3314 2.4028
-5.1407 -7.4580 2.4029
-4.9597 -7.5800 2.4029
-4.7754 -7.6971 2.4028
-4.5882 -7.8096 2.4028
-4.3985 -7.9175 2.4028
-4.2061 -8.0207 2.4028
-4.0112 -8.1191 2.4028
-3.8140 -8.2126 2.4029
-3.6145 -8.3011 2.4029
-3.4129 -8.3846 2.4030
-3.2093 -8.4631 2.4030
-3.0036 -8.5359 2.4029
-2.7962 -8.6034 2.4028
-2.5872 -8.6657 2.4026
-2.3768 -8.7227 2.4025
-2.1651 -8.7745 2.4024
-1.9523 -8.8209 2.4022
-1.7384 -8.8620 2.4021
-1.5236 -8.8978 2.4020
-1.3082 -8.9282 2.4019
-1.0921 -8.9532 2.4018
-0.8755 -8.9728 2.4016
-0.6586 -8.9873 2.4016
-0.4314 -8.7901 2.3465
-0.2148 -8.6140 2.2985
-0.0070 -8.6125 2.2985
0.2006 -8.6058 2.2985
0.4078 -8.5940 2.2985
0.6146 -8.5770 2.2985
0.8208 -8.5549 2.2985
1.0263 -8.5278 2.2985
1.2309 -8.4955 2.2985
1.4345 -8.4582 2.2985
1.6371 -8.4159 2.2985
1.8384 -8.3686 2.2985
2.0384 -8.3164 2.2985
2.2369 -8.2593 2.2985
2.4338 -8.1973 2.2985
2.6291 -8.1306 2.2985
2.8224 -8.0591 2.2985
3.0139 -7.9828 2.2985
3.2032 -7.9020 2.2985
3.3904 -7.8165 2.2985
3.5753 -7.7266 2.2985
3.7578 -7.6322 2.2985
3.9378 -7.5334 2.2985
2.6792 -4.8375 1.4964
4.2899 -7.3229 2.2985
4.4618 -7.2114 2.2985
4.6308 -7.0958 2.2985
4.7967 -6.9762 2.2985
4.9596 -6.8526 2.2985
5.1192 -6.7252 2.2985
5.2756 -6.5941 2.2985
5.4286 -6.4593 2.2985
5.5782 -6.3208 2.2985
5.7243 -6.1790 2.2985
5.8667 -6.0337 2.2985
6.0054 -5.8851 2.2985
6.1407 -5.7335 2.2986
6.2729 -5.5796 2.2990
6.4352 -5.4513 2.3116
6.5592 -5.2896 2.3116
6.6791 -5.1251 2.3116
6.7949 -4.9578 2.3116
6.9066 -4.7879 2.3116
7.0140 -4.6155 2.3116
7.1172 -4.4407 2.3116
7.2159 -4.2637 2.3116
7.3104 -4.0844 2.3116
7.4004 -3.9031 2.3116
7.4860 -3.7198 2.3116
7.5670 -3.5347 2.3116
7.6436 -3.3478 2.3116
7.7155 -3.1593 2.3116
7.7829 -2.9693 2.3116
7.8456 -2.7778 2.3116
7.9037 -2.5851 2.3116
7.9572 -2.3912 2.3116
8.0059 -2.1963 2.3116
8.0499 -2.0003 2.3116
8.0892 -1.8036 2.3116
8.1238 -1.6061 2.3116
8.1536 -1.4080 2.3116
8.1787 -1.2094 2.3116
8.1990 -1.0104 2.3116
8.2146 -0.8111 2.3116
8.2255 -0.6117 2.3116
8.2316 -0.4122 2.3116
8.2329 -0.2127 2.3116
8.2295 -0.0134 2.3116
8.2215 0.1856 2.3116
8.2087 0.3842 2.3116
8.1912 0.5823 2.3116
8.1690 0.7799 2.3116
8.1422 0.9767 2.3116
8.1108 1.1727 2.3116
8.0748 1.3678 2.3116
8.0342 1.5619 2.3116
7.9891 1.7548 2.3116
7.9395 1.9465 2.3116
7.8854 2.1369 2.3116
7.8268 2.3259 2.3116
7.7639 2.5133 2.3116
7.6966 2.6991 2.3116
7.6250 2.8831 2.3116
7.5491 3.0654 2.3116
7.4690 3.2457 2.3116
7.3847 3.4240 2.3116
7.2963 3.6002 2.3116
7.2038 3.7742 2.3116
7.1073 3.9459 2.3116
7.0069 4.1153 2.3116
6.9025 4.2821 2.3116
6.7943 4.4465 2.3116
6.6823 4.6082 2.3116
6.5667 4.7671 2.3116
6.4473 4.9233 2.3116
6.3244 5.0766 2.3116
6.1628 5.1973 2.2985
6.0336 5.3438 2.2985
5.9011 5.4872 2.2985
5.7652 5.6274 2.2985
5.6262 5.7644 2.2985
5.4840 5.8980 2.2985
5.3387 6.0283 2.2985
5.1905 6.1551 2.2985
5.0394 6.2785 2.2985
4.8854 6.3982 2.2985
4.7287 6.5143 2.2985
4.5693 6.6267 2.2985
4.4073 6.7354 2.2985
4.2429 6.8402 2.2985
4.0760 6.9412 2.2985
3.9068 7.0382 2.2985
3.7354 7.1313 2.2985
3.5619 7.2203 2.2985
3.3862 7.3053 2.2985
3.2087 7.3862 2.2985
3.0293 7.4629 2.2985
2.8481 7.5353 2.2985
2.6652 7.6036 2.2985
2.4807 7.6675 2.2985
2.2948 7.7272 2.2985
2.1075 7.7825 2.2985
1.9188 7.8334 2.2985
1.7290 7.8799 2.2985
1.5381 7.9219 2.2985
1.3462 7.9595 2.2985
1.1534 7.9925 2.2985
0.9599 8.0211 2.2985
0.7656 8.0451 2.2985
0.5708 8.0646 2.2985
0.3773 8.1194 2.3099
0.1797 8.0898 2.2985
-0.0165 8.2238 2.3349
-0.2219 8.4598 2.4016
-0.4269 8.4562 2.4016
-0.6319 8.4477 2.4016
-0.8367 8.4344 2.4016
-1.0412 8.4163 2.4016
-1.2454 8.3934 2.4016
-1.4491 8.3656 2.4016
-1.6522 8.3331 2.4016
-1.8546 8.2957 2.4016
-2.0561 8.2536 2.4016
-2.2568 8.2066 2.4016
-2.4563 8.1550 2.4016
-2.6548 8.0986 2.4016
-2.8520 8.0374 2.4016
-3.0478 7.9716 2.4016
-3.2421 7.9012 2.4016
-3.4348 7.8261 2.4016
-3.6259 7.7464 2.4016
-3.8151 7.6621 2.4016
-4.0024 7.5733 2.4016
-4.1877 7.4800 2.4016
-4.3708 7.3822 2.4016
-4.5517 7.2801 2.4016
-4.7302 7.1736 2.4016
-4.9063 7.0628 2.4016
-5.0799 6.9477 2.4016
-5.2508 6.8285 2.4016
-5.4189 6.7051 2.4016
-5.5841 6.5776 2.4016
-5.7464 6.4461 2.4016
-5.9056 6.3107 2.4016
-6.0617 6.1714 2.4016
-6.2145 6.0282 2.4016
-6.3639 5.8814 2.4016
-6.5099 5.7308 2.4016
-6.6524 5.5767 2.4016
-6.7912 5.4191 2.4016
-6.9263 5.2580 2.4016
-7.0576 5.0936 2.4016
-7.1850 4.9259 2.4016
-7.3084 4.7551 2.4016
-7.2604 4.4780 2.3475
-7.2193 4.2152 2.2985
-7.3255 4.0432 2.2985
-7.4276 3.8685 2.2985
-7.5256 3.6912 2.2985
-7.6193 3.5115 2.2985
-7.7087 3.3294 2.2985
-7.7938 3.1450 2.2985
-7.8743 2.9584 2.2985
-7.9504 2.7698 2.2985
-8.0220 2.5793 2.2985
-8.0889 2.3869 2.2985
-8.1512 2.1928 2.2985
-8.2087 1.9971 2.2985
-8.2615 1.7998 2.2985
-8.3095 1.6012 2.2985
