ply
format ascii 1.0
element vertex 2177
property float32 x
property float32 y
property float32 z
end_header
6.9536 -2.6428 1.6817
6.9949 -2.4669 1.6778
7.0455 -2.2950 1.6773
7.0964 -2.1234 1.6778
7.1474 -1.9518 1.6793
7.1988 -1.7802 1.6819
7.2506 -1.6082 1.6856
7.2884 -1.4327 1.6870
7.2847 -1.2501 1.6798
6.3595 -0.9337 1.4618
6.2916 -0.7690 1.4425
6.2688 -0.6129 1.4344
6.3152 -0.4637 1.4430
6.3824 -0.3138 1.4572
6.2883 -0.1570 1.4354
6.1543 -0.0049 1.4053
6.0635 0.1417 1.3859
5.9472 0.2829 1.3614
5.8582 0.4208 1.3439
5.7997 0.5577 1.3341
5.7416 0.6926 1.3251
5.6862 0.8257 1.3174
5.6552 0.9613 1.3161
5.6327 1.0982 1.3175
5.6251 1.2386 1.3232
5.6137 1.3791 1.3289
5.6079 1.5224 1.3367
5.6133 1.6705 1.3481
5.6320 1.8254 1.3636
5.6403 1.9800 1.3777
5.6484 2.1376 1.3928
5.6537 2.2973 1.4083
5.6601 2.4610 1.4251
5.6669 2.6286 1.4433
5.6907 2.8089 1.4672
5.7966 3.0375 1.5138
7.1419 3.9656 1.8908
7.0405 4.1351 1.8910
6.9381 4.3039 1.8920
6.8375 4.4740 1.8945
6.7752 4.6711 1.9091
6.7373 4.8895 1.9322
6.7709 5.1684 1.9782
7.4283 5.9600 2.2129
7.0821 5.9694 2.1532
7.5259 6.6614 2.3376
7.5130 6.9813 2.3866
7.4847 7.3002 2.4341
7.3947 7.5699 2.4648
7.2440 7.7837 2.4778
7.0882 7.9957 2.4910
6.9065 8.1812 2.4971
6.6697 8.2999 2.4844
5.9824 7.8251 2.2992
5.7891 7.9644 2.2992
5.5927 8.0991 2.2992
5.3931 8.2291 2.2992
5.1907 8.3542 2.2992
4.9854 8.4745 2.2992
4.7773 8.5899 2.2992
4.5667 8.7003 2.2992
3.1580 6.3873 1.6678
2.9847 6.4236 1.6583
3.9204 9.0011 2.2992
3.7005 9.0910 2.2992
3.4787 9.1757 2.2992
3.2549 9.2551 2.2991
3.0294 9.3292 2.2991
2.8022 9.3979 2.2991
2.5735 9.4613 2.2991
2.3435 9.5192 2.2991
2.1121 9.5718 2.2991
1.9641 10.0507 2.4023
1.7201 10.0941 2.4023
1.4752 10.1319 2.4023
1.2295 10.1638 2.4023
0.9831 10.1900 2.4023
0.7362 10.2103 2.4023
0.4889 10.2249 2.4023
0.2414 10.2336 2.4023
-0.0063 10.2364 2.4023
-0.2540 10.2335 2.4023
-0.5016 10.2247 2.4023
-0.7489 10.2101 2.4023
-0.9958 10.1897 2.4023
-1.2422 10.1634 2.4023
-1.4879 10.1314 2.4023
-1.7328 10.0936 2.4023
-1.9768 10.0500 2.4023
-2.2197 10.0007 2.4023
-2.4615 9.9457 2.4023
-2.7019 9.8850 2.4023
-2.9408 9.8186 2.4023
-3.1782 9.7466 2.4023
-3.4139 9.6690 2.4023
-3.6477 9.5859 2.4023
-3.8796 9.4972 2.4023
-4.1093 9.4031 2.4023
-4.3368 9.3036 2.4023
-4.5620 9.1987 2.4023
-4.7847 9.0885 2.4023
-5.0049 8.9730 2.4023
-5.2222 8.8523 2.4023
-5.4368 8.7264 2.4023
-5.6484 8.5955 2.4023
-5.8569 8.4596 2.4023
-5.9736 8.1970 2.3671
-5.9954 7.8223 2.2992
-6.1855 7.6782 2.2992
-6.3722 7.5295 2.2992
-6.5554 7.3765 2.2992
-6.7350 7.2191 2.2992
-6.9109 7.0574 2.2992
-7.0829 6.8915 2.2992
-7.2511 6.7215 2.2992
-7.4153 6.5474 2.2992
-7.5754 6.3694 2.2992
-7.7313 6.1876 2.2992
-7.8829 6.0020 2.2992
-8.0301 5.8128 2.2992
-8.1728 5.6200 2.2992
-8.3110 5.4238 2.2992
-8.4446 5.2243 2.2992
-8.5734 5.0214 2.2992
-8.6975 4.8155 2.2992
-8.8166 4.6066 2.2992
-8.9308 4.3947 2.2992
-9.0400 4.1801 2.2992
-9.1441 3.9627 2.2992
-9.2430 3.7428 2.2992
-9.3367 3.5205 2.2992
-9.4251 3.2959 2.2992
-9.5081 3.0691 2.2992
-9.5857 2.8402 2.2992
-9.6579 2.6094 2.2992
-9.7245 2.3767 2.2992
-9.7856 2.1424 2.2992
-9.8411 1.9065 2.2992
-9.8909 1.6692 2.2992
-10.0347 1.4450 2.3223
-10.0735 1.2029 2.3223
-10.1065 0.9597 2.3223
-10.1336 0.7157 2.3223
-10.1548 0.4710 2.3223
-10.1701 0.2256 2.3223
-10.1795 -0.0202 2.3223
-10.1830 -0.2664 2.3223
-10.1805 -0.5127 2.3223
-10.1721 -0.7590 2.3223
-10.1577 -1.0052 2.3223
-10.1373 -1.2512 2.3223
-10.0104 -1.4818 2.2992
-9.9784 -1.7244 2.2992
-9.9405 -1.9663 2.2992
-9.8967 -2.2073 2.2992
-9.8470 -2.4473 2.2992
-9.7915 -2.6862 2.2992
-9.7302 -2.9238 2.2992
-9.6630 -3.1601 2.2992
-9.5900 -3.3947 2.2992
-9.5113 -3.6276 2.2992
-9.4269 -3.8587 2.2992
-9.3369 -4.0879 2.2992
-9.2412 -4.3148 2.2992
-9.1399 -4.5395 2.2992
-9.0331 -4.7618 2.2992
-8.9208 -4.9815 2.2992
-8.8032 -5.1985 2.2992
-8.6802 -5.4127 2.2992
-8.6253 -5.6723 2.3189
-8.7961 -6.0938 2.4023
-8.6518 -6.3084 2.4025
-8.5023 -6.5195 2.4027
-8.3475 -6.7269 2.4029
-7.7817 -6.5878 2.4030
-7.6247 -6.7775 2.4032
-7.4630 -6.9634 2.4033
-7.2966 -7.1454 2.4035
-7.1258 -7.3233 2.4036
-6.9505 -7.4971 2.4038
-6.7709 -7.6665 2.4040
-6.5872 -7.8315 2.4041
-6.3993 -7.9921 2.4043
-6.2074 -8.1480 2.4045
-6.0117 -8.2992 2.4046
-5.8122 -8.4456 2.4048
-5.6091 -8.5871 2.4049
-5.4024 -8.7235 2.4051
-5.1924 -8.8549 2.4052
-4.9789 -8.9807 2.4053
-4.7618 -9.1004 2.4051
-4.5418 -9.2146 2.4049
-4.3190 -9.3234 2.4048
-4.0935 -9.4267 2.4046
-3.8655 -9.5244 2.4044
-3.6351 -9.6164 2.4042
-3.4025 -9.7028 2.4041
-3.1678 -9.7834 2.4039
-2.9312 -9.8582 2.4037
-2.6927 -9.9271 2.4036
-2.4526 -9.9901 2.4034
-2.2110 -10.0470 2.4033
-1.9681 -10.0980 2.4031
-1.7239 -10.1429 2.4029
-1.4787 -10.1818 2.4027
-1.2326 -10.2146 2.4026
-0.9857 -10.2413 2.4024
-0.7383 -10.2619 2.4023
-0.4852 -10.1644 2.3759
-0.2329 -9.8812 2.3077
0.0057 -9.9703 2.3279
0.2432 -9.8457 2.2996
0.4806 -9.8351 2.2992
0.7178 -9.8201 2.2992
0.9545 -9.7992 2.2992
1.1905 -9.7726 2.2992
1.4258 -9.7400 2.2992
1.6603 -9.7016 2.2992
1.8936 -9.6575 2.2992
2.1258 -9.6076 2.2992
2.3566 -9.5519 2.2992
2.5859 -9.4906 2.2992
2.8137 -9.4236 2.2992
3.0396 -9.3510 2.2992
3.2636 -9.2729 2.2992
3.4856 -9.1892 2.2992
3.7054 -9.1001 2.2992
3.9229 -9.0057 2.2992
4.1379 -8.9058 2.2992
4.3503 -8.8008 2.2992
4.5600 -8.6905 2.2992
4.7669 -8.5751 2.2992
4.9708 -8.4547 2.2992
5.1715 -8.3294 2.2992
5.3996 -8.2458 2.3123
5.5950 -8.1100 2.3123
5.7868 -7.9695 2.3123
5.9750 -7.8243 2.3123
6.5858 -8.2056 2.4723
6.7790 -8.0408 2.4723
6.8352 -7.7213 2.4251
6.8592 -7.3815 2.3708
6.9107 -7.0860 2.3299
6.9325 -6.7732 2.2825
6.9200 -6.4419 2.2276
6.9552 -6.1681 2.1915
6.9715 -5.8881 2.1522
7.0164 -5.6415 2.1245
7.0953 -5.4282 2.1092
7.1725 -5.2176 2.0952
7.1000 -4.9073 2.0399
6.8993 -4.5264 1.9514
6.7415 -4.1936 1.8786
6.7095 -3.9522 1.8436
6.6971 -3.7301 1.8159
6.6842 -3.5142 1.7899
6.7564 -3.3465 1.7882
6.8667 -3.1969 1.7975
6.9024 -3.0129 1.7883
6.9380 -2.8310 1.7804
6.9735 -2.6509 1.7736
7.0167 -2.4751 1.7700
7.0675 -2.3026 1.7694
7.1184 -2.1305 1.7698
7.1697 -1.9584 1.7714
7.2159 -1.7849 1.7728
7.2525 -1.6091 1.7729
7.2892 -1.4334 1.7740
7.1872 -1.2339 1.7425
6.3134 -0.9274 1.5257
6.2733 -0.7672 1.5121
6.2568 -0.6122 1.5051
6.3119 -0.4639 1.5162
6.3790 -0.3141 1.5311
6.2188 -0.1557 1.4922
6.0901 -0.0053 1.4619
6.0037 0.1399 1.4424
5.9049 0.2805 1.4208
5.8165 0.4174 1.4025
5.7587 0.5534 1.3923
5.7013 0.6873 1.3829
5.6746 0.8237 1.3817
5.6516 0.9603 1.3823
5.6300 1.0973 1.3840
5.6279 1.2388 1.3913
5.6164 1.3794 1.3971
5.6059 1.5214 1.4041
5.6050 1.6676 1.4145
5.6017 1.8152 1.4252
5.6097 1.9688 1.4398
5.6172 2.1254 1.4554
5.6227 2.2843 1.4715
5.6293 2.4472 1.4892
5.6357 2.6137 1.5080
5.6659 2.7961 1.5346
5.7704 3.0234 1.5832
7.1958 3.9949 2.0013
7.0805 4.1580 1.9978
6.9773 4.3277 1.9987
6.8613 4.4890 1.9971
6.8012 4.6884 2.0130
6.7799 4.9198 2.0424
6.8338 5.2158 2.0971
7.5229 6.0352 2.3539
7.0506 5.9422 2.2515
7.4500 6.5936 2.4305
7.4358 6.9088 2.4808
7.3788 7.1962 2.5203
7.2339 7.4046 2.5324
7.0857 7.6129 2.5453
6.9327 7.8195 2.5587
6.0553 7.1722 2.2992
5.8777 7.3137 2.2992
5.6968 7.4509 2.2992
5.5129 7.5837 2.2992
5.3259 7.7121 2.2992
5.1359 7.8359 2.2992
4.9432 7.9552 2.2992
4.7477 8.0699 2.2992
4.5497 8.1799 2.2992
4.3492 8.2852 2.2992
3.1578 6.3866 1.7511
2.9845 6.4226 1.7411
3.7338 8.5720 2.2992
3.5244 8.6578 2.2992
3.3132 8.7385 2.2992
3.1001 8.8143 2.2992
2.8853 8.8850 2.2992
2.6690 8.9505 2.2991
2.4512 9.0109 2.2991
2.2321 9.0662 2.2991
2.0559 9.3162 2.3495
1.8707 9.5723 2.4023
1.6383 9.6138 2.4023
1.4051 9.6497 2.4023
1.1711 9.6802 2.4023
0.9364 9.7051 2.4023
0.7012 9.7245 2.4023
0.4657 9.7384 2.4023
0.2299 9.7467 2.4023
-0.0060 9.7494 2.4023
-0.2420 9.7466 2.4023
-0.4778 9.7382 2.4023
-0.7133 9.7243 2.4023
-0.9485 9.7048 2.4023
-1.1832 9.6798 2.4023
-1.4172 9.6492 2.4023
-1.6505 9.6132 2.4023
-1.8829 9.5716 2.4023
-2.1142 9.5246 2.4023
-2.3445 9.4721 2.4023
-2.5734 9.4142 2.4023
-2.8010 9.3509 2.4023
-3.0270 9.2823 2.4023
-3.2515 9.2083 2.4023
-3.4741 9.1290 2.4023
-3.6949 9.0445 2.4023
-3.9137 8.9547 2.4023
-4.1303 8.8598 2.4023
-4.3447 8.7598 2.4023
-4.5567 8.6547 2.4023
-4.7663 8.5446 2.4023
-4.9732 8.4295 2.4023
-5.1775 8.3095 2.4023
-5.3789 8.1847 2.4023
-5.5774 8.0551 2.4023
-5.7728 7.9208 2.4023
-5.9651 7.7819 2.4023
-5.9682 7.4077 2.3297
-6.0676 7.1690 2.2992
-6.2419 7.0231 2.2992
-6.4128 6.8731 2.2992
-6.5801 6.7189 2.2992
-6.7438 6.5608 2.2992
-6.9038 6.3988 2.2992
-7.0599 6.2330 2.2992
-7.2122 6.0634 2.2992
-7.3604 5.8901 2.2992
-7.5045 5.7133 2.2992
-7.6445 5.5330 2.2992
-7.7802 5.3494 2.2992
-7.9116 5.1625 2.2992
-8.0385 4.9724 2.2992
-8.1609 4.7792 2.2992
-8.2788 4.5830 2.2992
-8.3920 4.3840 2.2992
-8.5004 4.1822 2.2992
-8.6041 3.9778 2.2992
-8.7029 3.7709 2.2992
-8.7968 3.5615 2.2992
-8.8857 3.3498 2.2992
-8.9696 3.1359 2.2992
-9.0483 2.9200 2.2992
-9.1219 2.7021 2.2992
-9.1903 2.4823 2.2992
-9.2535 2.2609 2.2992
-9.3113 2.0379 2.2992
-9.3638 1.8134 2.2992
-9.4109 1.5875 2.2992
-9.4526 1.3605 2.2992
-9.4888 1.1324 2.2992
-9.5196 0.9033 2.2992
-9.5448 0.6735 2.2992
-9.5645 0.4429 2.2992
-9.5786 0.2118 2.2992
-9.5872 -0.0197 2.2992
-9.5901 -0.2515 2.2992
-9.5875 -0.4835 2.2992
-9.5792 -0.7154 2.2992
-9.5654 -0.9473 2.2992
-9.5459 -1.1789 2.2992
-9.5207 -1.4100 2.2992
-9.4900 -1.6407 2.2992
-9.4537 -1.8706 2.2992
-9.4117 -2.0998 2.2992
-9.3642 -2.3280 2.2992
-9.3111 -2.5551 2.2992
-9.2525 -2.7810 2.2992
-9.1883 -3.0055 2.2992
-9.1187 -3.2285 2.2992
-9.0436 -3.4499 2.2992
-8.9631 -3.6696 2.2992
-8.8772 -3.8873 2.2992
-8.7859 -4.1029 2.2992
-8.6894 -4.3164 2.2992
-8.5876 -4.5276 2.2992
-8.4806 -4.7364 2.2992
-8.3685 -4.9426 2.2992
-8.3214 -5.1897 2.3187
-8.4880 -5.5827 2.4007
-8.3611 -5.7932 2.4023
-8.2237 -5.9970 2.4025
-8.0813 -6.1974 2.4027
-7.9340 -6.3944 2.4028
-7.4125 -6.2759 2.4030
-7.2627 -6.4565 2.4031
-7.1085 -6.6334 2.4033
-6.9499 -6.8065 2.4034
-6.7870 -6.9758 2.4036
-6.6199 -7.1411 2.4038
-6.4487 -7.3023 2.4039
-6.2736 -7.4594 2.4041
-6.0945 -7.6121 2.4042
-5.9116 -7.7604 2.4044
-5.7251 -7.9043 2.4045
-5.5350 -8.0436 2.4047
-5.3415 -8.1781 2.4048
-5.1446 -8.3079 2.4050
-4.9445 -8.4329 2.4051
-4.7414 -8.5529 2.4053
-4.5348 -8.6672 2.4053
-4.3253 -8.7760 2.4051
-4.1130 -8.8795 2.4049
-3.8983 -8.9778 2.4047
-3.6811 -9.0708 2.4046
-3.4617 -9.1584 2.4044
-3.2402 -9.2405 2.4043
-3.0167 -9.3172 2.4041
-2.7913 -9.3883 2.4039
-2.5642 -9.4538 2.4038
-2.3355 -9.5137 2.4036
-2.1054 -9.5679 2.4034
-1.8741 -9.6164 2.4033
-1.6416 -9.6591 2.4031
-1.4081 -9.6962 2.4029
-1.1737 -9.7274 2.4028
-0.9387 -9.7528 2.4026
-0.7031 -9.7724 2.4025
-0.4671 -9.7862 2.4023
-0.2308 -9.7945 2.4023
0.0054 -9.5512 2.3419
0.2316 -9.3738 2.2992
0.4576 -9.3651 2.2992
0.6834 -9.3509 2.2992
0.9088 -9.3311 2.2992
1.1335 -9.3057 2.2992
1.3576 -9.2748 2.2992
1.5808 -9.2383 2.2992
1.8030 -9.1963 2.2992
2.0241 -9.1488 2.2992
2.2439 -9.0959 2.2992
2.4623 -9.0376 2.2992
2.6792 -8.9739 2.2992
2.8943 -8.9048 2.2992
3.1077 -8.8305 2.2992
3.3191 -8.7510 2.2992
3.5284 -8.6662 2.2992
3.7356 -8.5764 2.2992
3.9404 -8.4814 2.2992
4.1427 -8.3815 2.2992
4.3425 -8.2766 2.2992
4.5395 -8.1669 2.2992
4.7337 -8.0523 2.2992
4.9250 -7.9331 2.2992
5.1132 -7.8091 2.2992
5.2983 -7.6807 2.2992
5.4801 -7.5477 2.2992
5.6906 -7.4526 2.3123
5.8665 -7.3102 2.3123
6.0387 -7.1635 2.3123
6.6365 -7.4975 2.4722
6.8088 -7.3280 2.4708
6.9284 -7.1048 2.4524
6.9406 -6.7818 2.3991
6.9137 -6.4367 2.3365
6.9393 -6.1546 2.2953
6.9671 -5.8851 2.2580
7.0098 -5.6368 2.2281
7.0893 -5.4242 2.2122
7.1678 -5.2148 2.1979
6.9404 -4.7975 2.0931
6.7678 -4.4407 2.0092
6.6591 -4.1429 1.9477
6.6390 -3.9112 1.9147
6.6277 -3.6920 1.8862
6.6160 -3.4789 1.8595
6.6837 -3.3110 1.8565
6.8056 -3.1690 1.8696
6.9225 -3.0223 1.8822
6.9581 -2.8398 1.8738
6.9936 -2.6591 1.8666
7.0387 -2.4834 1.8632
7.0896 -2.3104 1.8625
7.1407 -2.1377 1.8629
7.1800 -1.9618 1.8614
7.2167 -1.7857 1.8603
7.2533 -1.6098 1.8603
7.2900 -1.4341 1.8614
6.9909 -1.2007 1.7782
6.2713 -0.9217 1.5901
6.2569 -0.7657 1.5822
6.2452 -0.6115 1.5761
6.3125 -0.4644 1.5907
6.3127 -0.3113 1.5894
6.1504 -0.1545 1.5481
6.0269 -0.0057 1.5175
5.9422 0.1380 1.4975
5.8590 0.2779 1.4787
5.7751 0.4140 1.4606
5.7247 0.5497 1.4516
5.6849 0.6849 1.4462
5.6684 0.8224 1.4475
5.6480 0.9593 1.4487
5.6273 1.0963 1.4507
5.6308 1.2390 1.4598
5.6180 1.3794 1.4655
5.6039 1.5204 1.4719
5.6030 1.6666 1.4827
5.5913 1.8114 1.4916
5.5793 1.9577 1.5015
5.5862 2.1132 1.5175
5.5925 2.2716 1.5346
5.5987 2.4334 1.5529
5.6047 2.5989 1.5724
5.6411 2.7835 1.6019
5.7444 3.0093 1.6523
7.0769 3.9283 2.0635
7.2350 4.2481 2.1400
7.0390 4.3653 2.1138
6.8823 4.5022 2.0999
6.8335 4.7101 2.1202
6.8767 4.9895 2.1715
7.4559 5.6899 2.3984
7.3681 5.9103 2.4165
7.2774 6.1327 2.4359
7.2371 6.4044 2.4747
7.1974 6.6866 2.5168
7.1600 6.9820 2.5632
7.0791 7.2454 2.5973
6.9334 7.4485 2.6103
5.9440 6.7037 2.2992
5.7778 6.8429 2.2992
5.6084 6.9780 2.2992
5.4359 7.1090 2.2992
5.2605 7.2359 2.2992
5.0821 7.3585 2.2992
4.9009 7.4768 2.2992
4.7171 7.5908 2.2992
4.5307 7.7003 2.2992
4.3417 7.8054 2.2992
4.1504 7.9059 2.2992
3.1577 6.3858 1.8348
2.9842 6.4216 1.8243
3.5633 8.1799 2.2992
3.3635 8.2618 2.2992
3.1619 8.3390 2.2992
2.9586 8.4114 2.2992
2.7537 8.4790 2.2992
2.5473 8.5416 2.2992
2.3416 8.6072 2.3013
2.1303 8.6522 2.2992
2.0062 9.0903 2.4023
1.7854 9.1351 2.4023
1.5636 9.1747 2.4023
1.3410 9.2091 2.4023
1.1177 9.2382 2.4023
0.8937 9.2620 2.4023
0.6693 9.2806 2.4023
0.4445 9.2938 2.4023
0.2194 9.3017 2.4023
-0.0058 9.3043 2.4023
-0.2309 9.3016 2.4023
-0.4560 9.2936 2.4023
-0.6808 9.2803 2.4023
-0.9053 9.2617 2.4023
-1.1292 9.2378 2.4023
-1.3526 9.2086 2.4023
-1.5752 9.1741 2.4023
-1.7970 9.1344 2.4023
-2.0178 9.0895 2.4023
-2.2375 9.0393 2.4023
-2.4560 8.9840 2.4023
-2.6732 8.9235 2.4023
-2.8889 8.8579 2.4023
-3.1030 8.7872 2.4023
-3.3155 8.7115 2.4023
-3.5261 8.6307 2.4023
-3.7349 8.5450 2.4023
-3.9416 8.4543 2.4023
-4.1461 8.3587 2.4023
-4.3484 8.2583 2.4023
-4.5483 8.1532 2.4023
-4.7458 8.0432 2.4023
-4.9406 7.9286 2.4023
-5.1327 7.8094 2.4023
-5.3220 7.6856 2.4023
-5.5084 7.5574 2.4023
-5.6918 7.4247 2.4023
-5.8720 7.2876 2.4023
-5.9585 7.0394 2.3663
-5.9651 6.7109 2.3028
-6.1185 6.5570 2.2992
-6.2781 6.4099 2.2992
-6.4341 6.2589 2.2992
-6.5866 6.1042 2.2992
-6.7354 5.9458 2.2992
-6.8805 5.7839 2.2992
-7.0218 5.6185 2.2992
-7.1592 5.4497 2.2992
-7.2925 5.2776 2.2992
-7.4218 5.1023 2.2992
-7.5469 4.9239 2.2992
-7.6678 4.7424 2.2992
-7.7844 4.5580 2.2992
-7.8966 4.3708 2.2992
-8.0044 4.1809 2.2992
-8.1076 3.9883 2.2992
-8.2063 3.7933 2.2992
-8.3003 3.5958 2.2992
-8.3897 3.3960 2.2992
-8.4742 3.1940 2.2992
-8.5540 2.9900 2.2992
-8.6289 2.7840 2.2992
-8.6988 2.5761 2.2992
-8.7638 2.3665 2.2992
-8.8237 2.1552 2.2992
-8.8786 1.9425 2.2992
-8.9284 1.7284 2.2992
-8.9731 1.5130 2.2992
-9.0126 1.2965 2.2992
-9.0469 1.0790 2.2992
-9.0760 0.8606 2.2992
-9.0998 0.6414 2.2992
-9.1183 0.4216 2.2992
-9.1315 0.2013 2.2992
-9.1394 -0.0195 2.2992
-9.1419 -0.2404 2.2992
-9.1392 -0.4615 2.2992
-9.1310 -0.6826 2.2992
-9.1175 -0.9036 2.2992
-9.0987 -1.1243 2.2992
-9.0745 -1.3446 2.2992
-9.0449 -1.5644 2.2992
-9.0100 -1.7835 2.2992
-8.9698 -2.0019 2.2992
-8.9243 -2.2193 2.2992
-8.8734 -2.4356 2.2992
-8.8173 -2.6508 2.2992
-8.7559 -2.8647 2.2992
-8.6893 -3.0772 2.2992
-8.6175 -3.2881 2.2992
-8.5406 -3.4972 2.2992
-8.4585 -3.7046 2.2992
-8.3713 -3.9100 2.2992
-8.2791 -4.1133 2.2992
-8.1819 -4.3144 2.2992
-8.0798 -4.5132 2.2992
-7.9728 -4.7095 2.2992
-7.8610 -4.9033 2.2992
-8.0916 -5.3227 2.4023
-7.9652 -5.5196 2.4024
-7.8341 -5.7135 2.4025
-7.6983 -5.9043 2.4027
-7.5577 -6.0918 2.4028
-7.0749 -5.9908 2.4030
-6.9318 -6.1629 2.4031
-6.7844 -6.3317 2.4033
-6.6329 -6.4968 2.4034
-6.4773 -6.6582 2.4036
-6.3177 -6.8158 2.4037
-6.1543 -6.9696 2.4039
-5.9870 -7.1193 2.4040
-5.8160 -7.2649 2.4042
-5.6414 -7.4063 2.4043
-5.4633 -7.5434 2.4045
-5.2818 -7.6762 2.4046
-5.0970 -7.8045 2.4048
-4.9091 -7.9282 2.4049
-4.7181 -8.0473 2.4051
-4.5241 -8.1617 2.4052
-4.3273 -8.2713 2.4053
-4.1274 -8.3751 2.4052
-3.9248 -8.4738 2.4051
-3.7199 -8.5675 2.4049
-3.5126 -8.6561 2.4047
-3.3032 -8.7396 2.4045
-3.0918 -8.8179 2.4044
-2.8785 -8.8910 2.4042
-2.6634 -8.9588 2.4041
-2.4467 -9.0213 2.4039
-2.2285 -9.0784 2.4037
-2.0090 -9.1301 2.4036
-1.7882 -9.1763 2.4034
-1.5663 -9.2171 2.4033
-1.3435 -9.2524 2.4031
-1.1199 -9.2822 2.4030
-0.8957 -9.3065 2.4028
-0.6709 -9.3252 2.4027
-0.4457 -9.3384 2.4025
-0.2203 -9.3460 2.4024
0.0053 -9.3481 2.4023
0.2266 -9.1728 2.3580
0.4366 -8.9358 2.2992
0.6571 -8.9914 2.3170
0.8670 -8.9034 2.2992
1.0815 -8.8792 2.2992
1.2953 -8.8497 2.2992
1.5083 -8.8150 2.2992
1.7203 -8.7750 2.2992
1.9312 -8.7297 2.2992
2.1410 -8.6793 2.2992
2.3494 -8.6237 2.2992
2.5563 -8.5630 2.2992
2.7616 -8.4972 2.2992
2.9652 -8.4264 2.2992
3.1670 -8.3505 2.2992
3.3668 -8.2698 2.2992
3.5644 -8.1841 2.2992
3.7599 -8.0936 2.2992
3.9530 -7.9983 2.2992
4.1437 -7.8984 2.2992
4.3318 -7.7938 2.2992
4.5172 -7.6846 2.2992
4.6998 -7.5709 2.2992
4.8794 -7.4527 2.2992
5.0561 -7.3303 2.2992
5.2297 -7.2035 2.2992
5.4000 -7.0726 2.2992
5.5669 -6.9375 2.2992
5.7631 -6.8372 2.3123
5.9240 -6.6934 2.3123
6.0813 -6.5457 2.3123
6.6638 -6.8342 2.4713
6.8092 -6.6541 2.4660
6.9089 -6.4330 2.4463
6.9488 -6.1638 2.4081
6.9882 -5.9035 2.3728
7.0205 -5.6461 2.3379
7.1001 -5.4331 2.3211
6.9855 -5.0829 2.2440
6.7777 -4.6857 2.1413
6.6727 -4.3789 2.0752
6.5915 -4.1014 2.0196
6.5705 -3.8714 1.9850
6.5595 -3.6545 1.9555
6.5488 -3.4441 1.9280
6.6122 -3.2761 1.9238
6.7322 -3.1354 1.9372
6.8530 -2.9925 1.9517
6.9745 -2.8470 1.9672
7.0139 -2.6674 1.9607
7.0610 -2.4918 1.9576
7.1071 -2.3166 1.9554
7.1440 -2.1392 1.9519
7.1808 -1.9626 1.9495
7.2175 -1.7864 1.9484
7.2542 -1.6106 1.9483
7.0547 -1.3884 1.8863
6.4609 -1.1101 1.7209
6.2662 -0.9214 1.6636
6.2691 -0.7676 1.6599
6.2573 -0.6131 1.6534
6.3259 -0.4659 1.6691
6.2237 -0.3074 1.6406
6.0831 -0.1532 1.6031
5.9646 -0.0061 1.5723
5.8817 0.1362 1.5518
5.8001 0.2747 1.5325
5.7478 0.4116 1.5218
5.7081 0.5477 1.5152
5.6685 0.6825 1.5095
5.6505 0.8193 1.5105
5.6444 0.9583 1.5155
5.6246 1.0954 1.5177
5.6337 1.2392 1.5287
5.6197 1.3794 1.5344
5.6019 1.5195 1.5400
5.6001 1.6653 1.5510
5.5881 1.8099 1.5602
5.5758 1.9561 1.5704
5.5621 2.1036 1.5813
5.5642 2.2597 1.5978
5.5682 2.4198 1.6162
5.5738 2.5842 1.6364
5.6164 2.7708 1.6690
5.7185 2.9953 1.7212
6.9553 3.8602 2.1221
7.1256 4.1833 2.2054
7.2244 4.4797 2.2700
7.1107 4.6510 2.2701
7.0835 4.8818 2.2996
7.1826 5.2107 2.3731
7.2692 5.5468 2.4465
7.1794 5.7583 2.4636
7.0907 5.9747 2.4831
7.0121 6.2047 2.5085
6.9701 6.4747 2.5499
6.9307 6.7578 2.5956
5.9901 6.1302 2.2992
5.8377 6.2708 2.2992
5.6820 6.4077 2.2992
5.5233 6.5408 2.2992
5.3614 6.6701 2.2992
5.1966 6.7954 2.2992
5.0289 6.9168 2.2992
4.8585 7.0341 2.2992
4.6854 7.1473 2.2992
4.5097 7.2564 2.2992
4.3315 7.3612 2.2992
4.1509 7.4617 2.2992
3.9680 7.5579 2.2992
3.1576 6.3851 1.9191
2.9840 6.4205 1.9079
3.4068 7.8201 2.2992
3.2159 7.8985 2.2992
3.0232 7.9724 2.2992
2.8288 8.0417 2.2992
2.6329 8.1063 2.2992
2.4355 8.1663 2.2992
2.2368 8.2216 2.2992
2.0723 8.4160 2.3391
1.9182 8.6910 2.4023
1.7071 8.7340 2.4023
1.4951 8.7719 2.4023
1.2822 8.8048 2.4023
1.0687 8.8326 2.4023
0.8545 8.8554 2.4023
0.6399 8.8732 2.4023
0.4250 8.8858 2.4023
0.2098 8.8934 2.4023
-0.0055 8.8959 2.4023
-0.2208 8.8933 2.4023
-0.4360 8.8856 2.4023
-0.6510 8.8729 2.4023
-0.8656 8.8551 2.4023
-1.0797 8.8322 2.4023
-1.2933 8.8042 2.4023
-1.5062 8.7712 2.4023
-1.7182 8.7332 2.4023
-1.9293 8.6902 2.4023
-2.1394 8.6422 2.4023
-2.3483 8.5892 2.4023
-2.5559 8.5314 2.4023
-2.7621 8.4686 2.4023
-2.9668 8.4009 2.4023
-3.1699 8.3284 2.4023
-3.3713 8.2511 2.4023
-3.5709 8.1690 2.4023
-3.7684 8.0823 2.4023
-3.9640 7.9908 2.4023
-4.1573 7.8947 2.4023
-4.3484 7.7941 2.4023
-4.5371 7.6889 2.4023
-4.7233 7.5792 2.4023
-4.9069 7.4651 2.4023
-5.0878 7.3467 2.4023
-5.2659 7.2240 2.4023
-5.4411 7.0970 2.4023
-5.6133 6.9659 2.4023
-5.7824 6.8307 2.4023
-5.9483 6.6914 2.4023
-5.9525 6.3785 2.3400
-6.0010 6.1264 2.2992
-6.1501 5.9820 2.2992
-6.2958 5.8340 2.2992
-6.4379 5.6825 2.2992
-6.5764 5.5276 2.2992
-6.7113 5.3694 2.2992
-6.8425 5.2080 2.2992
-6.9698 5.0434 2.2992
-7.0932 4.8758 2.2992
-7.2126 4.7051 2.2992
-7.3280 4.5316 2.2992
-7.4393 4.3553 2.2992
-7.5463 4.1763 2.2992
-7.6491 3.9947 2.2992
-7.7476 3.8106 2.2992
-7.8417 3.6241 2.2992
-7.9314 3.4353 2.2992
-8.0166 3.2443 2.2992
-8.0972 3.0513 2.2992
-8.1732 2.8562 2.2992
-8.2445 2.6593 2.2992
-8.3111 2.4606 2.2992
-8.3730 2.2603 2.2992
-8.4301 2.0585 2.2992
-8.4823 1.8552 2.2992
-8.5297 1.6506 2.2992
-8.5721 1.4448 2.2992
-8.6096 1.2379 2.2992
-8.6422 1.0301 2.2992
-8.6697 0.8214 2.2992
-8.6922 0.6120 2.2992
-8.7097 0.4021 2.2992
-8.7221 0.1916 2.2992
-8.7294 -0.0192 2.2992
-8.7316 -0.2303 2.2992
-8.7287 -0.4414 2.2992
-8.7207 -0.6526 2.2992
-8.7076 -0.8636 2.2992
-8.6894 -1.0743 2.2992
-8.6660 -1.2847 2.2992
-8.6376 -1.4946 2.2992
-8.6040 -1.7038 2.2992
-8.5654 -1.9122 2.2992
-8.5217 -2.1198 2.2992
-8.4729 -2.3263 2.2992
-8.4191 -2.5318 2.2992
-8.3603 -2.7359 2.2992
-8.2965 -2.9387 2.2992
-8.2277 -3.1400 2.2992
-8.1540 -3.3396 2.2992
-8.0755 -3.5375 2.2992
-7.9921 -3.7335 2.2992
-7.9039 -3.9275 2.2992
-7.8109 -4.1194 2.2992
-7.7132 -4.3091 2.2992
-7.6109 -4.4964 2.2992
-7.5040 -4.6812 2.2992
-7.7240 -5.0815 2.4023
-7.6032 -5.2694 2.4024
-7.4779 -5.4544 2.4025
-7.3480 -5.6364 2.4027
-7.2137 -5.8152 2.4028
-6.7650 -5.7290 2.4030
-6.6281 -5.8935 2.4031
-6.4870 -6.0547 2.4033
-6.3420 -6.2125 2.4034
-6.1931 -6.3667 2.4036
-6.0404 -6.5173 2.4037
-5.8840 -6.6641 2.4038
-5.7240 -6.8072 2.4040
-5.5604 -6.9462 2.4041
-5.3933 -7.0813 2.4043
-5.2230 -7.2123 2.4044
-5.0494 -7.3391 2.4046
-4.8727 -7.4616 2.4047
-4.6930 -7.5798 2.4048
-4.5103 -7.6936 2.4050
-4.3248 -7.8028 2.4051
-4.1367 -7.9075 2.4053
-3.9457 -8.0071 2.4053
-3.7520 -8.1014 2.4051
-3.5561 -8.1910 2.4050
-3.3579 -8.2756 2.4048
-3.1577 -8.3554 2.4046
-2.9556 -8.4302 2.4045
-2.7517 -8.5000 2.4043
-2.5461 -8.5648 2.4042
-2.3389 -8.6244 2.4040
-2.1303 -8.6790 2.4039
-1.9204 -8.7284 2.4037
-1.7094 -8.7726 2.4036
-1.4973 -8.8116 2.4034
-1.2843 -8.8453 2.4033
-1.0706 -8.8738 2.4031
-0.8562 -8.8970 2.4030
-0.6413 -8.9149 2.4028
-0.4261 -8.9274 2.4027
-0.2106 -8.9347 2.4025
0.0050 -8.9366 2.4024
0.2206 -8.9333 2.4023
0.4307 -8.8150 2.3726
0.6241 -8.5411 2.3024
0.8288 -8.5111 2.2992
1.0338 -8.4880 2.2992
1.2381 -8.4598 2.2992
1.4417 -8.4266 2.2992
1.6444 -8.3884 2.2992
1.8460 -8.3452 2.2992
2.0465 -8.2971 2.2992
2.2458 -8.2440 2.2992
2.4436 -8.1860 2.2992
2.6399 -8.1232 2.2992
2.8345 -8.0556 2.2992
3.0274 -7.9831 2.2992
3.2184 -7.9060 2.2992
3.4074 -7.8242 2.2992
3.5943 -7.7378 2.2992
3.7789 -7.6468 2.2992
3.9613 -7.5513 2.2992
4.1411 -7.4514 2.2992
4.3184 -7.3471 2.2992
4.4930 -7.2385 2.2992
4.6649 -7.1257 2.2992
4.8339 -7.0087 2.2992
4.9998 -6.8876 2.2992
5.1628 -6.7625 2.2992
5.3225 -6.6335 2.2992
5.4789 -6.5007 2.2992
5.6320 -6.3641 2.2992
5.7817 -6.2238 2.2992
5.9615 -6.1146 2.3123
6.5171 -6.3693 2.4684
6.6591 -6.2011 2.4659
6.7914 -6.0248 2.4614
6.9182 -5.8451 2.4565
7.0158 -5.6430 2.4432
7.1078 -5.4398 2.4300
6.6419 -4.8335 2.2312
6.6809 -4.6194 2.2072
6.6034 -4.3340 2.1475
6.5249 -4.0605 2.0905
6.5038 -3.8327 2.0545
6.4925 -3.6178 2.0238
6.4826 -3.4098 1.9955
6.5417 -3.2417 1.9900
6.6600 -3.1023 2.0037
6.7790 -2.9607 2.0184
6.8986 -2.8166 2.0343
7.0191 -2.6699 2.0513
7.0707 -2.4958 2.0493
7.1079 -2.3174 2.0444
7.1448 -2.1400 2.0407
7.1816 -1.9633 2.0382
7.2183 -1.7871 2.0369
7.2550 -1.6113 2.0368
6.8316 -1.3450 1.9094
6.4273 -1.1048 1.7894
6.2655 -0.9218 1.7387
6.2788 -0.7693 1.7377
6.2695 -0.6148 1.7315
6.2580 -0.4613 1.7257
6.1366 -0.3035 1.6907
6.0169 -0.1520 1.6572
5.9033 -0.0064 1.6263
5.8241 0.1344 1.6058
5.7607 0.2724 1.5906
5.7182 0.4091 1.5821
5.6914 0.5457 1.5788
5.6520 0.6801 1.5728
5.6327 0.8163 1.5734
5.6407 0.9572 1.5825
5.6219 1.0945 1.5851
5.6353 1.2392 1.5977
5.6213 1.3794 1.6037
5.5999 1.5185 1.6084
5.5969 1.6640 1.6195
5.5848 1.8084 1.6291
5.5696 1.9535 1.6389
5.5481 2.0979 1.6479
5.5501 2.2535 1.6650
5.5518 2.4122 1.6835
5.5535 2.5743 1.7032
5.6038 2.7642 1.7395
5.6956 2.9828 1.7908
6.8371 3.7941 2.1790
7.0100 4.1148 2.2663
7.1130 4.4100 2.3346
7.2112 4.7161 2.4047
7.2818 5.0179 2.4691
7.1731 5.2032 2.4754
7.0879 5.4078 2.4915
6.9992 5.6131 2.5085
6.9123 5.8237 2.5282
6.8239 6.0374 2.5496
6.0176 5.5894 2.2992
5.8782 5.7310 2.2992
5.7356 5.8692 2.2992
5.5898 6.0039 2.2992
5.4408 6.1351 2.2992
5.2889 6.2627 2.2992
5.1340 6.3866 2.2992
4.9762 6.5067 2.2992
4.8158 6.6230 2.2992
4.6526 6.7354 2.2992
4.4869 6.8439 2.2992
4.3186 6.9484 2.2992
4.1481 7.0489 2.2992
3.9752 7.1453 2.2992
3.8001 7.2375 2.2992
3.1574 6.3843 2.0038
2.9837 6.4195 1.9920
3.2627 7.4888 2.2992
3.0799 7.5639 2.2992
2.8953 7.6348 2.2992
2.7092 7.7012 2.2992
2.5216 7.7631 2.2992
2.3487 7.8747 2.3151
2.1423 7.8737 2.2992
2.0383 8.2774 2.4023
1.8371 8.3233 2.4023
1.6350 8.3644 2.4023
1.4319 8.4008 2.4023
1.2281 8.4323 2.4023
1.0235 8.4590 2.4023
0.8184 8.4809 2.4023
0.6129 8.4979 2.4023
0.4070 8.5100 2.4023
0.2009 8.5173 2.4023
-0.0053 8.5196 2.4023
-0.2115 8.5172 2.4023
-0.4176 8.5098 2.4023
-0.6235 8.4976 2.4023
-0.8291 8.4805 2.4023
-1.0341 8.4585 2.4023
-1.2387 8.4317 2.4023
-1.4426 8.4001 2.4023
-1.6456 8.3637 2.4023
-1.8478 8.3224 2.4023
-2.0490 8.2764 2.4023
-2.2490 8.2256 2.4023
-2.4479 8.1701 2.4023
-2.6454 8.1099 2.4023
-2.8414 8.0451 2.4023
-3.0359 7.9756 2.4023
-3.2287 7.9015 2.4023
-3.4198 7.8228 2.4023
-3.6090 7.7396 2.4023
-3.7962 7.6520 2.4023
-3.9813 7.5599 2.4023
-4.1643 7.4634 2.4023
-4.3449 7.3626 2.4023
-4.5232 7.2575 2.4023
-4.6989 7.1481 2.4023
-4.8721 7.0346 2.4023
-5.0426 6.9170 2.4023
-5.2103 6.7953 2.4023
-5.3751 6.6697 2.4023
-5.5369 6.5401 2.4023
-5.6957 6.4066 2.4023
-5.8513 6.2694 2.4023
-5.9454 6.0690 2.3790
-5.9487 5.7855 2.3226
-6.0280 5.5853 2.2992
-6.1640 5.4401 2.2992
-6.2965 5.2918 2.2992
-6.4256 5.1402 2.2992
-6.5510 4.9855 2.2992
-6.6728 4.8279 2.2992
-6.7908 4.6673 2.2992
-6.9050 4.5038 2.2992
-7.0153 4.3376 2.2992
-7.1216 4.1687 2.2992
-7.2240 3.9973 2.2992
-7.3223 3.8234 2.2992
-7.4164 3.6471 2.2992
-7.5063 3.4685 2.2992
-7.5920 3.2877 2.2992
-7.6733 3.1048 2.2992
-7.7503 2.9200 2.2992
-7.8229 2.7332 2.2992
-7.8910 2.5447 2.2992
-7.9545 2.3545 2.2992
-8.0136 2.1627 2.2992
-8.0680 1.9695 2.2992
-8.1178 1.7749 2.2992
-8.1630 1.5790 2.2992
-8.2034 1.3820 2.2992
-8.2391 1.1840 2.2992
-8.2700 0.9851 2.2992
-8.2962 0.7854 2.2992
-8.3175 0.5851 2.2992
-8.3340 0.3841 2.2992
-8.3457 0.1827 2.2992
-8.3525 -0.0190 2.2992
-8.3544 -0.2209 2.2992
-8.3514 -0.4230 2.2992
-8.3436 -0.6250 2.2992
-8.3308 -0.8268 2.2992
-8.3132 -1.0284 2.2992
-8.2906 -1.2297 2.2992
-8.2632 -1.4304 2.2992
-8.2309 -1.6305 2.2992
-8.1938 -1.8299 2.2992
-8.1518 -2.0284 2.2992
-8.1049 -2.2259 2.2992
-8.0533 -2.4224 2.2992
-7.9968 -2.6176 2.2992
-7.9356 -2.8115 2.2992
-7.8697 -3.0039 2.2992
-7.7990 -3.1948 2.2992
-7.7237 -3.3840 2.2992
-7.6438 -3.5714 2.2992
-7.5592 -3.7568 2.2992
-7.4702 -3.9403 2.2992
-7.3766 -4.1216 2.2992
-7.2786 -4.3006 2.2992
-7.4215 -4.6304 2.3778
-7.3865 -4.8601 2.4023
-7.2709 -5.0397 2.4024
-7.1509 -5.2165 2.4026
-7.0265 -5.3904 2.4027
-6.8979 -5.5612 2.4028
-6.4796 -5.4879 2.4030
-6.3483 -5.6454 2.4032
-6.2131 -5.7997 2.4033
-6.0741 -5.9506 2.4034
-5.9314 -6.0982 2.4036
-5.7850 -6.2423 2.4037
-5.6351 -6.3829 2.4038
-5.4818 -6.5197 2.4040
-5.3250 -6.6528 2.4041
-5.1650 -6.7821 2.4043
-5.0018 -6.9074 2.4044
-4.8355 -7.0287 2.4045
-4.6661 -7.1459 2.4047
-4.4940 -7.2590 2.4048
-4.3190 -7.3678 2.4049
-4.1413 -7.4723 2.4051
-3.9611 -7.5725 2.4052
-3.7784 -7.6682 2.4054
-3.5929 -7.7585 2.4052
-3.4052 -7.8441 2.4051
-3.2155 -7.9251 2.4049
-3.0238 -8.0015 2.4047
-2.8302 -8.0731 2.4046
-2.6349 -8.1399 2.4044
-2.4380 -8.2019 2.4043
-2.2396 -8.2590 2.4041
-2.0399 -8.3112 2.4040
-1.8389 -8.3585 2.4038
-1.6368 -8.4008 2.4037
-1.4338 -8.4381 2.4036
-1.2298 -8.4704 2.4034
-1.0251 -8.4976 2.4033
-0.8199 -8.5198 2.4031
-0.6141 -8.5369 2.4030
-0.4080 -8.5489 2.4028
-0.2016 -8.5559 2.4027
0.0048 -8.5577 2.4025
0.2112 -8.5545 2.4024
0.4175 -8.5462 2.4023
0.6201 -8.4875 2.3894
0.8010 -8.2267 2.3209
0.9898 -8.1277 2.2992
1.1882 -8.1197 2.3045
1.3804 -8.0691 2.2992
1.5745 -8.0325 2.2992
1.7676 -7.9912 2.2992
1.9596 -7.9451 2.2992
2.1503 -7.8944 2.2992
2.3398 -7.8389 2.2992
2.5277 -7.7788 2.2992
2.7141 -7.7141 2.2992
2.8989 -7.6448 2.2992
3.0818 -7.5710 2.2992
3.2628 -7.4928 2.2992
3.4418 -7.4101 2.2992
3.6186 -7.3230 2.2992
3.7933 -7.2317 2.2992
3.9655 -7.1361 2.2992
4.1354 -7.0363 2.2992
4.3026 -6.9324 2.2992
4.4673 -6.8244 2.2992
4.6291 -6.7125 2.2992
4.7882 -6.5966 2.2992
4.9442 -6.4769 2.2992
5.0973 -6.3535 2.2992
5.2472 -6.2263 2.2992
5.3939 -6.0956 2.2992
5.5373 -5.9613 2.2992
5.6773 -5.8237 2.2992
5.8138 -5.6827 2.2992
5.9807 -5.5699 2.3123
6.5097 -5.7755 2.4632
6.6270 -5.5997 2.4568
6.7295 -5.4134 2.4467
6.8275 -5.2259 2.4368
6.5883 -4.7951 2.3105
6.6283 -4.5836 2.2861
6.5368 -4.2908 2.2192
6.4593 -4.0202 2.1604
6.4381 -3.7945 2.1230
6.4279 -3.5823 2.0916
6.4174 -3.3760 2.0620
6.4723 -3.2078 2.0552
6.5890 -3.0698 2.0692
6.7142 -2.9330 2.0867
6.8504 -2.7974 2.1085
6.9950 -2.6613 2.1338
7.0716 -2.4966 2.1392
7.1087 -2.3182 2.1340
7.1456 -2.1408 2.1301
7.1825 -1.9641 2.1275
7.2192 -1.7879 2.1261
7.2464 -1.6099 2.1232
6.7222 -1.3239 1.9607
6.3940 -1.0996 1.8577
6.2647 -0.9221 1.8142
6.2781 -0.7696 1.8131
6.2829 -0.6166 1.8107
6.1693 -0.4552 1.7752
6.0515 -0.2997 1.7397
5.9371 -0.1504 1.7062
5.8513 -0.0068 1.6820
5.7878 0.1332 1.6651
5.7252 0.2703 1.6494
5.6813 0.4060 1.6400
5.6728 0.5435 1.6417
5.6356 0.6777 1.6362
5.6148 0.8133 1.6362
5.6254 0.9542 1.6465
5.6191 1.0935 1.6528
5.6326 1.2381 1.6660
5.6230 1.3793 1.6734
5.5979 1.5176 1.6773
5.5937 1.6626 1.6884
5.5816 1.8069 1.6984
5.5522 1.9470 1.7041
5.5342 2.0922 1.7145
5.5360 2.2474 1.7323
5.5376 2.4056 1.7514
5.5438 2.5693 1.7734
5.6109 2.7672 1.8166
5.7031 2.9862 1.8702
6.7222 3.7298 2.2344
6.8876 4.0424 2.3223
7.0045 4.3421 2.3976
7.0980 4.6414 2.4684
7.1262 4.9100 2.5200
7.0109 5.0849 2.5231
6.9144 5.2748 2.5346
6.8268 5.4742 2.5514
6.0282 5.0783 2.2992
5.9011 5.2205 2.2992
5.7708 5.3596 2.2992
5.6372 5.4955 2.2992
5.5005 5.6281 2.2992
5.3608 5.7574 2.2992
5.2180 5.8833 2.2992
5.0723 6.0057 2.2992
4.9238 6.1246 2.2992
4.7726 6.2399 2.2992
4.6187 6.3515 2.2992
4.4623 6.4594 2.2992
4.3034 6.5635 2.2992
4.1421 6.6639 2.2992
3.9785 6.7603 2.2992
3.8128 6.8528 2.2992
3.6449 6.9413 2.2992
3.1573 6.3835 2.0890
2.9835 6.4184 2.0766
3.1295 7.1825 2.2992
2.9542 7.2547 2.2992
2.7772 7.3227 2.2992
2.5987 7.3864 2.2992
2.4187 7.4459 2.2992
2.2374 7.5011 2.2992
2.0847 7.6615 2.3325
1.9552 7.9393 2.4023
1.7622 7.9833 2.4023
1.5683 8.0228 2.4023
1.3735 8.0577 2.4023
1.1780 8.0880 2.4023
0.9818 8.1136 2.4023
0.7851 8.1346 2.4023
0.5879 8.1509 2.4023
0.3904 8.1626 2.4023
0.1927 8.1696 2.4023
-0.0051 8.1719 2.4023
-0.2029 8.1695 2.4023
-0.4006 8.1624 2.4023
-0.5981 8.1507 2.4023
-0.7953 8.1342 2.4023
-0.9920 8.1132 2.4023
-1.1882 8.0874 2.4023
-1.3838 8.0571 2.4023
-1.5786 8.0221 2.4023
-1.7725 7.9825 2.4023
-1.9654 7.9383 2.4023
-2.1573 7.8895 2.4023
-2.3480 7.8363 2.4023
-2.5374 7.7785 2.4023
-2.7255 7.7162 2.4023
-2.9120 7.6495 2.4023
-3.0969 7.5783 2.4023
-3.2802 7.5028 2.4023
-3.4616 7.4230 2.4023
-3.6411 7.3388 2.4023
-3.8187 7.2504 2.4023
-3.9941 7.1578 2.4023
-4.1673 7.0610 2.4023
-4.3382 6.9601 2.4023
-4.5067 6.8552 2.4023
-4.6728 6.7462 2.4023
-4.8362 6.6333 2.4023
-4.9970 6.5165 2.4023
-5.1550 6.3959 2.4023
-5.3101 6.2716 2.4023
-5.4623 6.1435 2.4023
-5.6115 6.0118 2.4023
-5.7575 5.8765 2.4023
-5.9003 5.7378 2.4023
-5.9390 5.5022 2.3622
-5.9446 5.2460 2.3123
-6.0380 5.0739 2.2992
-6.1616 4.9284 2.2992
-6.2817 4.7801 2.2992
-6.3984 4.6288 2.2992
-6.5114 4.4747 2.2992
-6.6208 4.3179 2.2992
-6.7265 4.1585 2.2992
-6.8283 3.9965 2.2992
-6.9263 3.8320 2.2992
-7.0204 3.6652 2.2992
-7.1105 3.4961 2.2992
-7.1966 3.3248 2.2992
-7.2786 3.1514 2.2992
-7.3564 2.9760 2.2992
-7.4301 2.7987 2.2992
-7.4995 2.6196 2.2992
-7.5646 2.4388 2.2992
-7.6254 2.2565 2.2992
-7.6818 2.0726 2.2992
-7.7338 1.8873 2.2992
-7.7814 1.7007 2.2992
-7.8245 1.5130 2.2992
-7.8631 1.3241 2.2992
-7.8971 1.1343 2.2992
-7.9266 0.9436 2.2992
-7.9515 0.7522 2.2992
-7.9718 0.5601 2.2992
-7.9874 0.3676 2.2992
-7.9984 0.1745 2.2992
-8.0047 -0.0188 2.2992
-8.0064 -0.2123 2.2992
-8.0034 -0.4059 2.2992
-7.9957 -0.5995 2.2992
-7.9833 -0.7929 2.2992
-7.9662 -0.9861 2.2992
-7.9444 -1.1789 2.2992
-7.9180 -1.3712 2.2992
-7.8869 -1.5629 2.2992
-7.8511 -1.7539 2.2992
-7.8107 -1.9441 2.2992
-7.7656 -2.1333 2.2992
-7.7159 -2.3215 2.2992
-7.6617 -2.5085 2.2992
-7.6029 -2.6942 2.2992
-7.5396 -2.8785 2.2992
-7.4717 -3.0613 2.2992
-7.3994 -3.2425 2.2992
-7.3227 -3.4219 2.2992
-7.2415 -3.5995 2.2992
-7.1561 -3.7752 2.2992
-7.0663 -3.9488 2.2992
-7.1099 -4.2016 2.3446
-7.1823 -4.4817 2.4023
-7.0756 -4.6562 2.4024
-6.9647 -4.8281 2.4025
-6.8496 -4.9973 2.4026
-6.7304 -5.1638 2.4028
-6.6070 -5.3273 2.4029
-6.2157 -5.2650 2.4031
-6.0896 -5.4160 2.4032
-5.9598 -5.5638 2.4033
-5.8264 -5.7086 2.4035
-5.6894 -5.8500 2.4036
-5.5489 -5.9882 2.4037
-5.4051 -6.1228 2.4039
-5.2579 -6.2540 2.4040
-5.1074 -6.3816 2.4041
-4.9539 -6.5055 2.4042
-4.7973 -6.6256 2.4044
-4.6377 -6.7418 2.4045
-4.4752 -6.8541 2.4046
-4.3100 -6.9625 2.4048
-4.1422 -7.0668 2.4049
-3.9717 -7.1669 2.4050
-3.7988 -7.2629 2.4052
-3.6236 -7.3546 2.4053
-3.4458 -7.4415 2.4053
-3.2658 -7.5236 2.4051
-3.0838 -7.6012 2.4050
-2.8999 -7.6744 2.4048
-2.7143 -7.7430 2.4047
-2.5270 -7.8071 2.4045
-2.3382 -7.8665 2.4044
-2.1479 -7.9213 2.4043
-1.9563 -7.9713 2.4041
-1.7636 -8.0166 2.4040
-1.5698 -8.0571 2.4038
-1.3750 -8.0929 2.4037
-1.1794 -8.1238 2.4035
-0.9831 -8.1499 2.4034
-0.7863 -8.1712 2.4032
-0.5889 -8.1876 2.4031
-0.3913 -8.1991 2.4029
-0.1934 -8.2058 2.4028
0.0046 -8.2076 2.4027
0.2026 -8.2045 2.4025
0.4004 -8.1966 2.4024
0.5979 -8.1837 2.4023
0.7971 -8.1871 2.4083
0.9646 -7.9216 2.3366
1.1368 -7.7690 2.2992
1.3301 -7.7758 2.3102
1.5099 -7.7036 2.2992
1.6951 -7.6640 2.2992
1.8792 -7.6199 2.2992
2.0622 -7.5712 2.2992
2.2438 -7.5181 2.2992
2.4241 -7.4605 2.2992
2.6029 -7.3985 2.2992
2.7801 -7.3321 2.2992
2.9555 -7.2614 2.2992
3.1291 -7.1864 2.2992
3.3008 -7.1072 2.2992
3.4705 -7.0238 2.2992
3.6380 -6.9362 2.2992
3.8032 -6.8446 2.2992
3.9662 -6.7490 2.2992
4.1266 -6.6494 2.2992
4.2846 -6.5459 2.2992
4.4399 -6.4386 2.2992
4.5925 -6.3276 2.2992
4.7422 -6.2129 2.2992
4.8891 -6.0945 2.2992
5.0329 -5.9727 2.2992
5.1737 -5.8474 2.2992
5.3114 -5.7187 2.2992
5.4457 -5.5867 2.2992
5.5768 -5.4515 2.2992
5.7045 -5.3132 2.2992
5.8286 -5.1719 2.2992
5.9493 -5.0276 2.2992
6.4643 -5.2007 2.4500
6.5722 -5.0310 2.4452
6.5360 -4.7576 2.3894
6.5762 -4.5482 2.3643
6.4813 -4.2550 2.2936
6.3945 -3.9805 2.2293
6.3732 -3.7569 2.1906
6.3642 -3.5473 2.1584
6.3565 -3.3445 2.1288
6.4222 -3.1835 2.1255
6.5533 -3.0537 2.1449
6.6865 -2.9214 2.1659
6.8217 -2.7863 2.1883
6.9741 -2.6539 2.2171
7.0724 -2.4975 2.2297
7.0810 -2.3097 2.2153
7.0822 -2.1223 2.2001
7.0804 -1.9367 2.1855
7.0627 -1.7497 2.1675
7.0310 -1.5626 2.1467
6.6943 -1.3189 2.0347
6.3875 -1.0989 1.9338
6.2658 -0.9227 1.8907
6.2822 -0.7706 1.8905
6.2996 -0.6187 1.8917
6.0826 -0.4493 1.8237
5.9681 -0.2961 1.7876
5.8711 -0.1492 1.7579
5.8137 -0.0072 1.7411
5.7518 0.1319 1.7240
5.6899 0.2682 1.7078
5.6448 0.4030 1.6976
5.6362 0.5396 1.6993
5.6192 0.6753 1.6995
5.5970 0.8103 1.6991
5.6074 0.9508 1.7097
5.6163 1.0925 1.7209
5.6298 1.2371 1.7345
5.6247 1.3793 1.7436
5.5992 1.5175 1.7475
5.5904 1.6612 1.7577
5.5687 1.8023 1.7649
5.5348 1.9404 1.7694
5.5202 2.0865 1.7813
5.5218 2.2412 1.7997
5.5240 2.3992 1.8196
5.5368 2.5657 1.8446
5.6180 2.7703 1.8944
5.7105 2.9897 1.9503
6.6104 3.6672 2.2883
6.7686 3.9720 2.3768
6.8985 4.2758 2.4591
6.9875 4.5686 2.5306
6.9762 4.8060 2.5690
6.8632 4.9772 2.5721
6.0230 4.5943 2.2992
5.9077 4.7367 2.2992
5.7890 4.8763 2.2992
5.6671 5.0129 2.2992
5.5420 5.1465 2.2992
5.4138 5.2771 2.2992
5.2826 5.4046 2.2992
5.1485 5.5288 2.2992
5.0114 5.6498 2.2992
4.8716 5.7675 2.2992
4.7290 5.8817 2.2992
4.5838 5.9925 2.2992
4.4361 6.0998 2.2992
4.2859 6.2035 2.2992
4.1333 6.3036 2.2992
3.9785 6.4000 2.2992
3.8214 6.4927 2.2992
3.6622 6.5816 2.2992
3.5010 6.6667 2.2992
3.1572 6.3827 2.1748
2.9832 6.4174 2.1618
3.0060 6.8986 2.2992
2.8376 6.9679 2.2992
2.6676 7.0333 2.2992
2.4962 7.0946 2.2992
2.3499 7.2336 2.3255
2.1492 7.2048 2.2992
2.0624 7.5790 2.4023
1.8781 7.6258 2.4023
1.6928 7.6681 2.4023
1.5065 7.7061 2.4023
1.3194 7.7396 2.4023
1.1316 7.7687 2.4023
0.9431 7.7934 2.4023
0.7541 7.8135 2.4023
0.5647 7.8292 2.4023
0.3750 7.8404 2.4023
0.1851 7.8471 2.4023
-0.0049 7.8493 2.4023
-0.1949 7.8470 2.4023
-0.3848 7.8402 2.4023
-0.5745 7.8289 2.4023
-0.7640 7.8132 2.4023
-0.9529 7.7929 2.4023
-1.1414 7.7682 2.4023
-1.3292 7.7390 2.4023
-1.5163 7.7053 2.4023
-1.7026 7.6672 2.4023
-1.8880 7.6248 2.4023
-2.0723 7.5779 2.4023
-2.2555 7.5267 2.4023
-2.4374 7.4711 2.4023
-2.6180 7.4112 2.4023
-2.7971 7.3471 2.4023
-2.9747 7.2787 2.4023
-3.1507 7.2061 2.4023
-3.3250 7.1293 2.4023
-3.4974 7.0485 2.4023
-3.6679 6.9635 2.4023
-3.8363 6.8744 2.4023
-4.0026 6.7814 2.4023
-4.1668 6.6844 2.4023
-4.3286 6.5836 2.4023
-4.4880 6.4789 2.4023
-4.6449 6.3704 2.4023
-4.7993 6.2581 2.4023
-4.9510 6.1422 2.4023
-5.0999 6.0227 2.4023
-5.2460 5.8996 2.4023
-5.3892 5.7730 2.4023
-5.5293 5.6431 2.4023
-5.6664 5.5097 2.4023
-5.8003 5.3731 2.4023
-5.9310 5.2333 2.4023
-5.9332 4.9853 2.3527
-5.9397 4.7504 2.3080
-6.0322 4.5896 2.2992
-6.1442 4.4443 2.2992
-6.2526 4.2963 2.2992
-6.3575 4.1456 2.2992
-6.4589 3.9925 2.2992
-6.5566 3.8368 2.2992
-6.6505 3.6789 2.2992
-6.7408 3.5186 2.2992
-6.8272 3.3562 2.2992
-6.9097 3.1917 2.2992
-6.9883 3.0251 2.2992
-7.0628 2.8567 2.2992
-7.1334 2.6864 2.2992
-7.1999 2.5144 2.2992
-7.2623 2.3408 2.2992
-7.3205 2.1657 2.2992
-7.3746 1.9891 2.2992
-7.4243 1.8112 2.2992
-7.4699 1.6321 2.2992
-7.5111 1.4518 2.2992
-7.5480 1.2705 2.2992
-7.5805 1.0883 2.2992
-7.6086 0.9052 2.2992
-7.6324 0.7215 2.2992
-7.6517 0.5371 2.2992
-7.6665 0.3522 2.2992
-7.6769 0.1670 2.2992
-7.6828 -0.0186 2.2992
-7.6843 -0.2043 2.2992
-7.6812 -0.3901 2.2992
-7.6737 -0.5759 2.2992
-7.6616 -0.7615 2.2992
-7.6451 -0.9469 2.2992
-7.6240 -1.1319 2.2992
-7.5985 -1.3164 2.2992
-7.5685 -1.5004 2.2992
-7.5340 -1.6837 2.2992
-7.4950 -1.8661 2.2992
-7.4517 -2.0476 2.2992
-7.4038 -2.2281 2.2992
-7.3517 -2.4075 2.2992
-7.2951 -2.5857 2.2992
-7.2342 -2.7625 2.2992
-7.1689 -2.9378 2.2992
-7.0994 -3.1116 2.2992
-7.0257 -3.2837 2.2992
-6.9477 -3.4540 2.2992
-6.8656 -3.6225 2.2992
-6.8226 -3.8132 2.3139
-6.9889 -4.1306 2.4023
-6.8905 -4.3002 2.4023
-6.7881 -4.4676 2.4024
-6.6816 -4.6324 2.4026
-6.5710 -4.7947 2.4027
-6.4565 -4.9543 2.4028
-6.3380 -5.1111 2.4029
-5.9709 -5.0582 2.4031
-5.8497 -5.2032 2.4032
-5.7249 -5.3451 2.4034
-5.5967 -5.4841 2.4035
-5.4650 -5.6199 2.4036
-5.3300 -5.7524 2.4037
-5.1917 -5.8817 2.4039
-5.0502 -6.0076 2.4040
-4.9057 -6.1300 2.4041
-4.7581 -6.2489 2.4042
-4.6076 -6.3642 2.4044
-4.4543 -6.4758 2.4045
-4.2982 -6.5836 2.4046
-4.1395 -6.6876 2.4047
-3.9782 -6.7876 2.4049
-3.8145 -6.8837 2.4050
-3.6484 -6.9758 2.4051
-3.4800 -7.0638 2.4052
-3.3095 -7.1475 2.4053
-3.1366 -7.2263 2.4052
-2.9618 -7.3009 2.4051
-2.7851 -7.3711 2.4049
-2.6068 -7.4370 2.4048
-2.4269 -7.4984 2.4046
-2.2455 -7.5555 2.4045
-2.0628 -7.6080 2.4043
-1.8788 -7.6560 2.4042
-1.6937 -7.6995 2.4040
-1.5076 -7.7384 2.4039
-1.3205 -7.7728 2.4037
-1.1327 -7.8025 2.4036
-0.9442 -7.8275 2.4035
-0.7551 -7.8480 2.4033
-0.5656 -7.8637 2.4032
-0.3758 -7.8748 2.4031
-0.1857 -7.8812 2.4029
0.0044 -7.8830 2.4028
0.1945 -7.8800 2.4027
0.3845 -7.8724 2.4025
0.5742 -7.8601 2.4024
0.7635 -7.8432 2.4023
0.9524 -7.8219 2.4023
1.1080 -7.5723 2.3333
1.2713 -7.4323 2.2992
1.4608 -7.4539 2.3163
1.6278 -7.3607 2.2992
1.8047 -7.3183 2.2992
1.9804 -7.2717 2.2992
2.1549 -7.2207 2.2992
2.3280 -7.1654 2.2992
2.4997 -7.1059 2.2992
2.6699 -7.0422 2.2992
2.8384 -6.9744 2.2992
3.0052 -6.9024 2.2992
3.1701 -6.8263 2.2992
3.3331 -6.7463 2.2992
3.4940 -6.6623 2.2992
3.6528 -6.5743 2.2992
3.8093 -6.4826 2.2992
3.9634 -6.3870 2.2992
4.1152 -6.2877 2.2992
4.2644 -6.1847 2.2992
4.4110 -6.0781 2.2992
4.5549 -5.9680 2.2992
4.6960 -5.8544 2.2992
4.8343 -5.7375 2.2992
4.9695 -5.6172 2.2992
5.1018 -5.4936 2.2992
5.2310 -5.3669 2.2992
5.3569 -5.2372 2.2992
5.4796 -5.1044 2.2992
5.5990 -4.9687 2.2992
5.7150 -4.8302 2.2992
5.8275 -4.6889 2.2992
5.9365 -4.5450 2.2992
6.4051 -4.6629 2.4374
6.4840 -4.4850 2.4266
6.4264 -4.2195 2.3672
6.3351 -3.9440 2.2989
6.3199 -3.7260 2.2611
6.3257 -3.5264 2.2331
6.3310 -3.3317 2.2069
6.3960 -3.1711 2.2033
6.5264 -3.0417 2.2233
6.6587 -2.9098 2.2448
6.7948 -2.7758 2.2686
6.8659 -2.6132 2.2717
6.8700 -2.4265 2.2541
6.8757 -2.2433 2.2386
6.8783 -2.0618 2.2238
6.8780 -1.8819 2.2094
6.8555 -1.6989 2.1895
6.8334 -1.5192 2.1712
6.6664 -1.3139 2.1085
6.4125 -1.1037 2.0202
6.2875 -0.9264 1.9742
6.3073 -0.7742 1.9750
6.3242 -0.6215 1.9760
6.0025 -0.4438 1.8726
5.9071 -0.2935 1.8410
5.8140 -0.1481 1.8113
5.7588 -0.0075 1.7945
5.7160 0.1307 1.7825
5.6548 0.2661 1.7658
5.6085 0.4000 1.7548
5.5999 0.5357 1.7566
5.5909 0.6715 1.7592
5.5791 0.8073 1.7620
5.5920 0.9477 1.7737
5.6152 1.0919 1.7898
5.6286 1.2364 1.8040
5.6267 1.3794 1.8145
5.6009 1.5175 1.8184
5.5846 1.6590 1.8265
5.5512 1.7962 1.8301
5.5174 1.9339 1.8347
5.5062 2.0808 1.8481
5.5077 2.2350 1.8671
5.5171 2.3958 1.8903
5.5375 2.5656 1.9189
5.6252 2.7733 1.9729
5.7274 2.9981 2.0345
6.5015 3.6062 2.3408
6.6530 3.9036 2.4297
6.7950 4.2111 2.5192
6.1043 3.9906 2.2992
6.0034 4.1353 2.2992
5.8992 4.2775 2.2992
5.7916 4.4172 2.2992
5.6808 4.5542 2.2992
5.5667 4.6885 2.2992
5.4496 4.8199 2.2992
5.3294 4.9485 2.2992
5.2062 5.0742 2.2992
5.0800 5.1968 2.2992
4.9511 5.3163 2.2992
4.8194 5.4328 2.2992
4.6849 5.5460 2.2992
4.5479 5.6559 2.2992
4.4083 5.7625 2.2992
4.2663 5.8658 2.2992
4.1219 5.9656 2.2992
3.9752 6.0619 2.2992
3.8263 6.1547 2.2992
3.6752 6.2439 2.2992
3.5222 6.3294 2.2992
3.3671 6.4113 2.2992
3.1570 6.3820 2.2611
2.9829 6.4163 2.2475
2.8912 6.6345 2.2992
2.7292 6.7013 2.2992
2.5657 6.7641 2.2992
2.4008 6.8231 2.2992
2.2346 6.8782 2.2992
2.0943 7.0202 2.3294
1.9837 7.2892 2.4023
1.8064 7.3342 2.4023
1.6282 7.3750 2.4023
1.4490 7.4115 2.4023
1.2691 7.4438 2.4023
1.0884 7.4718 2.4023
0.9071 7.4955 2.4023
0.7254 7.5149 2.4023
0.5432 7.5300 2.4023
0.3607 7.5408 2.4023
0.1780 7.5472 2.4023
-0.0047 7.5494 2.4023
-0.1875 7.5471 2.4023
-0.3702 7.5406 2.4023
-0.5526 7.5297 2.4023
-0.7348 7.5145 2.4023
-0.9166 7.4950 2.4023
-1.0978 7.4712 2.4023
-1.2785 7.4431 2.4023
-1.4585 7.4107 2.4023
-1.6376 7.3740 2.4023
-1.8159 7.3332 2.4023
-1.9932 7.2881 2.4023
-2.1693 7.2387 2.4023
-2.3443 7.1853 2.4023
-2.5180 7.1276 2.4023
-2.6903 7.0659 2.4023
-2.8611 7.0001 2.4023
-3.0303 6.9302 2.4023
-3.1979 6.8563 2.4023
-3.3637 6.7785 2.4023
-3.5276 6.6967 2.4023
-3.6896 6.6110 2.4023
-3.8495 6.5214 2.4023
-4.0074 6.4281 2.4023
-4.1629 6.3310 2.4023
-4.3162 6.2303 2.4023
-4.4671 6.1258 2.4023
-4.6155 6.0178 2.4023
-4.7613 5.9063 2.4023
-4.9044 5.7913 2.4023
-5.0449 5.6728 2.4023
-5.1825 5.5511 2.4023
-5.3172 5.4260 2.4023
-5.4489 5.2977 2.4023
-5.5776 5.1663 2.4023
-5.7032 5.0318 2.4023
-5.8256 4.8943 2.4023
-5.9288 4.7412 2.3959
-5.9277 4.5095 2.3497
-5.9339 4.2917 2.3093
-6.0120 4.1304 2.2992
-6.1128 3.9855 2.2992
-6.2102 3.8382 2.2992
-6.3040 3.6885 2.2992
-6.3943 3.5366 2.2992
-6.4809 3.3824 2.2992
-6.5638 3.2262 2.2992
-6.6430 3.0680 2.2992
-6.7185 2.9078 2.2992
-6.7901 2.7458 2.2992
-6.8578 2.5821 2.2992
-6.9216 2.4167 2.2992
-6.9815 2.2498 2.2992
-7.0373 2.0814 2.2992
-7.0891 1.9116 2.2992
-7.1369 1.7405 2.2992
-7.1805 1.5683 2.2992
-7.2200 1.3950 2.2992
-7.2553 1.2207 2.2992
-7.2864 1.0455 2.2992
-7.3133 0.8695 2.2992
-7.3360 0.6929 2.2992
-7.3544 0.5157 2.2992
-7.3685 0.3380 2.2992
-7.3784 0.1599 2.2992
-7.3839 -0.0184 2.2992
-7.3852 -0.1969 2.2992
-7.3821 -0.3755 2.2992
-7.3747 -0.5540 2.2992
-7.3630 -0.7324 2.2992
-7.3469 -0.9105 2.2992
-7.3266 -1.0883 2.2992
-7.3019 -1.2656 2.2992
-7.2729 -1.4424 2.2992
-7.2396 -1.6184 2.2992
-7.2021 -1.7937 2.2992
-7.1602 -1.9681 2.2992
-7.1142 -2.1415 2.2992
-7.0639 -2.3138 2.2992
-7.0094 -2.4850 2.2992
-6.9507 -2.6548 2.2992
-6.8879 -2.8232 2.2992
-6.8210 -2.9901 2.2992
-6.7501 -3.1554 2.2992
-6.6750 -3.3190 2.2992
-6.6360 -3.5019 2.3131
-6.7922 -3.7968 2.3977
-6.7143 -3.9689 2.4023
-6.6198 -4.1319 2.4024
-6.5213 -4.2926 2.4025
-6.4189 -4.4509 2.4026
-6.3126 -4.6067 2.4028
-6.2024 -4.7599 2.4029
-6.0885 -4.9104 2.4030
-5.7432 -4.8658 2.4032
-5.6265 -5.0052 2.4033
-5.5064 -5.1416 2.4034
-5.3830 -5.2752 2.4035
-5.2562 -5.4057 2.4036
-5.1263 -5.5332 2.4038
-4.9932 -5.6574 2.4039
-4.8571 -5.7784 2.4040
-4.7180 -5.8961 2.4041
-4.5760 -6.0104 2.4042
-4.4312 -6.1211 2.4044
-4.2837 -6.2284 2.4045
-4.1336 -6.3320 2.4046
-3.9809 -6.4319 2.4047
-3.8258 -6.5280 2.4049
-3.6683 -6.6204 2.4050
-3.5085 -6.7089 2.4051
-3.3466 -6.7934 2.4052
-3.1826 -6.8740 2.4053
-3.0163 -6.9498 2.4052
-2.8482 -7.0215 2.4051
-2.6783 -7.0890 2.4049
-2.5068 -7.1523 2.4048
-2.3338 -7.2114 2.4047
-2.1594 -7.2662 2.4045
-1.9837 -7.3167 2.4044
-1.8067 -7.3628 2.4042
-1.6287 -7.4047 2.4041
-1.4497 -7.4421 2.4040
-1.2699 -7.4751 2.4038
-1.0892 -7.5036 2.4037
-0.9080 -7.5278 2.4036
-0.7261 -7.5474 2.4034
-0.5439 -7.5626 2.4033
-0.3614 -7.5732 2.4032
-0.1786 -7.5794 2.4030
0.0042 -7.5811 2.4029
0.1871 -7.5783 2.4028
0.3697 -7.5710 2.4027
0.5522 -7.5592 2.4025
0.7342 -7.5428 2.4024
0.9158 -7.5221 2.4023
1.0969 -7.4972 2.4023
1.2399 -7.2493 2.3319
1.3943 -7.1151 2.2992
1.5818 -7.1530 2.3233
1.7354 -7.0379 2.2992
1.9044 -6.9931 2.2992
2.0722 -6.9441 2.2992
2.2387 -6.8910 2.2992
2.4038 -6.8338 2.2992
2.5675 -6.7726 2.2992
2.7296 -6.7074 2.2992
2.8900 -6.6382 2.2992
3.0486 -6.5652 2.2992
3.2053 -6.4882 2.2992
3.3601 -6.4075 2.2992
3.5128 -6.3230 2.2992
3.6634 -6.2348 2.2992
3.8117 -6.1429 2.2992
3.9576 -6.0475 2.2992
4.1012 -5.9485 2.2992
4.2422 -5.8461 2.2992
4.3807 -5.7402 2.2992
4.5164 -5.6311 2.2992
4.6494 -5.5186 2.2992
4.7796 -5.4030 2.2992
4.9069 -5.2843 2.2992
5.0312 -5.1625 2.2992
5.1524 -5.0377 2.2992
5.2705 -4.9101 2.2992
5.3854 -4.7797 2.2992
5.4970 -4.6465 2.2992
5.6053 -4.5107 2.2992
5.7102 -4.3723 2.2992
5.8117 -4.2315 2.2992
5.9096 -4.0882 2.2992
6.0040 -3.9427 2.2992
6.3154 -3.9323 2.3824
6.2938 -3.7112 2.3408
6.3000 -3.5126 2.3119
6.3110 -3.3217 2.2869
6.3699 -3.1587 2.2809
6.4995 -3.0297 2.3015
6.6310 -2.8982 2.3237
6.6505 -2.7174 2.3080
6.6637 -2.5368 2.2917
6.6737 -2.3577 2.2760
6.6807 -2.1802 2.2608
6.6846 -2.0042 2.2462
6.6823 -1.8288 2.2310
6.6700 -1.6534 2.2140
6.6681 -1.4830 2.2020
6.6385 -1.3090 2.1822
6.4211 -1.1057 2.1024
6.3086 -0.9300 2.0586
6.3305 -0.7775 2.0600
6.1328 -0.6032 1.9914
5.9423 -0.4398 1.9265
5.8488 -0.2910 1.8943
5.7576 -0.1471 1.8640
5.7046 -0.0079 1.8472
5.6694 0.1292 1.8372
5.6200 0.2641 1.8236
5.5723 0.3970 1.8116
5.5639 0.5318 1.8134
5.5548 0.6668 1.8161
5.5666 0.8051 1.8267
5.5814 0.9455 1.8395
5.6143 1.0913 1.8593
5.6277 1.2358 1.8741
5.6291 1.3796 1.8860
5.6030 1.5177 1.8899
5.5670 1.6534 1.8916
5.5337 1.7902 1.8953
5.4999 1.9273 1.9001
5.4921 2.0750 1.9151
5.4978 2.2305 1.9362
5.5101 2.3923 1.9612
5.5445 2.5683 1.9959
5.6325 2.7765 2.0521
5.7460 3.0073 2.1203
6.2751 3.4801 2.3469
6.0606 3.5555 2.2992
5.9703 3.6995 2.2992
5.8766 3.8412 2.2992
5.7796 3.9806 2.2992
5.6793 4.1176 2.2992
5.5758 4.2521 2.2992
5.4692 4.3841 2.2992
5.3595 4.5134 2.2992
5.2468 4.6400 2.2992
5.1311 4.7639 2.2992
5.0125 4.8849 2.2992
4.8912 5.0031 2.2992
4.7671 5.1182 2.2992
4.6403 5.2304 2.2992
4.5109 5.3394 2.2992
4.3790 5.4454 2.2992
4.2447 5.5481 2.2992
4.1079 5.6475 2.2992
3.9689 5.7437 2.2992
3.8277 5.8365 2.2992
3.6844 5.9259 2.2992
3.5390 6.0118 2.2992
3.3916 6.0943 2.2992
3.2423 6.1732 2.2992
3.0913 6.2485 2.2992
2.9385 6.3202 2.2992
2.7841 6.3882 2.2992
2.6281 6.4526 2.2992
2.4707 6.5131 2.2992
2.3120 6.5700 2.2992
2.1519 6.6230 2.2992
2.0751 6.9552 2.3967
1.9103 7.0188 2.4023
1.7396 7.0622 2.4023
1.5679 7.1015 2.4023
1.3954 7.1367 2.4023
1.2221 7.1678 2.4023
1.0481 7.1948 2.4023
0.8736 7.2177 2.4023
0.6985 7.2364 2.4023
0.5231 7.2509 2.4023
0.3474 7.2613 2.4023
0.1714 7.2675 2.4023
-0.0046 7.2696 2.4023
-0.1806 7.2674 2.4023
-0.3565 7.2611 2.4023
-0.5322 7.2506 2.4023
-0.7076 7.2360 2.4023
-0.8827 7.2172 2.4023
-1.0572 7.1942 2.4023
-1.2312 7.1671 2.4023
-1.4045 7.1359 2.4023
-1.5771 7.1006 2.4023
-1.7487 7.0612 2.4023
-1.9194 7.0177 2.4023
-2.0890 6.9702 2.4023
-2.2575 6.9187 2.4023
-2.4248 6.8631 2.4023
-2.5907 6.8036 2.4023
-2.7551 6.7402 2.4023
