ply
format ascii 1.0
element vertex 2104
property float32 x
property float32 y
property float32 z
end_header
7.4882 -7.6854 1.4687
7.6514 -7.4823 1.4676
7.8224 -7.2881 1.4690
7.9791 -7.0818 1.4687
8.1352 -6.8762 1.4692
9.6341 -7.7518 1.7088
8.6451 -6.6183 1.5074
8.8043 -6.4087 1.5106
8.9636 -6.1989 1.5146
9.1233 -5.9886 1.5195
9.2836 -5.7776 1.5253
9.4445 -5.5657 1.5320
9.6064 -5.3525 1.5396
9.7695 -5.1379 1.5481
9.9338 -4.9215 1.5576
10.0997 -4.7031 1.5681
10.2673 -4.4824 1.5795
10.4369 -4.2591 1.5921
10.6088 -4.0328 1.6056
10.7831 -3.8033 1.6203
10.9601 -3.5702 1.6362
11.1402 -3.3331 1.6532
11.3236 -3.0917 1.6715
11.5105 -2.8455 1.6911
11.7015 -2.5942 1.7121
11.8967 -2.3371 1.7345
12.0966 -2.0739 1.7584
12.3016 -1.8040 1.7839
3.8004 -0.4637 0.5501
12.7288 -1.2415 1.8402
12.9520 -0.9477 1.8712
13.1511 -0.6429 1.8997
13.3886 -0.3302 1.9348
13.6346 -0.0063 1.9722
13.9227 0.3304 2.0169
14.1886 0.6804 2.0597
15.0610 1.0880 2.1921
14.8491 1.4346 2.1681
14.6754 1.7771 2.1507
14.6969 2.1416 2.1631
14.6954 2.5059 2.1734
14.6342 2.8614 2.1761
14.5825 3.2195 2.1814
14.5468 3.5828 2.1904
12.3774 3.3681 1.8770
12.6749 3.7808 1.9370
12.0562 3.9163 1.8579
12.0828 4.2508 1.8787
15.7516 5.9736 2.4726
15.5921 6.3489 2.4726
12.3322 5.3729 1.9769
10.8383 5.0376 1.7575
10.4297 5.1582 1.7119
10.1547 5.3318 1.6883
9.8982 5.5067 1.6680
9.6788 5.6956 1.6545
9.4210 5.8554 1.6348
9.1849 6.0216 1.6191
8.9418 6.1767 1.6026
8.7400 6.3551 1.5939
8.5488 6.5381 1.5878
8.4119 6.7622 1.5925
8.3025 7.0118 1.6036
8.3637 7.4176 1.6498
8.7105 8.1101 1.7564
11.9827 11.7108 2.4726
7.5645 7.7596 1.5991
7.7173 8.3094 1.6732
7.6519 8.6497 1.7037
7.3077 8.6749 1.6730
6.9752 8.6990 1.6442
10.0170 13.1315 2.4347
8.1117 11.1850 2.0361
6.6581 9.6644 1.7289
6.2749 9.5974 1.6885
5.9748 9.6399 1.6693
5.6944 9.7043 1.6552
5.5585 10.0206 1.6848
5.3776 10.2731 1.7039
5.2123 10.5723 1.7310
5.0079 10.8096 1.7484
4.7908 11.0333 1.7640
4.5742 11.2737 1.7829
4.3615 11.5436 1.8069
4.1353 11.8009 1.8295
3.9118 12.0930 1.8579
3.6435 12.2698 1.8693
3.3243 12.2757 1.8556
3.0102 12.2871 1.8439
2.7020 12.3104 1.8352
2.4195 12.4550 1.8455
2.1326 12.5993 1.8567
1.8900 13.0823 1.9184
1.6218 13.5316 1.9756
1.3255 13.8978 2.0214
1.0132 14.2673 2.0684
0.6607 14.1359 2.0438
0.3147 13.9756 2.0163
-0.0233 13.9263 2.0060
-0.3647 14.0970 2.0285
-0.6959 13.8919 1.9980
-1.0330 13.8883 1.9976
-1.3758 13.9325 2.0052
-1.7468 14.1747 2.0425
-2.1671 14.6560 2.1156
-2.5667 14.8643 2.1507
-2.9710 15.0289 2.1808
-3.5169 15.7750 2.2971
-3.9079 15.7276 2.2995
-4.2941 15.6543 2.2995
-4.6792 15.5720 2.2995
-5.0629 15.4806 2.2995
-5.4450 15.3801 2.2995
-5.8254 15.2705 2.2995
-6.2038 15.1518 2.2995
-6.5800 15.0241 2.2995
-6.9537 14.8874 2.2995
-7.3248 14.7417 2.2995
-7.6931 14.5870 2.2995
-8.4189 15.0688 2.4024
-8.7977 14.8898 2.4026
-9.1722 14.7003 2.4026
-9.5428 14.5016 2.4026
-9.9092 14.2938 2.4026
-10.2713 14.0770 2.4026
-10.6288 13.8512 2.4026
-10.9815 13.6164 2.4026
-11.3292 13.3729 2.4026
-11.6716 13.1206 2.4026
-12.0085 12.8597 2.4026
-12.3397 12.5902 2.4026
-12.6649 12.3123 2.4026
-12.9839 12.0261 2.4026
-13.2965 11.7318 2.4026
-13.6025 11.4293 2.4026
-13.9016 11.1190 2.4026
-14.1937 10.8009 2.4026
-14.4784 10.4751 2.4026
-14.7557 10.1419 2.4026
-14.3805 9.3808 2.2995
-14.6309 9.0480 2.2995
-14.8735 8.7086 2.2995
-15.1081 8.3627 2.2995
-15.3345 8.0104 2.2995
-15.5526 7.6520 2.2995
-15.7621 7.2877 2.2995
-15.9628 6.9177 2.2995
-16.1547 6.5422 2.2995
-16.3375 6.1613 2.2995
-16.6768 5.8333 2.3226
-16.8426 5.4385 2.3226
-16.9987 5.0391 2.3226
-17.1450 4.6352 2.3226
-17.2813 4.2271 2.3226
-17.4076 3.8151 2.3226
-17.5236 3.3993 2.3226
-17.6292 2.9801 2.3226
-17.7244 2.5577 2.3226
-17.8089 2.1324 2.3226
-17.8828 1.7045 2.3226
-17.9458 1.2743 2.3226
-14.8867 0.6965 1.9211
-14.5489 0.3290 1.8732
-14.8026 -0.0227 1.9027
-18.0883 -0.4645 2.3226
-18.0961 -0.9022 2.3226
-18.0927 -1.3404 2.3226
-18.0780 -1.7790 2.3226
-18.0520 -2.2175 2.3226
-18.0146 -2.6557 2.3226
-17.9660 -3.0933 2.3226
-14.1219 -2.7839 1.8318
-17.8347 -3.9653 2.3226
-17.7520 -4.3990 2.3226
-17.6581 -4.8309 2.3226
-17.5528 -5.2606 2.3226
-17.4364 -5.6878 2.3226
-17.3088 -6.1121 2.3226
-17.1701 -6.5333 2.3226
-17.0204 -6.9510 2.3226
-16.8597 -7.3650 2.3226
-16.6882 -7.7748 2.3226
-16.5059 -8.1803 2.3226
-16.3130 -8.5811 2.3226
-16.1095 -8.9769 2.3226
-15.7377 -9.2744 2.2995
-15.5160 -9.6555 2.2995
-15.2841 -10.0308 2.2995
-15.0425 -10.4001 2.2995
-14.7912 -10.7630 2.2995
-14.5294 -11.1184 2.2993
-14.2594 -11.4678 2.2993
-12.8300 -10.8384 2.2995
-12.5656 -11.1455 2.2995
-12.6439 -11.7721 2.3651
-12.5518 -12.2649 2.4026
-12.2513 -12.5632 2.4026
-11.9431 -12.8535 2.4026
-11.6276 -13.1358 2.4026
-11.3048 -13.4096 2.4026
-10.9752 -13.6749 2.4026
-10.6388 -13.9314 2.4026
-10.2959 -14.1790 2.4026
-9.9469 -14.4176 2.4026
-9.5918 -14.6469 2.4026
-9.2311 -14.8667 2.4026
-8.8650 -15.0771 2.4026
-8.4937 -15.2778 2.4026
-8.1176 -15.4686 2.4026
-7.7368 -15.6496 2.4026
-7.3518 -15.8205 2.4026
-6.9626 -15.9813 2.4026
-6.5698 -16.1318 2.4026
-6.1734 -16.2721 2.4026
-5.5486 -15.7617 2.3088
-5.1411 -15.8125 2.2995
-4.7535 -15.9167 2.2995
-4.3636 -16.0109 2.2995
-3.9719 -16.0949 2.2995
-3.5785 -16.1688 2.2995
-3.1837 -16.2325 2.2995
-2.7879 -16.2860 2.2995
-2.3912 -16.3292 2.2995
-1.9940 -16.3624 2.2995
-1.5952 -16.3717 2.2976
-1.1981 -16.3845 2.2976
-0.8012 -16.3871 2.2976
-0.4049 -16.3797 2.2976
-0.0094 -16.3622 2.2976
0.3850 -16.3348 2.2976
0.7781 -16.2975 2.2976
1.1695 -16.2503 2.2976
1.5592 -16.1933 2.2976
1.9467 -16.1266 2.2976
2.3319 -16.0503 2.2976
2.4434 -14.3703 2.0682
2.7287 -13.9947 2.0262
3.0020 -13.6349 1.9872
3.2643 -13.2896 1.9510
3.5165 -12.9575 1.9172
3.7595 -12.6375 1.8859
3.9941 -12.3286 1.8568
4.2209 -12.0299 1.8297
4.4407 -11.7406 1.8046
4.6538 -11.4599 1.7812
4.8610 -11.1872 1.7596
5.0626 -10.9217 1.7396
5.2592 -10.6629 1.7212
5.4510 -10.4103 1.7042
5.6386 -10.1634 1.6885
5.8222 -9.9216 1.6742
6.0022 -9.6846 1.6612
6.1790 -9.4519 1.6494
6.3527 -9.2232 1.6387
6.5236 -8.9981 1.6292
6.6921 -8.7763 1.6207
6.8419 -8.5368 1.6095
7.0056 -8.3209 1.6031
7.1677 -8.1074 1.5978
7.3283 -7.8960 1.5934
7.4874 -7.6864 1.5900
7.6499 -7.4826 1.5885
7.8216 -7.2892 1.5899
7.9783 -7.0828 1.5894
8.1345 -6.8772 1.5897
9.5919 -7.7197 1.8408
8.6443 -6.6193 1.6306
8.8035 -6.4097 1.6338
8.9628 -6.1999 1.6379
9.1226 -5.9896 1.6429
9.2828 -5.7786 1.6490
9.4438 -5.5667 1.6560
9.6057 -5.3535 1.6640
9.7687 -5.1389 1.6730
9.9330 -4.9225 1.6830
10.0989 -4.7041 1.6941
10.2665 -4.4834 1.7063
10.4362 -4.2601 1.7196
10.6080 -4.0338 1.7341
10.7823 -3.8043 1.7497
10.9594 -3.5712 1.7666
11.1394 -3.3342 1.7848
11.3228 -3.0928 1.8043
11.5097 -2.8466 1.8253
11.7007 -2.5952 1.8477
11.8959 -2.3382 1.8717
12.0958 -2.0750 1.8973
12.3008 -1.8050 1.9247
3.8001 -0.4640 0.5934
12.7280 -1.2426 1.9850
12.9512 -0.9488 2.0182
13.1502 -0.6440 2.0487
13.3878 -0.3313 2.0864
13.6337 -0.0075 2.1266
13.9219 0.3293 2.1746
14.1877 0.6793 2.2205
14.6430 1.0567 2.2976
14.5978 1.4092 2.2976
14.5447 1.7602 2.2976
14.4836 2.1095 2.2976
14.4147 2.4570 2.2976
14.6424 2.8621 2.3464
14.5614 3.2139 2.3473
14.5132 3.5737 2.3547
12.2738 3.3392 2.0055
14.3622 4.2832 2.3648
11.9288 3.8742 1.9804
11.9537 4.2048 2.0023
14.6222 5.5446 2.4726
14.4749 5.8932 2.4726
11.2549 4.9030 1.9434
10.6984 4.9720 1.8685
10.3347 5.1107 1.8270
10.0819 5.2931 1.8053
9.8714 5.4914 1.7916
9.6755 5.6933 1.7812
9.4202 5.8545 1.7604
9.1735 6.0138 1.7415
8.9210 6.1621 1.7218
8.7155 6.3371 1.7117
8.5131 6.5107 1.7027
8.3892 6.7439 1.7103
8.2743 6.9879 1.7210
8.3680 7.4213 1.7774
8.6500 8.0538 1.8783
11.1275 10.8750 2.4726
10.8617 11.1419 2.4726
7.9789 8.5913 1.8630
7.6238 8.6181 1.8279
7.2813 8.6438 1.7951
7.4738 9.3211 1.8972
9.3946 12.3161 2.4592
7.1298 9.8316 1.9275
6.7132 9.7450 1.8775
6.3226 9.6710 1.8325
6.0090 9.6957 1.8083
5.7298 9.7655 1.7940
5.5382 9.9850 1.8083
5.3658 10.2514 1.8315
5.1897 10.5275 1.8567
4.9869 10.7656 1.8757
4.7671 10.9804 1.8912
4.5506 11.2170 1.9111
4.3244 11.4472 1.9305
4.1014 11.7063 1.9554
3.8794 11.9955 1.9858
3.6137 12.1723 1.9983
3.2944 12.1688 1.9823
2.9844 12.1851 1.9708
2.6821 12.2240 1.9642
2.3966 12.3420 1.9713
2.1120 12.4834 1.9831
1.8344 12.7042 2.0084
1.6228 13.5487 2.1327
1.3248 13.9014 2.1801
0.9902 13.9601 2.1824
0.6518 13.9713 2.1785
0.3131 13.9585 2.1720
-0.0246 13.9583 2.1687
-0.3627 13.9706 2.1686
-0.6915 13.7781 2.1379
-1.0247 13.7592 2.1354
-1.3675 13.8341 2.1486
-1.7348 14.0661 2.1874
-2.1632 14.6191 2.2777
-2.5439 14.7233 2.2995
-2.9034 14.6789 2.2995
-3.2624 14.6262 2.2995
-3.6206 14.5650 2.2995
-3.9779 14.4954 2.2995
-4.3339 14.4174 2.2995
-4.6887 14.3310 2.2995
-5.0418 14.2361 2.2995
-5.3933 14.1329 2.2995
-5.7428 14.0213 2.2995
-6.0901 13.9013 2.2995
-6.4351 13.7730 2.2995
-6.9367 13.9565 2.3535
-7.4364 14.0962 2.4026
-7.7883 13.9362 2.4026
-8.1369 13.7676 2.4026
-8.4820 13.5905 2.4026
-8.8234 13.4049 2.4026
-9.1609 13.2110 2.4026
-9.4943 13.0087 2.4026
-9.8233 12.7982 2.4026
-10.1477 12.5795 2.4026
-10.4675 12.3526 2.4026
-10.7822 12.1178 2.4026
-11.0918 11.8751 2.4026
-11.3960 11.6245 2.4026
-11.6946 11.3663 2.4026
-11.9874 11.1004 2.4026
-12.2741 10.8271 2.4026
-12.5547 10.5464 2.4026
-12.8289 10.2584 2.4026
-13.0965 9.9634 2.4026
-13.3572 9.6615 2.4026
-13.6109 9.3527 2.4026
-13.2759 8.6580 2.3018
-13.4918 8.3414 2.2995
-13.7135 8.0272 2.2995
-13.9278 7.7072 2.2995
-14.1344 7.3815 2.2995
-14.3333 7.0502 2.2995
-14.5243 6.7135 2.2995
-14.7072 6.3716 2.2995
-14.8819 6.0248 2.2995
-15.0481 5.6732 2.2995
-15.2058 5.3169 2.2995
-15.5090 5.0061 2.3226
-15.6506 4.6377 2.3226
-15.7832 4.2653 2.3226
-15.9066 3.8891 2.3226
-16.0207 3.5094 2.3226
-16.1253 3.1264 2.3226
-16.2204 2.7404 2.3226
-16.3059 2.3515 2.3226
-16.3817 1.9600 2.3226
-16.4476 1.5662 2.3226
-16.5036 1.1704 2.3226
-14.8795 0.6948 2.0882
-14.5472 0.3277 2.0372
-14.8014 -0.0239 2.0695
-16.6271 -0.4283 2.3226
-16.6325 -0.8305 2.3226
-16.6276 -1.2331 2.3226
-16.6124 -1.6360 2.3226
-16.5869 -2.0387 2.3226
-16.5510 -2.4411 2.3226
-16.5048 -2.8428 2.3226
-14.1198 -2.7844 1.9938
-16.3813 -3.6432 2.3226
-16.3041 -4.0412 2.3226
-16.2165 -4.4375 2.3226
-16.1186 -4.8317 2.3226
-16.0106 -5.2236 2.3226
-15.8923 -5.6128 2.3226
-15.7640 -5.9990 2.3226
-15.6256 -6.3821 2.3226
-15.4772 -6.7618 2.3226
-15.3189 -7.1376 2.3226
-15.1508 -7.5094 2.3226
-14.9731 -7.8769 2.3226
-14.6388 -8.1580 2.2995
-14.4440 -8.5125 2.2995
-14.2399 -8.8619 2.2995
-14.0268 -9.2061 2.2995
-13.8047 -9.5447 2.2995
-13.5738 -9.8774 2.2995
-13.3343 -10.2041 2.2995
-13.0863 -10.5245 2.2995
-11.8512 -10.0117 2.2995
-11.6070 -10.2953 2.2995
-11.8645 -11.0465 2.4026
-11.5943 -11.3292 2.4026
-11.3168 -11.6048 2.4026
-11.0323 -11.8731 2.4026
-10.7410 -12.1339 2.4026
-10.4431 -12.3870 2.4026
-10.1388 -12.6322 2.4026
-9.8283 -12.8695 2.4026
-9.5118 -13.0986 2.4026
-9.1897 -13.3193 2.4026
-8.8620 -13.5316 2.4026
-8.5291 -13.7352 2.4026
-8.1912 -13.9301 2.4026
-7.8486 -14.1161 2.4026
-7.5014 -14.2931 2.4026
-7.1500 -14.4610 2.4026
-6.7945 -14.6196 2.4026
-6.4353 -14.7690 2.4026
-6.0727 -14.9090 2.4026
-5.7068 -15.0396 2.4026
-5.3379 -15.1606 2.4026
-4.8034 -14.7708 2.3237
-4.3953 -14.7141 2.2995
-4.0353 -14.8022 2.2995
-3.6734 -14.8811 2.2995
-3.3100 -14.9505 2.2995
-2.9452 -15.0106 2.2995
-2.5794 -15.0614 2.2995
-2.2128 -15.1027 2.2995
-1.8456 -15.1347 2.2995
-1.4781 -15.1573 2.2995
-1.1106 -15.1705 2.2995
-0.7426 -15.1619 2.2976
-0.3760 -15.1565 2.2976
-0.0101 -15.1418 2.2976
0.3549 -15.1180 2.2976
0.7188 -15.0850 2.2976
1.0812 -15.0429 2.2976
1.4420 -14.9918 2.2976
1.8010 -14.9317 2.2976
2.1578 -14.8627 2.2976
2.4422 -14.3720 2.2334
2.7275 -13.9963 2.1879
3.0008 -13.6364 2.1455
3.2631 -13.2911 2.1061
3.5154 -12.9589 2.0695
3.7584 -12.6389 2.0354
3.9930 -12.3300 2.0037
4.2199 -12.0313 1.9743
4.4396 -11.7420 1.9469
4.6528 -11.4613 1.9215
4.8600 -11.1885 1.8980
5.0617 -10.9230 1.8762
5.2582 -10.6642 1.8560
5.4501 -10.4115 1.8374
5.6377 -10.1646 1.8204
5.8213 -9.9228 1.8047
6.0014 -9.6857 1.7904
6.1781 -9.4531 1.7774
6.3518 -9.2243 1.7657
6.5228 -8.9992 1.7552
6.6913 -8.7774 1.7459
6.8421 -8.5392 1.7338
7.0048 -8.3219 1.7265
7.1669 -8.1085 1.7205
7.3274 -7.8971 1.7156
7.4866 -7.6875 1.7118
7.6483 -7.4829 1.7097
7.8208 -7.2902 1.7113
7.9775 -7.0838 1.7104
8.1337 -6.8782 1.7106
9.5499 -7.6879 1.9720
8.6435 -6.6203 1.7542
8.8027 -6.4107 1.7574
8.9621 -6.2009 1.7616
9.1218 -5.9907 1.7668
9.2820 -5.7797 1.7731
9.4430 -5.5677 1.7804
9.6049 -5.3546 1.7888
9.7679 -5.1399 1.7983
9.9322 -4.9236 1.8089
10.0981 -4.7052 1.8206
10.2658 -4.4844 1.8335
10.4354 -4.2611 1.8476
10.6072 -4.0349 1.8629
10.7815 -3.8054 1.8795
10.9586 -3.5723 1.8975
11.1386 -3.3352 1.9168
11.3220 -3.0938 1.9376
11.5089 -2.8476 1.9599
11.6999 -2.5963 1.9838
11.8951 -2.3392 2.0094
12.0950 -2.0760 2.0367
12.3000 -1.8061 2.0659
3.7997 -0.4643 0.6369
12.7272 -1.2437 2.1303
12.9503 -0.9499 2.1657
13.1494 -0.6451 2.1983
13.3869 -0.3324 2.2385
13.6329 -0.0086 2.2815
13.7108 0.3232 2.2976
13.6847 0.6541 2.2976
13.6510 0.9841 2.2976
13.6099 1.3128 2.2976
13.5613 1.6402 2.2976
13.5052 1.9660 2.2976
13.4418 2.2903 2.2976
13.3710 2.6126 2.2976
13.2930 2.9330 2.2976
13.2234 3.2552 2.3003
14.1143 3.8391 2.4726
14.0072 4.1765 2.4726
13.8925 4.5112 2.4726
12.9290 4.5471 2.3215
13.6408 5.1717 2.4726
12.8900 5.2473 2.3602
11.0359 4.8071 2.0425
10.5616 4.9080 1.9771
10.2595 5.0731 1.9439
10.0565 5.2794 1.9299
9.8539 5.4813 1.9167
9.6755 5.6930 1.9090
9.4237 5.8565 1.8873
9.1408 5.9921 1.8597
8.9002 6.1475 1.8409
8.6961 6.3228 1.8302
8.5169 6.5134 1.8254
8.3855 6.7408 1.8320
8.2531 6.9699 1.8395
8.3723 7.4250 1.9057
8.5984 8.0058 2.0008
10.3838 10.1482 2.4726
10.1357 10.3973 2.4726
7.9491 8.5593 1.9890
7.5958 8.5867 1.9517
9.3584 11.1099 2.4726
7.3505 9.1677 1.9997
7.3544 9.6419 2.0632
7.1856 9.9091 2.0820
6.7686 9.8260 2.0288
6.3813 9.7613 1.9823
6.0418 9.7494 1.9488
5.7723 9.8387 1.9373
5.5371 9.9839 1.9380
5.3654 10.2517 1.9632
5.1798 10.5086 1.9867
4.9838 10.7601 2.0097
4.7534 10.9503 2.0218
4.5340 11.1780 2.0417
4.3033 11.3932 2.0599
4.0679 11.6130 2.0798
3.8480 11.9007 2.1124
3.5754 12.0460 2.1205
3.2625 12.0538 2.1056
2.9549 12.0681 2.0932
2.6638 12.1445 2.0928
2.3747 12.2340 2.0957
2.0923 12.3724 2.1081
1.8059 12.5135 2.1220
1.6048 13.4081 2.2641
1.2799 13.4422 2.2616
0.9555 13.4862 2.2621
0.6295 13.5168 2.2615
0.3026 13.5430 2.2614
-0.0251 13.5679 2.2623
-0.3543 13.5977 2.2654
-0.6882 13.6862 2.2794
-1.0177 13.6468 2.2735
-1.3566 13.7103 2.2859
-1.7000 13.7725 2.2995
-2.0353 13.7455 2.2995
-2.3704 13.7107 2.2995
-2.7050 13.6680 2.2995
-3.0390 13.6175 2.2995
-3.3722 13.5592 2.2995
-3.7044 13.4930 2.2995
-4.0354 13.4190 2.2995
-4.3651 13.3371 2.2995
-4.6933 13.2474 2.2995
-5.0198 13.1499 2.2995
-5.3749 13.1188 2.3126
-5.7178 13.0472 2.3201
-6.2557 13.3849 2.4026
-6.5878 13.2506 2.4026
-6.9172 13.1082 2.4026
-7.2436 12.9579 2.4026
-7.5668 12.7996 2.4026
-7.8868 12.6334 2.4026
-8.2032 12.4594 2.4026
-8.5159 12.2777 2.4026
-8.8247 12.0882 2.4026
-9.1293 11.8910 2.4026
-9.4296 11.6864 2.4026
-9.7255 11.4742 2.4026
-10.0167 11.2546 2.4026
-10.3029 11.0278 2.4026
-10.5841 10.7937 2.4026
-10.8600 10.5526 2.4026
-11.1305 10.3044 2.4026
-11.3953 10.0494 2.4026
-11.6543 9.7876 2.4026
-11.9072 9.5191 2.4026
-12.1540 9.2441 2.4026
-12.3944 8.9628 2.4026
-12.6283 8.6752 2.4026
-12.8554 8.3816 2.4026
-12.5145 7.7351 2.2995
-12.7185 7.4428 2.2995
-12.9156 7.1452 2.2995
-13.1056 6.8423 2.2995
-13.2884 6.5343 2.2995
-13.4638 6.2214 2.2995
-13.6316 5.9038 2.2995
-13.7918 5.5817 2.2995
-13.9442 5.2553 2.2995
-14.0887 4.9246 2.2995
-14.2251 4.5900 2.2995
-14.4974 4.2943 2.3226
-14.6185 3.9489 2.3226
-14.7311 3.6001 2.3226
-14.8350 3.2481 2.3226
-14.9303 2.8932 2.3226
-15.0167 2.5355 2.3226
-15.0942 2.1753 2.3226
-15.1627 1.8127 2.3226
-15.2222 1.4481 2.3226
-15.2724 1.0817 2.3226
-14.8723 0.6932 2.2557
-14.5455 0.3264 2.2015
-14.8002 -0.0251 2.2368
-15.3807 -0.3974 2.3226
-15.3843 -0.7694 2.3226
-15.3785 -1.1417 2.3226
-15.3631 -1.5141 2.3226
-15.3382 -1.8864 2.3226
-15.3038 -2.2582 2.3226
-15.2599 -2.6294 2.3226
-14.1176 -2.7850 2.1563
-15.1434 -3.3689 2.3226
-15.0710 -3.7365 2.3226
-14.9890 -4.1025 2.3226
-14.8977 -4.4666 2.3226
-14.7969 -4.8284 2.3226
-14.6867 -5.1878 2.3226
-14.5673 -5.5444 2.3226
-14.4386 -5.8981 2.3226
-14.3009 -6.2485 2.3226
-14.1540 -6.5955 2.3226
-13.8590 -6.8697 2.2995
-13.6959 -7.2056 2.2995
-13.5241 -7.5372 2.2995
-13.3437 -7.8645 2.2995
-13.1548 -8.1870 2.2995
-12.9576 -8.5047 2.2995
-12.7522 -8.8173 2.2995
-12.5387 -9.1244 2.2995
-12.3172 -9.4261 2.2995
-12.0880 -9.7219 2.2995
-11.0086 -9.3000 2.2995
-11.2651 -9.9921 2.4026
-11.0210 -10.2611 2.4026
-10.7700 -10.5237 2.4026
-10.5123 -10.7797 2.4026
-10.2482 -11.0290 2.4026
-9.9777 -11.2713 2.4026
-9.7011 -11.5066 2.4026
-9.4186 -11.7346 2.4026
-9.1304 -11.9552 2.4026
-8.8367 -12.1682 2.4026
-8.5377 -12.3736 2.4026
-8.2336 -12.5711 2.4026
-7.9246 -12.7607 2.4026
-7.6109 -12.9422 2.4026
-7.2929 -13.1154 2.4026
-6.9706 -13.2804 2.4026
-6.6444 -13.4370 2.4026
-6.3145 -13.5850 2.4026
-5.9810 -13.7245 2.4026
-5.6443 -13.8553 2.4026
-5.3046 -13.9773 2.4026
-4.9621 -14.0906 2.4026
-4.6170 -14.1949 2.4026
-4.1555 -13.9083 2.3384
-3.7783 -13.8560 2.3156
-3.4160 -13.8342 2.2995
-3.0783 -13.8997 2.2995
-2.7395 -13.9566 2.2995
-2.3995 -14.0047 2.2995
-2.0588 -14.0442 2.2995
-1.7175 -14.0750 2.2995
-1.3759 -14.0972 2.2995
-1.0342 -14.1107 2.2995
-0.6926 -14.1155 2.2995
-0.3513 -14.1117 2.2995
-0.0106 -14.0993 2.2995
0.3290 -14.0666 2.2976
0.6675 -14.0372 2.2976
1.0049 -13.9993 2.2976
1.3407 -13.9530 2.2976
1.6749 -13.8984 2.2976
2.0072 -13.8355 2.2976
2.3375 -13.7645 2.2976
2.6654 -13.6853 2.2976
2.9908 -13.5980 2.2976
3.2620 -13.2926 2.2618
3.5143 -12.9604 2.2222
3.7573 -12.6403 2.1854
3.9920 -12.3314 2.1512
4.2189 -12.0327 2.1193
4.4386 -11.7433 2.0898
4.6518 -11.4626 2.0623
4.8590 -11.1898 2.0368
5.0607 -10.9242 2.0132
5.2573 -10.6654 1.9913
5.4492 -10.4128 1.9712
5.6368 -10.1658 1.9527
5.8204 -9.9240 1.9357
6.0005 -9.6869 1.9201
6.1772 -9.4542 1.9060
6.3509 -9.2255 1.8932
6.5219 -9.0004 1.8818
6.6904 -8.7785 1.8716
6.8422 -8.5415 1.8587
7.0040 -8.3230 1.8503
7.1661 -8.1096 1.8438
7.3266 -7.8982 1.8383
7.4858 -7.6886 1.8340
7.6468 -7.4832 1.8314
7.8200 -7.2912 1.8330
7.9767 -7.0849 1.8319
8.1329 -6.8793 1.8319
9.5081 -7.6561 2.1026
8.6427 -6.6214 1.8782
8.8019 -6.4118 1.8814
8.9613 -6.2020 1.8857
9.1210 -5.9917 1.8911
9.2812 -5.7807 1.8976
9.4422 -5.5688 1.9053
9.6041 -5.3556 1.9141
9.7671 -5.1410 1.9240
9.9315 -4.9246 1.9352
10.0973 -4.7062 1.9475
10.2650 -4.4855 1.9611
10.4346 -4.2621 1.9760
10.6064 -4.0359 1.9922
10.7807 -3.8064 2.0098
10.9578 -3.5733 2.0288
11.1378 -3.3363 2.0494
11.3212 -3.0949 2.0714
11.5081 -2.8487 2.0951
11.6990 -2.5973 2.1204
11.8943 -2.3403 2.1476
12.0942 -2.0771 2.1766
12.2992 -1.8072 2.2076
3.7993 -0.4647 0.6805
12.7263 -1.2448 2.2760
12.8592 -0.9444 2.2976
12.8643 -0.6323 2.2976
12.8621 -0.3205 2.2976
12.8528 -0.0092 2.2976
12.8363 0.3015 2.2976
12.8127 0.6114 2.2976
12.7820 0.9204 2.2976
12.7442 1.2283 2.2976
12.6994 1.5350 2.2976
12.6476 1.8403 2.2976
12.5889 2.1441 2.2976
12.6050 2.4621 2.3126
12.5321 2.7643 2.3126
12.4523 3.0646 2.3126
12.3658 3.3627 2.3126
12.2725 3.6586 2.3126
12.1725 3.9520 2.3126
12.0660 4.2429 2.3126
12.7798 4.8446 2.4726
12.6520 5.1498 2.4726
10.8245 4.7145 2.1382
10.4708 4.8653 2.0920
10.2129 5.0496 2.0652
10.0387 5.2697 2.0560
9.8468 5.4770 2.0440
9.6801 5.6954 2.0381
9.3945 5.8380 2.0078
9.1082 5.9705 1.9774
8.8803 6.1335 1.9601
8.6870 6.3160 1.9510
8.5239 6.5186 1.9495
8.3924 6.7462 1.9565
8.2647 6.9796 1.9657
8.3765 7.4288 2.0346
8.5472 7.9581 2.1223
9.7309 9.5102 2.4726
9.4984 9.7436 2.4726
9.2605 9.9716 2.4726
9.0176 10.1942 2.4726
8.3004 9.8542 2.3403
8.5167 10.6226 2.4726
7.6198 9.9902 2.2813
7.2350 9.9777 2.2371
6.8241 9.9071 2.1829
6.4413 9.8537 2.1355
6.0917 9.8306 2.0971
5.8082 9.9007 2.0806
5.5667 10.0381 2.0796
5.3650 10.2521 2.0954
5.1813 10.5128 2.1213
4.9806 10.7545 2.1439
4.7515 10.9472 2.1575
4.5216 11.1489 2.1737
4.2823 11.3396 2.1886
4.0508 11.5661 2.2113
3.8503 11.9101 2.2569
3.5392 11.9269 2.2415
3.2056 11.8467 2.2095
2.9367 11.9973 2.2219
2.6458 12.0662 2.2203
2.3557 12.1409 2.2210
2.0735 12.2669 2.2322
1.7978 12.4647 2.2575
1.5478 12.9402 2.3339
1.2322 12.9528 2.3278
0.9082 12.8341 2.2995
0.5980 12.8657 2.2995
0.2869 12.8902 2.2995
-0.0251 12.9075 2.2995
-0.3377 12.9176 2.2995
-0.6509 12.9204 2.2995
-0.9644 12.9160 2.2995
-1.2781 12.9043 2.2995
-1.5918 12.8853 2.2995
-1.9054 12.8590 2.2995
-2.2187 12.8253 2.2995
-2.5315 12.7844 2.2995
-2.8436 12.7360 2.2995
-3.1550 12.6803 2.2995
-3.4654 12.6173 2.2995
-3.7747 12.5469 2.2995
-4.0826 12.4692 2.2995
-4.3891 12.3841 2.2995
-4.6939 12.2918 2.2995
-5.1633 12.5983 2.3761
-5.5353 12.6270 2.4026
-5.8475 12.5077 2.4026
-6.1573 12.3810 2.4026
-6.4644 12.2467 2.4026
-6.7687 12.1050 2.4026
-7.0700 11.9559 2.4026
-7.3681 11.7994 2.4026
-7.6628 11.6356 2.4026
-7.9540 11.4647 2.4026
-8.2415 11.2865 2.4026
-8.5251 11.1012 2.4026
-8.8046 10.9090 2.4026
-9.0798 10.7097 2.4026
-9.3506 10.5036 2.4026
-9.6167 10.2908 2.4026
-9.8780 10.0712 2.4026
-10.1344 9.8451 2.4026
-10.3856 9.6125 2.4026
-10.6315 9.3735 2.4026
-10.8719 9.1283 2.4026
-11.1067 8.8769 2.4026
-11.3356 8.6195 2.4026
-11.5585 8.3562 2.4026
-11.7753 8.0872 2.4026
-11.9857 7.8125 2.4026
-11.6884 7.2226 2.3038
-11.8555 6.9359 2.2995
-12.0379 6.6578 2.2995
-12.2137 6.3748 2.2995
-12.3826 6.0872 2.2995
-12.5447 5.7950 2.2995
-12.6998 5.4986 2.2995
-12.8477 5.1979 2.2995
-12.9882 4.8933 2.2995
-13.1214 4.5849 2.2995
-13.2471 4.2729 2.2995
-13.3651 3.9574 2.2995
-13.6107 3.6752 2.3226
-13.7142 3.3501 2.3226
-13.8096 3.0222 2.3226
-13.8969 2.6915 2.3226
-13.9760 2.3584 2.3226
-14.0469 2.0230 2.3226
-14.1093 1.6855 2.3226
-14.1634 1.3461 2.3226
-14.2089 1.0051 2.3226
-14.2459 0.6627 2.3226
-14.2742 0.3191 2.3226
-14.2939 -0.0255 2.3226
-14.3048 -0.3708 2.3226
-14.3071 -0.7166 2.3226
-14.3005 -1.0628 2.3226
-14.2852 -1.4090 2.3226
-14.2610 -1.7549 2.3226
-14.2280 -2.1005 2.3226
-14.1862 -2.4454 2.3226
-14.1154 -2.7855 2.3193
-14.0762 -3.1324 2.3226
-14.0080 -3.4739 2.3226
-13.9310 -3.8138 2.3226
-13.8453 -4.1519 2.3226
-13.7509 -4.4879 2.3226
-13.6479 -4.8216 2.3226
-13.5363 -5.1527 2.3226
-13.4162 -5.4811 2.3226
-13.2876 -5.8064 2.3226
-13.0199 -6.0676 2.2995
-12.8761 -6.3831 2.2995
-12.7241 -6.6948 2.2995
-12.5641 -7.0027 2.2995
-12.3962 -7.3065 2.2995
-12.2205 -7.6059 2.2995
-12.0370 -7.9008 2.2995
-11.8460 -8.1910 2.2995
-11.6475 -8.4762 2.2995
-11.4417 -8.7562 2.2995
-11.2287 -9.0309 2.2995
-10.3567 -8.7493 2.3177
-10.5148 -9.3267 2.4026
-10.2870 -9.5777 2.4026
-10.0528 -9.8228 2.4026
-9.8123 -10.0618 2.4026
-9.5659 -10.2945 2.4026
-9.3135 -10.5208 2.4026
-9.0555 -10.7405 2.4026
-8.7920 -10.9534 2.4026
-8.5231 -11.1595 2.4026
-8.2491 -11.3586 2.4026
-7.9702 -11.5505 2.4026
-7.6866 -11.7352 2.4026
-7.3983 -11.9125 2.4026
-7.1058 -12.0822 2.4026
-6.8091 -12.2444 2.4026
-6.5085 -12.3988 2.4026
-6.2042 -12.5454 2.4026
-5.8964 -12.6841 2.4026
-5.5854 -12.8149 2.4026
-5.2712 -12.9376 2.4026
-4.9543 -13.0521 2.4026
-4.6347 -13.1585 2.4026
-4.3127 -13.2566 2.4026
-3.9886 -13.3465 2.4026
-3.5866 -13.1498 2.3528
-3.1916 -12.9218 2.2995
-2.8765 -12.9838 2.2995
-2.5601 -13.0377 2.2995
-2.2427 -13.0836 2.2995
-1.9245 -13.1213 2.2995
-1.6058 -13.1510 2.2995
-1.2867 -13.1726 2.2995
-0.9675 -13.1861 2.2995
-0.6484 -13.1915 2.2995
-0.3295 -13.1890 2.2995
-0.0111 -13.1784 2.2995
0.3065 -13.1598 2.2995
0.6233 -13.1333 2.2995
0.9382 -13.0880 2.2976
1.2523 -13.0458 2.2976
1.5648 -12.9958 2.2976
1.8757 -12.9381 2.2976
2.1847 -12.8728 2.2976
2.4916 -12.7998 2.2976
2.7962 -12.7194 2.2976
3.0983 -12.6315 2.2976
3.3978 -12.5362 2.2976
3.6944 -12.4337 2.2976
3.9881 -12.3240 2.2976
4.2178 -12.0340 2.2650
4.4376 -11.7447 2.2332
4.6508 -11.4639 2.2036
4.8581 -11.1911 2.1761
5.0598 -10.9255 2.1507
5.2563 -10.6667 2.1272
5.4483 -10.4140 2.1055
5.6359 -10.1670 2.0855
5.8195 -9.9251 2.0671
5.9996 -9.6881 2.0503
6.1763 -9.4554 2.0350
6.3501 -9.2266 2.0212
6.5211 -9.0015 2.0088
6.6896 -8.7796 1.9977
6.8424 -8.5439 1.9840
7.0031 -8.3241 1.9747
7.1653 -8.1107 1.9674
7.3258 -7.8993 1.9614
7.4850 -7.6896 1.9566
7.6452 -7.4835 1.9535
7.8192 -7.2923 1.9552
7.9759 -7.0859 1.9539
8.1321 -6.8803 1.9537
9.4665 -7.6245 2.2325
8.6419 -6.6224 2.0026
8.8011 -6.4128 2.0059
8.9605 -6.2030 2.0103
9.1202 -5.9927 2.0159
9.2804 -5.7817 2.0227
9.4414 -5.5698 2.0307
9.6033 -5.3566 2.0398
9.7663 -5.1420 2.0503
9.9307 -4.9256 2.0620
10.0966 -4.7072 2.0750
10.2642 -4.4865 2.0893
10.4338 -4.2632 2.1050
10.6056 -4.0369 2.1221
10.7799 -3.8075 2.1406
10.9570 -3.5744 2.1607
11.1370 -3.3373 2.1824
11.3204 -3.0959 2.2057
11.5073 -2.8498 2.2307
11.6982 -2.5984 2.2575
11.8935 -2.3414 2.2863
11.9920 -2.0608 2.2976
12.0248 -1.7681 2.2976
3.7990 -0.4650 0.7243
12.0700 -1.1817 2.2976
12.0823 -0.8884 2.2976
12.0879 -0.5952 2.2976
12.0866 -0.3022 2.2976
12.0786 -0.0096 2.2976
12.0638 0.2824 2.2976
12.0423 0.5737 2.2976
12.0141 0.8642 2.2976
11.9792 1.1537 2.2976
11.9377 1.4421 2.2976
11.9672 1.7405 2.3126
11.9123 2.0280 2.3126
11.8507 2.3140 2.3126
11.7827 2.5983 2.3126
11.7081 2.8807 2.3126
11.6272 3.1612 2.3126
11.5400 3.4395 2.3126
11.4464 3.7156 2.3126
11.3466 3.9893 2.3126
11.2406 4.2605 2.3126
11.1284 4.5291 2.3126
10.6974 4.6586 2.2469
10.4139 4.8384 2.2123
10.1672 5.0266 2.1860
9.9947 5.2462 2.1764
9.8391 5.4723 2.1715
9.6471 5.6756 2.1595
9.3660 5.8200 2.1281
9.0668 5.9431 2.0928
8.8710 6.1268 2.0816
8.6778 6.3091 2.0720
8.5310 6.5239 2.0743
8.4042 6.7556 2.0829
8.2880 6.9991 2.0957
8.3613 7.4153 2.1591
8.4965 7.9108 2.2428
9.1531 8.9456 2.4726
8.9343 9.1651 2.4726
8.7105 9.3796 2.4726
8.4819 9.5889 2.4726
8.2485 9.7930 2.4726
8.0105 9.9917 2.4726
7.6738 10.0615 2.4426
7.2853 10.0475 2.3951
6.8783 9.9864 2.3395
6.4933 9.9339 2.2889
6.1372 9.9048 2.2465
5.8388 9.9537 2.2240
5.5905 10.0819 2.2208
5.3863 10.2938 2.2371
5.1851 10.5216 2.2576
4.9792 10.7528 2.2794
4.7494 10.9439 2.2936
4.5083 11.1178 2.3052
4.2859 11.3510 2.3299
4.0584 11.5899 2.3566
3.8607 11.9448 2.4074
3.4933 11.7750 2.3538
3.1694 11.7159 2.3242
2.9198 11.9318 2.3505
2.6317 12.0062 2.3501
2.3425 12.0775 2.3503
2.0069 11.8785 2.2995
1.7204 11.9340 2.2995
1.4323 11.9830 2.2995
1.1430 12.0253 2.2995
0.8525 12.0610 2.2995
0.5609 12.0899 2.2995
0.2685 12.1122 2.2995
-0.0247 12.1277 2.2995
-0.3184 12.1363 2.2995
-0.6126 12.1382 2.2995
-0.9071 12.1332 2.2995
-1.2018 12.1214 2.2995
-1.4963 12.1027 2.2995
-1.7908 12.0770 2.2995
-2.0849 12.0445 2.2995
-2.3785 12.0051 2.2995
-2.6714 11.9588 2.2995
-2.9636 11.9056 2.2995
-3.2548 11.8454 2.2995
-3.5449 11.7784 2.2995
-3.8337 11.7044 2.2995
-4.2177 11.8964 2.3535
-4.6043 12.0531 2.4026
-4.9010 11.9544 2.4026
-5.1957 11.8486 2.4026
-5.4882 11.7356 2.4026
-5.7784 11.6156 2.4026
-6.0660 11.4886 2.4026
-6.3509 11.3546 2.4026
-6.6329 11.2137 2.4026
-6.9119 11.0659 2.4026
-7.1877 10.9113 2.4026
-7.4601 10.7500 2.4026
-7.7290 10.5819 2.4026
-7.9942 10.4072 2.4026
-8.2554 10.2260 2.4026
-8.5126 10.0382 2.4026
-8.7656 9.8441 2.4026
-9.0142 9.6437 2.4026
-9.2583 9.4370 2.4026
-9.4976 9.2242 2.4026
-9.7321 9.0054 2.4026
-9.9615 8.7806 2.4026
-10.1857 8.5500 2.4026
-10.4046 8.3137 2.4026
-10.6180 8.0718 2.4026
-10.8258 7.8245 2.4026
-11.0277 7.5718 2.4026
-11.2237 7.3139 2.4026
-10.9239 6.7484 2.2995
-11.0996 6.4920 2.2995
-11.2693 6.2310 2.2995
-11.4328 5.9655 2.2995
-11.5898 5.6958 2.2995
-11.7404 5.4219 2.2995
-11.8844 5.1439 2.2995
-12.0217 4.8622 2.2995
-12.1521 4.5768 2.2995
-12.2756 4.2879 2.2995
-12.3921 3.9956 2.2995
-12.5014 3.7002 2.2995
-12.6034 3.4018 2.2995
-12.8256 3.1317 2.3226
-12.9138 2.8248 2.3226
-12.9943 2.5154 2.3226
-13.0672 2.2037 2.3226
-13.1324 1.8900 2.3226
-13.1897 1.5744 2.3226
-13.2392 1.2570 2.3226
-13.2807 0.9383 2.3226
-13.3143 0.6182 2.3226
-13.3398 0.2971 2.3226
-13.3572 -0.0249 2.3226
-13.3665 -0.3476 2.3226
-13.3676 -0.6706 2.3226
-13.3606 -0.9939 2.3226
-13.3454 -1.3173 2.3226
-13.3220 -1.6404 2.3226
-13.2904 -1.9630 2.3226
-13.2506 -2.2850 2.3226
-13.2026 -2.6062 2.3226
-13.1464 -2.9263 2.3226
-13.0820 -3.2451 2.3226
-13.0095 -3.5623 2.3226
-12.9288 -3.8778 2.3226
-12.8401 -4.1914 2.3226
-12.7433 -4.5027 2.3226
-12.6386 -4.8117 2.3226
-12.4015 -5.0672 2.2995
-12.2822 -5.3677 2.2995
-12.1551 -5.6652 2.2995
-12.0205 -5.9595 2.2995
-11.8783 -6.2503 2.2995
-11.7287 -6.5375 2.2995
-11.5716 -6.8209 2.2995
-11.4073 -7.1002 2.2995
-11.2359 -7.3753 2.2995
-11.0574 -7.6460 2.2995
-10.8720 -7.9121 2.2995
-10.6798 -8.1733 2.2995
-10.4809 -8.4296 2.2995
-10.0634 -8.5016 2.4026
-9.8559 -8.7423 2.4026
-9.6424 -8.9775 2.4026
-9.4229 -9.2073 2.4026
-9.1976 -9.4313 2.4026
-8.9666 -9.6494 2.4026
-8.7302 -9.8616 2.4026
-8.4885 -10.0676 2.4026
-8.2416 -10.2674 2.4026
-7.9897 -10.4607 2.4026
-7.7331 -10.6474 2.4026
-7.4718 -10.8276 2.4026
-7.2060 -11.0009 2.4026
-6.9361 -11.1673 2.4026
-6.6620 -11.3267 2.4026
-6.3841 -11.4790 2.4026
-6.1025 -11.6242 2.4026
-5.8174 -11.7620 2.4026
-5.5291 -11.8925 2.4026
-5.2376 -12.0155 2.4026
-4.9433 -12.1310 2.4026
-4.6463 -12.2389 2.4026
-4.3469 -12.3391 2.4026
-4.0452 -12.4317 2.4026
-3.7414 -12.5166 2.4026
-3.4358 -12.5936 2.4026
-3.0826 -12.4767 2.3673
-2.6989 -12.1782 2.2995
-2.4023 -12.2295 2.2995
-2.1047 -12.2732 2.2995
-1.8064 -12.3093 2.2995
-1.5075 -12.3378 2.2995
-1.2083 -12.3588 2.2995
-0.9088 -12.3723 2.2995
-0.6095 -12.3782 2.2995
-0.3103 -12.3766 2.2995
-0.0116 -12.3675 2.2995
0.2866 -12.3509 2.2995
0.5839 -12.3269 2.2995
0.8802 -12.2954 2.2995
1.1753 -12.2567 2.2995
1.4691 -12.2106 2.2995
1.7598 -12.1472 2.2976
2.0500 -12.0868 2.2976
2.3383 -12.0192 2.2976
2.6245 -11.9445 2.2976
2.9084 -11.8629 2.2976
3.1899 -11.7744 2.2976
3.4688 -11.6791 2.2976
3.7449 -11.5770 2.2976
4.0181 -11.4683 2.2976
4.2881 -11.3530 2.2976
4.5550 -11.2313 2.2976
4.8184 -11.1032 2.2976
5.0588 -10.9268 2.2888
5.2554 -10.6679 2.2636
5.4473 -10.4152 2.2403
5.6349 -10.1682 2.2188
5.8186 -9.9263 2.1991
5.9987 -9.6893 2.1810
6.1754 -9.4565 2.1646
6.3492 -9.2278 2.1497
6.5202 -9.0026 2.1363
6.6887 -8.7807 2.1244
6.8426 -8.5462 2.1100
7.0023 -8.3252 2.0995
7.1644 -8.1118 2.0916
7.3250 -7.9003 2.0851
7.4842 -7.6907 2.0798
7.6436 -7.4838 2.0761
7.8184 -7.2933 2.0779
7.9751 -7.0870 2.0763
8.1313 -6.8813 2.0759
9.1684 -7.3862 2.2976
8.6411 -6.6235 2.1276
8.8003 -6.4139 2.1309
8.9597 -6.2041 2.1354
9.1194 -5.9938 2.1412
9.2796 -5.7828 2.1482
9.4406 -5.5708 2.1565
9.6025 -5.3577 2.1661
9.7655 -5.1430 2.1770
9.9299 -4.9267 2.1893
10.0958 -4.7083 2.2029
10.2634 -4.4876 2.2179
10.4330 -4.2642 2.2344
10.6049 -4.0380 2.2524
10.7792 -3.8085 2.2719
10.9562 -3.5754 2.2931
11.0481 -3.3119 2.2976
11.1121 -3.0402 2.2976
11.1696 -2.7673 2.2976
11.2206 -2.4935 2.2976
11.2652 -2.2189 2.2976
11.3034 -1.9436 2.2976
11.3350 -1.6678 2.2976
3.7986 -0.4653 0.7683
11.3790 -1.1151 2.2976
11.3913 -0.8386 2.2976
11.3971 -0.5622 2.2976
11.3966 -0.2859 2.2976
11.3896 -0.0101 2.2976
11.3762 0.2654 2.2976
11.3565 0.5401 2.2976
11.3716 0.8171 2.3059
11.3719 1.0944 2.3126
11.3331 1.3682 2.3126
11.2879 1.6408 2.3126
11.2365 1.9122 2.3126
11.1789 2.1820 2.3126
11.1151 2.4503 2.3126
11.0453 2.7169 2.3126
10.9693 2.9816 2.3126
10.8874 3.2444 2.3126
10.7994 3.5050 2.3126
10.7056 3.7634 2.3126
10.6059 4.0194 2.3126
10.5003 4.2729 2.3126
10.3891 4.5238 2.3126
10.2722 4.7721 2.3126
10.1339 5.0096 2.3090
9.9988 5.2479 2.3073
9.8290 5.4663 2.2988
9.6196 5.6591 2.2819
9.3084 5.7839 2.2413
8.9859 5.8898 2.1978
8.8432 6.1074 2.1989
8.6691 6.3026 2.1933
8.5432 6.5331 2.2012
8.4200 6.7681 2.2112
8.3147 7.0216 2.2278
8.3316 7.3888 2.2797
8.4461 7.8640 2.3625
8.6380 8.4422 2.4726
8.4314 8.6494 2.4726
8.2202 8.8517 2.4726
8.0044 9.0492 2.4726
7.7840 9.2418 2.4726
7.5593 9.4293 2.4726
7.3303 9.6116 2.4726
7.0972 9.7886 2.4726
6.8599 9.9603 2.4726
6.5476 10.0177 2.4460
6.1836 9.9804 2.3989
5.8915 10.0443 2.3783
5.6163 10.1294 2.3646
5.4001 10.3210 2.3771
5.2025 10.5582 2.4009
4.9840 10.7646 2.4185
4.7449 10.9351 2.4290
4.5063 11.1146 2.4426
4.2663 11.3009 2.4587
3.9854 11.3836 2.4534
3.4980 10.8249 2.3126
3.2187 10.8519 2.2995
2.9572 10.9342 2.2995
2.6936 11.0106 2.2995
2.4281 11.0809 2.2995
2.1608 11.1450 2.2995
1.8919 11.2031 2.2995
1.6216 11.2549 2.2995
1.3498 11.3005 2.2995
1.0769 11.3399 2.2995
0.8029 11.3729 2.2995
0.5279 11.3996 2.2995
0.2521 11.4200 2.2995
-0.0243 11.4339 2.2995
-0.3013 11.4414 2.2995
-0.5786 11.4425 2.2995
-0.8562 11.4371 2.2995
-1.1339 11.4252 2.2995
-1.4115 11.4069 2.2995
-1.6889 11.3820 2.2995
-1.9660 11.3506 2.2995
-2.2425 11.3127 2.2995
-2.5185 11.2682 2.2995
-2.7936 11.2173 2.2995
-3.0677 11.1598 2.2995
-3.4009 11.2955 2.3409
-3.7746 11.5197 2.4026
-4.0571 11.4393 2.4026
-4.3380 11.3522 2.4026
-4.6172 11.2583 2.4026
-4.8944 11.1578 2.4026
-5.1694 11.0505 2.4026
-5.4422 10.9367 2.4026
-5.7126 10.8162 2.4026
-5.9804 10.6892 2.4026
-6.2454 10.5557 2.4026
-6.5076 10.4157 2.4026
-6.7666 10.2694 2.4026
-7.0225 10.1167 2.4026
-7.2749 9.9576 2.4026
-7.5238 9.7924 2.4026
-7.7690 9.6211 2.4026
-8.0104 9.4436 2.4026
-8.2477 9.2602 2.4026
-8.4809 9.0708 2.4026
-8.7097 8.8757 2.4026
-8.9341 8.6748 2.4026
-9.1538 8.4682 2.4026
-9.3688 8.2561 2.4026
-9.5789 8.0386 2.4026
-9.7839 7.8158 2.4026
-9.9837 7.5877 2.4026
-10.1781 7.3545 2.4026
-10.3671 7.1163 2.4026
-10.5504 6.8733 2.4026
-10.2677 6.3413 2.2995
-10.4320 6.0998 2.2995
-10.5905 5.8540 2.2995
-10.7432 5.6041 2.2995
-10.8899 5.3502 2.2995
-11.0305 5.0925 2.2995
-11.1649 4.8310 2.2995
-11.2929 4.5660 2.2995
-11.4145 4.2976 2.2995
-11.5296 4.0259 2.2995
-11.6380 3.7511 2.2995
-11.7398 3.4734 2.2995
-11.8347 3.1930 2.2995
-11.9227 2.9099 2.2995
-12.1242 2.6508 2.3226
-12.1990 2.3602 2.3226
-12.2665 2.0675 2.3226
-12.3268 1.7728 2.3226
-12.3797 1.4765 2.3226
-12.4253 1.1786 2.3226
-12.4634 0.8794 2.3226
-12.4941 0.5790 2.3226
-12.5172 0.2777 2.3226
-12.5327 -0.0244 2.3226
-12.5407 -0.3271 2.3226
-12.5410 -0.6302 2.3226
-12.5337 -0.9334 2.3226
-12.5187 -1.2366 2.3226
-12.4961 -1.5396 2.3226
-12.4658 -1.8421 2.3226
-12.4278 -2.1440 2.3226
-12.3821 -2.4451 2.3226
-12.3288 -2.7451 2.3226
-12.2679 -3.0439 2.3226
-12.1993 -3.3412 2.3226
-12.1232 -3.6369 2.3226
-12.0395 -3.9307 2.3226
-11.8296 -4.1805 2.2995
-11.7320 -4.4671 2.2995
-11.6270 -4.7513 2.2995
-11.5148 -5.0329 2.2995
-11.3954 -5.3116 2.2995
-11.2688 -5.5873 2.2995
-11.1353 -5.8597 2.2995
-10.9947 -6.1288 2.2995
-10.8473 -6.3943 2.2995
-10.6931 -6.6560 2.2995
-10.5323 -6.9138 2.2995
-10.3648 -7.1674 2.2995
-10.1909 -7.4166 2.2995
-10.0106 -7.6614 2.2995
-9.8242 -7.9016 2.2995
-9.4677 -7.9985 2.4026
-9.2725 -8.2248 2.4026
-9.0716 -8.4461 2.4026
-8.8652 -8.6623 2.4026
-8.6532 -8.8730 2.4026
-8.4361 -9.0783 2.4026
-8.2137 -9.2779 2.4026
-7.9864 -9.4718 2.4026
-7.7542 -9.6598 2.4026
-7.5174 -9.8418 2.4026
-7.2760 -10.0177 2.4026
-7.0303 -10.1873 2.4026
-6.7805 -10.3506 2.4026
-6.5266 -10.5073 2.4026
-6.2690 -10.6576 2.4026
-6.0076 -10.8011 2.4026
-5.7428 -10.9380 2.4026
-5.4748 -11.0680 2.4026
-5.2036 -11.1911 2.4026
-4.9296 -11.3072 2.4026
-4.6528 -11.4163 2.4026
-4.3735 -11.5182 2.4026
-4.0919 -11.6130 2.4026
-3.8081 -11.7006 2.4026
-3.5223 -11.7809 2.4026
-3.2349 -11.8540 2.4026
-2.9458 -11.9197 2.4026
-2.6327 -11.8758 2.3821
-2.2624 -11.5128 2.2995
-1.9824 -11.5545 2.2995
-1.7016 -11.5891 2.2995
-1.4203 -11.6166 2.2995
-1.1387 -11.6370 2.2995
-0.8568 -11.6503 2.2995
-0.5749 -11.6565 2.2995
-0.2933 -11.6557 2.2995
-0.0120 -11.6478 2.2995
0.2688 -11.6329 2.2995
0.5489 -11.6110 2.2995
0.8280 -11.5821 2.2995
1.1060 -11.5463 2.2995
1.3828 -11.5037 2.2995
1.6582 -11.4542 2.2995
1.9320 -11.3980 2.2995
2.2021 -11.3256 2.2976
2.4720 -11.2560 2.2976
2.7397 -11.1799 2.2976
3.0052 -11.0973 2.2976
3.2682 -11.0082 2.2976
3.5287 -10.9128 2.2976
3.7864 -10.8111 2.2976
4.0413 -10.7032 2.2976
4.2931 -10.5892 2.2976
4.5418 -10.4692 2.2976
4.7872 -10.3433 2.2976
5.0291 -10.2116 2.2976
5.2674 -10.0742 2.2976
5.5020 -9.9312 2.2976
5.7328 -9.7826 2.2976
5.9596 -9.6287 2.2976
6.1746 -9.4577 2.2947
6.3483 -9.2289 2.2788
6.5193 -9.0038 2.2644
6.6879 -8.7819 2.2515
6.8427 -8.5486 2.2365
7.0015 -8.3263 2.2249
7.1636 -8.1128 2.2164
7.3242 -7.9014 2.2092
7.4834 -7.6918 2.2035
7.6421 -7.4842 2.1992
7.8176 -7.2944 2.2012
7.9743 -7.0880 2.1993
8.1305 -6.8824 2.1987
8.6561 -6.9753 2.2976
8.6403 -6.6246 2.2531
8.7995 -6.4149 2.2565
8.9589 -6.2051 2.2611
9.1186 -5.9948 2.2670
9.2789 -5.7838 2.2743
9.4398 -5.5719 2.2829
9.6017 -5.3587 2.2929
9.7363 -5.1291 2.2976
9.8455 -4.8862 2.2976
9.9487 -4.6411 2.2976
10.0460 -4.3939 2.2976
10.1374 -4.1447 2.2976
10.2227 -3.8938 2.2976
10.3020 -3.6412 2.2976
10.3753 -3.3871 2.2976
10.4425 -3.1316 2.2976
10.5036 -2.8749 2.2976
10.5586 -2.6171 2.2976
10.6075 -2.3584 2.2976
10.6502 -2.0989 2.2976
10.6869 -1.8387 2.2976
10.7174 -1.5779 2.2976
3.7982 -0.4656 0.8124
10.7602 -1.0555 2.2976
10.7724 -0.7940 2.2976
10.7784 -0.5326 2.2976
10.7784 -0.2714 2.2976
10.7724 -0.0104 2.2976
10.8305 0.2517 2.3126
10.8122 0.5134 2.3126
10.7879 0.7743 2.3126
10.7576 1.0344 2.3126
10.7212 1.2935 2.3126
10.6790 1.5516 2.3126
10.6307 1.8083 2.3126
10.5766 2.0638 2.3126
10.5167 2.3177 2.3126
10.4509 2.5700 2.3126
10.3794 2.8206 2.3126
10.3021 3.0693 2.3126
10.2192 3.3161 2.3126
10.1307 3.5607 2.3126
10.0366 3.8031 2.3126
9.9370 4.0432 2.3126
9.8319 4.2807 2.3126
9.7215 4.5158 2.3126
9.6057 4.7481 2.3126
9.4846 4.9776 2.3126
9.3584 5.2042 2.3126
9.2270 5.4277 2.3126
9.0905 5.6482 2.3126
8.9315 5.8539 2.3081
8.7897 6.0702 2.3092
8.6514 6.2895 2.3126
8.4954 6.4963 2.3126
8.3347 6.6995 2.3126
8.1694 6.8989 2.3126
7.9996 7.0944 2.3126
7.8254 7.2860 2.3126
7.6468 7.4735 2.3126
7.4639 7.6569 2.3126
7.2768 7.8360 2.3126
7.0857 8.0108 2.3126
6.8906 8.1812 2.3126
6.6916 8.3471 2.3126
6.4887 8.5084 2.3126
6.2823 8.6651 2.3126
6.0722 8.8170 2.3126
5.8586 8.9640 2.3126
5.6416 9.1062 2.3126
5.4213 9.2434 2.3126
5.1978 9.3755 2.3126
4.9713 9.5025 2.3126
4.7418 9.6243 2.3126
4.5095 9.7409 2.3126
4.2744 9.8521 2.3126
4.0138 9.9015 2.2995
3.7750 10.0013 2.2995
3.5338 10.0957 2.2995
3.2903 10.1844 2.2995
3.0447 10.2676 2.2995
2.7971 10.3451 2.2995
2.5476 10.4170 2.2995
2.2963 10.4831 2.2995
2.0434 10.5434 2.2995
1.7889 10.5978 2.2995
1.5331 10.6464 2.2995
1.2759 10.6891 2.2995
1.0177 10.7258 2.2995
0.7584 10.7566 2.2995
0.4983 10.7813 2.2995
0.2375 10.8000 2.2995
-0.0240 10.8126 2.2995
-0.2859 10.8192 2.2995
-0.5481 10.8196 2.2995
-0.8106 10.8139 2.2995
-1.0731 10.8021 2.2995
-1.3355 10.7841 2.2995
-1.5977 10.7600 2.2995
-1.8596 10.7296 2.2995
-2.1209 10.6932 2.2995
-2.3816 10.6505 2.2995
-2.6800 10.7562 2.3330
-3.0254 11.0010 2.3986
-3.2999 10.9556 2.4026
-3.5681 10.8854 2.4026
-3.8349 10.8087 2.4026
-4.1000 10.7256 2.4026
-4.3635 10.6362 2.4026
-4.6251 10.5405 2.4026
-4.8846 10.4384 2.4026
-5.1420 10.3302 2.4026
-5.3970 10.2157 2.4026
-5.6495 10.0950 2.4026
-5.8994 9.9682 2.4026
-6.1466 9.8352 2.4026
-6.3907 9.6963 2.4026
-6.6318 9.5514 2.4026
-6.8697 9.4006 2.4026
-7.1042 9.2439 2.4026
-7.3351 9.0814 2.4026
-7.5624 8.9133 2.4026
-7.7859 8.7394 2.4026
-8.0053 8.5601 2.4026
-8.2207 8.3752 2.4026
-8.4318 8.1850 2.4026
-8.6385 7.9895 2.4026
-8.8407 7.7888 2.4026
-9.0382 7.5830 2.4026
-9.2309 7.3722 2.4026
-9.4187 7.1565 2.4026
-9.6014 6.9360 2.4026
-9.7788 6.7108 2.4026
-9.9510 6.4812 2.4026
-9.9858 6.1656 2.3713
-9.8378 5.7508 2.2995
-9.9866 5.5187 2.2995
-10.1298 5.2826 2.2995
-10.2673 5.0429 2.2995
-10.3991 4.7995 2.2995
-10.5250 4.5527 2.2995
-10.6449 4.3026 2.2995
-10.7588 4.0493 2.2995
-10.8665 3.7930 2.2995
-10.9679 3.5338 2.2995
-11.0630 3.2719 2.2995
-11.1517 3.0074 2.2995
-11.2338 2.7405 2.2995
-11.3094 2.4714 2.2995
-11.3784 2.2002 2.2995
-11.5555 1.9465 2.3226
-11.6115 1.6688 2.3226
-11.6607 1.3896 2.3226
-11.7029 1.1090 2.3226
-11.7381 0.8271 2.3226
-11.7663 0.5442 2.3226
-11.7873 0.2605 2.3226
-11.8013 -0.0240 2.3226
-11.8082 -0.3090 2.3226
-11.8078 -0.5943 2.3226
-11.8003 -0.8797 2.3226
-11.7856 -1.1651 2.3226
-11.7638 -1.4502 2.3226
-11.7347 -1.7349 2.3226
-11.6984 -2.0190 2.3226
-11.6549 -2.3023 2.3226
-11.6042 -2.5845 2.3226
-11.5464 -2.8656 2.3226
-11.4814 -3.1453 2.3226
-11.2959 -3.3894 2.2995
-11.2176 -3.6630 2.2995
-11.1323 -3.9347 2.2995
-11.0400 -4.2042 2.2995
-10.9409 -4.4715 2.2995
-10.8350 -4.7363 2.2995
-10.7224 -4.9984 2.2995
-10.6031 -5.2577 2.2995
-10.4772 -5.5139 2.2995
-10.3448 -5.7669 2.2995
-10.2059 -6.0166 2.2995
-10.0607 -6.2626 2.2995
-9.9092 -6.5050 2.2995
-9.7515 -6.7435 2.2995
-9.5878 -6.9779 2.2995
-9.4182 -7.2082 2.2995
-9.5251 -7.6612 2.3698
-8.9365 -7.5498 2.4026
-8.7522 -7.7634 2.4026
-8.5626 -7.9722 2.4026
-8.3678 -8.1762 2.4026
-8.1678 -8.3751 2.4026
-7.9629 -8.5689 2.4026
-7.7530 -8.7574 2.4026
-7.5386 -8.9404 2.4026
-7.3195 -9.1180 2.4026
-7.0961 -9.2898 2.4026
-6.8684 -9.4560 2.4026
-6.6366 -9.6162 2.4026
-6.4009 -9.7704 2.4026
-6.1614 -9.9186 2.4026
-5.9183 -10.0606 2.4026
-5.6718 -10.1964 2.4026
-5.4220 -10.3258 2.4026
-5.1691 -10.4488 2.4026
-4.9132 -10.5653 2.4026
-4.6547 -10.6752 2.4026
-4.3935 -10.7785 2.4026
-4.1300 -10.8751 2.4026
-3.8642 -10.9650 2.4026
-3.5964 -11.0480 2.4026
-3.3268 -11.1243 2.4026
-3.0555 -11.1937 2.4026
-2.7826 -11.2561 2.4026
-2.5085 -11.3117 2.4026
-2.2305 -11.3462 2.3996
-1.8761 -10.9301 2.3032
-1.6183 -11.0156 2.3142
-1.3425 -10.9723 2.2995
-1.0765 -10.9921 2.2995
-0.8103 -11.0053 2.2995
-0.5441 -11.0117 2.2995
-0.2780 -11.0115 2.2995
-0.0123 -11.0046 2.2995
0.2530 -10.9911 2.2995
0.5176 -10.9710 2.2995
0.7813 -10.9443 2.2995
1.0441 -10.9112 2.2995
1.3057 -10.8715 2.2995
1.5660 -10.8254 2.2995
1.8249 -10.7729 2.2995
2.0820 -10.7140 2.2995
2.3374 -10.6489 2.2995
2.5909 -10.5775 2.2995
2.8398 -10.4913 2.2976
3.0887 -10.4078 2.2976
3.3351 -10.3182 2.2976
3.5791 -10.2227 2.2976
3.8203 -10.1214 2.2976
4.0587 -10.0143 2.2976
4.2941 -9.9014 2.2976
4.5265 -9.7830 2.2976
4.7556 -9.6591 2.2976
4.9813 -9.5298 2.2976
5.2036 -9.3951 2.2976
5.4222 -9.2552 2.2976
5.6371 -9.1103 2.2976
5.8482 -8.9603 2.2976
6.0554 -8.8054 2.2976
6.2584 -8.6457 2.2976
6.4573 -8.4813 2.2976
6.6519 -8.3124 2.2976
6.8422 -8.1390 2.2976
7.0280 -7.9613 2.2976
7.2092 -7.7793 2.2976
7.3858 -7.5933 2.2976
7.5576 -7.4033 2.2976
7.7246 -7.2095 2.2976
7.8868 -7.0119 2.2976
8.0439 -6.8108 2.2976
8.1960 -6.6062 2.2976
8.3430 -6.3983 2.2976
8.4848 -6.1871 2.2976
8.6214 -5.9729 2.2976
8.7526 -5.7558 2.2976
8.8786 -5.5358 2.2976
8.9990 -5.3132 2.2976
9.1141 -5.0880 2.2976
9.2236 -4.8604 2.2976
9.3276 -4.6306 2.2976
9.4260 -4.3986 2.2976
9.5188 -4.1646 2.2976
9.6059 -3.9287 2.2976
9.6874 -3.6911 2.2976
9.7631 -3.4519 2.2976
9.8331 -3.2113 2.2976
9.8973 -2.9693 2.2976
9.9558 -2.7261 2.2976
10.0085 -2.4819 2.2976
10.0554 -2.2367 2.2976
10.0965 -1.9908 2.2976
10.1317 -1.7442 2.2976
10.1612 -1.4971 2.2976
3.7978 -0.4659 0.8568
10.2027 -1.0018 2.2976
10.2147 -0.7539 2.2976
10.2877 -0.5093 2.3126
10.2882 -0.2599 2.3126
10.2828 -0.0108 2.3126
10.2717 0.2379 2.3126
10.2548 0.4861 2.3126
10.2321 0.7336 2.3126
10.2037 0.9804 2.3126
10.1696 1.2262 2.3126
10.1299 1.4711 2.3126
10.0845 1.7147 2.3126
10.0335 1.9571 2.3126
9.9770 2.1981 2.3126
9.9148 2.4376 2.3126
9.8473 2.6754 2.3126
9.7743 2.9115 2.3126
9.6958 3.1457 2.3126
9.6121 3.3779 2.3126
9.5230 3.6080 2.3126
9.4287 3.8359 2.3126
9.3292 4.0614 2.3126
9.2246 4.2845 2.3126
9.1149 4.5051 2.3126
9.0001 4.7230 2.3126
8.8804 4.9381 2.3126
8.7559 5.1503 2.3126
8.6265 5.3596 2.3126
8.4923 5.5657 2.3126
8.3534 5.7687 2.3126
8.2100 5.9684 2.3126
8.0620 6.1647 2.3126
7.9095 6.3576 2.3126
7.7527 6.5468 2.3126
7.5915 6.7324 2.3126
7.4261 6.9142 2.3126
7.2566 7.0922 2.3126
7.0830 7.2662 2.3126
6.9055 7.4362 2.3126
6.7240 7.6021 2.3126
6.5388 7.7638 2.3126
6.3499 7.9212 2.3126
6.1573 8.0742 2.3126
5.9613 8.2228 2.3126
5.7618 8.3668 2.3126
5.5590 8.5063 2.3126
5.3530 8.6411 2.3126
5.1438 8.7711 2.3126
4.9317 8.8963 2.3126
4.6899 8.9656 2.2995
4.4733 9.0804 2.2995
4.2540 9.1901 2.2995
4.0321 9.2948 2.2995
3.8077 9.3944 2.2995
3.5810 9.4889 2.2995
3.3520 9.5781 2.2995
3.1209 9.6620 2.2995
2.8878 9.7406 2.2995
2.6528 9.8139 2.2995
2.4160 9.8817 2.2995
2.1775 9.9441 2.2995
1.9375 10.0009 2.2995
1.6960 10.0522 2.2995
1.4532 10.0979 2.2995
1.2093 10.1380 2.2995
0.9643 10.1724 2.2995
0.7184 10.2011 2.2995
0.4717 10.2241 2.2995
0.2243 10.2414 2.2995
-0.0237 10.2529 2.2995
-0.2720 10.2586 2.2995
-0.5207 10.2585 2.2995
-0.7695 10.2526 2.2995
-1.0184 10.2409 2.2995
-1.2671 10.2233 2.2995
-1.5156 10.1999 2.2995
-1.7638 10.1706 2.2995
-2.0349 10.2538 2.3263
-2.3422 10.4692 2.3849
-2.6169 10.4981 2.4026
-2.8733 10.4434 2.4027
-3.1286 10.3825 2.4027
-3.3824 10.3150 2.4027
-3.6349 10.2414 2.4026
-3.8860 10.1621 2.4026
-4.1353 10.0768 2.4026
-4.3829 9.9854 2.4026
-4.6285 9.8882 2.4026
-4.8720 9.7850 2.4026
-5.1133 9.6759 2.4026
-5.3522 9.5609 2.4026
-5.5885 9.4402 2.4026
-5.8222 9.3137 2.4026
-6.0531 9.1815 2.4026
-6.2810 9.0437 2.4026
-6.5058 8.9003 2.4026
-6.7274 8.7513 2.4026
-6.9456 8.5969 2.4026
-7.1603 8.4371 2.4026
-7.3713 8.2720 2.4026
-7.5785 8.1017 2.4026
-7.7819 7.9262 2.4026
-7.9811 7.7456 2.4026
-8.1762 7.5601 2.4026
-8.3670 7.3696 2.4026
-8.5533 7.1743 2.4026
-8.7351 6.9744 2.4026
-8.9121 6.7698 2.4026
-9.0843 6.5608 2.4026
-9.2516 6.3474 2.4026
-9.4139 6.1297 2.4026
-9.5709 5.9078 2.4026
-9.3055 5.4382 2.2995
-9.4456 5.2182 2.2995
-9.5804 4.9947 2.2995
-9.7098 4.7677 2.2995
-9.8338 4.5372 2.2995
-9.9522 4.3036 2.2995
-10.0649 4.0668 2.2995
-10.1719 3.8271 2.2995
-10.2730 3.5846 2.2995
-10.3683 3.3394 2.2995
-10.4575 3.0916 2.2995
-10.5407 2.8415 2.2995
-10.6177 2.5891 2.2995
-10.6885 2.3346 2.2995
-10.7530 2.0782 2.2995
-10.8112 1.8200 2.2995
-10.9721 1.5758 2.3226
-11.0179 1.3120 2.3226
-11.0572 1.0468 2.3226
-11.0899 0.7805 2.3226
-11.1159 0.5132 2.3226
-11.1352 0.2451 2.3226
-11.1479 -0.0236 2.3226
-11.1538 -0.2928 2.3226
-11.1530 -0.5622 2.3226
-11.1454 -0.8317 2.3226
-11.1310 -1.1012 2.3226
-11.1098 -1.3704 2.3226
-11.0819 -1.6392 2.3226
-11.0471 -1.9074 2.3226
-11.0056 -2.1748 2.3226
-10.9574 -2.4412 2.3226
-10.9024 -2.7065 2.3226
-10.7329 -2.9409 2.2995
-10.6652 -3.2008 2.2995
-10.5909 -3.4590 2.2995
-10.5100 -3.7153 2.2995
-10.4226 -3.9697 2.2995
-10.3288 -4.2219 2.2995
-10.2286 -4.4717 2.2995
-10.1220 -4.7190 2.2995
-10.0092 -4.9636 2.2995
-9.8902 -5.2053 2.2995
-9.7650 -5.4441 2.2995
-9.6337 -5.6796 2.2995
-9.4965 -5.9118 2.2995
-9.3534 -6.1405 2.2995
-9.2045 -6.3655 2.2995
-9.0499 -6.5867 2.2995
-8.8897 -6.8039 2.2995
-9.1152 -7.3316 2.4026
-8.4596 -7.1470 2.4026
-8.2852 -7.3492 2.4026
-8.1057 -7.5468 2.4026
-7.9213 -7.7399 2.4026
-7.7320 -7.9282 2.4026
-7.5381 -8.1117 2.4026
-7.3396 -8.2901 2.4026
-7.1366 -8.4635 2.4026
-6.9293 -8.6316 2.4026
-6.7179 -8.7943 2.4026
-6.5024 -8.9517 2.4026
-6.2831 -9.1035 2.4026
-6.0601 -9.2497 2.4026
-5.8335 -9.3901 2.4026
-5.6035 -9.5247 2.4026
-5.3702 -9.6534 2.4026
-5.1339 -9.7761 2.4026
-4.8946 -9.8928 2.4026
-4.6525 -10.0033 2.4026
-4.4078 -10.1076 2.4026
-4.1607 -10.2057 2.4026
-3.9113 -10.2975 2.4026
-3.6598 -10.3829 2.4026
-3.4063 -10.4619 2.4026
-3.1511 -10.5344 2.4026
-2.8943 -10.6005 2.4026
-2.6360 -10.6600 2.4026
-2.3766 -10.7130 2.4026
-2.1160 -10.7594 2.4026
-1.8545 -10.7993 2.4026
-1.5396 -10.4740 2.3231
-1.2725 -10.3933 2.2995
-1.0206 -10.4125 2.2995
-0.7685 -10.4254 2.2995
-0.5164 -10.4319 2.2995
-0.2643 -10.4322 2.2995
-0.0126 -10.4262 2.2995
0.2387 -10.4139 2.2995
0.4894 -10.3954 2.2995
0.7394 -10.3706 2.2995
0.9884 -10.3397 2.2995
1.2364 -10.3027 2.2995
1.4831 -10.2595 2.2995
1.7285 -10.2103 2.2995
1.9723 -10.1551 2.2995
2.2145 -10.0939 2.2995
2.4548 -10.0269 2.2995
2.6932 -9.9539 2.2995
2.9295 -9.8752 2.2995
3.1635 -9.7909 2.2995
3.3923 -9.6928 2.2976
3.6212 -9.5972 2.2976
3.8474 -9.4962 2.2976
4.0709 -9.3898 2.2976
4.2915 -9.2781 2.2976
4.5090 -9.1611 2.2976
4.7234 -9.0390 2.2976
4.9345 -8.9118 2.2976
5.1422 -8.7797 2.2976
5.3464 -8.6427 2.2976
5.5469 -8.5010 2.2976
5.7438 -8.3545 2.2976
5.9368 -8.2035 2.2976
6.1259 -8.0481 2.2976
6.3109 -7.8883 2.2976
6.4919 -7.7242 2.2976
6.6686 -7.5560 2.2976
6.8410 -7.3838 2.2976
7.0090 -7.2077 2.2976
7.1725 -7.0278 2.2976
7.3315 -6.8443 2.2976
7.4859 -6.6572 2.2976
7.6355 -6.4666 2.2976
7.7804 -6.2728 2.2976
7.9204 -6.0757 2.2976
8.0555 -5.8756 2.2976
8.1857 -5.6725 2.2976
8.3108 -5.4666 2.2976
8.4308 -5.2581 2.2976
8.5458 -5.0469 2.2976
8.6555 -4.8333 2.2976
8.7600 -4.6174 2.2976
8.8593 -4.3994 2.2976
8.9533 -4.1792 2.2976
9.0419 -3.9572 2.2976
9.1252 -3.7333 2.2976
9.2030 -3.5078 2.2976
9.2754 -3.2807 2.2976
9.3424 -3.0522 2.2976
9.4040 -2.8224 2.2976
9.4600 -2.5914 2.2976
9.5105 -2.3595 2.2976
