ply
format ascii 1.0
element vertex 2173
property float32 x
property float32 y
property float32 z
end_header
-3.8714 6.2031 2.4020
-4.0219 6.1100 2.4020
-4.1702 6.0133 2.4020
-4.3162 5.9130 2.4020
-4.4599 5.8093 2.4020
-4.6011 5.7021 2.4020
-4.7397 5.5915 2.4020
-4.8757 5.4776 2.4020
-5.0090 5.3605 2.4020
-5.1395 5.2401 2.4020
-5.2672 5.1166 2.4020
-5.3919 4.9900 2.4020
-5.5136 4.8604 2.4020
-5.6322 4.7279 2.4020
-5.7476 4.5925 2.4020
-5.8599 4.4543 2.4020
-5.9688 4.3134 2.4020
-6.0697 4.1667 2.4002
-6.0571 3.9461 2.3556
-6.0479 3.7350 2.3150
-6.0968 3.5645 2.2989
-6.1844 3.4178 2.2989
-6.2684 3.2690 2.2989
-6.3489 3.1181 2.2989
-6.4257 2.9653 2.2989
-6.4989 2.8105 2.2989
-6.5684 2.6540 2.2989
-6.6341 2.4958 2.2989
-6.6960 2.3360 2.2989
-6.7541 2.1746 2.2989
-6.8082 2.0119 2.2989
-6.8585 1.8478 2.2989
-6.9048 1.6824 2.2989
-6.9471 1.5159 2.2989
-6.9854 1.3483 2.2989
-7.0196 1.1798 2.2989
-7.0498 1.0104 2.2989
-7.0758 0.8402 2.2989
-7.0978 0.6694 2.2989
-7.1156 0.4980 2.2989
-7.1292 0.3262 2.2989
-7.1387 0.1540 2.2989
-7.1440 -0.0185 2.2989
-7.1452 -0.1911 2.2989
-7.1421 -0.3637 2.2989
-7.1348 -0.5364 2.2989
-7.1233 -0.7088 2.2989
-7.1076 -0.8811 2.2989
-7.0878 -1.0529 2.2989
-7.0637 -1.2243 2.2989
-7.0355 -1.3952 2.2989
-7.0030 -1.5653 2.2989
-6.9665 -1.7347 2.2989
-6.9258 -1.9033 2.2989
-6.8809 -2.0708 2.2989
-6.8320 -2.2373 2.2989
-6.7790 -2.4026 2.2989
-6.7772 -2.5877 2.3178
-6.9262 -2.8380 2.3905
-6.8917 -3.0200 2.4020
-6.8199 -3.1869 2.4021
-6.7440 -3.3520 2.4022
-6.6640 -3.5153 2.4023
-6.5801 -3.6767 2.4024
-6.4922 -3.8360 2.4025
-6.4004 -3.9932 2.4026
-6.3048 -4.1481 2.4027
-6.2053 -4.3007 2.4029
-6.1021 -4.4509 2.4030
-5.9952 -4.5985 2.4031
-5.8847 -4.7436 2.4032
-5.5565 -4.7050 2.4034
-5.4432 -4.8392 2.4035
-5.3266 -4.9707 2.4036
-5.2068 -5.0994 2.4037
-5.0838 -5.2251 2.4038
-4.9578 -5.3477 2.4040
-4.8288 -5.4673 2.4041
-4.6968 -5.5837 2.4042
-4.5619 -5.6968 2.4043
-4.4243 -5.8066 2.4044
-4.2840 -5.9130 2.4045
-4.1411 -6.0160 2.4047
-3.9957 -6.1154 2.4048
-3.8478 -6.2112 2.4049
-3.6976 -6.3034 2.4050
-3.5451 -6.3916 2.4050
-3.3901 -6.4756 2.4049
-3.2331 -6.5558 2.4048
-3.0742 -6.6321 2.4046
-2.9135 -6.7044 2.4045
-2.7510 -6.7728 2.4044
-2.5869 -6.8372 2.4042
-2.4212 -6.8975 2.4041
-2.2542 -6.9537 2.4040
-2.0858 -7.0057 2.4038
-1.9161 -7.0536 2.4037
-1.7454 -7.0973 2.4036
-1.5736 -7.1368 2.4035
-1.4010 -7.1721 2.4033
-1.2275 -7.2031 2.4032
-1.0533 -7.2298 2.4031
-0.8786 -7.2522 2.4030
-0.7034 -7.2703 2.4028
-0.5278 -7.2841 2.4027
-0.3519 -7.2935 2.4026
-0.1759 -7.2987 2.4025
0.0001 -7.2995 2.4024
0.1761 -7.2959 2.4023
0.3519 -7.2881 2.4021
0.5275 -7.2759 2.4020
0.7026 -7.2596 2.4020
0.8559 -7.0619 2.3432
1.0063 -6.9048 2.2989
1.1899 -6.9804 2.3335
1.3375 -6.8452 2.2989
1.5019 -6.8094 2.2989
1.6652 -6.7695 2.2989
1.8275 -6.7256 2.2989
1.9887 -6.6777 2.2989
2.1486 -6.6260 2.2989
2.3071 -6.5703 2.2989
2.4642 -6.5107 2.2989
2.6197 -6.4474 2.2989
2.7736 -6.3803 2.2989
2.9257 -6.3094 2.2989
3.0760 -6.2349 2.2989
3.2244 -6.1567 2.2989
3.3708 -6.0749 2.2989
3.5151 -5.9896 2.2989
3.6572 -5.9008 2.2989
3.7970 -5.8086 2.2989
3.9345 -5.7130 2.2989
4.0696 -5.6142 2.2989
4.2022 -5.5121 2.2989
4.3322 -5.4068 2.2989
4.4595 -5.2984 2.2989
4.5841 -5.1870 2.2989
4.7059 -5.0727 2.2989
4.8248 -4.9554 2.2989
4.9408 -4.8353 2.2989
5.0538 -4.7125 2.2989
5.1637 -4.5870 2.2989
5.2705 -4.4589 2.2989
5.3740 -4.3283 2.2989
5.4744 -4.1953 2.2989
5.5714 -4.0600 2.2989
5.6650 -3.9224 2.2989
5.7553 -3.7826 2.2989
5.8421 -3.6407 2.2989
5.9253 -3.4968 2.2989
6.0051 -3.3510 2.2989
6.0812 -3.2034 2.2989
6.1537 -3.0540 2.2989
6.2225 -2.9030 2.2989
6.6999 -2.9309 2.4497
6.7532 -2.7618 2.4453
6.7421 -2.5690 2.4193
6.7720 -2.3946 2.4098
6.7595 -2.2080 2.3869
6.6751 -2.0033 2.3405
6.5933 -1.8063 2.2970
6.5262 -1.6194 2.2605
6.5094 -1.4492 2.2431
6.5012 -1.2833 2.2300
6.4927 -1.1194 2.2184
6.5148 -0.9616 2.2184
6.6289 -0.8153 2.2510
6.7554 -0.6655 2.2890
6.8216 -0.5059 2.3078
6.7923 -0.3389 2.2956
6.7635 -0.1737 2.2849
6.7323 -0.0101 2.2747
6.6985 0.1520 2.2650
6.6623 0.3125 2.2558
6.6243 0.4714 2.2472
6.5850 0.6290 2.2394
6.5422 0.7850 2.2317
6.4968 0.9394 2.2244
6.4490 1.0924 2.2175
6.3992 1.2438 2.2111
6.3528 1.3951 2.2070
6.1908 1.5173 2.1638
5.9641 1.6157 2.0986
5.8121 1.7265 2.0601
5.7234 1.8519 2.0448
5.6332 1.9745 2.0299
5.5389 2.0933 2.0145
5.4856 2.2263 2.0149
5.4431 2.3640 2.0205
5.4184 2.5108 2.0341
5.4136 2.6695 2.0567
5.4299 2.8430 2.0893
5.4444 3.0206 2.1231
5.4837 3.2184 2.1690
5.4828 3.3989 2.2013
5.4523 3.5655 2.2238
5.3905 3.7144 2.2354
5.2964 3.8419 2.2350
5.2222 3.9845 2.2444
5.1965 4.1677 2.2768
5.1422 4.3328 2.2989
5.0344 4.4547 2.2989
4.9237 4.5741 2.2989
4.8103 4.6907 2.2989
4.6942 4.8046 2.2989
4.5754 4.9156 2.2989
4.4540 5.0238 2.2989
4.3301 5.1291 2.2989
4.2038 5.2313 2.2989
4.0751 5.3306 2.2989
3.9442 5.4267 2.2989
3.8109 5.5196 2.2989
3.6756 5.6094 2.2989
3.5382 5.6959 2.2989
3.3987 5.7791 2.2989
3.2574 5.8590 2.2989
3.1142 5.9355 2.2989
2.9693 6.0085 2.2989
2.8226 6.0782 2.2989
2.6744 6.1443 2.2989
2.5247 6.2068 2.2989
2.3735 6.2658 2.2989
2.2210 6.3212 2.2989
2.0964 6.4629 2.3314
1.9122 6.4210 2.2989
1.8107 6.6662 2.3703
1.6708 6.7979 2.4020
1.5057 6.8365 2.4020
1.3398 6.8712 2.4020
1.1731 6.9019 2.4020
1.0056 6.9287 2.4020
0.8376 6.9515 2.4020
0.6691 6.9703 2.4020
0.5001 6.9851 2.4020
0.3309 6.9959 2.4020
0.1614 7.0027 2.4020
-0.0082 7.0055 2.4020
-0.1779 7.0042 2.4020
-0.3475 6.9989 2.4020
-0.5169 6.9896 2.4020
-0.6861 6.9763 2.4020
-0.8550 6.9589 2.4020
-1.0234 6.9376 2.4020
-1.1914 6.9122 2.4020
-1.3587 6.8829 2.4020
-1.5253 6.8495 2.4020
-1.6910 6.8123 2.4020
-1.8559 6.7710 2.4020
-2.0198 6.7259 2.4020
-2.1827 6.6769 2.4020
-2.3443 6.6240 2.4020
-2.5047 6.5672 2.4020
-2.6638 6.5066 2.4020
-2.8214 6.4423 2.4020
-2.9774 6.3742 2.4020
-3.1319 6.3024 2.4020
-3.2846 6.2269 2.4020
-3.4356 6.1477 2.4020
-3.5846 6.0650 2.4020
-3.7317 5.9786 2.4020
-3.8768 5.8888 2.4020
-4.0197 5.7955 2.4020
-4.1604 5.6988 2.4020
-4.2988 5.5987 2.4020
-4.4348 5.4953 2.4020
-4.5683 5.3887 2.4020
-4.6994 5.2788 2.4020
-4.8278 5.1658 2.4020
-4.9535 5.0497 2.4020
-5.0764 4.9306 2.4020
-5.1966 4.8086 2.4020
-5.3138 4.6836 2.4020
-5.4280 4.5558 2.4020
-5.5392 4.4253 2.4020
-5.6472 4.2920 2.4020
-5.7521 4.1562 2.4020
-5.8537 4.0178 2.4020
-5.9521 3.8770 2.4020
-6.0392 3.7290 2.3989
-6.0281 3.5237 2.3588
-6.0186 3.3256 2.3218
-6.0402 3.1494 2.2989
-6.1177 3.0040 2.2989
-6.1916 2.8566 2.2989
-6.2620 2.7075 2.2989
-6.3288 2.5567 2.2989
-6.3920 2.4042 2.2989
-6.4516 2.2502 2.2989
-6.5074 2.0947 2.2989
-6.5595 1.9378 2.2989
-6.6078 1.7797 2.2989
-6.6523 1.6203 2.2989
-6.6929 1.4598 2.2989
-6.7297 1.2984 2.2989
-6.7625 1.1360 2.2989
-6.7915 0.9728 2.2989
-6.8165 0.8089 2.2989
-6.8375 0.6443 2.2989
-6.8545 0.4792 2.2989
-6.8676 0.3137 2.2989
-6.8766 0.1478 2.2989
-6.8816 -0.0183 2.2989
-6.8825 -0.1846 2.2989
-6.8794 -0.3509 2.2989
-6.8723 -0.5171 2.2989
-6.8612 -0.6833 2.2989
-6.8459 -0.8491 2.2989
-6.8267 -1.0146 2.2989
-6.8034 -1.1797 2.2989
-6.7761 -1.3442 2.2989
-6.7448 -1.5081 2.2989
-6.7094 -1.6712 2.2989
-6.6701 -1.8335 2.2989
-6.6269 -1.9948 2.2989
-6.5796 -2.1551 2.2989
-6.6130 -2.3442 2.3287
-6.7529 -2.5789 2.3981
-6.7023 -2.7467 2.4020
-6.6370 -2.9089 2.4021
-6.5677 -3.0696 2.4022
-6.4946 -3.2285 2.4023
-6.4175 -3.3857 2.4024
-6.3366 -3.5411 2.4025
-6.2518 -3.6944 2.4026
-6.1634 -3.8457 2.4027
-6.0712 -3.9949 2.4028
-5.9753 -4.1418 2.4029
-5.8758 -4.2863 2.4030
-5.7729 -4.4284 2.4031
-5.6664 -4.5680 2.4033
-5.3562 -4.5358 2.4034
-5.2470 -4.6652 2.4035
-5.1345 -4.7919 2.4036
-5.0190 -4.9158 2.4037
-4.9004 -5.0369 2.4039
-4.7789 -5.1551 2.4040
-4.6545 -5.2703 2.4041
-4.5272 -5.3825 2.4042
-4.3972 -5.4914 2.4043
-4.2645 -5.5972 2.4044
-4.1293 -5.6998 2.4045
-3.9915 -5.7989 2.4047
-3.8513 -5.8947 2.4048
-3.7088 -5.9870 2.4049
-3.5640 -6.0758 2.4050
-3.4170 -6.1610 2.4051
-3.2676 -6.2419 2.4049
-3.1163 -6.3192 2.4048
-2.9632 -6.3927 2.4047
-2.8082 -6.4624 2.4045
-2.6516 -6.5283 2.4044
-2.4934 -6.5904 2.4043
-2.3338 -6.6485 2.4042
-2.1728 -6.7027 2.4040
-2.0105 -6.7528 2.4039
-1.8470 -6.7990 2.4038
-1.6824 -6.8412 2.4037
-1.5169 -6.8792 2.4035
-1.3504 -6.9132 2.4034
-1.1833 -6.9431 2.4033
-1.0154 -6.9689 2.4032
-0.8470 -6.9905 2.4031
-0.6781 -7.0080 2.4029
-0.5089 -7.0213 2.4028
-0.3394 -7.0305 2.4027
-0.1697 -7.0354 2.4026
-0.0000 -7.0362 2.4025
0.1696 -7.0329 2.4024
0.3391 -7.0253 2.4022
0.5083 -7.0136 2.4021
0.6771 -6.9977 2.4020
0.8455 -6.9780 2.4020
0.9903 -6.7962 2.3474
1.1298 -6.6291 2.2989
1.2891 -6.5984 2.2989
1.4475 -6.5639 2.2989
1.6050 -6.5255 2.2989
1.7614 -6.4833 2.2989
1.9168 -6.4372 2.2989
2.0709 -6.3873 2.2989
2.2237 -6.3337 2.2989
2.3751 -6.2764 2.2989
2.5251 -6.2154 2.2989
2.6734 -6.1508 2.2989
2.8201 -6.0825 2.2989
2.9650 -6.0107 2.2989
3.1081 -5.9354 2.2989
3.2493 -5.8567 2.2989
3.3884 -5.7745 2.2989
3.5255 -5.6890 2.2989
3.6603 -5.6002 2.2989
3.7929 -5.5081 2.2989
3.9232 -5.4129 2.2989
4.0511 -5.3145 2.2989
4.1764 -5.2131 2.2989
4.2992 -5.1087 2.2989
4.4194 -5.0014 2.2989
4.5369 -4.8912 2.2989
4.6517 -4.7782 2.2989
4.7636 -4.6625 2.2989
4.8725 -4.5441 2.2989
4.9786 -4.4232 2.2989
5.0816 -4.2998 2.2989
5.1815 -4.1739 2.2989
5.2784 -4.0457 2.2989
5.3720 -3.9153 2.2989
5.4624 -3.7826 2.2989
5.5495 -3.6479 2.2989
5.6332 -3.5111 2.2989
5.7136 -3.3725 2.2989
5.7906 -3.2319 2.2989
5.8641 -3.0896 2.2989
5.9341 -2.9456 2.2989
6.0006 -2.8001 2.2989
6.0635 -2.6530 2.2989
6.1227 -2.5045 2.2989
6.1784 -2.3547 2.2989
6.2304 -2.2037 2.2989
6.6249 -2.1646 2.4257
6.6305 -1.9905 2.4106
6.5560 -1.7966 2.3682
6.4937 -1.6119 2.3322
6.4850 -1.4443 2.3170
6.4770 -1.2791 2.3036
6.4688 -1.1157 2.2915
6.5028 -0.9604 2.2958
6.5976 -0.8120 2.3228
6.6534 -0.6560 2.3373
6.6346 -0.4926 2.3270
6.6081 -0.3302 2.3153
6.5787 -0.1694 2.3040
6.5464 -0.0103 2.2931
6.5113 0.1472 2.2825
6.4785 0.3034 2.2739
6.4469 0.4583 2.2671
6.4084 0.6117 2.2592
6.3674 0.7635 2.2516
6.3239 0.9140 2.2444
6.2779 1.0629 2.2376
6.2323 1.2109 2.2321
6.1846 1.3577 2.2271
6.1057 1.4961 2.2121
5.9119 1.6011 2.1562
5.7559 1.7093 2.1146
5.6685 1.8337 2.0991
5.5815 1.9560 2.0847
5.4917 2.0751 2.0701
5.4450 2.2094 2.0729
5.4209 2.3539 2.0856
5.3961 2.5001 2.0995
5.3840 2.6545 2.1200
5.3997 2.8268 2.1533
5.4418 3.0188 2.1993
5.4752 3.2130 2.2444
5.4706 3.3909 2.2762
5.4354 3.5540 2.2975
5.3494 3.6857 2.2989
5.2570 3.8129 2.2989
5.1616 3.9378 2.2989
5.0633 4.0604 2.2989
4.9621 4.1806 2.2989
4.8581 4.2983 2.2989
4.7513 4.4135 2.2989
4.6419 4.5261 2.2989
4.5299 4.6361 2.2989
4.4153 4.7433 2.2989
4.2982 4.8477 2.2989
4.1787 4.9493 2.2989
4.0568 5.0480 2.2989
3.9326 5.1438 2.2989
3.8062 5.2366 2.2989
3.6777 5.3264 2.2989
3.5471 5.4130 2.2989
3.4145 5.4965 2.2989
3.2799 5.5769 2.2989
3.1435 5.6540 2.2989
3.0054 5.7278 2.2989
2.8655 5.7983 2.2989
2.7240 5.8655 2.2989
2.5810 5.9293 2.2989
2.4364 5.9897 2.2989
2.2906 6.0467 2.2989
2.1440 6.1019 2.2996
1.9949 6.1501 2.2989
1.8611 6.2492 2.3185
1.7708 6.5191 2.4020
1.6124 6.5602 2.4020
1.4531 6.5974 2.4020
1.2929 6.6309 2.4020
1.1320 6.6605 2.4020
0.9704 6.6864 2.4020
0.8082 6.7084 2.4020
0.6456 6.7265 2.4020
0.4826 6.7408 2.4020
0.3192 6.7512 2.4020
0.1556 6.7577 2.4020
-0.0081 6.7604 2.4020
-0.1718 6.7591 2.4020
-0.3355 6.7540 2.4020
-0.4990 6.7449 2.4020
-0.6623 6.7320 2.4020
-0.8253 6.7153 2.4020
-0.9878 6.6946 2.4020
-1.1499 6.6701 2.4020
-1.3113 6.6417 2.4020
-1.4721 6.6095 2.4020
-1.6320 6.5735 2.4020
-1.7911 6.5337 2.4020
-1.9493 6.4900 2.4020
-2.1064 6.4427 2.4020
-2.2624 6.3916 2.4020
-2.4172 6.3367 2.4020
-2.5706 6.2782 2.4020
-2.7227 6.2161 2.4020
-2.8732 6.1503 2.4020
-3.0222 6.0809 2.4020
-3.1696 6.0080 2.4020
-3.3152 5.9316 2.4020
-3.4590 5.8516 2.4020
-3.6009 5.7683 2.4020
-3.7408 5.6815 2.4020
-3.8787 5.5915 2.4020
-4.0144 5.4981 2.4020
-4.1478 5.4014 2.4020
-4.2790 5.3016 2.4020
-4.4078 5.1986 2.4020
-4.5342 5.0926 2.4020
-4.6580 4.9835 2.4020
-4.7792 4.8714 2.4020
-4.8978 4.7564 2.4020
-5.0136 4.6386 2.4020
-5.1266 4.5180 2.4020
-5.2367 4.3946 2.4020
-5.3439 4.2686 2.4020
-5.4481 4.1400 2.4020
-5.5492 4.0089 2.4020
-5.6471 3.8754 2.4020
-5.7419 3.7395 2.4020
-5.8334 3.6012 2.4020
-5.9216 3.4608 2.4020
-6.0064 3.3182 2.4020
-6.0003 3.1280 2.3675
-5.9912 2.9413 2.3340
-5.9822 2.7595 2.3027
-6.0402 2.6110 2.2989
-6.1046 2.4655 2.2989
-6.1654 2.3184 2.2989
-6.2227 2.1698 2.2989
-6.2765 2.0198 2.2989
-6.3266 1.8685 2.2989
-6.3731 1.7159 2.2989
-6.4159 1.5622 2.2989
-6.4550 1.4074 2.2989
-6.4903 1.2517 2.2989
-6.5219 1.0951 2.2989
-6.5497 0.9377 2.2989
-6.5737 0.7796 2.2989
-6.5939 0.6209 2.2989
-6.6102 0.4616 2.2989
-6.6227 0.3020 2.2989
-6.6313 0.1420 2.2989
-6.6360 -0.0182 2.2989
-6.6368 -0.1785 2.2989
-6.6337 -0.3388 2.2989
-6.6267 -0.4992 2.2989
-6.6159 -0.6593 2.2989
-6.6011 -0.8192 2.2989
-6.5824 -0.9788 2.2989
-6.5599 -1.1380 2.2989
-6.5334 -1.2966 2.2989
-6.5031 -1.4546 2.2989
-6.4690 -1.6118 2.2989
-6.4310 -1.7682 2.2989
-6.4147 -1.9315 2.3081
-6.4715 -2.1202 2.3453
-6.5903 -2.3367 2.4071
-6.5209 -2.4908 2.4020
-6.4618 -2.6486 2.4021
-6.3988 -2.8050 2.4022
-6.3319 -2.9598 2.4023
-6.2613 -3.1130 2.4024
-6.1869 -3.2645 2.4025
-6.1088 -3.4142 2.4026
-6.0271 -3.5620 2.4027
-5.9417 -3.7078 2.4028
-5.8527 -3.8516 2.4029
-5.7602 -3.9931 2.4030
-5.6643 -4.1324 2.4031
-5.5649 -4.2693 2.4032
-5.4622 -4.4038 2.4033
-5.1685 -4.3773 2.4035
-5.0630 -4.5021 2.4036
-4.9545 -4.6243 2.4037
-4.8430 -4.7438 2.4038
-4.7285 -4.8606 2.4039
-4.6112 -4.9746 2.4040
-4.4911 -5.0857 2.4041
-4.3683 -5.1939 2.4042
-4.2428 -5.2990 2.4043
-4.1148 -5.4010 2.4044
-3.9842 -5.4999 2.4045
-3.8513 -5.5955 2.4047
-3.7160 -5.6879 2.4048
-3.5785 -5.7769 2.4049
-3.4387 -5.8626 2.4050
-3.2969 -5.9448 2.4051
-3.1528 -6.0229 2.4050
-3.0069 -6.0974 2.4048
-2.8591 -6.1684 2.4047
-2.7096 -6.2357 2.4046
-2.5585 -6.2992 2.4045
-2.4059 -6.3591 2.4043
-2.2518 -6.4152 2.4042
-2.0965 -6.4674 2.4041
-1.9399 -6.5159 2.4040
-1.7821 -6.5604 2.4039
-1.6234 -6.6011 2.4037
-1.4637 -6.6379 2.4036
-1.3031 -6.6707 2.4035
-1.1418 -6.6995 2.4034
-0.9798 -6.7244 2.4033
-0.8173 -6.7453 2.4032
-0.6544 -6.7622 2.4030
-0.4911 -6.7751 2.4029
-0.3276 -6.7839 2.4028
-0.1639 -6.7887 2.4027
-0.0002 -6.7895 2.4026
0.1635 -6.7863 2.4025
0.3270 -6.7790 2.4023
0.4903 -6.7678 2.4022
0.6532 -6.7525 2.4021
0.8156 -6.7333 2.4020
0.9775 -6.7104 2.4020
1.1156 -6.5471 2.3530
1.2436 -6.3671 2.2989
1.3965 -6.3338 2.2989
1.5547 -6.3223 2.3082
1.6994 -6.2561 2.2989
1.8494 -6.2117 2.2989
1.9981 -6.1637 2.2989
2.1456 -6.1120 2.2989
2.2917 -6.0568 2.2989
2.4364 -5.9980 2.2989
2.5796 -5.9356 2.2989
2.7212 -5.8699 2.2989
2.8610 -5.8006 2.2989
2.9991 -5.7280 2.2989
3.1354 -5.6521 2.2989
3.2697 -5.5729 2.2989
3.4019 -5.4904 2.2989
3.5321 -5.4048 2.2989
3.6601 -5.3160 2.2989
3.7859 -5.2241 2.2989
3.9094 -5.1293 2.2989
4.0304 -5.0315 2.2989
4.1490 -4.9308 2.2989
4.2650 -4.8273 2.2989
4.3785 -4.7210 2.2989
4.4893 -4.6120 2.2989
4.5973 -4.5004 2.2989
4.7026 -4.3862 2.2989
4.8050 -4.2696 2.2989
4.9045 -4.1505 2.2989
5.0010 -4.0291 2.2989
5.0945 -3.9054 2.2989
5.1850 -3.7796 2.2989
5.2723 -3.6516 2.2989
5.3564 -3.5216 2.2989
5.4374 -3.3896 2.2989
5.5151 -3.2558 2.2989
5.5894 -3.1202 2.2989
5.6605 -2.9829 2.2989
5.7281 -2.8440 2.2989
5.7924 -2.7035 2.2989
5.8532 -2.5616 2.2989
5.9105 -2.4182 2.2989
5.9643 -2.2737 2.2989
6.0146 -2.1279 2.2989
6.0613 -1.9810 2.2989
6.1044 -1.8331 2.2989
6.1439 -1.6842 2.2989
6.1798 -1.5345 2.2989
6.2121 -1.3841 2.2989
6.2407 -1.2329 2.2989
6.2657 -1.0812 2.2989
6.4713 -0.9563 2.3663
6.4653 -0.7962 2.3575
6.4610 -0.6376 2.3508
6.4412 -0.4787 2.3398
6.4165 -0.3211 2.3284
6.3889 -0.1651 2.3174
6.3585 -0.0105 2.3067
6.3309 0.1427 2.2983
6.3068 0.2948 2.2925
6.2765 0.4457 2.2858
6.2397 0.5951 2.2780
6.2004 0.7430 2.2706
6.1586 0.8896 2.2635
6.1165 1.0351 2.2576
6.0728 1.1795 2.2523
6.0267 1.3226 2.2474
6.0028 1.4704 2.2520
5.8601 1.5867 2.2132
5.7003 1.6924 2.1685
5.6142 1.8158 2.1527
5.5284 1.9370 2.1381
5.4486 2.0584 2.1267
5.4228 2.2000 2.1376
5.3987 2.3439 2.1506
5.3739 2.4894 2.1649
5.3545 2.6396 2.1830
5.3697 2.8106 2.2171
5.4424 3.0187 2.2774
5.4167 3.1782 2.2989
5.3364 3.3073 2.2989
5.2531 3.4344 2.2989
5.1668 3.5595 2.2989
5.0776 3.6824 2.2989
4.9855 3.8031 2.2989
4.8906 3.9216 2.2989
4.7929 4.0377 2.2989
4.6925 4.1514 2.2989
4.5894 4.2627 2.2989
4.4837 4.3715 2.2989
4.3755 4.4778 2.2989
4.2649 4.5814 2.2989
4.1518 4.6823 2.2989
4.0364 4.7805 2.2989
3.9187 4.8758 2.2989
3.7987 4.9684 2.2989
3.6767 5.0580 2.2989
3.5525 5.1448 2.2989
3.4264 5.2285 2.2989
3.2983 5.3092 2.2989
3.1683 5.3868 2.2989
3.0366 5.4613 2.2989
2.9031 5.5327 2.2989
2.7680 5.6008 2.2989
2.6313 5.6658 2.2989
2.4931 5.7274 2.2989
2.3535 5.7858 2.2989
2.2126 5.8408 2.2989
2.0704 5.8924 2.2989
1.9270 5.9407 2.2989
1.8426 6.1871 2.3763
1.7105 6.2972 2.4020
1.5575 6.3368 2.4020
1.4036 6.3728 2.4020
1.2488 6.4051 2.4020
1.0934 6.4338 2.4020
0.9373 6.4587 2.4020
0.7806 6.4799 2.4020
0.6235 6.4975 2.4020
0.4660 6.5112 2.4020
0.3082 6.5213 2.4020
0.1502 6.5275 2.4020
-0.0079 6.5301 2.4020
-0.1661 6.5288 2.4020
-0.3242 6.5238 2.4020
-0.4822 6.5151 2.4020
-0.6399 6.5026 2.4020
-0.7973 6.4863 2.4020
-0.9543 6.4664 2.4020
-1.1109 6.4426 2.4020
-1.2668 6.4152 2.4020
-1.4221 6.3840 2.4020
-1.5766 6.3492 2.4020
-1.7303 6.3107 2.4020
-1.8831 6.2685 2.4020
-2.0348 6.2227 2.4020
-2.1855 6.1733 2.4020
-2.3349 6.1203 2.4020
-2.4831 6.0637 2.4020
-2.6300 6.0036 2.4020
-2.7754 5.9400 2.4020
-2.9193 5.8729 2.4020
-3.0615 5.8024 2.4020
-3.2022 5.7285 2.4020
-3.3410 5.6513 2.4020
-3.4780 5.5707 2.4020
-3.6131 5.4869 2.4020
-3.7462 5.3998 2.4020
-3.8772 5.3096 2.4020
-4.0061 5.2162 2.4020
-4.1327 5.1197 2.4020
-4.2571 5.0202 2.4020
-4.3791 4.9177 2.4020
-4.4986 4.8123 2.4020
-4.6156 4.7040 2.4020
-4.7300 4.5929 2.4020
-4.8418 4.4790 2.4020
-4.9509 4.3625 2.4020
-5.0571 4.2433 2.4020
-5.1606 4.1216 2.4020
-5.2611 3.9973 2.4020
-5.3586 3.8707 2.4020
-5.4531 3.7417 2.4020
-5.5446 3.6104 2.4020
-5.6329 3.4769 2.4020
-5.7179 3.3412 2.4020
-5.7998 3.2035 2.4020
-5.8783 3.0638 2.4020
-5.9535 2.9222 2.4020
-5.9734 2.7548 2.3814
-5.9668 2.5788 2.3521
-5.9613 2.4071 2.3251
-5.9565 2.2393 2.3004
-6.0080 2.0944 2.2989
-6.0598 1.9495 2.2989
-6.1159 1.8057 2.3018
-6.1529 1.6561 2.2989
-6.1941 1.5077 2.2989
-6.2317 1.3582 2.2989
-6.2658 1.2079 2.2989
-6.2962 1.0567 2.2989
-6.3229 0.9047 2.2989
-6.3460 0.7520 2.2989
-6.3654 0.5988 2.2989
-6.3810 0.4451 2.2989
-6.3929 0.2910 2.2989
-6.4011 0.1366 2.2989
-6.4056 -0.0180 2.2989
-6.4063 -0.1728 2.2989
-6.4032 -0.3276 2.2989
-6.3964 -0.4823 2.2989
-6.3858 -0.6369 2.2989
-6.3714 -0.7912 2.2989
-6.3533 -0.9452 2.2989
-6.3315 -1.0988 2.2989
-6.3059 -1.2519 2.2989
-6.2766 -1.4043 2.2989
-6.2930 -1.5684 2.3171
-6.3465 -1.7455 2.3507
-6.4013 -1.9279 2.3865
-6.3968 -2.0962 2.4020
-6.3469 -2.2509 2.4020
-6.2935 -2.4044 2.4021
-6.2363 -2.5567 2.4022
-6.1754 -2.7075 2.4023
-6.1108 -2.8569 2.4024
-6.0426 -3.0048 2.4025
-5.9707 -3.1509 2.4026
-5.8953 -3.2953 2.4027
-5.8163 -3.4379 2.4028
-5.7338 -3.5786 2.4028
-5.6479 -3.7172 2.4029
-5.5586 -3.8538 2.4030
-5.4660 -3.9881 2.4031
-5.3700 -4.1202 2.4032
-5.2708 -4.2499 2.4034
-4.9922 -4.2283 2.4035
-4.8902 -4.3488 2.4036
-4.7854 -4.4668 2.4037
-4.6776 -4.5822 2.4038
-4.5670 -4.6950 2.4039
-4.4537 -4.8050 2.4040
-4.3377 -4.9123 2.4041
-4.2190 -5.0167 2.4042
-4.0978 -5.1182 2.4043
-3.9741 -5.2167 2.4044
-3.8480 -5.3121 2.4045
-3.7196 -5.4045 2.4046
-3.5889 -5.4937 2.4048
-3.4560 -5.5796 2.4049
-3.3211 -5.6623 2.4050
-3.1841 -5.7417 2.4051
-3.0450 -5.8172 2.4050
-2.9040 -5.8892 2.4049
-2.7613 -5.9577 2.4048
-2.6169 -6.0226 2.4046
-2.4710 -6.0840 2.4045
-2.3236 -6.1418 2.4044
-2.1749 -6.1960 2.4043
-2.0248 -6.2465 2.4042
-1.8736 -6.2933 2.4040
-1.7213 -6.3363 2.4039
-1.5679 -6.3756 2.4038
-1.4137 -6.4111 2.4037
-1.2586 -6.4428 2.4036
-1.1029 -6.4707 2.4035
-0.9464 -6.4947 2.4033
-0.7895 -6.5149 2.4032
-0.6321 -6.5312 2.4031
-0.4744 -6.5437 2.4030
-0.3165 -6.5523 2.4029
-0.1584 -6.5569 2.4028
-0.0003 -6.5577 2.4026
0.1578 -6.5547 2.4025
0.3157 -6.5477 2.4024
0.4734 -6.5369 2.4023
0.6307 -6.5222 2.4022
0.7876 -6.5037 2.4021
0.9440 -6.4813 2.4020
1.0997 -6.4553 2.4020
1.2328 -6.3128 2.3598
1.3514 -6.1303 2.3036
1.4954 -6.0821 2.2989
1.6549 -6.0933 2.3181
1.7860 -5.9999 2.2989
1.9297 -5.9536 2.2989
2.0721 -5.9037 2.2989
2.2133 -5.8504 2.2989
2.3531 -5.7937 2.2989
2.4914 -5.7335 2.2989
2.6282 -5.6700 2.2989
2.7633 -5.6032 2.2989
2.8967 -5.5332 2.2989
3.0283 -5.4599 2.2989
3.1581 -5.3834 2.2989
3.2859 -5.3038 2.2989
3.4117 -5.2212 2.2989
3.5354 -5.1355 2.2989
3.6569 -5.0468 2.2989
3.7762 -4.9552 2.2989
3.8932 -4.8608 2.2989
4.0077 -4.7636 2.2989
4.1199 -4.6636 2.2989
4.2296 -4.5610 2.2989
4.3366 -4.4558 2.2989
4.4410 -4.3480 2.2989
4.5428 -4.2378 2.2989
4.6418 -4.1252 2.2989
4.7380 -4.0102 2.2989
4.8313 -3.8930 2.2989
4.9217 -3.7735 2.2989
5.0092 -3.6520 2.2989
5.0936 -3.5284 2.2989
5.1750 -3.4029 2.2989
5.2532 -3.2754 2.2989
5.3284 -3.1462 2.2989
5.4003 -3.0152 2.2989
5.4690 -2.8826 2.2989
5.5345 -2.7484 2.2989
5.5966 -2.6127 2.2989
5.6555 -2.4756 2.2989
5.7109 -2.3371 2.2989
5.7630 -2.1975 2.2989
5.8117 -2.0566 2.2989
5.8569 -1.9147 2.2989
5.8986 -1.7718 2.2989
5.9369 -1.6280 2.2989
5.9717 -1.4833 2.2989
6.0030 -1.3380 2.2989
6.0307 -1.1919 2.2989
6.0549 -1.0454 2.2989
6.0755 -0.8983 2.2989
6.0926 -0.7508 2.2989
6.1061 -0.6030 2.2989
6.1161 -0.4550 2.2989
6.1225 -0.3069 2.2989
6.1253 -0.1587 2.2989
6.1246 -0.0106 2.2989
6.1203 0.1375 2.2989
6.1124 0.2853 2.2989
6.1010 0.4328 2.2989
6.0784 0.5792 2.2960
6.0407 0.7235 2.2887
6.0021 0.8665 2.2824
5.9623 1.0086 2.2768
5.9200 1.1494 2.2716
5.8755 1.2889 2.2667
5.8467 1.4317 2.2693
5.7980 1.5694 2.2654
5.6453 1.6757 2.2218
5.5605 1.7980 2.2058
5.4845 1.9212 2.1943
5.4177 2.0463 2.1876
5.3857 2.1845 2.1962
5.3695 2.3308 2.2127
5.3516 2.4787 2.2303
5.3261 2.6252 2.2462
5.3769 2.8140 2.2965
5.3109 2.9454 2.2989
5.2364 3.0720 2.2989
5.1588 3.1969 2.2989
5.0783 3.3198 2.2989
4.9949 3.4407 2.2989
4.9087 3.5595 2.2989
4.8197 3.6763 2.2989
4.7280 3.7908 2.2989
4.6336 3.9031 2.2989
4.5365 4.0131 2.2989
4.4369 4.1208 2.2989
4.3348 4.2260 2.2989
4.2302 4.3287 2.2989
4.1233 4.4289 2.2989
4.0140 4.5265 2.2989
3.9024 4.6215 2.2989
3.7886 4.7137 2.2989
3.6727 4.8032 2.2989
3.5547 4.8899 2.2989
3.4347 4.9738 2.2989
3.3127 5.0548 2.2989
3.1889 5.1328 2.2989
3.0632 5.2079 2.2989
2.9359 5.2800 2.2989
2.8068 5.3490 2.2989
2.6762 5.4149 2.2989
2.5440 5.4777 2.2989
2.4104 5.5373 2.2989
2.2755 5.5937 2.2989
2.1589 5.6989 2.3201
2.0017 5.6969 2.2989
1.8876 5.8191 2.3292
1.8007 6.0464 2.4020
1.6537 6.0882 2.4020
1.5058 6.1265 2.4020
1.3570 6.1613 2.4020
1.2074 6.1926 2.4020
1.0571 6.2203 2.4020
0.9061 6.2444 2.4020
0.7547 6.2649 2.4020
0.6027 6.2818 2.4020
0.4504 6.2951 2.4020
0.2979 6.3048 2.4020
0.1451 6.3108 2.4020
-0.0078 6.3132 2.4020
-0.1607 6.3120 2.4020
-0.3136 6.3072 2.4020
-0.4663 6.2987 2.4020
-0.6188 6.2866 2.4020
-0.7710 6.2708 2.4020
-0.9228 6.2515 2.4020
-1.0742 6.2285 2.4020
-1.2249 6.2019 2.4020
-1.3751 6.1718 2.4020
-1.5244 6.1380 2.4020
-1.6730 6.1007 2.4020
-1.8207 6.0599 2.4020
-1.9674 6.0156 2.4020
-2.1130 5.9678 2.4020
-2.2575 5.9165 2.4020
-2.4007 5.8617 2.4020
-2.5427 5.8036 2.4020
-2.6832 5.7421 2.4020
-2.8223 5.6772 2.4020
-2.9599 5.6090 2.4020
-3.0958 5.5375 2.4020
-3.2300 5.4627 2.4020
-3.3624 5.3848 2.4020
-3.4929 5.3037 2.4020
-3.6216 5.2195 2.4020
-3.7482 5.1322 2.4020
-3.8727 5.0418 2.4020
-3.9951 4.9485 2.4020
-4.1152 4.8523 2.4020
-4.2331 4.7531 2.4020
-4.3486 4.6512 2.4020
-4.4616 4.5464 2.4020
-4.5722 4.4390 2.4020
-4.6802 4.3289 2.4020
-4.7855 4.2162 2.4020
-4.8882 4.1009 2.4020
-4.9881 3.9832 2.4020
-5.0852 3.8631 2.4020
-5.1794 3.7406 2.4020
-5.2707 3.6159 2.4020
-5.3590 3.4889 2.4020
-5.4442 3.3598 2.4020
-5.5264 3.2287 2.4020
-5.6054 3.0955 2.4020
-5.6812 2.9605 2.4020
-5.7537 2.8236 2.4020
-5.8230 2.6849 2.4020
-5.8890 2.5446 2.4020
-5.9515 2.4026 2.4020
-5.9473 2.2353 2.3767
-5.9418 2.0708 2.3526
-5.9365 1.9093 2.3305
-5.9319 1.7509 2.3103
-5.9458 1.5998 2.2989
-5.9855 1.4564 2.2989
-6.0218 1.3120 2.2989
-6.0546 1.1667 2.2989
-6.0839 1.0205 2.2989
-6.1097 0.8737 2.2989
-6.1319 0.7262 2.2989
-6.1505 0.5781 2.2989
-6.1655 0.4296 2.2989
-6.1770 0.2807 2.2989
-6.1848 0.1315 2.2989
-6.1890 -0.0179 2.2989
-6.1896 -0.1674 2.2989
-6.1865 -0.3169 2.2989
-6.1799 -0.4664 2.2989
-6.1695 -0.6158 2.2989
-6.1556 -0.7649 2.2989
-6.1380 -0.9137 2.2989
-6.1280 -1.0639 2.3031
-6.1776 -1.2269 2.3312
-6.2283 -1.3940 2.3614
-6.2795 -1.5655 2.3934
-6.2649 -1.7235 2.4020
-6.2240 -1.8750 2.4020
-6.1796 -2.0255 2.4021
-6.1315 -2.1749 2.4021
-6.0798 -2.3232 2.4022
-6.0244 -2.4702 2.4023
-5.9655 -2.6160 2.4024
-5.9030 -2.7602 2.4025
-5.8370 -2.9030 2.4025
-5.7676 -3.0441 2.4026
-5.6946 -3.1836 2.4027
-5.6183 -3.3213 2.4028
-5.5385 -3.4571 2.4029
-5.4555 -3.5910 2.4030
-5.3692 -3.7228 2.4031
-5.2796 -3.8526 2.4032
-5.1869 -3.9801 2.4033
-5.0911 -4.1054 2.4034
-4.8261 -4.0881 2.4035
-4.7276 -4.2045 2.4036
-4.6262 -4.3185 2.4037
-4.5219 -4.4301 2.4038
-4.4150 -4.5391 2.4039
-4.3054 -4.6454 2.4040
-4.1932 -4.7491 2.4041
-4.0785 -4.8499 2.4042
-3.9613 -4.9480 2.4043
-3.8417 -5.0432 2.4044
-3.7198 -5.1354 2.4045
-3.5956 -5.2247 2.4046
-3.4693 -5.3108 2.4047
-3.3408 -5.3939 2.4048
-3.2104 -5.4738 2.4050
-3.0780 -5.5504 2.4051
-2.9436 -5.6235 2.4050
-2.8073 -5.6931 2.4049
-2.6693 -5.7593 2.4048
-2.5297 -5.8221 2.4047
-2.3887 -5.8815 2.4046
-2.2462 -5.9373 2.4044
-2.1024 -5.9897 2.4043
-1.9574 -6.0385 2.4042
-1.8112 -6.0837 2.4041
-1.6640 -6.1253 2.4040
-1.5157 -6.1633 2.4039
-1.3666 -6.1976 2.4037
-1.2168 -6.2283 2.4036
-1.0662 -6.2553 2.4035
-0.9150 -6.2785 2.4034
-0.7633 -6.2980 2.4033
-0.6112 -6.3138 2.4032
-0.4588 -6.3259 2.4031
-0.3061 -6.3342 2.4029
-0.1533 -6.3388 2.4028
-0.0004 -6.3396 2.4027
0.1524 -6.3366 2.4026
0.3050 -6.3300 2.4025
0.4575 -6.3195 2.4024
0.6095 -6.3054 2.4023
0.7612 -6.2875 2.4022
0.9124 -6.2659 2.4021
1.0629 -6.2406 2.4020
1.2128 -6.2119 2.4020
1.3426 -6.0917 2.3679
1.4485 -5.8922 2.3037
1.5864 -5.8419 2.2989
1.7411 -5.8499 2.3185
1.8653 -5.7558 2.2989
2.0030 -5.7076 2.2989
2.1395 -5.6562 2.2989
2.2746 -5.6013 2.2989
2.4084 -5.5433 2.2989
2.5406 -5.4819 2.2989
2.6713 -5.4174 2.2989
2.8003 -5.3497 2.2989
2.9276 -5.2789 2.2989
3.0530 -5.2050 2.2989
3.1766 -5.1281 2.2989
3.2983 -5.0483 2.2989
3.4179 -4.9655 2.2989
3.5354 -4.8798 2.2989
3.6508 -4.7913 2.2989
3.7639 -4.7001 2.2989
3.8748 -4.6061 2.2989
3.9832 -4.5096 2.2989
4.0893 -4.4104 2.2989
4.1929 -4.3087 2.2989
4.2939 -4.2046 2.2989
4.3923 -4.0980 2.2989
4.4881 -3.9892 2.2989
4.5812 -3.8780 2.2989
4.6715 -3.7647 2.2989
4.7589 -3.6493 2.2989
4.8436 -3.5318 2.2989
4.9253 -3.4124 2.2989
5.0040 -3.2910 2.2989
5.0798 -3.1678 2.2989
5.1525 -3.0429 2.2989
5.2221 -2.9163 2.2989
5.2887 -2.7880 2.2989
5.3520 -2.6583 2.2989
5.4122 -2.5271 2.2989
5.4692 -2.3945 2.2989
5.5229 -2.2607 2.2989
5.5733 -2.1256 2.2989
5.6204 -1.9895 2.2989
5.6643 -1.8522 2.2989
5.7047 -1.7141 2.2989
5.7418 -1.5750 2.2989
5.7755 -1.4351 2.2989
5.8059 -1.2945 2.2989
5.8328 -1.1533 2.2989
5.8562 -1.0115 2.2989
5.8763 -0.8693 2.2989
5.8929 -0.7267 2.2989
5.9061 -0.5838 2.2989
5.9158 -0.4406 2.2989
5.9220 -0.2973 2.2989
5.9248 -0.1540 2.2989
5.9242 -0.0107 2.2989
5.9201 0.1325 2.2989
5.9126 0.2755 2.2989
5.9016 0.4182 2.2989
5.8872 0.5606 2.2989
5.8695 0.7025 2.2989
5.8483 0.8439 2.2989
5.8144 0.9831 2.2952
5.7736 1.1205 2.2901
5.7305 1.2567 2.2853
5.6973 1.3947 2.2858
5.6825 1.5377 2.2950
5.5910 1.6591 2.2745
5.5195 1.7843 2.2632
5.4532 1.9098 2.2552
5.3869 2.0342 2.2483
5.3476 2.1687 2.2540
5.3313 2.3138 2.2709
5.3140 2.4608 2.2890
5.2738 2.5990 2.2989
5.2076 2.7250 2.2989
5.1384 2.8493 2.2989
5.0663 2.9719 2.2989
4.9913 3.0927 2.2989
4.9135 3.2116 2.2989
4.8328 3.3287 2.2989
4.7495 3.4437 2.2989
4.6634 3.5567 2.2989
4.5747 3.6675 2.2989
4.4834 3.7762 2.2989
4.3895 3.8827 2.2989
4.2931 3.9869 2.2989
4.1944 4.0887 2.2989
4.0932 4.1882 2.2989
3.9897 4.2851 2.2989
3.8840 4.3796 2.2989
3.7760 4.4715 2.2989
3.6659 4.5608 2.2989
3.5538 4.6474 2.2989
3.4396 4.7314 2.2989
3.3235 4.8125 2.2989
3.2055 4.8909 2.2989
3.0857 4.9665 2.2989
2.9641 5.0391 2.2989
2.8409 5.1089 2.2989
2.7160 5.1756 2.2989
2.5896 5.2394 2.2989
2.4617 5.3002 2.2989
2.3324 5.3579 2.2989
2.2018 5.4125 2.2989
2.0700 5.4640 2.2989
1.9369 5.5124 2.2989
1.8712 5.7682 2.3861
1.7424 5.8506 2.4020
1.6002 5.8910 2.4020
1.4570 5.9281 2.4020
1.3130 5.9618 2.4020
1.1682 5.9920 2.4020
1.0228 6.0188 2.4020
0.8767 6.0421 2.4020
0.7301 6.0620 2.4020
0.5831 6.0783 2.4020
0.4358 6.0912 2.4020
0.2881 6.1005 2.4020
0.1403 6.1064 2.4020
-0.0077 6.1087 2.4020
-0.1557 6.1075 2.4020
-0.3036 6.1028 2.4020
-0.4514 6.0945 2.4020
-0.5990 6.0828 2.4020
-0.7462 6.0675 2.4020
-0.8931 6.0488 2.4020
-1.0395 6.0265 2.4020
-1.1854 6.0007 2.4020
-1.3307 5.9715 2.4020
-1.4752 5.9388 2.4020
-1.6190 5.9027 2.4020
-1.7619 5.8632 2.4020
-1.9038 5.8203 2.4020
-2.0447 5.7739 2.4020
-2.1845 5.7243 2.4020
-2.3231 5.6712 2.4020
-2.4604 5.6149 2.4020
-2.5964 5.5553 2.4020
-2.7309 5.4925 2.4020
-2.8640 5.4265 2.4020
-2.9954 5.3573 2.4020
-3.1252 5.2849 2.4020
-3.2533 5.2094 2.4020
-3.3796 5.1309 2.4020
-3.5040 5.0494 2.4020
-3.6265 4.9649 2.4020
-3.7469 4.8774 2.4020
-3.8653 4.7871 2.4020
-3.9815 4.6939 2.4020
-4.0955 4.5979 2.4020
-4.2071 4.4993 2.4020
-4.3165 4.3979 2.4020
-4.4234 4.2939 2.4020
-4.5278 4.1873 2.4020
-4.6296 4.0782 2.4020
-4.7289 3.9667 2.4020
-4.8255 3.8528 2.4020
-4.9193 3.7365 2.4020
-5.0104 3.6180 2.4020
-5.0986 3.4973 2.4020
-5.1840 3.3744 2.4020
-5.2664 3.2495 2.4020
-5.3458 3.1226 2.4020
-5.4221 2.9938 2.4020
-5.4954 2.8631 2.4020
-5.5655 2.7307 2.4020
-5.6325 2.5965 2.4020
-5.6962 2.4607 2.4020
-5.7566 2.3234 2.4020
-5.8137 2.1846 2.4020
-5.8675 2.0443 2.4020
-5.9179 1.9028 2.4020
-5.9224 1.7475 2.3849
-5.9168 1.5915 2.3653
-5.9117 1.4379 2.3476
-5.9069 1.2864 2.3316
-5.9019 1.1367 2.3171
-5.8968 0.9886 2.3040
-5.9087 0.8445 2.2989
-5.9301 0.7018 2.2989
-5.9480 0.5586 2.2989
-5.9625 0.4150 2.2989
-5.9735 0.2710 2.2989
-5.9810 0.1267 2.2989
-5.9850 -0.0178 2.2989
-5.9855 -0.1623 2.2989
-5.9824 -0.3069 2.2989
-5.9790 -0.4517 2.3001
-5.9873 -0.5980 2.3072
-6.0200 -0.7485 2.3251
-6.0676 -0.9036 2.3502
-6.1160 -1.0623 2.3772
-6.1633 -1.2245 2.4053
-6.1260 -1.3716 2.4020
-6.0936 -1.5196 2.4020
-6.0577 -1.6670 2.4021
-6.0183 -1.8134 2.4021
-5.9752 -1.9589 2.4022
-5.9287 -2.1034 2.4023
-5.8786 -2.2468 2.4023
-5.8250 -2.3889 2.4024
-5.7679 -2.5297 2.4025
-5.7074 -2.6692 2.4025
-5.6435 -2.8072 2.4026
-5.5763 -2.9436 2.4027
-5.5057 -3.0784 2.4028
-5.4318 -3.2115 2.4029
-5.3547 -3.3428 2.4030
-5.2743 -3.4721 2.4031
-5.1908 -3.5996 2.4032
-5.1042 -3.7250 2.4033
-5.0145 -3.8482 2.4033
-4.9218 -3.9693 2.4034
-4.6695 -3.9558 2.4036
-4.5741 -4.0684 2.4037
-4.4760 -4.1787 2.4038
-4.3751 -4.2866 2.4039
-4.2716 -4.3920 2.4040
-4.1655 -4.4948 2.4041
-4.0570 -4.5951 2.4042
-3.9459 -4.6927 2.4042
-3.8325 -4.7875 2.4043
-3.7168 -4.8795 2.4044
-3.5988 -4.9687 2.4045
-3.4787 -5.0550 2.4046
-3.3564 -5.1384 2.4047
-3.2322 -5.2187 2.4048
-3.1059 -5.2960 2.4049
-2.9778 -5.3701 2.4050
-2.8478 -5.4409 2.4050
-2.7160 -5.5082 2.4049
-2.5825 -5.5722 2.4048
-2.4475 -5.6330 2.4047
-2.3110 -5.6904 2.4046
-2.1732 -5.7444 2.4045
-2.0341 -5.7951 2.4043
-1.8938 -5.8423 2.4042
-1.7523 -5.8860 2.4041
-1.6099 -5.9263 2.4040
-1.4665 -5.9631 2.4039
-1.3223 -5.9963 2.4038
-1.1773 -6.0259 2.4037
-1.0316 -6.0520 2.4036
-0.8853 -6.0746 2.4034
-0.7386 -6.0935 2.4033
-0.5914 -6.1088 2.4032
-0.4440 -6.1205 2.4031
-0.2963 -6.1285 2.4030
-0.1484 -6.1330 2.4029
-0.0006 -6.1338 2.4028
0.1473 -6.1310 2.4027
0.2950 -6.1246 2.4026
0.4424 -6.1145 2.4025
0.5896 -6.1008 2.4024
0.7363 -6.0836 2.4023
0.8826 -6.0627 2.4022
1.0283 -6.0383 2.4021
1.1733 -6.0103 2.4020
1.3175 -5.9790 2.4020
1.4378 -5.8500 2.3639
1.5347 -5.6525 2.2989
1.6702 -5.6125 2.2989
1.8212 -5.6206 2.3201
1.9378 -5.5227 2.2989
2.0699 -5.4729 2.2989
2.2006 -5.4199 2.2989
2.3301 -5.3637 2.2989
2.4580 -5.3044 2.2989
2.5845 -5.2421 2.2989
2.7093 -5.1766 2.2989
2.8325 -5.1082 2.2989
2.9539 -5.0367 2.2989
3.0735 -4.9624 2.2989
3.1913 -4.8851 2.2989
3.3070 -4.8051 2.2989
3.4208 -4.7222 2.2989
3.5325 -4.6367 2.2989
3.6420 -4.5484 2.2989
3.7493 -4.4576 2.2989
3.8543 -4.3642 2.2989
3.9569 -4.2682 2.2989
4.0572 -4.1699 2.2989
4.1550 -4.0692 2.2989
4.2503 -3.9661 2.2989
4.3431 -3.8608 2.2989
4.4332 -3.7533 2.2989
4.5206 -3.6437 2.2989
4.6053 -3.5321 2.2989
4.6873 -3.4184 2.2989
4.7664 -3.3028 2.2989
4.8427 -3.1854 2.2989
4.9160 -3.0662 2.2989
4.9865 -2.9454 2.2989
5.0539 -2.8229 2.2989
5.1184 -2.6988 2.2989
5.1798 -2.5733 2.2989
5.2381 -2.4463 2.2989
5.2933 -2.3181 2.2989
5.3453 -2.1885 2.2989
5.3942 -2.0578 2.2989
5.4399 -1.9261 2.2989
5.4824 -1.7933 2.2989
5.5216 -1.6595 2.2989
5.5576 -1.5249 2.2989
5.5903 -1.3896 2.2989
5.6197 -1.2535 2.2989
5.6459 -1.1168 2.2989
5.6687 -0.9796 2.2989
5.6881 -0.8419 2.2989
5.7043 -0.7039 2.2989
5.7171 -0.5655 2.2989
5.7266 -0.4270 2.2989
5.7327 -0.2883 2.2989
5.7355 -0.1495 2.2989
5.7349 -0.0108 2.2989
5.7311 0.1278 2.2989
5.7238 0.2662 2.2989
5.7133 0.4044 2.2989
5.6994 0.5422 2.2989
5.6823 0.6797 2.2989
5.6619 0.8166 2.2989
5.6381 0.9529 2.2989
5.6112 1.0886 2.2989
5.5810 1.2235 2.2989
5.5476 1.3576 2.2989
5.5110 1.4909 2.2989
5.4712 1.6232 2.2989
5.4283 1.7544 2.2989
5.3822 1.8846 2.2989
5.3331 2.0135 2.2989
5.2809 2.1412 2.2989
5.2257 2.2676 2.2989
5.1675 2.3926 2.2989
5.1064 2.5161 2.2989
5.0423 2.6381 2.2989
4.9754 2.7585 2.2989
4.9056 2.8772 2.2989
4.8330 2.9942 2.2989
4.7577 3.1094 2.2989
4.6797 3.2228 2.2989
4.5990 3.3342 2.2989
4.5156 3.4436 2.2989
4.4298 3.5510 2.2989
4.3414 3.6563 2.2989
4.2505 3.7594 2.2989
4.1572 3.8603 2.2989
4.0616 3.9590 2.2989
3.9637 4.0553 2.2989
3.8635 4.1492 2.2989
3.7611 4.2407 2.2989
3.6566 4.3297 2.2989
3.5500 4.4162 2.2989
3.4414 4.5002 2.2989
3.3308 4.5815 2.2989
3.2184 4.6601 2.2989
3.1041 4.7360 2.2989
2.9881 4.8092 2.2989
2.8704 4.8796 2.2989
2.7511 4.9471 2.2989
2.6301 5.0118 2.2989
2.5077 5.0736 2.2989
2.3839 5.1325 2.2989
2.2587 5.1884 2.2989
2.1322 5.2413 2.2989
2.0045 5.2912 2.2989
1.9102 5.4363 2.3412
1.8241 5.6230 2.4020
1.6873 5.6655 2.4020
1.5495 5.7047 2.4020
1.4109 5.7406 2.4020
1.2714 5.7732 2.4020
1.1312 5.8025 2.4020
0.9904 5.8284 2.4020
0.8489 5.8510 2.4020
0.7070 5.8702 2.4020
0.5646 5.8860 2.4020
0.4219 5.8985 2.4020
0.2789 5.9075 2.4020
0.1357 5.9131 2.4020
-0.0076 5.9154 2.4020
-0.1509 5.9142 2.4020
-0.2941 5.9096 2.4020
-0.4373 5.9016 2.4020
-0.5802 5.8902 2.4020
-0.7228 5.8754 2.4020
-0.8650 5.8572 2.4020
-1.0068 5.8356 2.4020
-1.1481 5.8106 2.4020
-1.2887 5.7823 2.4020
-1.4287 5.7506 2.4020
-1.5679 5.7156 2.4020
-1.7063 5.6773 2.4020
-1.8437 5.6356 2.4020
-1.9801 5.5908 2.4020
-2.1155 5.5426 2.4020
-2.2496 5.4912 2.4020
-2.3826 5.4367 2.4020
-2.5143 5.3789 2.4020
-2.6445 5.3180 2.4020
-2.7733 5.2540 2.4020
-2.9006 5.1870 2.4020
-3.0263 5.1169 2.4020
-3.1503 5.0437 2.4020
-3.2725 4.9677 2.4020
-3.3930 4.8887 2.4020
-3.5115 4.8068 2.4020
-3.6281 4.7221 2.4020
-3.7426 4.6345 2.4020
-3.8551 4.5443 2.4020
-3.9654 4.4513 2.4020
-4.0735 4.3557 2.4020
-4.1793 4.2575 2.4020
-4.2828 4.1568 2.4020
-4.3838 4.0536 2.4020
-4.4824 3.9479 2.4020
-4.5784 3.8399 2.4020
-4.6719 3.7295 2.4020
-4.7627 3.6170 2.4020
-4.8508 3.5022 2.4020
-4.9362 3.3853 2.4020
-5.0187 3.2663 2.4020
-5.0984 3.1453 2.4020
-5.1752 3.0224 2.4020
-5.2491 2.8977 2.4020
-5.3199 2.7712 2.4020
-5.3877 2.6429 2.4020
-5.4525 2.5130 2.4020
-5.5141 2.3815 2.4020
-5.5725 2.2485 2.4020
-5.6277 2.1141 2.4020
-5.6797 1.9784 2.4020
-5.7285 1.8414 2.4020
-5.7739 1.7032 2.4020
-5.8160 1.5639 2.4020
-5.8547 1.4235 2.4020
-5.8900 1.2823 2.4020
-5.8916 1.1343 2.3897
-5.8861 0.9864 2.3760
-5.8871 0.8409 2.3665
-5.8969 0.6974 2.3619
-5.9064 0.5542 2.3586
-5.9158 0.4113 2.3567
-5.9250 0.2683 2.3560
-5.9340 0.1252 2.3567
-5.9428 -0.0181 2.3586
-5.9515 -0.1619 2.3619
-5.9600 -0.3063 2.3665
-5.9684 -0.4514 2.3724
-5.9766 -0.5974 2.3797
-6.0073 -0.7474 2.3975
-6.0014 -0.8942 2.4020
-5.9805 -1.0393 2.4020
-5.9562 -1.1838 2.4020
-5.9284 -1.3278 2.4021
-5.8971 -1.4711 2.4021
-5.8623 -1.6136 2.4022
-5.8240 -1.7553 2.4023
-5.7824 -1.8961 2.4023
-5.7372 -2.0359 2.4024
-5.6887 -2.1746 2.4024
-5.6368 -2.3121 2.4025
-5.5815 -2.4484 2.4026
-5.5228 -2.5833 2.4026
-5.4609 -2.7168 2.4027
-5.3958 -2.8487 2.4028
-5.3274 -2.9791 2.4029
-5.2559 -3.1079 2.4029
-5.1812 -3.2349 2.4030
-5.1034 -3.3600 2.4031
-5.0226 -3.4833 2.4032
-4.9387 -3.6046 2.4033
-4.8519 -3.7238 2.4034
-4.7621 -3.8409 2.4035
-4.5215 -3.8308 2.4036
-4.4291 -3.9398 2.4037
-4.3340 -4.0465 2.4038
-4.2363 -4.1510 2.4039
-4.1361 -4.2530 2.4040
-4.0334 -4.3525 2.4041
-3.9282 -4.4496 2.4042
-3.8207 -4.5440 2.4043
-3.7109 -4.6358 2.4044
-3.5988 -4.7249 2.4045
-3.4845 -4.8112 2.4046
-3.3682 -4.8948 2.4046
-3.2498 -4.9754 2.4047
-3.1295 -5.0532 2.4048
-3.0073 -5.1280 2.4049
-2.8832 -5.1997 2.4050
-2.7574 -5.2683 2.4050
-2.6297 -5.3334 2.4049
-2.5005 -5.3954 2.4048
-2.3697 -5.4542 2.4047
-2.2376 -5.5098 2.4046
-2.1042 -5.5621 2.4045
-1.9695 -5.6112 2.4044
-1.8336 -5.6569 2.4043
-1.6967 -5.6992 2.4041
-1.5588 -5.7382 2.4040
-1.4200 -5.7738 2.4039
-1.2803 -5.8060 2.4038
-1.1400 -5.8347 2.4037
-0.9989 -5.8600 2.4036
-0.8573 -5.8818 2.4035
-0.7152 -5.9002 2.4034
-0.5728 -5.9150 2.4033
-0.4300 -5.9263 2.4032
-0.2870 -5.9342 2.4031
-0.1438 -5.9385 2.4030
-0.0007 -5.9393 2.4029
0.1425 -5.9366 2.4028
0.2855 -5.9304 2.4027
0.4283 -5.9207 2.4026
0.5707 -5.9075 2.4025
0.7128 -5.8909 2.4024
0.8544 -5.8707 2.4023
0.9955 -5.8471 2.4022
1.1359 -5.8201 2.4021
1.2756 -5.7896 2.4020
1.4145 -5.7559 2.4020
1.5228 -5.6096 2.3561
1.6170 -5.4347 2.2989
1.7471 -5.3929 2.2989
1.8958 -5.4038 2.3229
2.0041 -5.2997 2.2989
2.1307 -5.2484 2.2989
2.2560 -5.1941 2.2989
2.3800 -5.1367 2.2989
2.5024 -5.0763 2.2989
2.6233 -5.0130 2.2989
2.7426 -4.9468 2.2989
2.8602 -4.8776 2.2989
2.9761 -4.8057 2.2989
3.0901 -4.7309 2.2989
3.2023 -4.6534 2.2989
3.3124 -4.5733 2.2989
3.4206 -4.4905 2.2989
3.5267 -4.4051 2.2989
3.6306 -4.3171 2.2989
3.7324 -4.2267 2.2989
3.8318 -4.1339 2.2989
3.9290 -4.0387 2.2989
4.0237 -3.9411 2.2989
4.1161 -3.8414 2.2989
4.2059 -3.7395 2.2989
4.2932 -3.6354 2.2989
4.3780 -3.5293 2.2989
4.4601 -3.4212 2.2989
4.5395 -3.3112 2.2989
4.6162 -3.1993 2.2989
4.6901 -3.0856 2.2989
4.7612 -2.9702 2.2989
4.8295 -2.8532 2.2989
4.8949 -2.7345 2.2989
4.9574 -2.6144 2.2989
5.0169 -2.4928 2.2989
5.0734 -2.3699 2.2989
5.1270 -2.2457 2.2989
5.1774 -2.1203 2.2989
5.2249 -1.9937 2.2989
5.2692 -1.8661 2.2989
5.3104 -1.7375 2.2989
5.3485 -1.6080 2.2989
5.3834 -1.4776 2.2989
5.4151 -1.3465 2.2989
5.4437 -1.2147 2.2989
5.4691 -1.0823 2.2989
5.4912 -0.9494 2.2989
5.5101 -0.8161 2.2989
5.5259 -0.6823 2.2989
5.5383 -0.5483 2.2989
5.5476 -0.4141 2.2989
5.5536 -0.2797 2.2989
5.5563 -0.1453 2.2989
5.5559 -0.0109 2.2989
5.5522 0.1234 2.2989
5.5452 0.2575 2.2989
5.5351 0.3914 2.2989
5.5217 0.5249 2.2989
5.5052 0.6580 2.2989
5.4854 0.7907 2.2989
5.4625 0.9228 2.2989
5.4365 1.0542 2.2989
5.4073 1.1850 2.2989
5.3749 1.3150 2.2989
5.3395 1.4441 2.2989
5.3010 1.5723 2.2989
5.2595 1.6995 2.2989
5.2150 1.8256 2.2989
5.1674 1.9506 2.2989
5.1169 2.0743 2.2989
5.0635 2.1968 2.2989
5.0071 2.3179 2.2989
4.9479 2.4377 2.2989
4.8859 2.5559 2.2989
4.8211 2.6726 2.2989
4.7535 2.7877 2.2989
4.6832 2.9010 2.2989
4.6102 3.0127 2.2989
4.5346 3.1226 2.2989
4.4565 3.2305 2.2989
4.3758 3.3366 2.2989
4.2926 3.4407 2.2989
4.2069 3.5428 2.2989
4.1189 3.6427 2.2989
4.0286 3.7405 2.2989
3.9359 3.8361 2.2989
3.8410 3.9295 2.2989
3.7439 4.0206 2.2989
3.6448 4.1092 2.2989
3.5435 4.1955 2.2989
3.4402 4.2794 2.2989
3.3350 4.3607 2.2989
3.2279 4.4395 2.2989
3.1189 4.5158 2.2989
3.0082 4.5894 2.2989
2.8957 4.6603 2.2989
2.7817 4.7285 2.2989
2.6660 4.7940 2.2989
2.5488 4.8567 2.2989
2.4302 4.9166 2.2989
2.3102 4.9737 2.2989
2.2064 5.0680 2.3173
2.0663 5.0791 2.2989
1.9465 5.1378 2.3036
1.8975 5.3999 2.3998
1.7677 5.4491 2.4020
1.6351 5.4903 2.4020
1.5016 5.5282 2.4020
1.3672 5.5630 2.4020
1.2321 5.5946 2.4020
1.0962 5.6230 2.4020
0.9597 5.6481 2.4020
0.8226 5.6700 2.4020
0.6850 5.6886 2.4020
0.5470 5.7039 2.4020
0.4087 5.7160 2.4020
0.2702 5.7247 2.4020
0.1314 5.7302 2.4020
-0.0075 5.7323 2.4020
-0.1463 5.7311 2.4020
-0.2852 5.7267 2.4020
-0.4239 5.7189 2.4020
-0.5624 5.7078 2.4020
-0.7006 5.6934 2.4020
-0.8384 5.6758 2.4020
-0.9758 5.6548 2.4020
-1.1127 5.6306 2.4020
-1.2490 5.6031 2.4020
-1.3847 5.5724 2.4020
-1.5196 5.5384 2.4020
-1.6536 5.5012 2.4020
-1.7868 5.4609 2.4020
-1.9190 5.4173 2.4020
-2.0501 5.3706 2.4020
-2.1801 5.3208 2.4020
-2.3090 5.2679 2.4020
-2.4365 5.2119 2.4020
-2.5627 5.1529 2.4020
-2.6875 5.0908 2.4020
-2.8108 5.0258 2.4020
-2.9326 4.9578 2.4020
-3.0527 4.8869 2.4020
-3.1712 4.8131 2.4020
-3.2878 4.7365 2.4020
-3.4027 4.6572 2.4020
-3.5156 4.5750 2.4020
-3.6266 4.4902 2.4020
-3.7355 4.4027 2.4020
-3.8423 4.3126 2.4020
-3.9470 4.2199 2.4020
-4.0495 4.1247 2.4020
-4.1497 4.0271 2.4020
-4.2476 3.9270 2.4020
-4.3430 3.8246 2.4020
-4.4360 3.7199 2.4020
-4.5265 3.6129 2.4020
-4.6144 3.5038 2.4020
-4.6998 3.3926 2.4020
-4.7824 3.2793 2.4020
-4.8623 3.1640 2.4020
-4.9395 3.0467 2.4020
-5.0139 2.9277 2.4020
-5.0853 2.8068 2.4020
-5.1539 2.6841 2.4020
-5.2195 2.5599 2.4020
-5.2822 2.4340 2.4020
-5.3418 2.3066 2.4020
-5.3984 2.1777 2.4020
-5.4518 2.0475 2.4020
-5.5021 1.9160 2.4020
-5.5492 1.7833 2.4020
-5.5932 1.6494 2.4020
-5.6339 1.5144 2.4020
-5.6713 1.3785 2.4020
-5.7055 1.2416 2.4020
-5.7363 1.1039 2.4020
-5.7638 0.9654 2.4020
-5.7880 0.8262 2.4020
-5.8088 0.6865 2.4020
-5.8262 0.5462 2.4020
-5.8403 0.4055 2.4020
-5.8509 0.2645 2.4020
-5.8581 0.1232 2.4020
-5.8618 -0.0183 2.4020
-5.8622 -0.1599 2.4020
-5.8591 -0.3015 2.4020
-5.8525 -0.4431 2.4020
-5.8426 -0.5845 2.4020
-5.8292 -0.7257 2.4020
-5.8125 -0.8665 2.4021
-5.7923 -1.0070 2.4021
-5.7687 -1.1470 2.4022
-5.7417 -1.2864 2.4022
-5.7113 -1.4252 2.4023
-5.6775 -1.5632 2.4023
-5.6404 -1.7004 2.4024
-5.6000 -1.8368 2.4024
-5.5562 -1.9721 2.4025
-5.5092 -2.1064 2.4025
-5.4588 -2.2396 2.4026
-5.4052 -2.3715 2.4027
-5.3484 -2.5021 2.4027
-5.2884 -2.6313 2.4028
-5.2252 -2.7591 2.4029
-5.1590 -2.8853 2.4029
-5.0896 -3.0100 2.4030
-5.0173 -3.1329 2.4031
-4.9419 -3.2541 2.4032
-4.8635 -3.3734 2.4033
-4.7823 -3.4908 2.4034
-4.6982 -3.6062 2.4034
-4.6113 -3.7195 2.4035
-4.3814 -3.7124 2.4037
-4.2918 -3.8180 2.4038
-4.1997 -3.9214 2.4038
-4.1050 -4.0226 2.4039
-4.0078 -4.1214 2.4040
-3.9082 -4.2178 2.4041
-3.8063 -4.3118 2.4042
-3.7021 -4.4033 2.4043
-3.5957 -4.4922 2.4044
-3.4871 -4.5785 2.4045
-3.3764 -4.6622 2.4046
-3.2636 -4.7431 2.4047
-3.1489 -4.8212 2.4048
-3.0323 -4.8965 2.4049
-2.9139 -4.9689 2.4049
-2.7937 -5.0385 2.4050
-2.6717 -5.1048 2.4050
-2.5480 -5.1679 2.4049
-2.4228 -5.2280 2.4048
-2.2961 -5.2850 2.4047
-2.1681 -5.3388 2.4046
-2.0388 -5.3895 2.4045
-1.9083 -5.4371 2.4044
-1.7767 -5.4813 2.4043
-1.6441 -5.5224 2.4042
-1.5104 -5.5602 2.4041
-1.3759 -5.5947 2.4040
-1.2406 -5.6259 2.4039
-1.1046 -5.6537 2.4037
-0.9680 -5.6782 2.4036
-0.8308 -5.6994 2.4035
-0.6931 -5.7172 2.4034
-0.5551 -5.7316 2.4033
-0.4167 -5.7426 2.4032
-0.2782 -5.7502 2.4031
-0.1395 -5.7544 2.4030
-0.0008 -5.7552 2.4029
0.1379 -5.7526 2.4028
0.2765 -5.7466 2.4027
0.4148 -5.7373 2.4026
0.5529 -5.7245 2.4026
0.6906 -5.7084 2.4025
0.8278 -5.6889 2.4024
0.9645 -5.6660 2.4023
1.1005 -5.6399 2.4022
1.2358 -5.6104 2.4021
1.3704 -5.5776 2.4020
1.5041 -5.5417 2.4020
1.6017 -5.3843 2.3504
1.6928 -5.2259 2.2989
1.8178 -5.1823 2.2989
1.9654 -5.1982 2.3269
2.0645 -5.0860 2.2989
2.1859 -5.0334 2.2989
2.3060 -4.9779 2.2989
2.4247 -4.9194 2.2989
2.5419 -4.8581 2.2989
2.6575 -4.7939 2.2989
2.7715 -4.7270 2.2989
2.8838 -4.6573 2.2989
2.9943 -4.5849 2.2989
3.1030 -4.5099 2.2989
3.2098 -4.4322 2.2989
3.3147 -4.3520 2.2989
3.4175 -4.2693 2.2989
3.5183 -4.1841 2.2989
3.6169 -4.0965 2.2989
3.7133 -4.0066 2.2989
3.8075 -3.9144 2.2989
3.8994 -3.8199 2.2989
3.9889 -3.7233 2.2989
4.0760 -3.6245 2.2989
4.1607 -3.5237 2.2989
4.2428 -3.4209 2.2989
4.3225 -3.3162 2.2989
4.3995 -3.2096 2.2989
4.4739 -3.1012 2.2989
4.5456 -2.9910 2.2989
4.6145 -2.8792 2.2989
4.6808 -2.7658 2.2989
4.7442 -2.6509 2.2989
4.8048 -2.5345 2.2989
4.8626 -2.4167 2.2989
4.9174 -2.2975 2.2989
4.9694 -2.1772 2.2989
5.0183 -2.0556 2.2989
5.0644 -1.9330 2.2989
5.1074 -1.8093 2.2989
5.1474 -1.6846 2.2989
5.1844 -1.5591 2.2989
5.2183 -1.4328 2.2989
5.2491 -1.3057 2.2989
5.2769 -1.1780 2.2989
5.3015 -1.0496 2.2989
5.3230 -0.9208 2.2989
5.3415 -0.7915 2.2989
5.3568 -0.6619 2.2989
5.3689 -0.5320 2.2989
5.3779 -0.4019 2.2989
5.3838 -0.2716 2.2989
5.3865 -0.1413 2.2989
5.3861 -0.0110 2.2989
5.3826 0.1192 2.2989
5.3760 0.2492 2.2989
5.3662 0.3790 2.2989
5.3533 0.5085 2.2989
5.3373 0.6376 2.2989
5.3182 0.7662 2.2989
5.2961 0.8942 2.2989
5.2708 1.0217 2.2989
5.2426 1.1485 2.2989
5.2113 1.2745 2.2989
5.1770 1.3997 2.2989
5.1397 1.5240 2.2989
5.0995 1.6474 2.2989
5.0564 1.7697 2.2989
5.0103 1.8909 2.2989
4.9614 2.0109 2.2989
4.9096 2.1297 2.2989
4.8550 2.2472 2.2989
4.7976 2.3633 2.2989
4.7375 2.4779 2.2989
4.6747 2.5911 2.2989
4.6092 2.7027 2.2989
4.5411 2.8127 2.2989
4.4704 2.9210 2.2989
4.3971 3.0275 2.2989
4.3214 3.1323 2.2989
4.2431 3.2351 2.2989
4.1625 3.3361 2.2989
4.0795 3.4351 2.2989
3.9941 3.5320 2.2989
3.9065 3.6269 2.2989
3.8167 3.7196 2.2989
3.7247 3.8102 2.2989
3.6306 3.8985 2.2989
3.5344 3.9846 2.2989
3.4362 4.0683 2.2989
3.3361 4.1496 2.2989
3.2340 4.2285 2.2989
3.1302 4.3049 2.2989
3.0245 4.3789 2.2989
2.9172 4.4503 2.2989
2.8081 4.5191 2.2989
2.6975 4.5852 2.2989
2.5854 4.6488 2.2989
2.4717 4.7096 2.2989
2.3567 4.7677 2.2989
2.2403 4.8230 2.2989
2.1227 4.8756 2.2989
2.0038 4.9253 2.2989
1.9295 5.0928 2.3547
1.8417 5.2412 2.4020
1.7142 5.2841 2.4020
1.5856 5.3240 2.4020
1.4561 5.3609 2.4020
1.3258 5.3946 2.4020
1.1947 5.4253 2.4020
1.0630 5.4528 2.4020
0.9306 5.4771 2.4020
0.7976 5.4983 2.4020
0.6642 5.5164 2.4020
0.5304 5.5312 2.4020
0.3963 5.5429 2.4020
0.2619 5.5514 2.4020
0.1273 5.5566 2.4020
-0.0074 5.5587 2.4020
-0.1420 5.5575 2.4020
-0.2767 5.5532 2.4020
-0.4112 5.5456 2.4020
-0.5455 5.5348 2.4020
-0.6795 5.5209 2.4020
-0.8132 5.5037 2.4020
-0.9465 5.4834 2.4020
-1.0792 5.4599 2.4020
-1.2114 5.4332 2.4020
-1.3429 5.4034 2.4020
-1.4737 5.3704 2.4020
-1.6037 5.3343 2.4020
-1.7328 5.2951 2.4020
-1.8610 5.2529 2.4020
-1.9882 5.2076 2.4020
-2.1142 5.1592 2.4020
-2.2391 5.1079 2.4020
-2.3628 5.0535 2.4020
-2.4852 4.9962 2.4020
-2.6062 4.9360 2.4020
-2.7257 4.8729 2.4020
-2.8438 4.8070 2.4020
-2.9602 4.7382 2.4020
-3.0750 4.6666 2.4020
-3.1881 4.5923 2.4020
-3.2995 4.5153 2.4020
-3.4089 4.4356 2.4020
-3.5165 4.3533 2.4020
-3.6221 4.2684 2.4020
-3.7257 4.1810 2.4020
-3.8271 4.0911 2.4020
-3.9265 3.9988 2.4020
-4.0236 3.9041 2.4020
-4.1184 3.8070 2.4020
-4.2109 3.7077 2.4020
-4.3010 3.6061 2.4020
-4.3887 3.5024 2.4020
-4.4739 3.3966 2.4020
-4.5566 3.2887 2.4020
-4.6367 3.1788 2.4020
-4.7141 3.0670 2.4020
-4.7889 2.9533 2.4020
-4.8609 2.8378 2.4020
-4.9301 2.7206 2.4020
-4.9966 2.6017 2.4020
-5.0601 2.4812 2.4020
-5.1208 2.3591 2.4020
-5.1786 2.2356 2.4020
-5.2333 2.1107 2.4020
-5.2851 1.9844 2.4020
-5.3338 1.8569 2.4020
-5.3794 1.7282 2.4020
-5.4219 1.5984 2.4020
-5.4613 1.4675 2.4020
-5.4975 1.3357 2.4020
-5.5306 1.2030 2.4020
-5.5604 1.0695 2.4020
-5.5870 0.9353 2.4020
-5.6105 0.8004 2.4021
-5.6306 0.6650 2.4021
-5.6474 0.5290 2.4020
-5.6610 0.3926 2.4020
-5.6712 0.2559 2.4020
-5.6781 0.1189 2.4020
-5.6817 -0.0182 2.4021
-5.6820 -0.1555 2.4021
-5.6789 -0.2927 2.4021
-5.6725 -0.4299 2.4021
-5.6628 -0.5670 2.4021
-5.6498 -0.7038 2.4021
-5.6336 -0.8403 2.4022
-5.6140 -0.9764 2.4022
-5.5911 -1.1121 2.4023
-5.5649 -1.2472 2.4023
-5.5354 -1.3817 2.4024
-5.5026 -1.5155 2.4024
-5.4665 -1.6484 2.4025
-5.4273 -1.7805 2.4025
-5.3848 -1.9117 2.4026
-5.3391 -2.0418 2.4026
-5.2903 -2.1708 2.4027
-5.2383 -2.2987 2.4028
-5.1832 -2.4252 2.4028
-5.1250 -2.5504 2.4029
-5.0637 -2.6742 2.4030
-4.9994 -2.7965 2.4030
-4.9322 -2.9172 2.4031
-4.8620 -3.0363 2.4032
-4.7889 -3.1537 2.4032
-4.7130 -3.2693 2.4033
-4.6342 -3.3831 2.4034
-4.5527 -3.4949 2.4035
-4.4684 -3.6047 2.4036
-4.2485 -3.6001 2.4037
-4.1616 -3.7025 2.4038
-4.0722 -3.8028 2.4039
-3.9804 -3.9008 2.4040
-3.8861 -3.9966 2.4041
-3.7896 -4.0901 2.4041
-3.6907 -4.1812 2.4042
-3.5897 -4.2699 2.4043
-3.4864 -4.3561 2.4044
-3.3811 -4.4397 2.4045
-3.2738 -4.5208 2.4046
-3.1644 -4.5992 2.4047
-3.0532 -4.6749 2.4048
-2.9401 -4.7479 2.4049
-2.8253 -4.8181 2.4050
-2.7088 -4.8855 2.4050
-2.5905 -4.9498 2.4050
-2.4705 -5.0110 2.4049
-2.3491 -5.0693 2.4048
-2.2263 -5.1245 2.4047
-2.1022 -5.1767 2.4046
-1.9769 -5.2259 2.4045
