ply
format ascii 1.0
element vertex 2079
property float32 x
property float32 y
property float32 z
end_header
-74.0294 -20.2088 0.8937
-69.3888 -20.7561 0.8337
-63.9927 -20.8394 0.7656
-57.4805 -20.2674 0.6852
-55.6914 -21.1629 0.6619
-52.5998 -21.4565 0.6238
-48.9468 -21.3600 0.5795
-46.1698 -21.4907 0.5462
-43.3390 -21.4620 0.5126
-40.6948 -21.3922 0.4817
-38.2980 -21.3289 0.4540
-36.1149 -21.2723 0.4291
-34.1125 -21.2194 0.4065
-32.2688 -21.1707 0.3861
-30.5635 -21.1256 0.3675
-28.9800 -21.0838 0.3506
-27.5041 -21.0448 0.3350
-25.7454 -20.7043 0.3161
-24.8242 -20.9730 0.6678
-23.6047 -20.9408 0.6453
-22.4534 -20.9104 0.6244
-21.3634 -20.8816 0.6051
-20.3288 -20.8543 0.5872
-19.3443 -20.8283 0.5706
-18.4054 -20.8035 0.5552
-17.5079 -20.7798 0.5408
-17.0265 -21.2288 0.5395
-16.9988 -22.2764 0.5533
-16.9694 -23.3888 0.5684
-13.5208 -19.6157 0.4669
-12.8208 -19.5972 0.4574
-12.1439 -19.5793 0.4485
-11.4882 -19.5620 0.4402
-10.8520 -19.5452 0.4324
-10.2336 -19.5289 0.4252
-9.6317 -19.5130 0.4186
-9.0449 -19.4975 0.4124
-8.4721 -19.4823 0.4066
-7.9120 -19.4675 0.4013
-7.3637 -19.4530 0.3964
-6.8260 -19.4388 0.3919
-6.2983 -19.4249 0.3878
-5.7794 -19.4112 0.3840
-5.2687 -19.3977 0.3806
-4.7653 -19.3844 0.3776
-4.3240 -19.6229 0.3797
-3.8268 -19.6097 0.3773
-3.3349 -19.5967 0.3751
-2.8477 -19.5839 0.3733
-2.3646 -19.5711 0.3718
-1.8849 -19.5584 0.3706
-1.4080 -19.5458 0.3696
-0.9334 -19.5333 0.3690
-0.4605 -19.5208 0.3686
0.0113 -19.5084 0.3686
0.4824 -19.4959 0.3688
0.9536 -19.4835 0.3693
1.4252 -19.4710 0.3701
1.8979 -19.4585 0.3711
2.3723 -19.4460 0.3725
2.8488 -19.4334 0.3741
3.3281 -19.4208 0.3761
3.8107 -19.4080 0.3783
4.2973 -19.3952 0.3809
4.1331 -16.7293 0.3312
4.5752 -16.7680 0.3350
4.7345 -15.8346 0.3194
5.1785 -15.9086 0.3243
5.5242 -15.6736 0.3232
5.7672 -15.1825 0.3169
5.9738 -14.6499 0.3098
6.0452 -13.8576 0.2971
6.4869 -13.9411 0.3033
6.9320 -14.0028 0.3094
6.2796 -11.9497 0.2684
5.6282 -10.1092 0.2310
5.8068 -9.8616 0.2295
6.2227 -10.0069 0.2373
5.8680 -8.9468 0.2165
6.2237 -9.0069 0.2225
6.5258 -8.9725 0.2266
6.7381 -8.8090 0.2276
6.9213 -8.6091 0.2278
7.0884 -8.3934 0.2277
7.1682 -8.0833 0.2251
7.2303 -7.7669 0.2223
7.3940 -7.5676 0.2228
7.2875 -7.1066 0.2155
7.5976 -7.0591 0.2208
7.4451 -6.5894 0.2128
7.8859 -6.6468 0.2220
8.5672 -6.8740 0.2378
10.2264 -7.8067 0.2802
21.8711 -15.8746 0.5919
18.1182 -12.4936 0.4849
18.6237 -12.1889 0.4932
21.6472 -13.4321 0.5679
21.5761 -12.6764 0.5612
21.4252 -11.9010 0.5529
21.3228 -11.1786 0.5464
21.1324 -10.4358 0.5381
20.8401 -9.6723 0.5278
20.3537 -8.8553 0.5130
19.6497 -7.9901 0.4932
18.7333 -7.0950 0.4686
17.8246 -6.2627 0.4446
16.8971 -5.4818 0.4206
16.1887 -4.8229 0.4024
15.5535 -4.2273 0.3863
15.0056 -3.6915 0.3726
14.5504 -3.2088 0.3615
14.1464 -2.7630 0.3518
13.8154 -2.3533 0.3441
13.4755 -1.9616 0.3363
13.1725 -1.5935 0.3297
12.9021 -1.2453 0.3239
12.6673 -0.9144 0.3193
12.4336 -0.5959 0.3148
12.2065 -0.2897 0.3105
12.0055 0.0053 0.3071
11.8247 0.2910 0.3043
11.6542 0.5688 0.3019
11.4925 0.8397 0.2998
11.3270 1.1034 0.2977
11.1801 1.3625 0.2962
11.0307 1.6157 0.2948
7.3624 1.2608 0.1986
7.1993 1.4127 0.1961
7.0441 1.5600 0.1938
6.9695 1.7211 0.1939
6.8955 1.8807 0.1940
6.7769 2.0256 0.1930
6.5760 2.1399 0.1896
6.3610 2.2414 0.1858
6.1561 2.3379 0.1823
6.0191 2.4539 0.1808
5.9561 2.5977 0.1816
5.8930 2.7416 0.1824
5.8733 2.9071 0.1848
5.9901 3.1474 0.1916
6.1309 3.4129 0.1995
7.0964 4.1781 0.2352
7.9359 4.9344 0.2679
9.1812 6.0211 0.3161
9.2793 6.4114 0.3260
9.3432 6.7949 0.3352
7.3261 5.6036 0.2686
7.2478 5.8266 0.2718
7.1757 6.0599 0.2754
9.2918 8.2398 0.3655
9.2887 8.6469 0.3747
9.2852 9.0723 0.3845
7.6747 7.8701 0.3266
7.4522 8.0210 0.3263
7.3367 8.2897 0.3309
7.2383 8.5880 0.3367
7.2086 8.9848 0.3462
7.1390 9.3525 0.3545
6.6382 9.1465 0.3414
6.1285 8.8884 0.3269
6.0236 9.2046 0.3338
5.9895 9.6538 0.3455
5.7616 9.8080 0.3467
5.9855 10.7774 0.3764
5.6403 10.7606 0.3717
4.7764 9.6740 0.3306
4.5541 9.8145 0.3321
4.2715 9.8202 0.3292
2.9824 7.3364 0.2438
3.8419 10.1472 0.3344
3.6227 10.3141 0.3373
6.5908 20.3230 0.6599
6.1790 20.7492 0.6693
5.7967 21.3379 0.6842
5.3378 21.7093 0.6922
4.8308 21.9194 0.6954
4.4180 22.6361 0.7149
5.2388 30.7804 0.9682
4.9686 34.1662 1.0708
2.3076 19.0992 0.5967
1.8394 19.0868 0.5948
3.5295 49.0038 1.5239
3.3986 71.1501 2.2089
1.7470 74.1374 2.2989
-0.0472 77.5230 2.4021
-1.9219 77.5425 2.4021
-3.7978 77.5253 2.4021
-5.6749 77.4716 2.4021
-7.5524 77.3816 2.4021
-9.0251 73.9389 2.2990
-7.3754 50.2864 1.5669
-12.7439 74.3293 2.3221
-14.5562 74.0998 2.3221
-16.3667 73.8343 2.3221
-18.1453 73.4131 2.3184
-19.7617 72.3945 2.2967
-14.9004 49.8138 1.5884
-22.8880 70.2843 2.2539
-24.5234 69.5500 2.2442
-7.0022 18.4261 0.5986
-18.1411 44.4705 1.4552
-25.9993 59.5750 1.9648
-22.8199 49.0225 1.6305
-23.4708 47.3924 1.5906
-24.3364 46.2922 1.5687
-22.2927 40.0254 1.3704
-26.2057 44.4864 1.5399
-20.1383 32.3712 1.1337
-16.2045 24.6965 0.8757
-30.0064 43.4068 1.5594
-31.5919 43.4183 1.5815
-35.8953 46.9066 1.7338
-38.0004 47.2465 1.7736
-17.1999 20.3573 0.7768
-27.0961 30.5413 1.1857
-11.6602 12.5197 0.4950
-11.8489 12.1213 0.4885
-16.7428 16.3195 0.6711
-17.2666 16.0349 0.6736
-12.4932 11.0520 0.4749
-38.9449 32.8089 1.4435
-38.8989 31.1946 1.4074
-38.8548 29.6453 1.3734
-17.5474 12.7293 0.6064
-23.6029 16.2664 0.7982
-37.5986 24.5933 1.2452
-37.5643 23.2945 1.2193
-37.5311 22.0363 1.1947
-37.3422 20.7287 1.1667
-37.9312 19.8721 1.1639
-37.8980 18.7018 1.1429
-20.8316 9.6612 0.6178
-22.5376 9.7977 0.6578
-37.8169 15.3645 1.0868
-38.4569 14.5521 1.0889
-38.4288 13.4892 1.0728
-26.5378 8.6008 0.7308
-38.7716 11.5382 1.0539
-38.7447 10.5181 1.0401
-13.2578 3.2573 0.3517
-13.2473 2.9172 0.3475
-38.2696 7.4627 0.9931
-38.6404 6.5700 0.9926
-38.6150 5.6093 0.9824
-32.4577 3.9166 0.8183
-38.1695 3.6725 0.9542
-38.1449 2.7418 0.9460
-15.5182 0.7391 0.3820
-92.1067 2.1580 2.2520
-21.3717 -0.0158 0.5193
-91.9386 -2.2903 2.2211
-92.0243 -4.5193 2.2118
-96.0913 -7.0499 2.2990
-97.2987 -16.6915 2.2990
-61.8281 -12.1513 1.4585
-61.4145 -13.6191 1.4473
-83.4304 -20.6282 1.9654
-72.9476 -19.9184 1.7189
-69.7022 -20.8546 1.6439
-60.8118 -19.8076 1.4365
-57.4798 -20.2711 1.3608
-55.6907 -21.1665 1.3223
-52.5903 -21.4563 1.2532
-48.9385 -21.3598 1.1713
-46.1697 -21.4939 1.1107
-43.3325 -21.4618 1.0486
-40.6890 -21.3920 0.9912
-38.2442 -21.3017 0.9386
-36.1103 -21.2722 0.8936
-34.1083 -21.2193 0.8518
-32.2649 -21.1706 0.8138
-30.5600 -21.1256 0.7793
-28.9401 -21.0570 0.7468
-27.5012 -21.0448 0.7188
-26.1196 -21.0072 0.6923
-24.8218 -20.9729 1.0281
-23.6025 -20.9407 0.9951
-22.4514 -20.9103 0.9646
-21.3615 -20.8816 0.9364
-20.3271 -20.8542 0.9102
-19.2711 -20.7511 0.8825
-18.3806 -20.7770 0.8621
-17.5065 -20.7797 0.8421
-17.0264 -21.2304 0.8412
-16.9988 -22.2780 0.8641
-16.9694 -23.3904 0.8889
-13.5198 -19.6157 0.7311
-12.8200 -19.5972 0.7170
-12.1431 -19.5793 0.7039
-11.4875 -19.5620 0.6917
-10.8513 -19.5452 0.6803
-10.2330 -19.5289 0.6697
-9.6311 -19.5130 0.6598
-9.0444 -19.4974 0.6507
-8.4716 -19.4823 0.6422
-7.9116 -19.4675 0.6343
-7.3633 -19.4530 0.6270
-6.7990 -19.3629 0.6180
-6.2895 -19.3989 0.6134
-5.7714 -19.3852 0.6078
-5.2685 -19.3977 0.6035
-4.7651 -19.3844 0.5989
-4.3239 -19.6229 0.6025
-3.8267 -19.6097 0.5988
-3.3349 -19.5967 0.5955
-2.8477 -19.5839 0.5927
-2.3646 -19.5711 0.5904
-1.8849 -19.5584 0.5884
-1.4081 -19.5458 0.5869
-0.9335 -19.5333 0.5858
-0.4606 -19.5208 0.5851
0.0111 -19.5084 0.5849
0.4823 -19.4959 0.5850
0.9534 -19.4835 0.5856
1.4250 -19.4710 0.5865
1.8977 -19.4585 0.5879
2.3720 -19.4460 0.5897
2.8484 -19.4334 0.5919
3.3277 -19.4208 0.5946
3.8103 -19.4080 0.5976
4.2969 -19.3952 0.6012
4.1295 -16.7165 0.5219
4.6173 -16.9237 0.5326
4.7541 -15.9017 0.5048
5.2025 -15.9840 0.5123
5.4332 -15.4167 0.4991
5.6546 -14.8874 0.4873
5.9327 -14.5506 0.4819
6.2778 -14.3922 0.4827
6.4347 -13.8301 0.4700
6.9229 -13.9858 0.4821
6.2583 -11.9103 0.4167
5.4760 -9.8367 0.3496
5.8751 -9.9786 0.3606
6.2981 -10.1291 0.3725
5.9010 -8.9980 0.3370
6.2596 -9.0597 0.3459
6.6356 -9.1244 0.3555
6.7538 -8.8302 0.3514
6.7913 -8.4482 0.3438
6.9817 -8.2678 0.3443
7.0862 -7.9916 0.3410
7.1975 -7.7324 0.3384
7.4142 -7.5890 0.3411
7.1306 -6.9544 0.3213
7.6095 -7.0708 0.3363
7.4562 -6.6000 0.3236
7.8240 -6.5954 0.3338
8.8903 -7.1340 0.3732
10.7143 -8.1801 0.4430
21.1279 -15.3371 0.8614
18.1157 -12.4935 0.7288
18.5937 -12.1709 0.7389
21.0536 -13.0656 0.8271
20.9648 -12.3190 0.8150
20.9018 -11.6119 0.8046
20.7290 -10.8690 0.7908
20.5106 -10.1304 0.7760
20.1718 -9.3637 0.7575
19.5867 -8.5231 0.7306
18.7792 -7.6375 0.6962
17.9132 -6.7857 0.6605
16.9912 -5.9711 0.6236
16.2330 -5.2676 0.5934
15.5985 -4.6482 0.5683
14.9937 -4.0763 0.5447
14.5354 -3.5768 0.5270
14.0930 -3.1089 0.5102
13.7659 -2.6896 0.4979
13.4241 -2.2876 0.4854
13.1039 -1.9084 0.4739
12.8295 -1.5529 0.4644
12.5924 -1.2163 0.4565
12.3507 -0.8924 0.4486
12.1270 -0.5821 0.4417
11.9160 -0.2836 0.4354
11.7384 0.0044 0.4305
11.5655 0.2839 0.4259
11.3988 0.5556 0.4218
11.2352 0.8202 0.4180
11.0869 1.0792 0.4150
10.9461 1.3333 0.4124
10.8034 1.5817 0.4099
7.2834 1.2468 0.2784
7.1563 1.4038 0.2758
7.0004 1.5498 0.2722
6.9228 1.7091 0.2717
6.7872 1.8508 0.2690
6.6528 1.9880 0.2665
6.4573 2.1009 0.2615
6.2490 2.2014 0.2560
6.0755 2.3068 0.2520
5.9817 2.4382 0.2513
5.9190 2.5811 0.2521
5.8563 2.7241 0.2529
5.8500 2.8951 0.2564
5.9600 3.1311 0.2653
6.0979 3.3940 0.2759
7.0415 4.1453 0.3240
7.8814 4.8999 0.3691
9.0487 5.9336 0.4316
7.5774 5.2349 0.3683
7.2854 5.2978 0.3613
7.0922 5.4241 0.3591
6.9460 5.5834 0.3593
6.8469 5.7817 0.3622
6.6988 5.9398 0.3628
6.6491 6.1892 0.3690
7.0316 6.8698 0.4003
7.4241 7.6125 0.4339
7.2698 7.8240 0.4368
7.1365 8.0628 0.4413
7.0682 8.3856 0.4504
7.0423 8.7769 0.4631
6.9978 9.1667 0.4755
6.5859 9.0738 0.4631
6.3104 9.1516 0.4599
5.9666 9.1168 0.4516
6.0020 9.6733 0.4725
5.7364 9.7645 0.4708
6.2202 11.1993 0.5333
5.8702 11.1984 0.5271
4.7662 9.6528 0.4493
4.4846 9.6642 0.4452
4.2737 9.8248 0.4482
2.9823 7.3357 0.3316
3.8440 10.1520 0.4550
3.6091 10.2750 0.4569
6.5595 20.2255 0.8927
6.1727 20.7271 0.9086
5.7914 21.3172 0.9286
5.3437 21.7327 0.9413
4.8281 21.9063 0.9439
4.4321 22.7078 0.9739
5.0431 29.6298 1.2655
4.9160 33.8041 1.4385
4.8142 39.8446 1.6903
4.3626 45.2710 1.9155
3.5079 48.7061 2.0565
2.6048 54.5349 2.2989
1.2862 54.5951 2.2989
-0.0352 57.0816 2.4021
-1.4154 57.0876 2.4021
-2.7961 57.0648 2.4021
-4.1770 57.0135 2.4021
-5.5574 56.9336 2.4021
-6.9370 56.8251 2.4021
-7.9584 54.2550 2.2990
-7.1711 41.8216 1.7774
-7.1570 36.4295 1.5536
-12.0233 54.2347 2.3221
-13.3461 53.9909 2.3221
-5.2909 19.3807 0.8378
-5.7683 19.2824 0.8382
-16.8147 51.6296 2.2582
-17.6567 50.0711 2.2048
-18.3307 48.2325 2.1393
-18.1403 44.4645 1.9878
-19.9506 45.7107 2.0609
-20.8331 44.7503 2.0361
-21.7677 43.9495 2.0192
-22.7851 43.3375 2.0119
-22.2914 40.0194 1.8785
-24.6180 41.7874 1.9847
-20.1375 32.3670 1.5565
-16.2019 24.6903 1.2031
-24.6428 35.6446 1.7613
-24.1774 33.2251 1.6662
-24.3244 31.7832 1.6189
-24.6798 30.6819 1.5887
-17.1983 20.3533 1.0723
-25.8574 29.1422 1.5636
-11.6565 12.5145 0.6845
-11.8481 12.1192 0.6765
-16.7415 16.3166 0.9304
-17.2656 16.0322 0.9349
-12.4920 11.0497 0.6598
-25.5868 21.5530 1.3195
-25.4765 20.4283 1.2840
-25.7259 19.6259 1.2682
-17.5369 12.7202 0.8464
-23.6012 16.2632 1.1161
-37.5985 24.5900 1.7435
-37.5642 23.2913 1.7095
-37.5310 22.0332 1.6775
-37.3474 20.7286 1.6407
-37.9311 19.8690 1.6389
-37.8979 18.6988 1.6117
-20.8287 9.6582 0.8724
-22.5351 9.7949 0.9303
-37.8235 15.3644 1.5398
-38.4568 14.5492 1.5450
-38.4287 13.4863 1.5245
-26.5297 8.5963 1.0399
-38.3741 11.4172 1.4872
-38.3474 10.4075 1.4702
-13.2559 3.2559 0.5031
-13.2463 2.9161 0.4979
-38.2696 7.4600 1.4256
-38.2442 6.5000 1.4127
-38.2191 5.5492 1.4007
-32.4551 3.9140 1.1809
-38.1694 3.6699 1.3795
-38.1449 2.7392 1.3702
-15.5150 0.7379 0.5542
-64.6270 1.5098 2.2971
-21.3692 -0.0173 0.7562
-65.1603 -1.6276 2.2971
-65.3720 -3.2148 2.2971
-63.0842 -4.6325 2.2108
-65.7320 -6.4271 2.2989
-68.7859 -8.4080 2.4021
-68.8463 -10.1092 2.4021
-68.8652 -11.8184 2.4021
-61.8025 -12.1504 2.1565
-61.4022 -13.6205 2.1446
-65.1364 -16.1094 2.2786
-65.5736 -17.9094 2.2990
-66.7532 -19.9768 2.3471
-59.3473 -19.3347 2.0941
-57.4791 -20.2748 2.0368
-55.6900 -21.1701 1.9831
-52.5807 -21.4560 1.8828
-48.9301 -21.3596 1.7632
-46.1697 -21.4971 1.6755
-43.3259 -21.4617 1.5846
-40.6832 -21.3919 1.5008
-38.2389 -21.3015 1.4239
-36.1055 -21.2721 1.3582
-34.1041 -21.2192 1.2971
-32.2611 -21.1705 1.2417
-30.5566 -21.1255 1.1912
-28.9369 -21.0569 1.1436
-27.4983 -21.0447 1.1028
-26.1169 -21.0072 1.0639
-24.8194 -20.9729 1.3887
-23.6003 -20.9407 1.3452
-22.4493 -20.9103 1.3050
-21.3596 -20.8815 1.2678
-20.3253 -20.8542 1.2333
-19.2695 -20.7510 1.1966
-18.3791 -20.7770 1.1699
-17.5051 -20.7797 1.1436
-17.0264 -21.2319 1.1433
-16.9987 -22.2796 1.1750
-16.9693 -23.3920 1.2096
-13.5189 -19.6157 0.9954
-12.8191 -19.5972 0.9768
-12.1423 -19.5793 0.9595
-11.4867 -19.5620 0.9434
-10.8506 -19.5452 0.9283
-10.2323 -19.5288 0.9143
-9.6305 -19.5129 0.9013
-9.0439 -19.4974 0.8892
-8.4711 -19.4823 0.8779
-7.9112 -19.4675 0.8675
-7.3629 -19.4530 0.8578
-6.7987 -19.3629 0.8457
-6.2892 -19.3989 0.8397
-5.7711 -19.3852 0.8322
-5.2682 -19.3977 0.8265
-4.7649 -19.3844 0.8204
-4.3237 -19.6229 0.8255
-3.8266 -19.6097 0.8205
-3.3348 -19.5967 0.8161
-2.8476 -19.5839 0.8123
-2.3646 -19.5711 0.8091
-1.8849 -19.5584 0.8064
-1.4081 -19.5458 0.8044
-0.9335 -19.5333 0.8028
-0.4607 -19.5208 0.8018
0.0110 -19.5084 0.8013
0.4821 -19.4959 0.8014
0.9532 -19.4835 0.8020
1.4247 -19.4710 0.8032
1.8974 -19.4586 0.8048
2.3717 -19.4460 0.8071
2.8481 -19.4334 0.8098
3.3229 -19.3951 0.8121
3.8049 -19.3824 0.8160
4.2930 -19.3794 0.8209
4.7876 -19.3822 0.8267
4.6602 -17.0826 0.7341
5.1597 -17.2601 0.7478
5.2859 -16.2416 0.7100
5.6129 -15.9282 0.7031
5.5179 -14.5288 0.6480
5.9193 -14.5189 0.6548
6.4283 -14.7385 0.6727
6.2730 -13.4839 0.6233
6.0860 -12.2960 0.5761
6.2372 -11.8712 0.5641
5.5394 -9.9515 0.4801
5.9451 -10.0984 0.4949
6.3755 -10.2544 0.5111
5.9323 -9.0465 0.4589
6.2959 -9.1131 0.4709
6.3518 -8.7350 0.4602
6.6508 -8.6965 0.4676
6.7661 -8.4177 0.4624
6.8781 -8.1459 0.4575
6.9149 -7.7992 0.4484
7.1649 -7.6982 0.4536
7.8236 -8.0089 0.4842
7.3850 -7.2032 0.4473
7.4935 -6.9638 0.4447
7.4674 -6.6106 0.4348
7.7630 -6.5447 0.4439
8.8898 -7.1345 0.4997
20.2880 -15.4913 1.1222
20.3433 -14.7694 1.1084
18.1133 -12.4934 0.9730
18.5637 -12.1529 0.9840
20.3878 -12.6541 1.0673
20.3500 -11.9594 1.0531
20.2760 -11.2659 1.0380
20.1583 -10.5714 1.0217
19.8885 -9.8247 0.9987
19.3219 -8.9707 0.9620
18.7234 -8.1489 0.9250
17.9089 -7.2850 0.8785
17.1078 -6.4819 0.8339
16.2741 -5.7203 0.7888
15.6225 -5.0706 0.7534
15.0027 -4.4718 0.7203
14.5044 -3.9443 0.6938
14.0642 -3.4619 0.6707
13.7132 -3.0261 0.6523
13.3716 -2.6135 0.6349
13.0346 -2.2221 0.6181
12.7630 -1.8597 0.6048
12.5099 -1.5151 0.5927
12.2708 -1.1861 0.5817
12.0474 -0.8713 0.5717
11.8349 -0.5688 0.5626
11.6526 -0.2781 0.5551
11.4766 0.0035 0.5483
11.3061 0.2767 0.5419
11.1458 0.5425 0.5363
10.9925 0.8017 0.5313
10.8566 1.0561 0.5274
10.7216 1.3052 0.5238
7.4999 1.0975 0.3687
7.1862 1.2297 0.3557
7.0631 1.3851 0.3521
6.9495 1.5381 0.3492
6.7971 1.6776 0.3445
6.6634 1.8165 0.3408
6.5330 1.9518 0.3374
6.3427 2.0631 0.3309
6.1501 2.1662 0.3244
6.0361 2.2915 0.3220
5.9461 2.4233 0.3211
5.8823 2.5647 0.3217
5.8199 2.7068 0.3226
5.8269 2.8833 0.3276
5.9301 3.1150 0.3384
6.0652 3.3754 0.3515
6.9874 4.1129 0.4115
7.8275 4.8659 0.4689
7.7539 5.0840 0.4727
7.3849 5.1014 0.4587
7.1578 5.2045 0.4532
6.9755 5.3344 0.4507
6.8481 5.5042 0.4518
6.7174 5.6718 0.4530
6.6073 5.8582 0.4559
6.5396 6.0867 0.4621
7.0512 6.8883 0.5108
6.7837 6.9553 0.5044
7.1385 7.6821 0.5454
7.0271 7.9386 0.5523
6.9970 8.3005 0.5664
6.9798 8.6983 0.5828
6.9241 9.0696 0.5972
6.9013 9.5076 0.6157
6.5725 9.5310 0.6076
6.4612 9.8720 0.6200
5.9788 9.6354 0.5966
6.2600 10.6551 0.6510
6.1696 11.1074 0.6701
5.8515 11.1621 0.6654
4.7561 9.6317 0.5677
4.5346 9.7714 0.5698
4.2759 9.8294 0.5675
2.9821 7.3351 0.4195
3.8309 10.1169 0.5736
6.0134 17.1191 0.9627
6.1430 18.9402 1.0571
6.1664 20.7049 1.1476
5.7959 21.3329 1.1748
5.3497 21.7561 1.1912
4.8285 21.9075 1.1931
4.4463 22.7799 1.2348
4.8851 28.7008 1.5492
4.8718 33.4998 1.8015
4.8210 39.9006 2.1391
4.1432 42.9943 2.2989
3.1030 43.0844 2.2989
1.5522 32.4990 1.7313
1.0404 44.1704 2.3506
-0.0282 45.1621 2.4021
-1.1201 45.1629 2.4021
-2.2123 45.1403 2.4021
-3.3043 45.0943 2.4021
-4.3956 45.0248 2.4021
-5.4858 44.9319 2.4021
-6.5745 44.8156 2.4021
-7.3326 42.7586 2.2990
-7.1384 36.3313 1.9606
-3.9690 17.9017 0.9701
-3.9629 16.0302 0.8729
-4.2606 15.6052 0.8542
-4.6434 15.5205 0.8546
-5.0251 15.4281 0.8550
-5.4056 15.3279 0.8554
-5.7848 15.2198 0.8559
-16.6034 40.6937 2.3074
-17.5930 40.3054 2.3057
-18.5248 39.7884 2.2978
-19.4248 39.2156 2.2878
-20.2821 38.5732 2.2747
-21.0986 37.8745 2.2593
-21.8479 37.0819 2.2392
-20.1368 32.3628 1.9797
-16.1994 24.6841 1.5308
-22.2685 32.2071 2.0264
-22.5757 31.0209 1.9818
-22.9468 29.9803 1.9464
-23.4427 29.1411 1.9243
-17.1966 20.3494 1.3680
-24.2268 27.3017 1.8703
-11.6529 12.5093 0.8741
-11.8472 12.1171 0.8646
-16.7403 16.3136 1.1898
-17.2646 16.0296 1.1964
-12.4908 11.0473 0.8449
-23.4558 19.7557 1.5501
-23.8548 19.1257 1.5417
-24.3061 18.5405 1.5376
-17.5265 12.7110 1.0862
-23.5995 16.2599 1.4342
-26.0945 17.0640 1.5562
-27.1924 16.8580 1.5927
-37.3017 21.8955 2.1474
-37.3527 20.7284 2.1151
-37.9310 19.8660 2.1142
-37.8979 18.6958 2.0808
-20.8259 9.6553 1.1271
-22.5326 9.7921 1.2029
-37.8301 15.3642 1.9934
-38.4567 14.5463 2.0014
-38.4286 13.4835 1.9766
-26.5217 8.5917 1.3491
-38.3740 11.4144 1.9316
-38.3473 10.4048 1.9113
-13.2540 3.2545 0.6545
-13.2454 2.9149 0.6484
-38.2695 7.4573 1.8584
-38.2441 6.4974 1.8433
-38.2190 5.5465 1.8294
-32.4524 3.9115 1.5436
-38.1694 3.6673 1.8051
-38.1448 2.7366 1.7947
-15.5118 0.7367 0.7265
-43.1488 1.0051 2.0128
-21.3668 -0.0187 0.9933
-49.5533 -1.2410 2.2971
-49.6650 -2.4457 2.2971
-37.9870 -2.7921 1.7541
-49.8390 -4.8764 2.2989
-49.8629 -6.0983 2.2989
-52.0959 -7.6531 2.4021
-52.0578 -8.9374 2.4021
-51.9881 -10.2244 2.4021
-51.8861 -11.5131 2.4021
-51.7520 -12.8027 2.4021
-51.5853 -14.0924 2.4021
-50.3396 -15.0682 2.3532
-48.9581 -15.9533 2.2990
-48.7042 -17.1829 2.2990
-48.4185 -18.4092 2.2990
-49.1071 -20.0420 2.3471
-48.7503 -21.2845 2.3471
-46.1696 -21.5004 2.2408
-21.3977 -10.6010 1.0476
-20.0628 -10.5508 0.9917
-18.8561 -10.5054 0.9417
-18.6418 -10.9844 0.9414
-18.6192 -11.5861 0.9515
-18.5960 -12.2046 0.9626
-30.5531 -21.1254 1.6033
-28.9337 -21.0568 1.5406
-27.4955 -21.0446 1.4869
-26.1143 -21.0071 1.4357
-24.8169 -20.9728 1.7495
-23.5981 -20.9406 1.6955
-22.4473 -20.9102 1.6457
-21.3577 -20.8815 1.5995
-20.3236 -20.8541 1.5566
-19.2679 -20.7510 1.5111
-18.3776 -20.7770 1.4779
-17.5038 -20.7797 1.4453
-17.0263 -21.2335 1.4456
-16.9987 -22.2811 1.4864
-16.9693 -23.3936 1.5306
-13.5179 -19.6156 1.2600
-12.8182 -19.5972 1.2369
-12.1415 -19.5793 1.2154
-11.4860 -19.5620 1.1953
-10.8499 -19.5452 1.1766
-10.2317 -19.5288 1.1592
-9.6300 -19.5129 1.1429
-9.0434 -19.4974 1.1278
-8.4706 -19.4823 1.1138
-7.9107 -19.4675 1.1008
-7.3625 -19.4530 1.0888
-6.7984 -19.3628 1.0736
-6.2889 -19.3989 1.0661
-5.7709 -19.3852 1.0568
-5.2680 -19.3977 1.0498
-4.7647 -19.3844 1.0421
-4.3235 -19.6228 1.0486
-3.8264 -19.6097 1.0424
-3.3347 -19.5967 1.0369
-2.8476 -19.5839 1.0321
-2.3645 -19.5711 1.0280
-1.8849 -19.5584 1.0247
-1.4081 -19.5459 1.0220
-0.9336 -19.5333 1.0200
-0.4608 -19.5208 1.0187
0.0108 -19.5084 1.0180
0.4819 -19.4959 1.0180
0.9530 -19.4835 1.0186
1.4245 -19.4710 1.0200
1.8971 -19.4586 1.0220
2.3714 -19.4460 1.0246
2.8478 -19.4334 1.0280
3.3226 -19.3951 1.0306
3.8045 -19.3824 1.0354
4.2924 -19.3790 1.0413
4.7871 -19.3822 1.0484
4.6651 -17.1022 0.9318
6.2975 -21.0683 1.1571
5.2347 -16.0859 0.8911
5.6599 -16.0630 0.8982
5.7267 -15.0801 0.8518
5.8777 -14.4182 0.8232
6.3979 -14.6702 0.8473
6.3133 -13.5716 0.7936
6.0677 -12.2602 0.7263
6.2148 -11.8298 0.7106
5.6043 -10.0691 0.6137
6.0169 -10.2212 0.6327
6.4548 -10.3829 0.6533
6.5437 -9.9799 0.6388
6.3262 -9.1579 0.5968
6.5306 -8.9818 0.5965
6.5509 -8.5666 0.5804
6.6658 -8.2937 0.5737
7.0029 -8.2946 0.5865
6.8746 -7.7545 0.5610
7.1326 -7.6642 0.5679
7.7200 -7.9036 0.6005
7.6461 -7.4587 0.5818
7.6333 -7.0945 0.5688
7.4786 -6.6213 0.5464
8.6138 -7.2628 0.6177
8.8335 -7.0901 0.6224
9.0072 -6.8784 0.6241
19.5975 -14.2296 1.3368
18.1108 -12.4933 1.2173
18.5338 -12.1349 1.2286
19.7862 -12.2823 1.2946
19.7723 -11.6215 1.2780
19.6730 -10.9324 1.2572
19.4581 -10.2057 1.2303
19.0868 -9.4302 1.1950
18.5948 -8.6346 1.1536
17.8645 -7.7764 1.0991
17.1109 -6.9616 1.0447
16.2950 -6.1751 0.9879
15.6516 -5.5027 0.9430
15.0007 -4.8699 0.8986
14.4831 -4.3179 0.8633
14.0308 -3.8165 0.8327
13.6591 -3.3631 0.8077
8.9371 -1.9728 0.5268
8.7516 -1.7112 0.5146
8.6298 -1.4718 0.5065
8.5974 -1.2533 0.5039
8.5629 -1.0377 0.5016
8.6248 -0.8343 0.5051
8.7482 -0.6333 0.5126
11.5667 -0.5567 0.6785
11.3868 -0.2725 0.6690
11.2141 0.0027 0.6603
11.0571 0.2699 0.6529
10.9036 0.5300 0.6460
10.7663 0.7845 0.6404
10.6354 1.0339 0.6354
10.5060 1.2782 0.6309
7.3565 1.0760 0.4443
7.0913 1.2130 0.4309
6.9862 1.3695 0.4274
6.8944 1.5254 0.4249
6.7203 1.6582 0.4175
6.5439 1.7835 0.4100
6.4173 1.9168 0.4058
6.2319 2.0267 0.3980
6.1100 2.1517 0.3943
5.9971 2.2762 0.3912
5.9109 2.4085 0.3901
5.8460 2.5485 0.3906
5.7840 2.6897 0.3915
5.8039 2.8715 0.3983
5.9005 3.0990 0.4108
6.0328 3.3570 0.4263
6.9341 4.0810 0.4978
7.7744 4.8323 0.5674
7.6747 5.0315 0.5699
7.3150 5.0526 0.5531
7.0567 5.1304 0.5438
6.9170 5.2891 0.5437
6.8034 5.4678 0.5459
6.6674 5.6290 0.5466
6.5242 5.7839 0.5471
6.4601 6.0122 0.5546
7.0690 6.9051 0.6220
6.8005 6.9720 0.6139
7.0733 7.6112 0.6559
6.9674 7.8706 0.6644
6.9312 8.2218 0.6806
6.9217 8.6252 0.7009
6.8236 8.9373 0.7135
6.8435 9.4274 0.7401
6.5066 9.4349 0.7289
6.2627 9.5681 0.7281
6.3295 10.1999 0.7651
6.2380 10.6169 0.7856
6.1434 11.0596 0.8079
5.8330 11.1261 0.8029
4.8288 9.7784 0.6976
4.6458 10.0104 0.7065
4.2782 9.8340 0.6870
2.9820 7.3344 0.5075
3.8033 10.0436 0.6889
5.4637 15.5535 1.0580
5.9413 18.3175 1.2365
6.1600 20.6828 1.3863
5.8004 21.3488 1.4217
5.3547 21.7757 1.4416
4.8290 21.9087 1.4427
4.4607 22.8526 1.4976
4.8643 28.5783 1.8649
4.8607 33.4229 2.1730
4.2858 35.4710 2.2989
3.4272 35.5639 2.2989
1.7430 24.2014 1.5611
1.7008 35.6135 2.2937
0.8792 37.3347 2.4021
-0.0236 37.3530 2.4021
-0.9267 37.3516 2.4021
-1.8299 37.3304 2.4021
-2.7328 37.2894 2.4021
-3.6350 37.2285 2.4021
-4.5360 37.1480 2.4021
-5.4356 37.0476 2.4021
-6.3333 36.9274 2.4021
-6.9186 35.2087 2.2990
-3.9690 17.8998 1.1739
-3.9629 16.0286 1.0564
-3.9579 14.4952 0.9606
-4.3319 14.4781 0.9652
-4.7157 14.4769 0.9716
-5.1055 14.4757 0.9786
-5.5020 14.4744 0.9862
-5.9057 14.4731 0.9945
-14.6195 33.4900 2.3221
-15.4428 33.1657 2.3221
-16.2597 32.8228 2.3221
-17.0700 32.4613 2.3221
-17.8559 32.0505 2.3199
-18.5982 31.5634 2.3133
-19.2515 30.9373 2.2976
-16.1968 24.6779 1.8586
-20.3706 29.4595 2.2518
-20.8523 28.6502 2.2243
-21.3483 27.8891 2.2012
-21.7994 27.0957 2.1759
-17.1949 20.3454 1.6639
-21.7948 24.5585 2.0475
-11.6492 12.5042 1.0638
-11.8464 12.1150 1.0528
-16.7391 16.3107 1.4495
-17.2637 16.0269 1.4582
-12.4895 11.0450 1.0301
-22.0916 18.6046 1.7809
-22.4804 18.0216 1.7731
-22.8936 17.4610 1.7683
-17.5160 12.7018 1.3261
-23.5978 16.2567 1.7525
-24.5002 16.0193 1.7864
-25.2835 15.6725 1.8115
-26.2706 15.4182 1.8509
-33.4914 18.5829 2.3221
-34.0071 17.8081 2.3221
-33.9987 16.7696 2.2880
-20.8230 9.6524 1.3820
-22.5301 9.7893 1.4757
-35.1820 14.2861 2.2758
-35.6013 13.4636 2.2758
-36.0024 12.6295 2.2758
-26.5136 8.5872 1.6584
-37.4354 11.1325 2.3184
-37.4094 10.1476 2.2953
-13.2522 3.2531 0.8060
-13.2444 2.9138 0.7991
-37.3630 7.2780 2.2374
-37.8990 6.4361 2.2538
-37.8849 5.4954 2.2388
-32.4498 3.9089 1.9067
-38.1693 3.6647 2.2312
-38.1447 2.7340 2.2196
-15.5086 0.7355 0.8989
-39.7688 0.9237 2.2971
-21.3643 -0.0201 1.2306
-39.9698 -1.0037 2.2971
-40.0356 -1.9742 2.2971
-37.9936 -2.7951 2.1777
-40.1270 -3.9289 2.2989
-40.1215 -4.9096 2.2989
-40.0920 -5.8924 2.2989
-41.8367 -7.1854 2.4021
-41.7551 -8.2147 2.4021
-41.6479 -9.2441 2.4021
-41.5149 -10.2730 2.4021
-41.3562 -11.3007 2.4021
-41.1714 -12.3267 2.4021
-40.9607 -13.3501 2.4021
-40.7239 -14.3702 2.4021
-38.8520 -14.7746 2.3066
-38.4480 -15.6944 2.2990
-38.1465 -16.6575 2.2990
-37.8200 -17.6148 2.2990
-21.3956 -10.6015 1.3128
-20.0609 -10.5512 1.2434
-18.8544 -10.5058 1.1814
-18.6420 -10.9859 1.1818
-18.6194 -11.5875 1.1952
-18.5962 -12.2061 1.2097
-30.5496 -21.1253 2.0157
-28.9306 -21.0567 1.9380
-27.4925 -21.0445 1.8714
-26.1117 -21.0070 1.8079
-24.8145 -20.9728 2.1107
-23.5958 -20.9406 2.0463
-22.4452 -20.9102 1.9867
-21.3558 -20.8814 1.9315
-20.3219 -20.8541 1.8804
-19.2663 -20.7510 1.8259
-18.3761 -20.7769 1.7863
-17.5024 -20.7796 1.7474
-17.0263 -21.2350 1.7483
-16.9986 -22.2827 1.7981
-16.9692 -23.3952 1.8520
-13.5170 -19.6156 1.5248
-12.8173 -19.5971 1.4973
-12.1407 -19.5793 1.4715
-11.4852 -19.5619 1.4475
-10.8492 -19.5451 1.4251
-10.2311 -19.5288 1.4043
-9.6294 -19.5129 1.3849
-9.0428 -19.4974 1.3668
-8.4702 -19.4823 1.3500
-7.9103 -19.4675 1.3345
-7.3621 -19.4530 1.3201
-6.7980 -19.3628 1.3017
-6.2886 -19.3988 1.2929
-5.7706 -19.3852 1.2817
-5.2678 -19.3977 1.2732
-4.7646 -19.3844 1.2640
-4.3234 -19.6228 1.2720
-3.8263 -19.6097 1.2645
-3.3346 -19.5967 1.2579
-2.8475 -19.5839 1.2521
-2.3645 -19.5711 1.2472
-1.8849 -19.5584 1.2431
-1.4082 -19.5459 1.2399
-0.9337 -19.5333 1.2374
-0.4609 -19.5208 1.2358
0.0107 -19.5084 1.2349
0.4817 -19.4959 1.2348
0.9528 -19.4835 1.2355
1.4243 -19.4710 1.2370
1.8969 -19.4586 1.2393
2.3711 -19.4460 1.2424
2.8475 -19.4335 1.2464
3.3222 -19.3951 1.2494
3.8041 -19.3824 1.2550
4.2919 -19.3785 1.2620
4.7866 -19.3822 1.2704
4.7485 -17.4098 1.1492
4.7319 -15.8321 1.0532
5.2786 -16.2224 1.0883
5.5265 -15.6857 1.0620
5.6865 -14.9755 1.0240
5.9170 -14.5161 1.0031
6.3519 -14.5661 1.0180
6.3541 -13.6606 0.9663
6.0651 -12.2561 0.8781
6.1924 -11.7881 0.8561
5.5987 -10.0599 0.7412
6.0869 -10.3410 0.7735
6.5362 -10.5149 0.7992
6.6333 -10.1175 0.7821
6.4418 -9.3261 0.7338
6.6354 -9.1267 0.7316
6.9690 -9.1143 0.7450
6.9303 -8.6237 0.7195
6.9222 -8.1998 0.6991
6.8347 -7.7103 0.6723
7.1358 -7.6684 0.6847
7.7270 -7.9117 0.7241
7.7026 -7.5146 0.7058
7.6453 -7.1064 0.6858
7.4899 -6.6320 0.6585
8.6050 -7.2563 0.7423
8.7777 -7.0462 0.7437
8.9503 -6.8358 0.7455
18.9137 -13.7348 1.5502
18.1084 -12.4932 1.4619
8.6295 -5.6508 0.6868
8.8127 -5.4712 0.6920
8.7019 -5.1154 0.6748
18.9880 -10.5534 1.4551
18.6851 -9.8018 1.4162
18.2790 -9.0325 1.3713
17.7312 -8.2350 1.3176
17.0845 -7.4382 1.2584
16.3423 -6.6501 1.1940
15.6272 -5.9232 1.1334
14.9692 -5.2638 1.0784
14.4502 -4.6922 1.0347
13.9788 -4.1686 0.9956
13.5883 -3.6971 0.9632
8.8613 -2.1825 0.6255
8.6905 -1.9189 0.6113
8.4297 -1.6488 0.5912
8.2457 -1.4069 0.5770
8.1452 -1.1880 0.5690
8.1039 -0.9826 0.5655
8.1757 -0.7914 0.5702
8.2686 -0.5991 0.5768
8.3665 -0.4033 0.5840
11.1257 -0.2670 0.7775
10.9689 0.0019 0.7680
10.8186 0.2634 0.7592
10.6769 0.5183 0.7515
10.5489 0.7680 0.7451
10.4147 1.0117 0.7387
10.2886 1.2511 0.7332
7.2182 1.0553 0.5171
7.0227 1.2008 0.5060
6.9307 1.3582 0.5026
6.8401 1.5129 0.4995
6.6764 1.6469 0.4913
6.4911 1.7687 0.4816
6.3133 1.8853 0.4726
6.1844 2.0108 0.4673
6.0704 2.1373 0.4633
5.9586 2.2612 0.4597
5.8761 2.3939 0.4585
5.8101 2.5324 0.4588
5.7485 2.6727 0.4597
5.7811 2.8598 0.4685
5.8712 3.0832 0.4825
6.0007 3.3387 0.5005
6.8815 4.0496 0.5829
8.5902 5.3387 0.7395
7.5541 4.9519 0.6615
7.2326 4.9952 0.6447
7.0107 5.0965 0.6367
6.8757 5.2570 0.6367
6.7610 5.4332 0.6390
6.6319 5.5986 0.6403
6.4851 5.7488 0.6403
6.4039 5.9593 0.6471
7.0909 6.9259 0.7342
6.8197 6.9910 0.7243
6.5529 7.0507 0.7148
6.9148 7.8106 0.7755
6.8802 8.1607 0.7944
6.8654 8.5544 0.8173
6.8381 8.9556 0.8404
6.8029 9.3708 0.8646
6.6517 9.6446 0.8756
6.3972 9.7728 0.8737
6.4905 10.4587 0.9216
6.4151 10.9176 0.9489
5.9925 10.7872 0.9254
5.3131 10.1339 0.8587
5.0593 10.2446 0.8581
4.6298 9.9753 0.8264
4.2661 9.8056 0.8041
2.9819 7.3337 0.5957
4.1977 11.0846 0.8923
3.9908 11.3600 0.9068
5.6987 17.5686 1.3916
6.1606 20.6838 1.6267
5.8021 21.3539 1.6685
5.3559 21.7798 1.6916
4.8300 21.9125 1.6928
4.4794 22.9480 1.7642
4.8327 28.3915 2.1734
4.3837 30.1422 2.2989
3.6536 30.2378 2.2989
2.9215 30.3170 2.2989
1.7166 23.8362 1.8037
1.4529 30.4267 2.2989
0.7492 31.8251 2.4021
-0.0203 31.8397 2.4021
-0.7902 31.8372 2.4021
-1.5600 31.8176 2.4021
-2.3295 31.7809 2.4021
-3.0983 31.7270 2.4021
-3.8659 31.6561 2.4021
-4.6322 31.5680 2.4021
-5.3967 31.4628 2.4021
-6.1592 31.3405 2.4021
-3.9690 17.8980 1.3779
-3.9629 16.0270 1.2401
-3.9579 14.4938 1.1278
-4.3326 14.4789 1.1336
-4.7164 14.4777 1.1412
-5.1063 14.4764 1.1495
-5.5028 14.4752 1.1587
-5.9066 14.4739 1.1686
-12.4408 28.4965 2.3221
-13.1391 28.2156 2.3221
-13.8317 27.9188 2.3221
-14.5182 27.6061 2.3221
-15.1983 27.2777 2.3221
-15.8716 26.9336 2.3221
-16.5380 26.5741 2.3221
-16.1942 24.6716 2.1867
-17.8479 25.8088 2.3221
-18.4910 25.4034 2.3221
-19.0588 24.8957 2.3140
-19.4381 24.1582 2.2853
-17.1933 20.3414 1.9602
-19.5858 22.0672 2.1683
-11.6456 12.4990 1.2536
-11.8456 12.1129 1.2413
-16.7379 16.3078 1.7095
-17.2627 16.0242 1.7202
-12.4883 11.0427 1.2155
-20.6561 17.3937 1.9657
-21.0029 16.8352 1.9561
-21.3760 16.3016 1.9502
-17.4905 12.6818 1.5645
-22.3001 15.3607 1.9575
-22.8122 14.9136 1.9667
-23.3847 14.4935 1.9816
-23.9903 14.0780 1.9998
-24.7589 13.7356 2.0317
-25.7487 13.4815 2.0816
-27.1266 13.3778 2.1621
-20.8202 9.6494 1.6372
-22.5276 9.7865 1.7489
-30.2772 12.2921 2.3221
-30.6267 11.5800 2.3221
-30.9601 10.8584 2.3221
-26.5055 8.5826 1.9679
-31.5773 9.3881 2.3221
-31.8607 8.6402 2.3221
-13.2503 3.2517 0.9577
-13.2434 2.9126 0.9499
-31.5617 6.1458 2.2477
-31.6212 5.3678 2.2374
-32.1100 4.6555 2.2585
-32.0906 3.8635 2.2452
-32.1308 3.0827 2.2374
-33.4872 2.3979 2.3221
-15.5054 0.7343 1.0714
-33.6046 0.7783 2.3150
-21.3618 -0.0216 1.4681
-33.5646 -0.8451 2.3026
-33.5446 -1.6563 2.2984
-33.5245 -2.4686 2.2955
-33.5757 -3.2897 2.2989
-33.5573 -4.1086 2.2989
-33.5189 -4.9285 2.2989
-33.4603 -5.7490 2.2989
-34.8807 -6.8646 2.4021
-34.7769 -7.7214 2.4021
-34.6518 -8.5770 2.4021
-34.5053 -9.4310 2.4021
-34.3373 -10.2829 2.4021
-34.1478 -11.1319 2.4021
-33.9369 -11.9777 2.4021
-33.7045 -12.8194 2.4021
-33.4506 -13.6568 2.4021
-33.1753 -14.4891 2.4021
-31.4677 -14.6584 2.2990
-21.3936 -10.6019 1.5783
-20.0591 -10.5517 1.4954
-18.8528 -10.5063 1.4214
-18.6421 -10.9873 1.4225
-18.6195 -11.5890 1.4391
-18.5963 -12.2075 1.4572
-28.8925 -19.9816 2.2971
-28.4495 -20.7087 2.2971
-27.4896 -21.0444 2.2563
-26.1090 -21.0069 2.1804
-23.0535 -19.4862 2.2971
-22.6060 -20.0640 2.2971
-22.1434 -20.6309 2.2971
-21.3540 -20.8814 2.2641
-20.3201 -20.8541 2.2045
-19.2646 -20.7509 2.1413
-18.3746 -20.7769 2.0951
-17.5010 -20.7796 2.0498
-17.0263 -21.2365 2.0515
-16.9986 -22.2843 2.1102
-14.2407 -19.6347 1.8244
-13.5160 -19.6156 1.7900
-12.8164 -19.5971 1.7580
-12.1399 -19.5792 1.7280
-11.4845 -19.5619 1.7001
-10.8485 -19.5451 1.6740
-10.2305 -19.5288 1.6497
-9.6288 -19.5129 1.6271
-9.0423 -19.4974 1.6061
-8.4697 -19.4823 1.5865
-7.9099 -19.4675 1.5684
-7.3617 -19.4530 1.5517
-6.7977 -19.3628 1.5302
-6.2883 -19.3988 1.5199
-5.7703 -19.3852 1.5069
-5.2675 -19.3977 1.4970
-4.7644 -19.3844 1.4863
-4.3232 -19.6228 1.4957
-3.8262 -19.6097 1.4870
-3.3345 -19.5967 1.4792
-2.8475 -19.5839 1.4725
-2.3645 -19.5711 1.4667
-1.8849 -19.5584 1.4619
-1.4082 -19.5459 1.4581
-0.9338 -19.5333 1.4551
-0.4610 -19.5208 1.4532
0.0106 -19.5084 1.4521
0.4816 -19.4959 1.4520
0.9526 -19.4835 1.4527
1.4240 -19.4711 1.4544
1.8966 -19.4586 1.4570
2.3708 -19.4460 1.4606
2.8471 -19.4335 1.4650
3.3219 -19.3951 1.4685
3.8037 -19.3824 1.4749
4.2914 -19.3781 1.4829
4.7862 -19.3823 1.4926
5.8029 -21.2776 1.6501
4.7873 -16.0189 1.2518
5.1177 -15.7292 1.2394
5.6184 -15.9482 1.2680
5.8094 -15.3007 1.2284
6.1457 -15.0784 1.2233
6.3066 -14.4634 1.1865
6.8621 -14.7541 1.2248
6.0590 -12.2449 1.0294
6.1840 -11.7732 1.0031
5.7392 -10.3133 0.8913
6.1161 -10.3917 0.9116
6.7939 -10.9304 0.9741
7.1102 -10.8459 0.9828
6.3736 -9.2282 0.8510
6.7006 -9.2172 0.8657
7.0387 -9.2063 0.8816
6.8973 -8.5835 0.8388
6.9569 -8.2417 0.8227
7.0139 -7.9132 0.8078
7.0457 -7.5724 0.7912
7.6791 -7.8635 0.8420
7.6506 -7.4646 0.8201
7.6574 -7.1184 0.8034
7.5012 -6.6428 0.7711
8.5510 -7.2115 0.8623
8.7226 -7.0027 0.8636
8.1533 -6.2278 0.7934
8.2653 -6.0029 0.7913
8.3408 -5.7551 0.7863
8.3504 -5.4688 0.7758
8.4583 -5.2519 0.7751
8.6055 -5.0595 0.7785
8.6742 -4.8217 0.7753
17.9634 -9.4247 1.5875
17.5070 -8.6524 1.5309
16.9373 -7.8675 1.4667
16.1961 -7.0527 1.3898
15.6016 -6.3499 1.3276
14.9588 -5.6710 1.2632
14.3740 -5.0556 1.2053
9.0923 -2.9531 0.7576
8.9535 -2.6707 0.7418
8.7727 -2.3875 0.7231
8.6272 -2.1254 0.7080
8.4155 -1.8588 0.6880
8.0411 -1.5734 0.6553
7.9682 -1.3601 0.6477
7.9144 -1.1548 0.6420
7.8831 -0.9564 0.6386
7.9297 -0.7681 0.6419
7.9585 -0.5772 0.6441
8.0348 -0.3878 0.6505
8.1278 -0.1956 0.6586
8.2324 0.0008 0.6681
8.3383 0.2024 0.6781
10.4570 0.5069 0.8527
10.3251 0.7510 0.8447
10.1974 0.9899 0.8375
7.2594 0.8823 0.5988
7.0821 1.0350 0.5871
6.9654 1.1905 0.5807
6.8760 1.3470 0.5767
6.7865 1.5006 0.5731
6.6331 1.6358 0.5643
6.4498 1.7570 0.5531
6.2555 1.8676 0.5410
6.1440 1.9973 0.5363
6.0312 2.1231 0.5316
5.9205 2.2463 0.5273
5.8416 2.3795 0.5261
5.7757 2.5171 0.5263
5.7133 2.6560 0.5271
5.7584 2.8482 0.5383
5.8421 3.0675 0.5537
5.9689 3.3206 0.5740
6.8297 4.0186 0.6668
8.4503 5.2512 0.8384
7.4933 4.9114 0.7561
7.1738 4.9540 0.7367
6.9708 5.0669 0.7291
6.8400 5.2291 0.7294
6.7259 5.4044 0.7319
6.6063 5.5764 0.7342
6.4648 5.7302 0.7346
6.3657 5.9232 0.7402
7.0924 6.9268 0.8449
6.8177 6.9884 0.8330
6.5510 7.0481 0.8218
6.8699 7.7592 0.8860
6.8338 8.1050 0.9073
6.8145 8.4904 0.9326
6.8267 8.9401 0.9644
6.8683 9.4602 1.0032
6.6224 9.6014 1.0018
6.2936 9.6140 0.9877
6.4250 10.3524 1.0481
6.2536 10.6422 1.0626
5.9738 10.7530 1.0597
5.3144 10.1357 0.9865
5.1104 10.3474 0.9954
4.7634 10.2626 0.9765
4.5745 10.5139 0.9901
2.9818 7.3330 0.6839
4.1801 11.0373 1.0201
3.9737 11.3108 1.0366
5.6088 17.2907 1.5724
6.1715 20.7194 1.8707
5.7918 21.3150 1.9118
5.3595 21.7936 1.9430
4.8332 21.9264 1.9443
4.5151 23.1302 2.0411
4.4535 26.1633 2.2989
3.8193 26.2610 2.2989
3.1832 26.3445 2.2989
2.5453 26.4136 2.2989
1.8510 25.7027 2.2324
1.3226 27.6993 2.4021
0.6526 27.7264 2.4021
-0.0179 27.7385 2.4021
-0.6886 27.7356 2.4021
-1.3593 27.7175 2.4021
-2.0296 27.6844 2.4021
-2.6992 27.6362 2.4021
-3.3677 27.5729 2.4021
-4.0349 27.4945 2.4021
-4.7005 27.4011 2.4021
-5.3642 27.2927 2.4021
-3.9690 17.8961 1.5823
-3.9629 16.0254 1.4241
-3.9579 14.4923 1.2952
-4.3332 14.4796 1.3022
-4.7171 14.4784 1.3111
-5.1070 14.4772 1.3208
-5.5036 14.4759 1.3315
-5.9074 14.4746 1.3430
-10.8251 24.7935 2.3221
-11.4313 24.5459 2.3221
-12.0322 24.2844 2.3221
-12.6276 24.0091 2.3221
-13.2173 23.7200 2.3221
-13.8008 23.4172 2.3221
-14.3779 23.1010 2.3221
-14.9483 22.7713 2.3221
-15.5116 22.4283 2.3221
-16.0677 22.0721 2.3221
-16.5698 21.6424 2.3157
-17.0221 21.1535 2.3039
-17.1916 20.3374 2.2568
-17.6864 19.9252 2.2550
-11.6419 12.4938 1.4435
-11.8448 12.1108 1.4300
-16.7366 16.3049 1.9698
-17.2617 16.0216 1.9826
-12.4871 11.0404 1.4012
-19.4512 16.3773 2.1345
-19.7863 15.8582 2.1254
-20.1371 15.3550 2.1194
-17.4764 12.6700 1.8039
-20.9801 14.4497 2.1255
-21.4427 14.0165 2.1341
-21.9368 13.5943 2.1465
-22.4730 13.1857 2.1637
-23.0095 12.7632 2.1814
-23.6334 12.3721 2.2079
-24.2795 11.9718 2.2369
-20.8173 9.6465 1.8927
-22.5251 9.7837 2.0224
-26.0642 10.5797 2.3125
-26.4589 10.0022 2.3214
-26.7483 9.3793 2.3221
-26.4974 8.5780 2.2776
-27.2666 8.1046 2.3221
-27.5035 7.4566 2.3221
-13.2484 3.2503 1.1096
-13.2424 2.9115 1.1009
-28.1232 5.4743 2.3221
-28.2988 4.8018 2.3221
-28.4584 4.1241 2.3221
-28.6021 3.4416 2.3221
-28.7296 2.7545 2.3221
-28.8407 2.0633 2.3221
-15.5022 0.7331 1.2441
-29.0134 0.6700 2.3221
-21.3593 -0.0230 1.7059
-29.1188 -0.7351 2.3221
-29.1460 -1.4411 2.3221
-29.1561 -2.1488 2.3221
-28.8571 -2.8293 2.2989
-28.8329 -3.5321 2.2989
-28.7913 -4.2353 2.2989
-28.7325 -4.9386 2.2989
-28.6563 -5.6416 2.2989
-28.5627 -6.3436 2.2989
-29.7294 -7.3606 2.4021
-29.5951 -8.0910 2.4021
-29.4426 -8.8191 2.4021
-29.2717 -9.5444 2.4021
-29.0826 -10.2664 2.4021
-28.8752 -10.9846 2.4021
-28.6497 -11.6987 2.4021
-28.4060 -12.4081 2.4021
-28.1443 -13.1123 2.4021
-21.3915 -10.6024 1.8441
-20.0573 -10.5522 1.7477
-18.8511 -10.5067 1.6617
-18.6422 -10.9888 1.6636
-18.6197 -11.5905 1.6835
-18.5965 -12.2090 1.7050
-24.7074 -17.0891 2.2990
-24.3226 -17.7066 2.2990
-23.9019 -18.2997 2.2971
-23.4855 -18.8980 2.2971
-20.1221 -17.0100 2.2990
-19.7282 -17.5114 2.2990
-19.3053 -17.9882 2.2971
-18.8859 -18.4695 2.2971
-18.4540 -18.9405 2.2971
-18.0098 -19.4008 2.2971
-17.5536 -19.8502 2.2971
-17.0857 -20.2881 2.2971
-16.6063 -20.7143 2.2971
-16.1158 -21.1285 2.2971
-14.2396 -19.6347 2.0949
-13.5151 -19.6156 2.0557
-12.8156 -19.5971 2.0191
-12.1391 -19.5792 1.9849
-11.4837 -19.5619 1.9531
-10.8478 -19.5451 1.9233
-10.2298 -19.5288 1.8956
-9.6282 -19.5129 1.8698
-9.0418 -19.4974 1.8458
-8.4692 -19.4823 1.8235
-7.9094 -19.4675 1.8028
-7.3613 -19.4530 1.7836
-6.7973 -19.3628 1.7591
-6.2880 -19.3988 1.7473
-5.7701 -19.3851 1.7325
-5.2673 -19.3977 1.7212
-4.7642 -19.3844 1.7089
-4.3231 -19.6228 1.7198
-3.8261 -19.6097 1.7098
-3.3344 -19.5967 1.7009
-2.8474 -19.5839 1.6932
-2.3645 -19.5711 1.6866
-1.8849 -19.5584 1.6810
-1.4083 -19.5459 1.6766
-0.9339 -19.5333 1.6732
-0.4611 -19.5208 1.6709
0.0104 -19.5084 1.6697
0.4814 -19.4959 1.6694
0.9524 -19.4835 1.6703
1.4238 -19.4711 1.6721
1.8963 -19.4586 1.6751
2.3705 -19.4461 1.6790
2.8468 -19.4335 1.6841
3.3215 -19.3951 1.6880
3.8033 -19.3824 1.6952
4.2908 -19.3776 1.7043
4.7857 -19.3823 1.7153
5.7417 -21.0553 1.8763
5.9793 -20.0095 1.7966
5.3690 -16.5032 1.4940
5.4489 -15.4683 1.4128
6.1173 -16.1132 1.4859
6.0764 -14.9097 1.3891
6.5184 -14.9507 1.4084
6.1037 -13.1246 1.2510
6.0309 -12.1891 1.1764
6.1461 -11.7022 1.1445
5.8093 -10.4402 1.0355
6.1633 -10.4728 1.0542
6.7249 -10.8204 1.1064
7.0395 -10.7391 1.1163
6.4360 -9.3194 0.9857
6.7672 -9.3098 1.0028
7.0100 -9.1697 1.0068
6.8348 -8.5065 0.9530
6.9245 -8.2042 0.9387
7.4967 -8.4588 0.9895
7.1346 -7.6687 0.9182
7.2609 -7.4359 0.9122
7.4424 -7.2623 0.9139
7.5480 -7.0175 0.9070
7.5125 -6.6536 0.8843
7.7559 -6.5417 0.8953
7.8776 -6.3251 0.8927
8.0002 -6.1116 0.8909
8.0729 -5.8638 0.8842
8.1554 -5.6279 0.8794
8.2760 -5.4208 0.8793
8.3808 -5.2045 0.8781
8.5111 -5.0047 0.8802
8.5557 -4.7565 0.8740
8.5983 -4.5118 0.8683
8.7674 -4.3338 0.8759
9.0462 -4.2027 0.8947
15.4921 -6.7473 1.5180
14.8513 -6.0457 1.4427
8.8019 -3.3375 0.8483
8.8663 -3.1191 0.8484
7.6110 -2.4726 0.7235
7.5129 -2.2415 0.7099
7.5879 -2.0656 0.7133
7.6613 -1.8880 0.7168
7.7306 -1.7081 0.7204
7.7864 -1.5241 0.7231
7.7453 -1.3226 0.7173
7.7027 -1.1245 0.7118
7.7590 -0.9419 0.7158
7.8130 -0.7573 0.7201
7.8412 -0.5692 0.7223
7.8690 -0.3804 0.7250
7.9076 -0.1909 0.7291
7.9152 0.0003 0.7307
8.0013 0.1937 0.7401
7.1294 0.3451 0.6611
7.0181 0.5100 0.6527
7.0069 0.6797 0.6540
7.0242 0.8532 0.6584
7.0128 1.0244 0.6605
6.8987 1.1786 0.6532
6.8218 1.3359 0.6498
6.7337 1.4885 0.6456
6.5902 1.6248 0.6364
6.4011 1.7433 0.6230
6.1881 1.8471 0.6073
6.0838 1.9773 0.6024
5.9925 2.1090 0.5991
5.8828 2.2316 0.5942
5.8075 2.3652 0.5930
5.7420 2.5020 0.5932
5.6842 2.6421 0.5944
5.7359 2.8366 0.6076
5.8133 3.0519 0.6243
5.9374 3.3026 0.6468
6.7785 3.9880 0.7497
8.3366 5.1799 0.9367
7.4615 4.8900 0.8525
7.1282 4.9219 0.8287
6.9386 5.0429 0.8216
6.8095 5.2053 0.8219
6.6924 5.3770 0.8241
6.5746 5.5491 0.8268
6.4427 5.7101 0.8282
6.3278 5.8875 0.8323
6.3629 6.2138 0.8573
6.8157 6.9858 0.9417
6.5492 7.0456 0.9290
6.8281 7.7114 0.9957
6.8263 8.0955 1.0246
6.8525 8.5371 1.0601
6.8658 8.9906 1.0963
6.9853 9.6207 1.1531
6.8407 9.9172 1.1694
6.8539 10.4691 1.2154
6.2690 10.1004 1.1554
6.0999 10.3798 1.1710
5.9256 10.6654 1.1874
5.7778 11.0188 1.2115
5.0911 10.3078 1.1201
4.8052 10.3521 1.1125
4.5558 10.4704 1.1136
2.9817 7.3323 0.7723
4.1625 10.9904 1.1471
5.2582 14.9663 1.5489
6.6073 20.3680 2.0915
6.2162 20.8686 2.1275
5.7815 21.2762 2.1547
5.3463 21.7391 2.1884
4.8365 21.9404 2.1966
4.5043 23.0740 2.2989
3.9447 23.1735 2.2989
3.3830 23.2603 2.2989
2.8195 23.3343 2.2989
2.2545 23.3955 2.2989
1.6882 23.4439 2.2989
1.1714 24.5340 2.4021
0.5779 24.5578 2.4021
-0.0160 24.5680 2.4021
-0.6101 24.5648 2.4021
-1.2041 24.5482 2.4021
-1.7977 24.5180 2.4021
-2.3907 24.4744 2.4021
-2.9827 24.4174 2.4021
-3.5734 24.3469 2.4021
-4.1627 24.2629 2.4021
-4.7501 24.1656 2.4021
-3.9690 17.8943 1.7869
-3.9629 16.0238 1.6084
-3.9579 14.4909 1.4630
-4.3338 14.4803 1.4712
-4.7178 14.4791 1.4814
-5.1077 14.4779 1.4925
-5.5044 14.4767 1.5046
-5.9083 14.4754 1.5178
-9.4837 21.7191 2.2990
-10.0137 21.5001 2.2990
-10.6449 21.4824 2.3221
-11.1704 21.2365 2.3221
-11.6907 20.9784 2.3221
-12.2054 20.7083 2.3221
-12.7142 20.4261 2.3221
-13.2170 20.1321 2.3221
-13.7133 19.8263 2.3221
-14.2031 19.5088 2.3221
-14.6859 19.1798 2.3221
-15.1615 18.8395 2.3221
-15.6297 18.4878 2.3221
-16.0902 18.1250 2.3221
-11.6383 12.4886 1.6337
-11.8439 12.1087 1.6191
-16.7354 16.3019 2.2305
-17.2607 16.0189 2.2455
-12.4859 11.0381 1.5871
-18.3354 15.4360 2.2797
-18.6741 14.9650 2.2732
-19.0345 14.5125 2.2707
-17.4664 12.6612 2.0437
-19.7768 13.6191 2.2718
-20.1643 13.1791 2.2758
-20.5707 12.7460 2.2831
-20.9715 12.3030 2.2906
-21.3785 11.8568 2.2998
-21.7683 11.3939 2.3080
-22.1415 10.9158 2.3155
-20.8145 9.6435 2.1485
-22.5226 9.7808 2.2963
-23.0432 9.3517 2.3221
-23.2981 8.8056 2.3221
-23.5404 8.2527 2.3221
-23.7698 7.6933 2.3221
-23.9863 7.1278 2.3221
-24.1896 6.5564 2.3221
-13.2465 3.2489 1.2617
-13.2414 2.9103 1.2522
-24.7186 4.8098 2.3221
-24.8674 4.2179 2.3221
-25.0022 3.6215 2.3221
-25.1229 3.0212 2.3221
-25.2293 2.4171 2.3221
-25.3212 1.8098 2.3221
-15.4990 0.7319 1.4170
-25.4614 0.5863 2.3221
-21.3568 -0.0244 1.9441
-25.5425 -0.6466 2.3221
-25.5606 -1.2655 2.3221
-25.5637 -1.8858 2.3221
-25.2959 -2.4818 2.2989
-25.2690 -3.0972 2.2989
-25.2270 -3.7127 2.2989
-25.1698 -4.3280 2.2989
-25.0975 -4.9426 2.2989
-25.0100 -5.5562 2.2989
-24.9072 -6.1684 2.2989
-25.9027 -7.0833 2.4021
-25.7635 -7.7188 2.4021
-25.6085 -8.3517 2.4021
-25.4375 -8.9814 2.4021
-25.2508 -9.6076 2.4021
-25.0483 -10.2299 2.4021
-24.8302 -10.8479 2.4021
-24.5963 -11.4610 2.4021
-21.3282 -10.5726 2.1043
-20.0554 -10.5527 2.0005
-18.8495 -10.5072 1.9023
-18.6424 -10.9902 1.9051
-18.6198 -11.5920 1.9282
-18.5967 -12.2105 1.9533
-21.5622 -14.9153 2.2989
-21.2230 -15.4518 2.2990
-20.8699 -15.9800 2.2990
-20.5027 -16.4994 2.2990
-17.8365 -15.0794 2.2990
-17.4851 -15.5217 2.2990
-17.1222 -15.9555 2.2990
-16.7483 -16.3804 2.2990
-16.3633 -16.7961 2.2990
-15.9676 -17.2022 2.2990
-15.5562 -17.5928 2.2983
-15.1322 -17.9699 2.2971
-14.7061 -18.3454 2.2971
-14.2703 -18.7103 2.2971
-13.8249 -19.0642 2.2971
-13.3704 -19.4070 2.2971
-12.8147 -19.5971 2.2807
-12.1383 -19.5792 2.2423
-11.4830 -19.5619 2.2065
-10.8472 -19.5451 2.1731
-10.2292 -19.5288 2.1419
-9.6277 -19.5129 2.1129
-9.0413 -19.4974 2.0859
-8.4687 -19.4822 2.0608
-7.9090 -19.4675 2.0375
-7.3610 -19.4530 2.0160
-6.7970 -19.3628 1.9883
-6.2877 -19.3988 1.9752
-5.7698 -19.3851 1.9585
-5.2671 -19.3977 1.9458
-4.7640 -19.3844 1.9319
-4.3229 -19.6228 1.9443
-3.8260 -19.6097 1.9330
-3.3343 -19.5967 1.9230
-2.8474 -19.5839 1.9143
-2.3645 -19.5711 1.9068
-1.8850 -19.5584 1.9006
-1.4083 -19.5459 1.8956
-0.9339 -19.5333 1.8917
-0.4613 -19.5208 1.8891
0.0103 -19.5084 1.8876
0.4812 -19.4960 1.8874
0.9522 -19.4835 1.8882
1.4236 -19.4711 1.8903
1.8961 -19.4586 1.8935
2.3702 -19.4461 1.8979
2.8465 -19.4335 1.9036
3.3211 -19.3952 1.9079
3.8029 -19.3824 1.9159
4.2903 -19.3772 1.9260
4.7852 -19.3823 1.9384
5.7303 -21.0155 2.1161
5.8990 -19.7427 2.0029
6.2257 -19.1383 1.9574
5.5103 -15.6443 1.6142
6.0548 -15.9498 1.6614
6.2984 -15.4559 1.6265
6.7491 -15.4811 1.6471
6.0365 -12.9814 1.3973
6.0187 -12.1656 1.3258
6.0880 -11.5925 1.2800
6.1533 -11.0595 1.2383
6.3774 -10.8375 1.2314
6.6587 -10.7148 1.2365
6.1749 -9.4209 1.1052
6.4997 -9.4125 1.1233
6.8353 -9.4043 1.1429
6.8258 -8.9296 1.1060
6.7552 -8.4083 1.0625
6.8924 -8.1670 1.0539
6.9386 -7.8298 1.0328
7.0320 -7.5592 1.0204
7.1340 -7.3067 1.0105
7.2501 -7.0754 1.0036
7.3651 -6.8482 0.9975
7.5005 -6.6436 0.9950
7.6526 -6.4553 0.9954
7.7422 -6.2171 0.9884
7.8322 -5.9840 0.9824
7.9283 -5.7595 0.9780
8.0896 -5.5832 0.9822
8.2093 -5.3778 0.9820
8.3079 -5.1599 0.9799
8.4186 -4.9510 0.9798
8.4618 -4.7050 0.9727
8.5363 -4.4800 0.9698
8.6008 -4.2521 0.9665
8.8356 -4.1056 0.9829
8.2192 -3.5804 0.9056
7.8189 -3.1835 0.8540
7.8086 -2.9615 0.8460
7.5023 -2.6398 0.8068
7.3623 -2.3923 0.7864
7.2416 -2.1611 0.7688
7.1967 -1.9596 0.7599
7.2531 -1.7879 0.7622
7.3389 -1.6221 0.7680
7.4327 -1.4554 0.7750
7.5276 -1.2859 0.7825
7.5842 -1.1077 0.7866
7.6432 -0.9283 0.7913
7.6995 -0.7469 0.7961
7.7271 -0.5615 0.7985
7.7635 -0.3758 0.8022
7.8236 -0.1894 0.8089
7.8293 -0.0003 0.8104
7.0117 0.1693 0.7270
6.9132 0.3342 0.7184
6.8804 0.4995 0.7171
6.8497 0.6640 0.7164
6.8456 0.8311 0.7188
6.8897 1.0059 0.7268
6.8331 1.1670 0.7246
6.7574 1.3229 0.7207
6.6817 1.4765 0.7172
6.5478 1.6139 0.7078
6.3310 1.7238 0.6896
6.1221 1.8269 0.6723
6.0202 1.9562 0.6670
5.9452 2.0920 0.6649
5.8455 2.2171 0.6604
5.7737 2.3510 0.6593
5.7086 2.4870 0.6594
5.6627 2.6316 0.6620
5.7135 2.8251 0.6766
5.7839 3.0361 0.6942
5.9062 3.2848 0.7191
6.4183 3.7756 0.7932
8.2350 5.1162 1.0338
7.4068 4.8536 0.9453
7.0782 4.8869 0.9192
6.9059 5.0187 0.9133
6.7797 5.1819 0.9138
6.6630 5.3528 0.9162
6.5432 5.5221 0.9187
6.4119 5.6823 0.9201
6.2989 5.8601 0.9248
6.2729 6.1254 0.9433
6.8307 7.0005 1.0533
6.5522 7.0483 1.0372
6.8342 7.7176 1.1119
6.8351 8.1053 1.1446
6.8899 8.5831 1.1890
6.9712 9.1279 1.2417
7.1258 9.8134 1.3121
6.7261 9.7504 1.2824
6.8199 10.4165 1.3488
6.7137 10.8161 1.3799
5.9532 10.1296 1.2743
5.9367 10.6849 1.3265
5.6136 10.7049 1.3124
5.1838 10.4948 1.2715
4.7827 10.3030 1.2345
4.5373 10.4272 1.2364
2.9816 7.3316 0.8609
5.3085 14.0156 1.6307
5.2533 14.9515 1.7249
6.2782 19.3523 2.2151
6.2223 20.8880 2.3736
5.5343 20.3656 2.2989
5.0392 20.4893 2.2989
4.5416 20.6017 2.2989
4.0415 20.7027 2.2989
3.5394 20.7922 2.2989
3.0354 20.8703 2.2989
2.5298 20.9368 2.2989
2.0228 20.9917 2.2989
1.5828 21.9799 2.4021
1.0509 22.0131 2.4021
0.5184 22.0341 2.4021
-0.0145 22.0430 2.4021
-0.5476 22.0398 2.4021
-1.0805 22.0243 2.4021
-1.6131 21.9967 2.4021
-2.1451 21.9569 2.4021
-2.6761 21.9050 2.4021
-3.2060 21.8410 2.4021
-3.7345 21.7648 2.4021
-4.2613 21.6765 2.4021
-3.9690 17.8924 1.9920
-3.9629 16.0222 1.7931
-3.9579 14.4895 1.6310
-4.3345 14.4811 1.6406
-4.7185 14.4799 1.6520
-5.1085 14.4787 1.6645
-5.5051 14.4774 1.6782
-5.9091 14.4762 1.6930
-8.5029 19.4711 2.2990
-8.9774 19.2732 2.2990
-9.4475 19.0643 2.2990
-9.9131 18.8445 2.2990
-10.4781 18.8007 2.3221
-10.9384 18.5569 2.3221
-11.3933 18.3023 2.3221
-11.8427 18.0370 2.3221
-12.2861 17.7612 2.3221
-12.7235 17.4749 2.3221
-13.1546 17.1784 2.3221
-13.5791 16.8716 2.3221
-13.9969 16.5548 2.3221
-14.4076 16.2280 2.3221
-11.6346 12.4833 1.8241
-11.8431 12.1066 1.8085
-15.5952 15.1896 2.3221
-15.9754 14.8245 2.3221
-12.4846 11.0358 1.7734
-16.7112 14.0670 2.3221
-17.0662 13.6749 2.3221
-17.4124 13.2741 2.3221
-17.4564 12.6524 2.2838
-18.0775 12.4473 2.3221
-18.3959 12.0217 2.3221
-18.7046 11.5881 2.3221
-19.0034 11.1468 2.3221
-19.2921 10.6981 2.3221
-19.5706 10.2420 2.3221
-19.8386 9.7789 2.3221
-20.0959 9.3090 2.3221
-20.3424 8.8325 2.3221
-20.5779 8.3496 2.3221
-20.8021 7.8606 2.3221
-21.0150 7.3658 2.3221
-21.2163 6.8653 2.3221
-21.4060 6.3595 2.3221
-21.5838 5.8486 2.3221
-13.2446 3.2475 1.4141
-13.2405 2.9092 1.4037
-22.0445 4.2879 2.3221
-22.1733 3.7594 2.3221
-22.2897 3.2271 2.3221
-22.3934 2.6914 2.3221
-22.4843 2.1526 2.3221
-22.5623 1.6110 2.3221
-15.4957 0.7307 1.5902
-22.6793 0.5207 2.3221
-21.3543 -0.0259 2.1827
-22.7435 -0.5772 2.3221
-22.7556 -1.1282 2.3221
-22.7545 -1.6801 2.3221
-22.7398 -2.2326 2.3221
-22.4842 -2.7574 2.2989
-22.4429 -3.3045 2.2989
-22.3882 -3.8512 2.2989
-22.3200 -4.3971 2.2989
-22.2383 -4.9420 2.2989
-22.1447 -5.4858 2.2990
-22.0361 -6.0274 2.2990
-22.8966 -6.8615 2.4021
