ply
format ascii 1.0
element vertex 2105
property float32 x
property float32 y
property float32 z
end_header
-1.7056 17.3359 2.2806
-2.1602 17.5820 2.3163
-2.5690 17.4185 2.2994
-2.9761 17.2739 2.2862
-3.4043 17.2544 2.2908
-3.8212 17.1704 2.2882
-4.2804 17.2554 2.3096
-4.6821 17.0948 2.2994
-5.1012 17.0004 2.2994
-5.5185 16.8960 2.2994
-5.9339 16.7818 2.2994
-6.3471 16.6577 2.2994
-6.7579 16.5238 2.2994
-7.1660 16.3800 2.2994
-7.5713 16.2266 2.2994
-7.9735 16.0633 2.2994
-8.3724 15.8904 2.2994
-8.7677 15.7078 2.2994
-9.1591 15.5157 2.2994
-9.5466 15.3140 2.2994
-9.9298 15.1029 2.2994
-10.3084 14.8824 2.2994
-10.6824 14.6527 2.2994
-11.2086 14.6188 2.3321
-11.8851 14.7488 2.3941
-12.3013 14.5319 2.4025
-12.6697 14.2539 2.4025
-13.0320 13.9667 2.4025
-13.3879 13.6704 2.4025
-13.7372 13.3652 2.4025
-14.0795 13.0511 2.4025
-14.4148 12.7283 2.4025
-14.7427 12.3970 2.4025
-15.0631 12.0573 2.4025
-15.3756 11.7094 2.4025
-15.6802 11.3534 2.4025
-15.9764 10.9895 2.4025
-16.2642 10.6180 2.4025
-16.5433 10.2389 2.4025
-16.8135 9.8525 2.4025
-17.0746 9.4590 2.4025
-17.3264 9.0586 2.4025
-17.5687 8.6514 2.4025
-17.8013 8.2378 2.4025
-17.2506 7.4825 2.2994
-17.4540 7.0749 2.2994
-17.6476 6.6618 2.2994
-17.8312 6.2433 2.2994
-18.0047 5.8199 2.2994
-18.1679 5.3916 2.2994
-18.3205 4.9588 2.2994
-18.4626 4.5216 2.2994
-18.5939 4.0805 2.2994
-18.9022 3.6721 2.3225
-19.0127 3.2191 2.3225
-19.1120 2.7630 2.3225
-19.1999 2.3039 2.3225
-19.2764 1.8421 2.3225
-19.3413 1.3779 2.3225
-19.3946 0.9117 2.3225
-19.4361 0.4437 2.3225
-19.4658 -0.0258 2.3225
-19.4837 -0.4964 2.3225
-14.0620 -0.6983 1.6757
-19.4836 -1.4399 2.3225
-19.4656 -1.9121 2.3225
-19.4356 -2.3841 2.3225
-19.3935 -2.8558 2.3225
-19.3393 -3.3267 2.3225
-19.2731 -3.7965 2.3225
-19.1948 -4.2650 2.3225
-19.1045 -4.7316 2.3225
-12.3787 -3.3850 1.5129
-18.8878 -5.6585 2.3225
-18.7616 -6.1180 2.3225
-18.6236 -6.5745 2.3225
-18.4737 -7.0276 2.3225
-18.3121 -7.4770 2.3225
-18.1389 -7.9224 2.3225
-17.9542 -8.3635 2.3225
-17.7580 -8.7999 2.3225
-17.5505 -9.2313 2.3225
-17.3318 -9.6575 2.3225
-17.1021 -10.0781 2.3225
-16.8615 -10.4927 2.3225
-16.6102 -10.9012 2.3225
-13.2512 -9.1619 1.8825
-16.0759 -11.6984 2.3225
-15.7934 -12.0865 2.3225
-15.5008 -12.4672 2.3225
-13.8625 -11.7120 2.3225
-13.5778 -12.0449 2.3225
-13.2845 -12.3704 2.3225
-12.9829 -12.6883 2.3225
-12.6732 -12.9983 2.3225
-12.3556 -13.3003 2.3225
-11.9100 -13.4579 2.2992
-11.5806 -13.7401 2.2992
-11.2442 -14.0138 2.2992
-10.9008 -14.2787 2.2992
-10.5508 -14.5346 2.2992
-10.1943 -14.7814 2.2992
-9.8318 -15.0188 2.2992
-9.4633 -15.2468 2.2992
-9.0892 -15.4652 2.2992
-8.7098 -15.6737 2.2992
-8.5207 -16.2450 2.3532
-8.2923 -16.7824 2.4025
-7.8808 -16.9689 2.4025
-7.4648 -17.1447 2.4025
-7.0446 -17.3097 2.4025
-6.6206 -17.4639 2.4025
-6.1930 -17.6070 2.4025
-5.7622 -17.7390 2.4025
-5.3284 -17.8599 2.4025
-4.8920 -17.9696 2.4025
-4.4533 -18.0681 2.4025
-4.0125 -18.1552 2.4025
-3.5699 -18.2310 2.4025
-3.1260 -18.2955 2.4025
-2.6809 -18.3487 2.4025
-2.2350 -18.3904 2.4025
-1.7886 -18.4208 2.4025
-1.3420 -18.4399 2.4025
-0.8955 -18.4476 2.4025
-0.4301 -17.6526 2.2994
-0.0038 -17.6384 2.2994
0.4216 -17.6135 2.2994
0.8458 -17.5779 2.2994
1.2684 -17.5317 2.2994
1.6893 -17.4749 2.2994
2.1082 -17.4077 2.2994
2.5248 -17.3300 2.2994
2.9388 -17.2421 2.2994
3.3471 -17.1297 2.2975
3.7549 -17.0215 2.2975
4.1593 -16.9033 2.2975
4.5601 -16.7753 2.2975
4.9571 -16.6375 2.2975
5.3500 -16.4900 2.2975
5.7386 -16.3331 2.2975
6.1227 -16.1668 2.2975
6.5021 -15.9913 2.2975
6.6611 -15.3117 2.2255
6.8046 -14.6628 2.1576
6.9392 -14.0537 2.0951
7.0660 -13.4802 2.0375
7.1858 -12.9386 1.9842
7.2992 -12.4258 1.9350
7.3873 -11.9076 1.8844
7.4895 -11.4455 1.8421
7.5869 -11.0047 1.8029
7.7004 -10.6112 1.7711
7.7899 -10.2064 1.7371
7.9303 -9.8858 1.7173
8.4224 -9.9946 1.7737
8.9466 -10.1105 1.8349
9.5069 -10.2343 1.9015
10.1078 -10.3672 1.9740
10.7547 -10.5102 2.0533
11.4539 -10.6648 2.1402
7.4930 -6.6461 1.3718
7.5521 -6.3792 1.3560
7.6096 -6.1189 1.3415
7.6658 -5.8648 1.3280
7.7207 -5.6163 1.3156
7.7745 -5.3730 1.3042
7.8273 -5.1344 1.2938
7.8790 -4.9002 1.2843
7.9299 -4.6699 1.2757
7.9801 -4.4433 1.2680
8.0295 -4.2198 1.2611
8.0782 -3.9993 1.2550
8.1264 -3.7814 1.2497
8.1741 -3.5658 1.2451
8.2213 -3.3523 1.2414
8.2681 -3.1405 1.2383
8.3146 -2.9301 1.2360
8.3608 -2.7211 1.2344
8.4068 -2.5130 1.2335
8.4527 -2.3056 1.2333
8.4984 -2.0987 1.2338
8.5441 -1.8920 1.2350
8.5898 -1.6854 1.2369
8.6355 -1.4785 1.2395
8.6814 -1.2711 1.2428
8.7274 -1.0630 1.2469
8.7736 -0.8539 1.2516
8.8201 -0.6435 1.2571
8.8670 -0.4317 1.2633
8.9142 -0.2181 1.2703
8.9618 -0.0025 1.2781
9.0100 0.2155 1.2867
9.0321 0.4347 1.2923
9.0814 0.6576 1.3025
9.1313 0.8836 1.3136
9.1821 1.1133 1.3257
9.2338 1.3469 1.3386
9.2337 1.5758 1.3450
9.3676 1.8329 1.3717
9.4226 2.0815 1.3878
9.4788 2.3357 1.4051
9.8088 2.6703 1.4643
9.8696 2.9450 1.4847
9.9320 3.2273 1.5064
9.9962 3.5177 1.5296
10.0623 3.8169 1.5544
10.1306 4.1258 1.5809
10.2012 4.4452 1.6092
10.2744 4.7761 1.6393
10.3503 5.1194 1.6715
10.4292 5.4763 1.7060
10.5114 5.8482 1.7429
10.5972 6.2363 1.7823
10.6870 6.6424 1.8246
10.7811 7.0681 1.8699
10.8800 7.5154 1.9186
10.9842 7.9867 1.9710
11.0943 8.4845 2.0275
11.2109 9.0117 2.0885
11.3347 9.5717 2.1544
11.4337 10.1393 2.2195
11.5744 10.7753 2.2970
11.3120 11.0539 2.2975
11.0410 11.3240 2.2975
10.7640 11.5880 2.2975
10.4810 11.8455 2.2975
10.1921 12.0966 2.2975
9.8976 12.3411 2.2975
9.6254 12.6153 2.3041
9.3529 12.8933 2.3125
9.0402 13.1187 2.3125
8.7224 13.3370 2.3125
8.3997 13.5480 2.3125
8.0721 13.7517 2.3125
7.7398 13.9479 2.3125
7.3226 13.9830 2.2873
6.8552 13.8986 2.2448
2.9299 6.3212 1.0087
6.1403 14.1341 2.2301
5.8170 14.3289 2.2368
5.4468 14.4075 2.2266
5.0309 14.3474 2.1965
4.6856 14.4750 2.1967
4.3527 14.6469 2.2047
4.0361 14.8915 2.2246
3.7275 15.2002 2.2550
3.5307 16.0683 2.3686
3.2812 16.8700 2.4725
2.8746 16.9581 2.4725
2.4656 17.0370 2.4725
2.0546 17.1065 2.4725
1.6418 17.1666 2.4725
1.2264 17.2057 2.4708
0.7970 16.9551 2.4290
0.3835 16.8282 2.4065
-0.0236 16.8048 2.4001
-0.4344 16.9712 2.4221
-0.8073 16.2054 2.3125
-1.2002 16.1988 2.3125
-1.5934 16.1830 2.3125
-1.9752 16.0666 2.2994
-2.3659 16.0328 2.2994
-2.7562 15.9898 2.2994
-3.1458 15.9377 2.2994
-3.5345 15.8764 2.2994
-3.9223 15.8060 2.2994
-4.3088 15.7265 2.2994
-4.6938 15.6379 2.2994
-5.0771 15.5402 2.2994
-5.4586 15.4333 2.2994
-5.8379 15.3174 2.2994
-6.2150 15.1925 2.2994
-6.5895 15.0585 2.2994
-6.9613 14.9157 2.2994
-7.3301 14.7638 2.2994
-7.6958 14.6031 2.2994
-8.0581 14.4335 2.2994
-8.4461 14.3048 2.3074
-8.7983 14.1107 2.3064
-9.3403 14.2034 2.3543
-9.8937 14.2808 2.4025
-10.2512 14.0585 2.4025
-10.6039 13.8273 2.4025
-10.9514 13.5875 2.4025
-11.2936 13.3390 2.4025
-11.6303 13.0821 2.4025
-11.9613 12.8167 2.4025
-12.2862 12.5431 2.4025
-12.6050 12.2613 2.4025
-12.9174 11.9715 2.4025
-13.2232 11.6739 2.4025
-13.5221 11.3684 2.4025
-13.8141 11.0553 2.4025
-14.0987 10.7348 2.4025
-14.3760 10.4070 2.4025
-14.6456 10.0721 2.4025
-14.9074 9.7302 2.4025
-15.1611 9.3814 2.4025
-15.4066 9.0261 2.4025
-15.6437 8.6644 2.4025
-15.8723 8.2964 2.4025
-16.0920 7.9224 2.4025
-15.6033 7.2190 2.2994
-15.7964 6.8500 2.2994
-15.9805 6.4760 2.2994
-16.1557 6.0970 2.2994
-16.3216 5.7132 2.2994
-16.4783 5.3249 2.2994
-16.6254 4.9323 2.2994
-16.7630 4.5357 2.2994
-16.8909 4.1352 2.2994
-17.0089 3.7312 2.2994
-17.2888 3.3572 2.3225
-17.3878 2.9426 2.3225
-17.4765 2.5252 2.3225
-17.5548 2.1051 2.3225
-17.6226 1.6827 2.3225
-17.6800 1.2583 2.3225
-17.7267 0.8320 2.3225
-17.7627 0.4042 2.3225
-17.7879 -0.0248 2.3225
-17.8024 -0.4547 2.3225
-14.0597 -0.6991 1.8338
-17.7987 -1.3165 2.3225
-17.7805 -1.7476 2.3225
-17.7513 -2.1786 2.3225
-17.7112 -2.6091 2.3225
-17.6602 -3.0389 2.3225
-17.5981 -3.4676 2.3225
-17.5252 -3.8950 2.3225
-17.4413 -4.3207 2.3225
-12.3773 -3.3853 1.6572
-17.2409 -5.1660 2.3225
-17.1244 -5.5850 2.3225
-16.9972 -6.0012 2.3225
-16.8593 -6.4142 2.3225
-16.7108 -6.8239 2.3225
-16.5518 -7.2299 2.3225
-16.3823 -7.6319 2.3225
-16.2024 -8.0297 2.3225
-16.0123 -8.4229 2.3225
-15.8121 -8.8112 2.3225
-15.6019 -9.1945 2.3225
-15.3818 -9.5724 2.3225
-15.1520 -9.9446 2.3225
-13.2496 -9.1611 2.0635
-14.6638 -10.6711 2.3225
-14.4057 -11.0248 2.3225
-14.1386 -11.3719 2.3225
-12.7396 -10.7634 2.3225
-12.4778 -11.0692 2.3225
-12.2082 -11.3683 2.3225
-11.9310 -11.6603 2.3225
-11.5298 -11.8256 2.2992
-11.2409 -12.1003 2.2992
-10.9451 -12.3675 2.2992
-10.6425 -12.6270 2.2992
-10.3335 -12.8786 2.2992
-10.0181 -13.1222 2.2992
-9.6966 -13.3576 2.2992
-9.3693 -13.5846 2.2992
-9.0363 -13.8031 2.2992
-8.6979 -14.0130 2.2992
-8.3544 -14.2141 2.2992
-8.1857 -14.7297 2.3509
-7.9964 -15.2445 2.4025
-7.6228 -15.4263 2.4025
-7.2449 -15.5984 2.4025
-6.8628 -15.7607 2.4025
-6.4769 -15.9131 2.4025
-6.0874 -16.0555 2.4025
-5.6946 -16.1879 2.4025
-5.2988 -16.3102 2.4025
-4.9003 -16.4223 2.4025
-4.4993 -16.5242 2.4025
-4.0962 -16.6158 2.4025
-3.6911 -16.6970 2.4025
-3.2843 -16.7679 2.4025
-2.8762 -16.8284 2.4025
-2.4671 -16.8785 2.4025
-2.0571 -16.9182 2.4025
-1.6466 -16.9474 2.4025
-1.2358 -16.9663 2.4025
-0.8251 -16.9748 2.4025
-0.4113 -16.8368 2.3832
-0.0045 -16.2330 2.2994
0.3869 -16.2115 2.2994
0.7774 -16.1802 2.2994
1.1665 -16.1392 2.2994
1.5541 -16.0884 2.2994
1.9399 -16.0280 2.2994
2.3237 -15.9581 2.2994
2.7051 -15.8787 2.2994
3.0840 -15.7899 2.2994
3.4573 -15.6787 2.2975
3.8302 -15.5715 2.2975
4.1999 -15.4552 2.2975
4.5661 -15.3298 2.2975
4.9286 -15.1956 2.2975
5.2873 -15.0527 2.2975
5.6419 -14.9010 2.2975
5.9922 -14.7409 2.2975
6.3380 -14.5724 2.2975
6.6790 -14.3957 2.2975
6.9387 -14.0559 2.2724
7.0656 -13.4823 2.2096
7.1853 -12.9406 2.1517
7.2987 -12.4277 2.0980
7.3869 -11.9094 2.0429
7.4891 -11.4472 1.9968
7.5866 -11.0064 1.9541
7.7000 -10.6128 1.9194
7.7895 -10.2080 1.8823
7.9284 -9.8853 1.8603
8.4204 -9.9941 1.9212
8.9445 -10.1100 1.9873
9.5046 -10.2338 2.0591
10.1053 -10.3666 2.1374
10.7520 -10.5096 2.2229
11.4510 -10.6642 2.3168
7.4928 -6.6472 1.4851
7.5518 -6.3802 1.4679
7.6094 -6.1199 1.4520
7.6656 -5.8658 1.4372
7.7205 -5.6173 1.4236
7.7743 -5.3739 1.4111
7.8271 -5.1354 1.3997
7.8788 -4.9011 1.3893
7.9298 -4.6708 1.3798
7.9799 -4.4441 1.3713
8.0293 -4.2207 1.3637
8.0780 -4.0001 1.3570
8.1262 -3.7822 1.3511
8.1739 -3.5666 1.3461
8.2211 -3.3531 1.3418
8.2679 -3.1412 1.3384
8.3144 -2.9309 1.3358
8.3606 -2.7218 1.3339
8.4067 -2.5137 1.3328
8.4525 -2.3063 1.3325
8.4983 -2.0994 1.3329
8.5439 -1.8927 1.3341
8.5896 -1.6861 1.3360
8.6354 -1.4792 1.3387
8.6812 -1.2718 1.3422
8.7272 -1.0636 1.3464
8.7735 -0.8545 1.3514
8.8200 -0.6442 1.3572
8.8668 -0.4323 1.3638
8.9140 -0.2187 1.3713
8.9617 -0.0031 1.3796
9.0099 0.2148 1.3887
9.0320 0.4341 1.3947
9.0812 0.6570 1.4056
9.1312 0.8830 1.4175
9.1820 1.1127 1.4304
9.2336 1.3463 1.4443
9.2336 1.5753 1.4510
9.3675 1.8323 1.4798
9.4225 2.0809 1.4971
9.4787 2.3352 1.5157
9.8087 2.6697 1.5795
9.8694 2.9445 1.6013
9.9318 3.2267 1.6247
9.9960 3.5171 1.6497
10.0622 3.8164 1.6763
10.1305 4.1253 1.7048
10.2011 4.4447 1.7352
10.2743 4.7756 1.7677
10.3502 5.1189 1.8024
10.4291 5.4759 1.8394
10.5113 5.8478 1.8791
10.5971 6.2359 1.9216
10.6869 6.6420 1.9671
10.7810 7.0677 2.0160
10.8800 7.5151 2.0685
10.9842 7.9864 2.1249
11.0942 8.4842 2.1858
11.2108 9.0114 2.2515
11.2123 9.4682 2.2975
10.9786 9.7356 2.2975
10.7389 9.9975 2.2975
10.4933 10.2538 2.2975
10.2419 10.5044 2.2975
9.9849 10.7493 2.2975
9.7223 10.9882 2.2975
9.4543 11.2211 2.2975
9.2410 11.5225 2.3125
8.9607 11.7444 2.3125
8.6755 11.9598 2.3125
8.3853 12.1687 2.3125
8.0903 12.3709 2.3125
7.7907 12.5664 2.3125
7.4867 12.7551 2.3125
7.1783 12.9368 2.3125
6.8657 13.1114 2.3125
6.5491 13.2789 2.3125
2.9294 6.3208 1.0876
5.9043 13.5922 2.3125
5.5765 13.7378 2.3125
5.2452 13.8759 2.3125
4.9107 14.0064 2.3125
4.5731 14.1293 2.3125
4.2325 14.2445 2.3125
3.8891 14.3519 2.3125
3.5432 14.4514 2.3125
3.1948 14.5430 2.3125
2.8441 14.6266 2.3125
2.4914 14.7022 2.3125
2.1367 14.7697 2.3125
1.7802 14.8291 2.3125
1.4222 14.8802 2.3125
1.0628 14.9231 2.3125
0.7022 14.9577 2.3125
0.3385 14.8992 2.2994
-0.0219 14.9170 2.2994
-0.3831 14.9264 2.2994
-0.7447 14.9275 2.2994
-1.1066 14.9202 2.2994
-1.4686 14.9045 2.2994
-1.8305 14.8803 2.2994
-2.1922 14.8477 2.2994
-2.5534 14.8066 2.2994
-2.9140 14.7570 2.2994
-3.2737 14.6990 2.2994
-3.6324 14.6325 2.2994
-3.9898 14.5576 2.2994
-4.3458 14.4742 2.2994
-4.7002 14.3823 2.2994
-5.0528 14.2821 2.2994
-5.4033 14.1734 2.2994
-5.7517 14.0564 2.2994
-6.0976 13.9310 2.2994
-6.4618 13.8422 2.3068
-6.7822 13.6572 2.2997
-7.2479 13.7501 2.3410
-7.7350 13.8517 2.3863
-8.1331 13.7718 2.4025
-8.4751 13.5895 2.4025
-8.8131 13.3990 2.4025
-9.1469 13.2002 2.4025
-9.4763 12.9932 2.4025
-9.8012 12.7782 2.4025
-10.1213 12.5551 2.4025
-10.4364 12.3241 2.4025
-10.7463 12.0853 2.4025
-11.0507 11.8388 2.4025
-11.3496 11.5847 2.4025
-11.6428 11.3231 2.4025
-11.9299 11.0542 2.4025
-12.2109 10.7781 2.4025
-12.4855 10.4948 2.4025
-12.7535 10.2046 2.4025
-13.0148 9.9075 2.4025
-13.2692 9.6038 2.4025
-13.5164 9.2936 2.4025
-13.7564 8.9771 2.4025
-13.9890 8.6543 2.4025
-14.2138 8.3255 2.4025
-14.4309 7.9909 2.4025
-14.6400 7.6506 2.4025
-14.2042 6.9914 2.2994
-14.3886 6.6554 2.2994
-14.5650 6.3145 2.2994
-14.7332 5.9690 2.2994
-14.8930 5.6189 2.2994
-15.0443 5.2646 2.2994
-15.1870 4.9062 2.2994
-15.3210 4.5439 2.2994
-15.4461 4.1780 2.2994
-15.5622 3.8086 2.2994
-15.6693 3.4360 2.2994
-15.9255 3.0911 2.3225
-16.0150 2.7090 2.3225
-16.0951 2.3243 2.3225
-16.1656 1.9373 2.3225
-16.2265 1.5482 2.3225
-16.2777 1.1573 2.3225
-16.3192 0.7648 2.3225
-16.3508 0.3710 2.3225
-16.3726 -0.0239 2.3225
-16.3844 -0.4196 2.3225
-14.0574 -0.6999 1.9924
-16.3782 -1.2125 2.3225
-16.3601 -1.6091 2.3225
-16.3319 -2.0054 2.3225
-16.2938 -2.4013 2.3225
-16.2456 -2.7964 2.3225
-16.1873 -3.1905 2.3225
-16.1190 -3.5833 2.3225
-16.0408 -3.9746 2.3225
-12.3758 -3.3855 1.8017
-15.8544 -4.7513 2.3225
-15.7463 -5.1363 2.3225
-15.6285 -5.5187 2.3225
-15.5008 -5.8981 2.3225
-15.3635 -6.2744 2.3225
-15.2165 -6.6473 2.3225
-15.0599 -7.0165 2.3225
-14.8940 -7.3818 2.3225
-14.7186 -7.7429 2.3225
-14.5340 -8.0996 2.3225
-14.3403 -8.4515 2.3225
-14.1376 -8.7985 2.3225
-13.9259 -9.1404 2.3225
-13.2479 -9.1603 2.2449
-13.4766 -9.8075 2.3225
-13.2392 -10.1324 2.3225
-12.9934 -10.4511 2.3225
-11.7822 -9.9547 2.3225
-11.5400 -10.2374 2.3225
-11.1784 -10.4094 2.2994
-10.9238 -10.6760 2.2992
-10.6632 -10.9367 2.2992
-10.3961 -11.1908 2.2992
-10.1225 -11.4379 2.2992
-9.8428 -11.6779 2.2992
-9.5570 -11.9107 2.2992
-9.2655 -12.1361 2.2992
-8.9683 -12.3540 2.2992
-8.6657 -12.5641 2.2992
-8.3580 -12.7665 2.2992
-8.0452 -12.9609 2.2992
-7.9010 -13.4420 2.3508
-7.7382 -13.9236 2.4025
-7.3971 -14.1010 2.4025
-7.0518 -14.2696 2.4025
-6.7024 -14.4293 2.4025
-6.3492 -14.5799 2.4025
-5.9925 -14.7215 2.4025
-5.6324 -14.8539 2.4025
-5.2693 -14.9771 2.4025
-4.9034 -15.0909 2.4025
-4.5349 -15.1954 2.4025
-4.1642 -15.2904 2.4025
-3.7913 -15.3760 2.4025
-3.4167 -15.4520 2.4025
-3.0405 -15.5185 2.4025
-2.6630 -15.5754 2.4025
-2.2844 -15.6228 2.4025
-1.9051 -15.6605 2.4025
-1.5252 -15.6887 2.4025
-1.1451 -15.7072 2.4025
-0.7649 -15.7162 2.4025
-0.3850 -15.7156 2.4025
-0.0052 -15.0505 2.3023
0.3573 -15.0128 2.2994
0.7189 -14.9850 2.2994
1.0794 -14.9481 2.2994
1.4384 -14.9023 2.2994
1.7959 -14.8476 2.2994
2.1515 -14.7841 2.2994
2.5051 -14.7117 2.2994
2.8564 -14.6307 2.2994
3.2052 -14.5411 2.2994
3.5513 -14.4429 2.2994
3.8913 -14.3244 2.2975
4.2311 -14.2095 2.2975
4.5675 -14.0864 2.2975
4.9004 -13.9552 2.2975
5.2296 -13.8159 2.2975
5.5549 -13.6688 2.2975
5.8761 -13.5138 2.2975
6.1930 -13.3512 2.2975
6.5054 -13.1811 2.2975
6.8132 -13.0036 2.2975
7.1162 -12.8188 2.2975
7.2983 -12.4296 2.2616
7.3865 -11.9112 2.2019
7.4887 -11.4490 2.1521
7.5862 -11.0081 2.1058
7.6996 -10.6144 2.0682
7.7892 -10.2095 2.0281
7.9265 -9.8849 2.0037
8.4184 -9.9937 2.0691
8.9423 -10.1095 2.1401
9.5023 -10.2333 2.2172
10.0863 -10.3491 2.2975
10.3197 -10.0890 2.2975
10.5465 -9.8237 2.2975
7.4926 -6.6483 1.5988
7.5516 -6.3813 1.5801
7.6092 -6.1209 1.5628
7.6654 -5.8668 1.5468
7.7203 -5.6182 1.5320
7.7741 -5.3749 1.5184
7.8268 -5.1363 1.5060
7.8786 -4.9020 1.4946
7.9296 -4.6717 1.4843
7.9797 -4.4450 1.4750
8.0291 -4.2215 1.4667
8.0778 -4.0010 1.4593
8.1260 -3.7830 1.4529
8.1737 -3.5674 1.4473
8.2209 -3.3538 1.4427
8.2677 -3.1420 1.4389
8.3143 -2.9317 1.4359
8.3605 -2.7226 1.4338
8.4065 -2.5144 1.4325
8.4523 -2.3070 1.4320
8.4981 -2.1001 1.4323
8.5438 -1.8934 1.4335
8.5895 -1.6868 1.4354
8.6352 -1.4798 1.4382
8.6811 -1.2724 1.4418
8.7271 -1.0643 1.4463
8.7733 -0.8552 1.4515
8.8198 -0.6448 1.4577
8.8667 -0.4330 1.4647
8.9139 -0.2194 1.4726
8.9616 -0.0037 1.4814
9.0098 0.2142 1.4911
9.0318 0.4335 1.4974
9.0811 0.6564 1.5091
9.1311 0.8824 1.5217
9.1819 1.1121 1.5355
9.2335 1.3457 1.5504
9.2335 1.5747 1.5575
9.3674 1.8318 1.5882
9.4223 2.0804 1.6068
9.4785 2.3346 1.6266
9.8086 2.6692 1.6950
9.8693 2.9439 1.7184
9.9317 3.2262 1.7434
9.9959 3.5166 1.7701
10.0621 3.8159 1.7987
10.1304 4.1248 1.8291
10.2010 4.4442 1.8617
10.2742 4.7751 1.8965
10.3501 5.1185 1.9336
10.4290 5.4754 1.9733
10.5112 5.8473 2.0159
10.5971 6.2355 2.0614
10.6868 6.6415 2.1102
10.7810 7.0673 2.1625
10.8799 7.5147 2.2188
10.9841 7.9860 2.2793
10.8712 8.3134 2.2975
10.6651 8.5726 2.2975
10.4530 8.8269 2.2975
10.2352 9.0762 2.2975
10.0118 9.3204 2.2975
9.7828 9.5595 2.2975
9.5485 9.7932 2.2975
9.3088 10.0215 2.2975
9.1136 10.3004 2.3101
8.8716 10.5296 2.3125
8.6151 10.7422 2.3125
8.3537 10.9490 2.3125
8.0876 11.1497 2.3125
7.8170 11.3443 2.3125
7.5418 11.5327 2.3125
7.2624 11.7147 2.3125
6.9788 11.8904 2.3125
6.6911 12.0595 2.3125
6.3996 12.2220 2.3125
6.1042 12.3779 2.3125
2.9290 6.3205 1.1668
5.5028 12.6692 2.3125
5.1971 12.8045 2.3125
4.8881 12.9327 2.3125
4.5761 13.0540 2.3125
4.2613 13.1680 2.3125
3.9437 13.2748 2.3125
3.6236 13.3743 2.3125
3.3010 13.4665 2.3125
2.9762 13.5512 2.3125
2.6493 13.6285 2.3125
2.3205 13.6982 2.3125
1.9786 13.6825 2.2994
1.6483 13.7367 2.2994
1.3165 13.7833 2.2994
0.9835 13.8223 2.2994
0.6494 13.8535 2.2994
0.3144 13.8770 2.2994
-0.0213 13.8927 2.2994
-0.3577 13.9007 2.2994
-0.6944 13.9007 2.2994
-1.0314 13.8930 2.2994
-1.3684 13.8774 2.2994
-1.7053 13.8539 2.2994
-2.0419 13.8225 2.2994
-2.3780 13.7832 2.2994
-2.7135 13.7360 2.2994
-3.0481 13.6810 2.2994
-3.3817 13.6180 2.2994
-3.7141 13.5472 2.2994
-4.0451 13.4684 2.2994
-4.3745 13.3819 2.2994
-4.7316 13.3706 2.3138
-5.0288 13.1876 2.2998
-5.4381 13.2867 2.3366
-5.8607 13.3866 2.3755
-6.2603 13.4074 2.4025
-6.5908 13.2686 2.4025
-6.9184 13.1220 2.4026
-7.2428 12.9675 2.4027
-7.5639 12.8051 2.4028
-7.8814 12.6350 2.4029
-8.1943 12.4557 2.4027
-8.5031 12.2687 2.4025
-8.8085 12.0751 2.4025
-9.1095 11.8741 2.4025
-9.4061 11.6656 2.4025
-9.6979 11.4499 2.4025
-9.9849 11.2269 2.4025
-10.2668 10.9968 2.4025
-10.5434 10.7597 2.4025
-10.8146 10.5157 2.4025
-11.0802 10.2649 2.4025
-11.3400 10.0074 2.4025
-11.5939 9.7434 2.4025
-11.8416 9.4730 2.4025
-12.0830 9.1963 2.4025
-12.3179 8.9135 2.4025
-12.5462 8.6247 2.4025
-12.7676 8.3301 2.4025
-12.9821 8.0297 2.4025
-13.1895 7.7239 2.4025
-13.3896 7.4127 2.4025
-13.5823 7.0963 2.4025
-13.1766 6.4841 2.2994
-13.3464 6.1718 2.2994
-13.5087 5.8551 2.2994
-13.6633 5.5341 2.2994
-13.8102 5.2090 2.2994
-13.9492 4.8800 2.2994
-14.0802 4.5473 2.2994
-14.2031 4.2110 2.2994
-14.3177 3.8715 2.2994
-14.4241 3.5288 2.2994
-14.5220 3.1831 2.2994
-14.7581 2.8633 2.3225
-14.8398 2.5090 2.3225
-14.9127 2.1523 2.3225
-14.9767 1.7936 2.3225
-15.0319 1.4330 2.3225
-15.0781 1.0709 2.3225
-15.1152 0.7073 2.3225
-15.1433 0.3425 2.3225
-15.1623 -0.0232 2.3225
-15.1721 -0.3896 2.3225
-14.0552 -0.7007 2.1514
-15.1641 -1.1236 2.3225
-15.1463 -1.4906 2.3225
-15.1192 -1.8574 2.3225
-15.0829 -2.2237 2.3225
-15.0373 -2.5893 2.3225
-14.9824 -2.9539 2.3225
-14.9183 -3.3172 2.3225
-14.8450 -3.6791 2.3225
-12.3744 -3.3858 1.9468
-14.6709 -4.3974 2.3225
-14.5701 -4.7534 2.3225
-14.4604 -5.1069 2.3225
-14.3416 -5.4577 2.3225
-14.2139 -5.8056 2.3225
-14.0773 -6.1503 2.3225
-13.9319 -6.4916 2.3225
-13.7778 -6.8292 2.3225
-13.6152 -7.1629 2.3225
-13.4440 -7.4926 2.3225
-13.2644 -7.8179 2.3225
-13.0765 -8.1386 2.3225
-12.8804 -8.4545 2.3225
-12.6763 -8.7655 2.3225
-12.4643 -9.0712 2.3225
-12.2445 -9.3714 2.3225
-12.0171 -9.6660 2.3225
-10.8472 -9.1650 2.2994
-10.6241 -9.4251 2.2994
-10.3945 -9.6795 2.2994
-10.1584 -9.9281 2.2994
-9.9161 -10.1705 2.2994
-9.6677 -10.4067 2.2994
-9.4134 -10.6365 2.2994
-9.1533 -10.8598 2.2994
-8.8871 -11.0756 2.2992
-8.6161 -11.2852 2.2992
-8.3399 -11.4879 2.2992
-8.0586 -11.6835 2.2992
-7.7726 -11.8719 2.2992
-7.6558 -12.3329 2.3527
-7.5095 -12.7754 2.4025
-7.1968 -12.9487 2.4025
-6.8798 -13.1140 2.4025
-6.5589 -13.2711 2.4025
-6.2341 -13.4200 2.4025
-5.9059 -13.5606 2.4025
-5.5743 -13.6927 2.4025
-5.2396 -13.8164 2.4025
-4.9021 -13.9315 2.4025
-4.5619 -14.0379 2.4025
-4.2194 -14.1357 2.4025
-3.8746 -14.2247 2.4025
-3.5280 -14.3050 2.4025
-3.1796 -14.3764 2.4025
-2.8297 -14.4390 2.4025
-2.4787 -14.4927 2.4025
-2.1266 -14.5375 2.4025
-1.7737 -14.5735 2.4025
-1.4203 -14.6005 2.4025
-1.0666 -14.6186 2.4025
-0.7129 -14.6279 2.4025
-0.3593 -14.6282 2.4025
-0.0061 -14.6197 2.4025
0.3317 -13.9759 2.2994
0.6683 -13.9509 2.2994
1.0039 -13.9175 2.2994
1.3383 -13.8759 2.2994
1.6713 -13.8259 2.2994
2.0026 -13.7677 2.2994
2.3320 -13.7014 2.2994
2.6593 -13.6265 2.2993
2.9844 -13.5443 2.2993
3.3070 -13.4540 2.2994
3.6270 -13.3558 2.2994
3.9408 -13.2388 2.2975
4.2546 -13.1251 2.2975
4.5651 -13.0039 2.2975
4.8723 -12.8752 2.2975
5.1758 -12.7391 2.2975
5.4756 -12.5958 2.2975
5.7714 -12.4452 2.2975
6.0631 -12.2877 2.2975
6.3505 -12.1232 2.2975
6.6335 -11.9520 2.2975
6.9119 -11.7740 2.2975
7.1855 -11.5896 2.2975
7.4543 -11.3987 2.2975
7.5858 -11.0098 2.2581
7.6993 -10.6161 2.2176
7.7888 -10.2111 2.1744
7.9246 -9.8845 2.1476
8.4163 -9.9932 2.2175
8.9401 -10.1090 2.2934
9.1868 -9.8955 2.2975
9.4115 -9.6587 2.2975
9.6302 -9.4167 2.2975
9.8427 -9.1699 2.2975
7.4923 -6.6494 1.7130
7.5514 -6.3823 1.6928
7.6089 -6.1220 1.6741
7.6651 -5.8678 1.6568
7.7201 -5.6192 1.6408
7.7739 -5.3758 1.6261
7.8266 -5.1372 1.6127
7.8784 -4.9029 1.6004
7.9294 -4.6726 1.5892
7.9795 -4.4459 1.5791
8.0289 -4.2224 1.5701
8.0777 -4.0018 1.5621
8.1258 -3.7839 1.5551
8.1735 -3.5682 1.5490
8.2207 -3.3546 1.5439
8.2676 -3.1428 1.5397
8.3141 -2.9324 1.5364
8.3603 -2.7233 1.5340
8.4063 -2.5152 1.5325
8.4522 -2.3078 1.5319
8.4979 -2.1008 1.5321
8.5436 -1.8941 1.5332
8.5893 -1.6875 1.5352
8.6351 -1.4805 1.5381
8.6809 -1.2731 1.5419
8.7269 -1.0650 1.5465
8.7732 -0.8558 1.5520
8.8197 -0.6455 1.5585
8.8665 -0.4336 1.5659
8.9138 -0.2200 1.5743
8.9614 -0.0044 1.5836
9.0096 0.2136 1.5939
9.0317 0.4329 1.6005
9.0810 0.6558 1.6129
9.1309 0.8819 1.6264
9.1817 1.1115 1.6410
9.2334 1.3452 1.6568
9.2334 1.5741 1.6643
9.3672 1.8312 1.6971
9.4222 2.0798 1.7168
9.4784 2.3341 1.7380
9.8084 2.6686 1.8109
9.8692 2.9434 1.8359
9.9316 3.2257 1.8625
9.9958 3.5161 1.8910
10.0620 3.8154 1.9214
10.1303 4.1243 1.9539
10.2009 4.4437 1.9886
10.2741 4.7746 2.0257
10.3500 5.1180 2.0653
10.4289 5.4750 2.1077
10.5111 5.8469 2.1531
10.5970 6.2351 2.2017
10.6867 6.6411 2.2538
10.7241 7.0297 2.2975
10.5482 7.2853 2.2975
10.3665 7.5368 2.2975
10.1792 7.7840 2.2975
9.9862 8.0267 2.2975
9.7877 8.2649 2.2975
9.5839 8.4985 2.2975
9.3747 8.7272 2.2975
9.1603 8.9511 2.2975
8.9408 9.1700 2.2975
8.7733 9.4450 2.3125
8.5425 9.6549 2.3125
8.3069 9.8595 2.3125
8.0666 10.0585 2.3125
7.8218 10.2521 2.3125
7.5726 10.4399 2.3125
7.3190 10.6220 2.3125
7.0613 10.7983 2.3125
6.7995 10.9686 2.3125
6.5339 11.1329 2.3125
6.2644 11.2910 2.3125
5.9912 11.4430 2.3125
5.7146 11.5886 2.3125
2.9286 6.3201 1.2462
5.1512 11.8608 2.3125
4.8648 11.9871 2.3125
4.5754 12.1068 2.3125
4.2832 12.2199 2.3125
3.9883 12.3262 2.3125
3.6909 12.4258 2.3125
3.3911 12.5185 2.3125
3.0715 12.5329 2.2994
2.7691 12.6113 2.2994
2.4647 12.6826 2.2994
2.1586 12.7470 2.2994
1.8508 12.8043 2.2994
1.5416 12.8544 2.2994
1.2311 12.8974 2.2994
0.9194 12.9332 2.2994
0.6068 12.9618 2.2994
0.2933 12.9830 2.2994
-0.0208 12.9970 2.2994
-0.3355 13.0037 2.2994
-0.6505 13.0030 2.2994
-0.9657 12.9950 2.2994
-1.2809 12.9796 2.2994
-1.5959 12.9568 2.2994
-1.9106 12.9267 2.2994
-2.2248 12.8891 2.2994
-2.5384 12.8441 2.2994
-2.8511 12.7918 2.2994
-3.1628 12.7320 2.2994
-3.4733 12.6649 2.2994
-3.8203 12.7161 2.3223
-4.2154 12.8915 2.3698
-4.5933 12.9762 2.4025
-4.9112 12.8759 2.4026
-5.2272 12.7682 2.4027
-5.5409 12.6531 2.4028
-5.8522 12.5304 2.4030
-6.1608 12.4002 2.4031
-6.4665 12.2622 2.4032
-6.7684 12.1155 2.4030
-7.0675 11.9624 2.4030
-7.3636 11.8024 2.4031
-7.6561 11.6353 2.4032
-7.9447 11.4607 2.4032
-8.2284 11.2776 2.4029
-8.5079 11.0877 2.4027
-8.7834 10.8912 2.4025
-9.0551 10.6888 2.4025
-9.3222 10.4798 2.4025
-9.5846 10.2641 2.4025
-9.8420 10.0419 2.4025
-10.0942 9.8133 2.4025
-10.3412 9.5784 2.4025
-10.5828 9.3373 2.4025
-10.8187 9.0902 2.4025
-11.0489 8.8371 2.4025
-11.2731 8.5782 2.4025
-11.4913 8.3137 2.4025
-11.7032 8.0436 2.4025
-11.9087 7.7681 2.4025
-12.1077 7.4873 2.4025
-12.3001 7.2015 2.4025
-12.4856 6.9107 2.4025
-12.1207 6.3312 2.2994
-12.2849 6.0439 2.2994
-12.4421 5.7523 2.2994
-12.5924 5.4566 2.2994
-12.7354 5.1569 2.2994
-12.8713 4.8535 2.2994
-12.9997 4.5465 2.2994
-13.1207 4.2361 2.2994
-13.2341 3.9225 2.2994
-13.3399 3.6058 2.2994
-13.4379 3.2863 2.2994
-13.5281 2.9641 2.2994
-13.7470 2.6660 2.3225
-13.8220 2.3358 2.3225
-13.8889 2.0035 2.3225
-13.9475 1.6693 2.3225
-13.9978 1.3334 2.3225
-14.0398 0.9961 2.3225
-14.0735 0.6575 2.3225
-14.0986 0.3179 2.3225
-14.1154 -0.0226 2.3225
-14.1236 -0.3636 2.3225
-14.0529 -0.7015 2.3109
-14.1143 -1.0467 2.3225
-14.0969 -1.3882 2.3225
-14.0708 -1.7295 2.3225
-14.0362 -2.0703 2.3225
-13.9929 -2.4103 2.3225
-13.9412 -2.7494 2.3225
-13.8808 -3.0873 2.3225
-13.8119 -3.4238 2.3225
-12.3730 -3.3861 2.0922
-13.6486 -4.0917 2.3225
-13.5542 -4.4226 2.3225
-13.4515 -4.7513 2.3225
-13.3405 -5.0774 2.3225
-13.2212 -5.4007 2.3225
-13.0937 -5.7211 2.3225
-12.9580 -6.0383 2.3225
-12.8143 -6.3521 2.3225
-12.6626 -6.6623 2.3225
-12.5030 -6.9687 2.3225
-12.3357 -7.2710 2.3225
-12.1607 -7.5690 2.3225
-11.9781 -7.8626 2.3225
-11.7881 -8.1516 2.3225
-11.5908 -8.4357 2.3225
-11.3862 -8.7147 2.3225
-11.1746 -8.9886 2.3225
-10.1341 -8.5626 2.2994
-9.9256 -8.8056 2.2994
-9.7110 -9.0432 2.2994
-9.4905 -9.2753 2.2994
-9.2641 -9.5018 2.2994
-9.0321 -9.7224 2.2994
-8.7945 -9.9372 2.2994
-8.5516 -10.1458 2.2994
-8.3035 -10.3481 2.2994
-8.0504 -10.5441 2.2994
-7.7924 -10.7336 2.2994
-7.5298 -10.9165 2.2994
-7.4422 -11.3667 2.3562
-7.3047 -11.7668 2.4025
-7.0167 -11.9363 2.4025
-6.7247 -12.0985 2.4025
-6.4287 -12.2532 2.4025
-6.1289 -12.4003 2.4025
-5.8257 -12.5398 2.4025
-5.5191 -12.6715 2.4025
-5.2095 -12.7953 2.4025
-4.8969 -12.9113 2.4025
-4.5817 -13.0192 2.4025
-4.2640 -13.1192 2.4025
-3.9440 -13.2110 2.4025
-3.6220 -13.2948 2.4025
-3.2981 -13.3703 2.4025
-2.9727 -13.4376 2.4025
-2.6458 -13.4967 2.4025
-2.3178 -13.5475 2.4025
-1.9888 -13.5901 2.4025
-1.6590 -13.6243 2.4025
-1.3287 -13.6503 2.4025
-0.9981 -13.6679 2.4025
-0.6674 -13.6773 2.4025
-0.3369 -13.6784 2.4025
-0.0066 -13.6712 2.4025
0.3201 -13.5285 2.3801
0.6247 -13.0599 2.3016
0.9380 -13.0161 2.2993
1.2508 -12.9781 2.2993
1.5623 -12.9323 2.2993
1.8723 -12.8788 2.2993
2.1806 -12.8177 2.2994
2.4870 -12.7491 2.2994
2.7913 -12.6728 2.2994
3.0933 -12.5890 2.2994
3.3929 -12.4979 2.2994
3.6898 -12.3995 2.2994
3.9840 -12.2940 2.2994
4.2716 -12.1712 2.2975
4.5594 -12.0516 2.2975
4.8438 -11.9250 2.2975
5.1248 -11.7917 2.2975
5.4021 -11.6517 2.2975
5.6756 -11.5050 2.2975
5.9451 -11.3519 2.2975
6.2106 -11.1924 2.2975
6.4717 -11.0266 2.2975
6.7285 -10.8547 2.2975
6.9807 -10.6767 2.2975
7.2282 -10.4929 2.2975
7.4710 -10.3033 2.2975
7.7087 -10.1081 2.2975
7.9227 -9.8841 2.2921
8.1689 -9.7014 2.2975
8.3911 -9.4901 2.2975
8.6079 -9.2737 2.2975
8.8192 -9.0525 2.2975
9.0248 -8.8264 2.2975
9.2246 -8.5958 2.2975
7.4921 -6.6504 1.8275
7.5511 -6.3834 1.8059
7.6087 -6.1230 1.7858
7.6649 -5.8688 1.7672
7.7199 -5.6202 1.7500
7.7737 -5.3768 1.7343
7.8264 -5.1381 1.7198
7.8782 -4.9038 1.7065
7.9292 -4.6735 1.6945
7.9793 -4.4467 1.6836
8.0287 -4.2232 1.6739
8.0775 -4.0026 1.6652
8.1257 -3.7847 1.6576
8.1733 -3.5690 1.6510
8.2206 -3.3554 1.6455
8.2674 -3.1436 1.6409
8.3139 -2.9332 1.6373
8.3602 -2.7241 1.6346
8.4062 -2.5159 1.6329
8.4520 -2.3085 1.6321
8.4978 -2.1015 1.6323
8.5435 -1.8949 1.6334
8.5892 -1.6881 1.6354
8.6349 -1.4812 1.6384
8.6808 -1.2738 1.6423
8.7268 -1.0656 1.6471
8.7730 -0.8565 1.6529
8.8195 -0.6461 1.6597
8.8664 -0.4343 1.6675
8.9136 -0.2206 1.6763
8.9613 -0.0050 1.6862
9.0095 0.2130 1.6971
9.0316 0.4323 1.7040
9.0808 0.6552 1.7171
9.1308 0.8813 1.7314
9.1816 1.1110 1.7469
9.2332 1.3446 1.7636
9.2332 1.5736 1.7715
9.3671 1.8307 1.8064
9.4221 2.0793 1.8273
9.4783 2.3335 1.8498
9.8083 2.6681 1.9273
9.8691 2.9428 1.9538
9.9315 3.2251 1.9821
9.9957 3.5155 2.0123
10.0619 3.8148 2.0447
10.1302 4.1238 2.0792
10.2008 4.4432 2.1161
10.2740 4.7741 2.1555
10.3499 5.1175 2.1976
10.4288 5.4745 2.2427
10.5110 5.8464 2.2909
10.3930 6.1147 2.2975
10.2391 6.3626 2.2975
10.0795 6.6068 2.2975
9.9143 6.8472 2.2975
9.7437 7.0837 2.2975
9.5677 7.3161 2.2975
9.3864 7.5444 2.2975
9.1999 7.7684 2.2975
9.0083 7.9879 2.2975
8.8117 8.2030 2.2975
8.6664 8.4684 2.3125
8.4588 8.6755 2.3125
8.2464 8.8778 2.3125
8.0294 9.0751 2.3125
7.8079 9.2674 2.3125
7.5820 9.4544 2.3125
7.3518 9.6363 2.3125
7.1175 9.8128 2.3125
6.8791 9.9839 2.3125
6.6367 10.1494 2.3125
6.3906 10.3094 2.3125
6.1408 10.4636 2.3125
5.8874 10.6121 2.3125
5.6305 10.7547 2.3125
5.3704 10.8914 2.3125
2.9282 6.3197 1.3259
4.8406 11.1467 2.3125
4.5713 11.2652 2.3125
4.2992 11.3774 2.3125
4.0063 11.4315 2.3020
3.7295 11.5281 2.3015
3.4505 11.6183 2.3010
3.1693 11.7021 2.3005
2.8861 11.7788 2.2999
2.6011 11.8492 2.2994
2.3150 11.9158 2.2994
2.0273 11.9758 2.2994
1.7381 12.0291 2.2994
1.4475 12.0757 2.2994
1.1557 12.1156 2.2994
0.8629 12.1487 2.2994
0.5692 12.1750 2.2994
0.2747 12.1944 2.2994
-0.0204 12.2069 2.2994
-0.3159 12.2126 2.2994
-0.6118 12.2113 2.2994
-0.9077 12.2032 2.2994
-1.2037 12.1880 2.2994
-1.4994 12.1660 2.2994
-1.7948 12.1370 2.2994
-2.0897 12.1010 2.2994
-2.3840 12.0581 2.2994
-2.7110 12.1588 2.3282
-3.0611 12.3182 2.3700
-3.4074 12.4206 2.4025
-3.7106 12.3472 2.4026
-4.0124 12.2670 2.4027
-4.3125 12.1796 2.4029
-4.6108 12.0851 2.4031
-4.9071 11.9833 2.4032
-5.2012 11.8744 2.4033
-5.4929 11.7584 2.4035
-5.7822 11.6354 2.4036
-6.0688 11.5055 2.4038
-6.3525 11.3686 2.4039
-6.6325 11.2236 2.4038
-6.9091 11.0716 2.4037
-7.1823 10.9129 2.4035
-7.4524 10.7482 2.4035
-7.7190 10.5773 2.4036
-7.9810 10.3989 2.4034
-8.2386 10.2137 2.4032
-8.4920 10.0222 2.4030
-8.7410 9.8245 2.4027
-8.9855 9.6206 2.4025
-9.2259 9.4116 2.4025
-9.4617 9.1966 2.4025
-9.6924 8.9757 2.4025
-9.9181 8.7492 2.4025
-10.1384 8.5169 2.4025
-10.3533 8.2791 2.4025
-10.5626 8.0360 2.4025
-10.7661 7.7875 2.4025
-10.9639 7.5339 2.4025
-11.1555 7.2753 2.4025
-11.3411 7.0118 2.4025
-11.5204 6.7435 2.4025
-11.1915 6.1930 2.2994
-11.3507 5.9277 2.2994
-11.5036 5.6582 2.2994
-11.6499 5.3847 2.2994
-11.7897 5.1075 2.2994
-11.9228 4.8266 2.2994
-12.0491 4.5423 2.2994
-12.1684 4.2546 2.2994
-12.2808 3.9638 2.2994
-12.3861 3.6700 2.2994
-12.4842 3.3734 2.2994
-12.5750 3.0742 2.2994
-12.6586 2.7725 2.2994
-12.8625 2.4934 2.3225
-12.9318 2.1843 2.3225
-12.9935 1.8733 2.3225
-13.0475 1.5605 2.3225
-13.0938 1.2463 2.3225
-13.1323 0.9307 2.3225
-13.1629 0.6140 2.3225
-13.1857 0.2963 2.3225
-13.2005 -0.0220 2.3225
-13.2075 -0.3410 2.3225
-13.2064 -0.6602 2.3225
-13.1973 -0.9795 2.3225
-13.1803 -1.2988 2.3225
-13.1553 -1.6178 2.3225
-13.1222 -1.9363 2.3225
-13.0812 -2.2540 2.3225
-13.0321 -2.5709 2.3225
-12.9751 -2.8866 2.3225
-12.9101 -3.2010 2.3225
-12.3715 -3.3863 2.2382
-12.7564 -3.8249 2.3225
-12.6678 -4.1340 2.3225
-12.5713 -4.4410 2.3225
-12.4671 -4.7455 2.3225
-12.3552 -5.0475 2.3225
-12.2356 -5.3468 2.3225
-12.1085 -5.6430 2.3225
-11.9739 -5.9360 2.3225
-11.8318 -6.2256 2.3225
-11.6825 -6.5117 2.3225
-11.5259 -6.7940 2.3225
-11.3621 -7.0723 2.3225
-11.1913 -7.3465 2.3225
-11.0136 -7.6163 2.3225
-10.7214 -7.8033 2.2994
-10.5321 -8.0613 2.2994
-10.3363 -8.3144 2.2994
-9.5066 -8.0326 2.2994
-9.3110 -8.2605 2.2994
-9.1097 -8.4833 2.2994
-8.9028 -8.7010 2.2994
-8.6905 -8.9135 2.2994
-8.4729 -9.1204 2.2994
-8.2501 -9.3219 2.2994
-8.0222 -9.5176 2.2994
-7.7896 -9.7074 2.2994
-7.5522 -9.8914 2.2994
-7.3103 -10.0692 2.2994
-7.2870 -10.5641 2.3720
-7.1190 -10.8727 2.4025
-6.8531 -11.0388 2.4025
-6.5831 -11.1980 2.4025
-6.3092 -11.3504 2.4025
-6.0316 -11.4957 2.4025
-5.7506 -11.6340 2.4025
-5.4663 -11.7651 2.4025
-5.1788 -11.8889 2.4025
-4.8884 -12.0054 2.4025
-4.5953 -12.1145 2.4025
-4.2997 -12.2162 2.4025
-4.0017 -12.3104 2.4025
-3.7016 -12.3970 2.4025
-3.3995 -12.4759 2.4025
-3.0958 -12.5473 2.4025
-2.7905 -12.6109 2.4025
-2.4838 -12.6669 2.4025
-2.1761 -12.7150 2.4025
-1.8674 -12.7555 2.4025
-1.5580 -12.7882 2.4025
-1.2480 -12.8131 2.4025
-0.9378 -12.8303 2.4025
-0.6274 -12.8396 2.4025
-0.3171 -12.8413 2.4025
-0.0071 -12.8352 2.4025
0.3025 -12.8214 2.4025
0.5870 -12.2894 2.3067
0.8799 -12.2224 2.2993
1.1737 -12.1873 2.2993
1.4662 -12.1450 2.2994
1.7574 -12.0954 2.2994
2.0470 -12.0386 2.2994
2.3349 -11.9746 2.2994
2.6209 -11.9037 2.2994
2.9047 -11.8257 2.2994
3.1863 -11.7408 2.2994
3.4655 -11.6491 2.2994
3.7420 -11.5507 2.2994
4.0158 -11.4455 2.2994
4.2867 -11.3338 2.2994
4.5507 -11.2062 2.2975
4.8150 -11.0816 2.2975
5.0759 -10.9507 2.2975
5.3333 -10.8136 2.2975
5.5870 -10.6704 2.2975
5.8368 -10.5211 2.2975
6.0827 -10.3660 2.2975
6.3245 -10.2050 2.2975
6.5620 -10.0384 2.2975
6.7952 -9.8663 2.2975
7.0238 -9.6887 2.2975
7.2479 -9.5058 2.2975
7.4672 -9.3176 2.2975
7.6817 -9.1245 2.2975
7.8912 -8.9264 2.2975
8.0956 -8.7235 2.2975
8.2949 -8.5160 2.2975
8.4889 -8.3039 2.2975
8.6774 -8.0875 2.2975
7.4918 -6.6515 1.9426
7.5509 -6.3844 1.9194
7.6085 -6.1240 1.8979
7.6647 -5.8698 1.8781
7.7196 -5.6212 1.8597
7.7735 -5.3778 1.8428
7.8262 -5.1391 1.8273
7.8780 -4.9048 1.8131
7.9290 -4.6744 1.8002
7.9791 -4.4476 1.7886
8.0285 -4.2241 1.7781
8.0773 -4.0035 1.7688
8.1255 -3.7855 1.7606
8.1732 -3.5698 1.7535
8.2204 -3.3562 1.7475
8.2672 -3.1443 1.7425
8.3137 -2.9340 1.7386
8.3600 -2.7248 1.7356
8.4060 -2.5167 1.7337
8.4519 -2.3092 1.7328
8.4976 -2.1023 1.7329
8.5433 -1.8956 1.7339
8.5890 -1.6889 1.7360
8.6348 -1.4819 1.7391
8.6806 -1.2745 1.7431
8.7267 -1.0663 1.7482
8.7729 -0.8571 1.7543
8.8194 -0.6468 1.7614
8.8662 -0.4349 1.7696
8.9135 -0.2213 1.7788
8.9612 -0.0056 1.7892
9.0093 0.2124 1.8007
8.9802 0.4292 1.7977
9.0807 0.6546 1.8218
9.1307 0.8807 1.8368
9.1815 1.1104 1.8532
9.2331 1.3440 1.8709
9.2331 1.5730 1.8792
9.3670 1.8301 1.9161
9.4220 2.0787 1.9383
9.4782 2.3330 1.9620
9.8082 2.6675 2.0442
9.8690 2.9423 2.0722
9.9314 3.2246 2.1022
9.9956 3.5150 2.1342
10.0618 3.8143 2.1684
10.1301 4.1233 2.2050
10.2007 4.4427 2.2440
10.2739 4.7736 2.2858
10.2035 5.0447 2.2975
10.0749 5.2884 2.2975
9.9408 5.5289 2.2975
9.8012 5.7662 2.2975
9.6561 6.0001 2.2975
9.5058 6.2305 2.2975
9.3501 6.4573 2.2975
9.1893 6.6804 2.2975
9.0234 6.8997 2.2975
8.8524 7.1150 2.2975
8.6766 7.3263 2.2975
8.5034 7.5402 2.2995
8.3648 7.7869 2.3125
8.1735 7.9867 2.3125
7.9776 8.1821 2.3125
7.7773 8.3728 2.3125
7.5726 8.5589 2.3125
7.3637 8.7402 2.3125
7.1506 8.9167 2.3125
6.9334 9.0881 2.3125
6.7123 9.2545 2.3125
6.4874 9.4158 2.3125
6.2588 9.5719 2.3125
6.0266 9.7226 2.3125
5.7908 9.8679 2.3125
5.5518 10.0078 2.3125
5.3095 10.1422 2.3125
5.0640 10.2709 2.3125
2.9278 6.3193 1.4060
4.5485 10.4750 2.3045
4.2943 10.5837 2.3040
4.0377 10.6866 2.3035
3.7787 10.7835 2.3030
3.5175 10.8745 2.3025
3.2542 10.9594 2.3020
2.9890 11.0382 2.3016
2.7218 11.1107 2.3011
2.4528 11.1764 2.3004
2.1823 11.2358 2.2998
1.9106 11.2899 2.2994
1.6378 11.3398 2.2994
1.3638 11.3833 2.2994
1.0887 11.4204 2.2994
0.8126 11.4512 2.2994
0.5357 11.4755 2.2994
0.2581 11.4933 2.2994
-0.0200 11.5046 2.2994
-0.2986 11.5094 2.2994
-0.5773 11.5077 2.2994
-0.8562 11.4995 2.2994
-1.1351 11.4847 2.2994
-1.4137 11.4634 2.2994
-1.6942 11.4506 2.3024
-2.0135 11.6537 2.3504
-2.3492 11.8770 2.4040
-2.6364 11.8197 2.4025
-2.9244 11.7640 2.4027
-3.2112 11.7013 2.4028
-3.4967 11.6318 2.4030
-3.7808 11.5556 2.4031
-4.0633 11.4725 2.4033
-4.3440 11.3828 2.4034
-4.6229 11.2863 2.4036
-4.8996 11.1831 2.4038
-5.1741 11.0733 2.4039
-5.4462 10.9568 2.4041
-5.7157 10.8337 2.4042
-5.9826 10.7042 2.4044
-6.2465 10.5681 2.4045
-6.5070 10.4251 2.4045
-6.7639 10.2751 2.4044
-7.0174 10.1188 2.4043
-7.2673 9.9564 2.4041
-7.5136 9.7879 2.4040
-7.7560 9.6134 2.4039
-7.9940 9.4326 2.4037
-8.2279 9.2459 2.4034
-8.4574 9.0535 2.4032
-8.6825 8.8555 2.4030
-8.9031 8.6519 2.4028
-9.1188 8.4429 2.4026
-9.3298 8.2286 2.4025
-9.5364 8.0096 2.4025
-9.7378 7.7855 2.4025
-9.9340 7.5563 2.4025
-10.1248 7.3221 2.4025
-10.3100 7.0831 2.4025
-10.4896 6.8395 2.4025
-10.6633 6.5913 2.4025
-10.3664 6.0667 2.2994
-10.5212 5.8208 2.2994
-10.6702 5.5710 2.2994
-10.8132 5.3173 2.2994
-10.9500 5.0600 2.2994
-11.0806 4.7991 2.2994
-11.2050 4.5349 2.2994
-11.3229 4.2674 2.2994
-11.4344 3.9968 2.2994
-11.5392 3.7233 2.2994
-11.6374 3.4471 2.2994
-11.7289 3.1682 2.2994
-11.8135 2.8870 2.2994
-11.8913 2.6034 2.2994
-12.0821 2.3411 2.3225
-12.1465 2.0506 2.3225
-12.2038 1.7584 2.3225
-12.2538 1.4646 2.3225
-12.2966 1.1695 2.3225
-12.3320 0.8731 2.3225
-12.3601 0.5756 2.3225
-12.3808 0.2774 2.3225
-12.3941 -0.0216 2.3225
-12.4000 -0.3210 2.3225
-12.3984 -0.6206 2.3225
-12.3893 -0.9204 2.3225
-12.3727 -1.2200 2.3225
-12.3487 -1.5194 2.3225
-12.3171 -1.8182 2.3225
-12.2780 -2.1164 2.3225
-12.2315 -2.4137 2.3225
-12.1775 -2.7098 2.3225
-12.1160 -3.0048 2.3225
-12.0472 -3.2982 2.3225
-11.9709 -3.5900 2.3225
-11.8873 -3.8799 2.3225
-11.7964 -4.1678 2.3225
-11.6982 -4.4534 2.3225
-11.5929 -4.7366 2.3225
-11.4804 -5.0172 2.3225
-11.3608 -5.2950 2.3225
-11.2342 -5.5698 2.3225
-11.1007 -5.8414 2.3225
-10.9603 -6.1096 2.3225
-10.8132 -6.3743 2.3225
-10.6594 -6.6353 2.3225
-10.3946 -6.8239 2.2994
-10.2294 -7.0743 2.2994
-10.0579 -7.3206 2.2994
-9.8802 -7.5625 2.2994
-9.6964 -7.7999 2.2994
-8.9502 -7.5626 2.2994
-8.7660 -7.7771 2.2994
-8.5765 -7.9868 2.2994
-8.3817 -8.1918 2.2994
-8.1818 -8.3917 2.2994
-7.9769 -8.5866 2.2994
-7.7672 -8.7762 2.2994
-7.5528 -8.9605 2.2994
-7.3338 -9.1393 2.2994
-7.1104 -9.3125 2.2994
-7.1198 -9.8064 2.3786
-6.9491 -10.0739 2.4025
-6.7028 -10.2367 2.4025
-6.4525 -10.3931 2.4025
-6.1984 -10.5432 2.4025
-5.9407 -10.6868 2.4025
-5.6795 -10.8238 2.4025
-5.4150 -10.9542 2.4025
-5.1474 -11.0779 2.4025
-4.8768 -11.1947 2.4025
-4.6035 -11.3047 2.4025
-4.3277 -11.4077 2.4025
-4.0494 -11.5037 2.4025
-3.7689 -11.5927 2.4025
-3.4865 -11.6746 2.4025
-3.2021 -11.7493 2.4025
-2.9162 -11.8168 2.4025
-2.6287 -11.8772 2.4025
-2.3401 -11.9303 2.4025
-2.0503 -11.9761 2.4025
-1.7596 -12.0146 2.4025
-1.4683 -12.0459 2.4025
-1.1764 -12.0698 2.4025
-0.8842 -12.0865 2.4025
-0.5918 -12.0958 2.4025
-0.2995 -12.0979 2.4025
-0.0075 -12.0926 2.4025
0.2842 -12.0802 2.4025
0.5752 -12.0604 2.4025
0.8283 -11.5172 2.2994
1.1051 -11.4845 2.2994
1.3808 -11.4451 2.2994
1.6553 -11.3989 2.2994
1.9283 -11.3459 2.2994
2.1997 -11.2862 2.2994
2.4694 -11.2199 2.2994
2.7370 -11.1470 2.2994
3.0026 -11.0676 2.2994
3.2659 -10.9818 2.2994
3.5268 -10.8895 2.2994
3.7851 -10.7910 2.2994
4.0407 -10.6863 2.2994
4.2934 -10.5754 2.2994
4.5393 -10.4497 2.2975
4.7856 -10.3269 2.2975
5.0286 -10.1982 2.2975
5.2681 -10.0637 2.2975
5.5041 -9.9235 2.2975
5.7363 -9.7778 2.2975
5.9647 -9.6265 2.2975
6.1891 -9.4700 2.2975
6.4094 -9.3081 2.2975
6.6255 -9.1411 2.2975
6.8373 -8.9691 2.2975
7.0447 -8.7921 2.2975
7.2475 -8.6104 2.2975
7.4456 -8.4240 2.2975
7.6389 -8.2331 2.2975
7.8274 -8.0377 2.2975
8.0110 -7.8380 2.2975
8.1895 -7.6342 2.2975
7.4916 -6.6526 2.0581
7.5507 -6.3855 2.0335
7.6082 -6.1251 2.0106
7.6645 -5.8708 1.9894
7.7194 -5.6222 1.9699
7.7732 -5.3787 1.9519
7.8260 -5.1400 1.9353
7.8778 -4.9057 1.9202
7.9288 -4.6753 1.9064
7.9789 -4.4485 1.8939
8.0283 -4.2250 1.8828
8.0771 -4.0043 1.8728
8.1253 -3.7863 1.8640
8.1730 -3.5707 1.8564
8.2202 -3.3570 1.8499
8.2671 -3.1451 1.8446
8.3136 -2.9347 1.8403
8.3598 -2.7256 1.8371
8.4058 -2.5174 1.8350
8.4517 -2.3100 1.8339
8.4975 -2.1030 1.8339
8.5432 -1.8963 1.8349
8.5889 -1.6896 1.8370
8.6346 -1.4826 1.8402
8.6805 -1.2752 1.8444
8.7265 -1.0670 1.8497
8.7727 -0.8578 1.8560
8.8193 -0.6474 1.8635
8.8661 -0.4356 1.8720
8.9133 -0.2219 1.8817
8.9610 -0.0062 1.8926
9.0092 0.2117 1.9047
8.9801 0.4286 1.9015
9.0806 0.6539 1.9269
9.1305 0.8801 1.9428
9.1813 1.1098 1.9600
9.2330 1.3434 1.9786
9.2330 1.5724 1.9874
9.3669 1.8295 2.0264
9.4218 2.0781 2.0497
9.4780 2.3324 2.0747
9.8081 2.6669 2.1616
9.8688 2.9417 2.1912
9.9312 3.2240 2.2228
9.9955 3.5145 2.2566
10.0616 3.8138 2.2927
9.9829 4.0629 2.2975
9.8777 4.3016 2.2975
9.7670 4.5377 2.2975
9.6510 4.7711 2.2975
9.5295 5.0017 2.2975
9.4028 5.2293 2.2975
9.2709 5.4538 2.2975
9.1338 5.6752 2.2975
8.9917 5.8932 2.2975
8.8445 6.1079 2.2975
8.6925 6.3190 2.2975
8.5356 6.5265 2.2975
8.3739 6.7303 2.2975
8.2612 6.9755 2.3125
8.0892 7.1727 2.3125
7.9127 7.3660 2.3125
7.7317 7.5550 2.3125
7.5465 7.7399 2.3125
7.3570 7.9203 2.3125
7.1633 8.0964 2.3125
6.9656 8.2679 2.3125
6.7640 8.4347 2.3125
6.5585 8.5969 2.3125
6.3493 8.7543 2.3125
6.1365 8.9067 2.3125
5.9201 9.0543 2.3125
5.7004 9.1968 2.3125
5.4535 9.2936 2.3024
5.2295 9.4274 2.3029
5.0022 9.5559 2.3035
4.7719 9.6792 2.3040
2.9273 6.3189 1.4864
4.3026 9.9096 2.3050
4.0627 10.0137 2.3048
3.8198 10.1110 2.3043
3.5747 10.2026 2.3038
3.3275 10.2885 2.3034
3.0783 10.3687 2.3029
2.8273 10.4432 2.3025
2.5745 10.5118 2.3021
2.3200 10.5738 2.3015
2.0640 10.6299 2.3009
1.8068 10.6801 2.3003
1.5483 10.7243 2.2998
1.2889 10.7634 2.2994
1.0287 10.7981 2.2994
0.7676 10.8268 2.2994
0.5058 10.8494 2.2994
0.2433 10.8658 2.2994
-0.0197 10.8761 2.2994
-0.2830 10.8802 2.2994
-0.5468 10.8829 2.3004
-0.8102 10.8699 2.2994
-1.0887 11.0073 2.3315
-1.3813 11.1935 2.3755
-1.6717 11.2925 2.4025
-1.9461 11.2584 2.4026
-2.2198 11.2181 2.4027
-2.4928 11.1713 2.4029
-2.7648 11.1180 2.4030
-3.0357 11.0583 2.4032
-3.3054 10.9921 2.4033
-3.5737 10.9194 2.4035
-3.8405 10.8404 2.4036
-4.1055 10.7550 2.4038
-4.3688 10.6632 2.4039
-4.6300 10.5652 2.4041
-4.8891 10.4608 2.4043
-5.1459 10.3502 2.4044
-5.4002 10.2334 2.4046
-5.6520 10.1105 2.4047
-5.9010 9.9815 2.4049
-6.1471 9.8464 2.4050
-6.3902 9.7053 2.4052
-6.6293 9.5572 2.4051
-6.8650 9.4033 2.4049
-7.0967 9.2430 2.4047
-7.3246 9.0769 2.4043
-7.5486 8.9052 2.4040
-7.7686 8.7281 2.4037
-7.9850 8.5461 2.4035
-8.1974 8.3590 2.4034
-8.4054 8.1667 2.4033
-8.6090 7.9693 2.4032
-8.8079 7.7667 2.4031
-9.0018 7.5591 2.4030
-9.1907 7.3466 2.4028
-9.3747 7.1294 2.4027
-9.5536 6.9076 2.4025
-9.7275 6.6816 2.4025
-9.8963 6.4513 2.4025
-10.0596 6.2168 2.4025
-9.7789 5.7216 2.2994
-9.9244 5.4894 2.2994
-10.0643 5.2535 2.2994
-10.1985 5.0139 2.2994
-10.3270 4.7709 2.2994
-10.4496 4.5247 2.2994
-10.5662 4.2752 2.2994
-10.6768 4.0228 2.2994
-10.7813 3.7675 2.2994
-10.8796 3.5094 2.2994
-10.9715 3.2488 2.2994
-11.0572 2.9858 2.2994
-11.1363 2.7205 2.2994
-11.2090 2.4531 2.2994
-11.3883 2.2056 2.3225
-11.4484 1.9318 2.3225
-11.5018 1.6563 2.3225
-11.5483 1.3794 2.3225
-11.5880 1.1012 2.3225
-11.6209 0.8218 2.3225
-11.6468 0.5416 2.3225
-11.6658 0.2605 2.3225
-11.6778 -0.0211 2.3225
-11.6828 -0.3032 2.3225
-11.6807 -0.5855 2.3225
-11.6717 -0.8678 2.3225
-11.6556 -1.1501 2.3225
-11.6324 -1.4320 2.3225
-11.6022 -1.7134 2.3225
-11.5650 -1.9942 2.3225
-11.5207 -2.2741 2.3225
-11.4695 -2.5529 2.3225
-11.4112 -2.8306 2.3225
-11.3460 -3.1068 2.3225
-11.2738 -3.3815 2.3225
-11.1947 -3.6544 2.3225
-11.1088 -3.9254 2.3225
-11.0160 -4.1942 2.3225
-10.9165 -4.4608 2.3225
-10.8103 -4.7249 2.3225
-10.6975 -4.9863 2.3225
-10.5781 -5.2449 2.3225
-10.4521 -5.5005 2.3225
-10.2172 -5.6958 2.2994
-10.0799 -5.9424 2.2994
-9.9363 -6.1855 2.2994
-9.7867 -6.4251 2.2994
-9.6310 -6.6608 2.2994
-9.4694 -6.8926 2.2994
-9.3020 -7.1202 2.2994
-9.1289 -7.3436 2.2994
-8.4533 -7.1429 2.2994
-8.2793 -7.3454 2.2994
-8.1003 -7.5435 2.2994
-7.9163 -7.7370 2.2994
-7.7275 -7.9258 2.2994
-7.5340 -8.1098 2.2994
-7.3360 -8.2889 2.2994
-7.1335 -8.4630 2.2994
-6.9267 -8.6318 2.2994
-6.9688 -9.1268 2.3860
-6.7923 -9.3551 2.4025
-6.5636 -9.5148 2.4025
-6.3311 -9.6686 2.4025
-6.0948 -9.8164 2.4025
-5.8549 -9.9583 2.4025
-5.6115 -10.0941 2.4025
-5.3649 -10.2237 2.4025
-5.1152 -10.3470 2.4025
-4.8625 -10.4639 2.4025
-4.6071 -10.5745 2.4025
-4.3491 -10.6786 2.4025
-4.0886 -10.7762 2.4025
-3.8258 -10.8671 2.4025
-3.5610 -10.9514 2.4025
-3.2942 -11.0290 2.4025
-3.0257 -11.0999 2.4025
-2.7557 -11.1641 2.4025
-2.4842 -11.2214 2.4025
-2.2115 -11.2719 2.4025
-1.9378 -11.3155 2.4025
-1.6633 -11.3523 2.4025
-1.3881 -11.3822 2.4025
-1.1123 -11.4053 2.4025
-0.8362 -11.4214 2.4025
-0.5600 -11.4307 2.4025
-0.2838 -11.4330 2.4025
-0.0078 -11.4285 2.4025
0.2678 -11.4172 2.4025
0.5428 -11.3990 2.4025
0.8051 -11.2061 2.3670
1.0438 -10.8556 2.2994
1.3045 -10.8188 2.2994
1.5639 -10.7756 2.2994
1.8221 -10.7260 2.2994
2.0788 -10.6701 2.2994
2.3337 -10.6079 2.2994
2.5869 -10.5395 2.2994
2.8381 -10.4649 2.2994
3.0872 -10.3843 2.2994
3.3341 -10.2975 2.2994
3.5785 -10.2049 2.2994
3.8204 -10.1063 2.2994
4.0595 -10.0020 2.2994
4.2959 -9.8919 2.2994
4.5292 -9.7761 2.2994
4.7555 -9.6467 2.2975
4.9824 -9.5200 2.2975
5.2058 -9.3879 2.2975
5.4258 -9.2505 2.2975
5.6422 -9.1080 2.2975
5.8548 -8.9603 2.2975
6.0636 -8.8076 2.2975
6.2684 -8.6501 2.2975
6.4691 -8.4878 2.2975
6.6657 -8.3208 2.2975
6.8579 -8.1493 2.2975
7.0458 -7.9733 2.2975
7.2292 -7.7930 2.2975
7.4080 -7.6085 2.2975
7.5821 -7.4199 2.2975
7.7515 -7.2273 2.2975
7.4914 -6.6537 2.1742
7.5504 -6.3866 2.1481
7.6080 -6.1261 2.1238
7.6642 -5.8718 2.1013
7.7192 -5.6231 2.0805
7.7730 -5.3797 2.0614
7.8258 -5.1410 2.0438
7.8776 -4.9066 2.0277
7.9286 -4.6762 2.0131
7.9787 -4.4494 1.9998
8.0281 -4.2258 1.9879
8.0769 -4.0052 1.9773
8.1251 -3.7872 1.9679
8.1728 -3.5715 1.9598
8.2200 -3.3578 1.9529
8.2669 -3.1459 1.9471
8.3134 -2.9355 1.9425
8.3596 -2.7263 1.9390
8.4057 -2.5182 1.9367
8.4515 -2.3107 1.9355
8.4973 -2.1037 1.9354
8.5430 -1.8970 1.9364
8.5887 -1.6903 1.9385
8.6345 -1.4833 1.9418
8.6803 -1.2758 1.9461
8.7264 -1.0677 1.9516
8.7726 -0.8585 1.9582
8.8191 -0.6481 1.9660
8.8660 -0.4362 1.9750
8.9132 -0.2226 1.9852
8.9609 -0.0069 1.9966
9.0091 0.2111 2.0092
8.9800 0.4280 2.0058
9.0804 0.6533 2.0325
9.1304 0.8795 2.0492
9.1812 1.1092 2.0673
9.2329 1.3428 2.0869
9.2329 1.5719 2.0961
9.3667 1.8289 2.1371
9.4217 2.0776 2.1617
9.4779 2.3319 2.1880
9.8080 2.6664 2.2796
9.8123 2.9244 2.2975
9.7341 3.1595 2.2975
9.6505 3.3927 2.2975
9.5616 3.6238 2.2975
9.4673 3.8526 2.2975
9.3677 4.0791 2.2975
9.2629 4.3031 2.2975
9.1530 4.5246 2.2975
9.0380 4.7433 2.2975
8.9179 4.9593 2.2975
8.7929 5.1723 2.2975
8.6630 5.3823 2.2975
8.5282 5.5892 2.2975
8.3888 5.7929 2.2975
8.2446 5.9932 2.2975
8.1487 6.2305 2.3125
7.9944 6.4251 2.3125
7.8357 6.6160 2.3125
7.6726 6.8032 2.3125
7.5052 6.9865 2.3125
7.3335 7.1659 2.3125
7.1578 7.3412 2.3125
6.9780 7.5124 2.3125
6.7943 7.6794 2.3125
6.6068 7.8420 2.3125
6.4155 8.0003 2.3125
6.2205 8.1541 2.3125
5.9892 8.2579 2.2998
5.7896 8.4036 2.3004
5.5867 8.5446 2.3009
5.3804 8.6809 2.3014
5.1709 8.8124 2.3019
4.9583 8.9391 2.3024
4.7427 9.0607 2.3028
4.5242 9.1774 2.3033
2.9269 6.3186 1.5671
4.0789 9.3953 2.3043
3.8524 9.4965 2.3047
3.6233 9.5919 2.3051
3.3907 9.6787 2.3046
3.1562 9.7602 2.3042
2.9197 9.8361 2.3038
2.6815 9.9066 2.3033
2.4417 9.9716 2.3029
2.2002 10.0305 2.3024
1.9574 10.0836 2.3019
1.7133 10.1310 2.3013
1.4681 10.1728 2.3008
1.2219 10.2089 2.3003
0.9749 10.2392 2.2997
0.7271 10.2645 2.2994
0.4788 10.2855 2.2994
0.2300 10.3008 2.2994
-0.0194 10.3618 2.3109
-0.2690 10.3137 2.2994
-0.5267 10.4684 2.3344
-0.7985 10.7031 2.3886
-1.0641 10.7504 2.4025
-1.3250 10.7302 2.4026
-1.5854 10.7038 2.4027
-1.8454 10.6712 2.4029
-2.1048 10.6325 2.4030
-2.3634 10.5877 2.4032
-2.6212 10.5367 2.4033
-2.8778 10.4796 2.4035
-3.1333 10.4164 2.4036
-3.3874 10.3471 2.4038
-3.6400 10.2717 2.4039
-3.8910 10.1903 2.4041
-4.1402 10.1028 2.4042
-4.3876 10.0094 2.4044
-4.6328 9.9101 2.4045
-4.8759 9.8048 2.4047
-5.1166 9.6937 2.4049
-5.3548 9.5767 2.4050
-5.5904 9.4540 2.4052
-5.8232 9.3256 2.4053
-6.0531 9.1915 2.4055
-6.2797 9.0513 2.4055
-6.5025 8.9049 2.4053
-6.7216 8.7526 2.4050
-6.9370 8.5950 2.4047
