ply
format ascii 1.0
element vertex 2178
property float32 x
property float32 y
property float32 z
end_header
6.4145 3.1695 2.2994
6.3346 3.3234 2.2994
6.2510 3.4753 2.2994
6.1640 3.6251 2.2994
6.0734 3.7729 2.2994
5.9794 3.9185 2.2994
5.8821 4.0618 2.2994
5.7814 4.2028 2.2994
5.6774 4.3413 2.2994
5.5703 4.4774 2.2994
5.4599 4.6109 2.2994
5.3465 4.7418 2.2994
5.2300 4.8700 2.2994
5.1109 4.9958 2.2995
4.9895 5.1193 2.2999
4.8651 5.2400 2.3004
3.6133 4.0860 1.7546
3.3966 4.0339 1.6963
3.3526 4.1833 1.7242
4.3400 5.6928 2.3020
4.2021 5.7982 2.3024
4.0618 5.9003 2.3028
3.9190 5.9992 2.3032
3.7738 6.0945 2.3035
3.6263 6.1865 2.3038
3.4767 6.2749 2.3042
3.3250 6.3598 2.3045
3.1712 6.4412 2.3048
3.0155 6.5189 2.3051
2.8572 6.5913 2.3048
2.6972 6.6600 2.3045
2.5355 6.7245 2.3041
2.3723 6.7853 2.3037
2.2077 6.8422 2.3033
2.0613 6.9614 2.3250
1.8746 6.9446 2.3026
1.7205 7.0477 2.3213
1.5811 7.2332 2.3680
1.4266 7.3784 2.4025
1.2480 7.4144 2.4025
1.0687 7.4465 2.4026
0.8885 7.4743 2.4027
0.7077 7.4978 2.4028
0.5262 7.5171 2.4029
0.3442 7.5321 2.4030
0.1619 7.5428 2.4031
-0.0208 7.5491 2.4032
-0.2037 7.5512 2.4033
-0.3867 7.5489 2.4034
-0.5697 7.5423 2.4036
-0.7526 7.5314 2.4037
-0.9353 7.5161 2.4038
-1.1177 7.4965 2.4039
-1.2997 7.4725 2.4040
-1.4813 7.4442 2.4042
-1.6622 7.4116 2.4043
-1.8424 7.3747 2.4044
-2.0218 7.3335 2.4045
-2.2003 7.2879 2.4047
-2.3778 7.2381 2.4048
-2.5542 7.1841 2.4049
-2.7293 7.1257 2.4051
-2.9032 7.0632 2.4052
-3.0756 6.9965 2.4053
-3.2465 6.9256 2.4054
-3.4158 6.8506 2.4055
-3.5830 6.7708 2.4054
-3.7484 6.6870 2.4053
-3.9118 6.5992 2.4052
-4.0732 6.5075 2.4051
-4.2324 6.4118 2.4050
-4.3893 6.3122 2.4048
-4.5440 6.2088 2.4047
-4.6961 6.1017 2.4046
-4.8458 5.9908 2.4045
-4.9929 5.8763 2.4043
-5.1372 5.7582 2.4042
-5.2787 5.6366 2.4041
-5.4174 5.5115 2.4040
-5.5531 5.3830 2.4038
-5.6857 5.2511 2.4037
-5.8151 5.1160 2.4036
-5.9414 4.9777 2.4034
-6.0643 4.8363 2.4033
-6.1838 4.6919 2.4032
-6.2999 4.5445 2.4030
-6.4124 4.3942 2.4029
-6.5213 4.2411 2.4028
-6.6266 4.0854 2.4026
-6.7280 3.9270 2.4025
-6.8280 3.7674 2.4032
-6.6232 3.4485 2.2994
-6.7095 3.2900 2.2994
-6.7920 3.1295 2.2994
-6.8706 2.9668 2.2994
-6.9452 2.8022 2.2994
-7.0158 2.6356 2.2994
-7.0824 2.4673 2.2994
-7.1449 2.2973 2.2994
-7.2032 2.1257 2.2994
-7.2573 1.9527 2.2994
-7.3072 1.7782 2.2994
-7.3528 1.6025 2.2994
-7.3942 1.4256 2.2994
-7.4311 1.2476 2.2994
-7.4637 1.0687 2.2994
-7.4919 0.8889 2.2994
-7.5157 0.7084 2.2994
-7.5350 0.5272 2.2994
-7.5499 0.3456 2.2994
-7.5603 0.1635 2.2994
-7.5662 -0.0188 2.2994
-7.5676 -0.2014 2.2994
-7.5644 -0.3840 2.2994
-7.5568 -0.5665 2.2994
-7.5446 -0.7489 2.2994
-7.5279 -0.9310 2.2994
-7.5067 -1.1127 2.2994
-7.4810 -1.2939 2.2994
-7.4508 -1.4745 2.2994
-7.4161 -1.6543 2.2994
-7.3770 -1.8333 2.2994
-7.3334 -2.0113 2.2994
-7.2854 -2.1883 2.2994
-7.2330 -2.3640 2.2994
-7.1762 -2.5384 2.2994
-7.1151 -2.7115 2.2994
-7.0497 -2.8830 2.2994
-6.9800 -3.0528 2.2994
-6.9061 -3.2209 2.2994
-6.8281 -3.3872 2.2994
-6.7459 -3.5515 2.2994
-6.6596 -3.7137 2.2994
-6.5693 -3.8738 2.2994
-6.4751 -4.0316 2.2994
-6.3769 -4.1870 2.2994
-6.2749 -4.3399 2.2994
-6.2853 -4.5749 2.3427
-6.3312 -4.8459 2.4025
-6.2130 -4.9973 2.4025
-5.8553 -4.9467 2.4025
-5.7345 -5.0864 2.4025
-5.6102 -5.2230 2.4025
-5.4826 -5.3566 2.4025
-5.3518 -5.4869 2.4025
-5.2177 -5.6139 2.4025
-5.0806 -5.7375 2.4025
-4.9404 -5.8577 2.4025
-4.7972 -5.9743 2.4025
-4.6513 -6.0873 2.4025
-4.5026 -6.1966 2.4025
-4.3512 -6.3022 2.4025
-4.1973 -6.4040 2.4025
-4.0409 -6.5019 2.4025
-3.8822 -6.5959 2.4025
-3.7212 -6.6859 2.4025
-3.5581 -6.7718 2.4025
-3.3929 -6.8536 2.4025
-3.2258 -6.9313 2.4025
-3.0569 -7.0048 2.4025
-2.8862 -7.0741 2.4025
-2.7140 -7.1391 2.4025
-2.5402 -7.1998 2.4025
-2.3650 -7.2561 2.4025
-2.1886 -7.3081 2.4025
-2.0109 -7.3556 2.4025
-1.8323 -7.3988 2.4025
-1.6527 -7.4375 2.4025
-1.4722 -7.4717 2.4025
-1.2911 -7.5014 2.4025
-1.1093 -7.5266 2.4025
-0.9270 -7.5474 2.4025
-0.7444 -7.5636 2.4025
-0.5615 -7.5753 2.4025
-0.3785 -7.5824 2.4025
-0.1955 -7.5851 2.4025
-0.0125 -7.5833 2.4025
0.1703 -7.5769 2.4025
0.3528 -7.5661 2.4025
0.5348 -7.5507 2.4025
0.7163 -7.5310 2.4025
0.8972 -7.5067 2.4025
1.0773 -7.4781 2.4025
1.2485 -7.3973 2.3871
1.3782 -7.1148 2.3075
1.5429 -7.0499 2.2994
1.7114 -7.0058 2.2994
1.8787 -6.9577 2.2994
2.0446 -6.9055 2.2994
2.2091 -6.8493 2.2994
2.3720 -6.7892 2.2994
2.5334 -6.7251 2.2994
2.6930 -6.6571 2.2994
2.8508 -6.5854 2.2994
3.0068 -6.5098 2.2994
3.1607 -6.4306 2.2994
3.3126 -6.3476 2.2994
3.4623 -6.2611 2.2994
3.6097 -6.1710 2.2994
3.7548 -6.0774 2.2994
3.8975 -5.9804 2.2994
4.0378 -5.8800 2.2994
4.1754 -5.7764 2.2994
4.3104 -5.6695 2.2994
4.4427 -5.5594 2.2994
4.5722 -5.4463 2.2994
4.6988 -5.3301 2.2994
4.8225 -5.2110 2.2994
4.9433 -5.0890 2.2994
5.0609 -4.9643 2.2994
5.1755 -4.8368 2.2994
5.2868 -4.7067 2.2994
5.3949 -4.5741 2.2994
5.4997 -4.4389 2.2994
5.6012 -4.3014 2.2994
5.6993 -4.1616 2.2994
5.7939 -4.0196 2.2994
5.8851 -3.8755 2.2994
5.9727 -3.7293 2.2994
6.0567 -3.5811 2.2994
6.1371 -3.4311 2.2994
6.2138 -3.2793 2.2994
6.2868 -3.1258 2.2994
6.3561 -2.9707 2.2994
6.4216 -2.8141 2.2994
6.4834 -2.6561 2.2994
6.5413 -2.4968 2.2994
6.5953 -2.3362 2.2994
6.6455 -2.1744 2.2994
6.6918 -2.0117 2.2994
6.7342 -1.8479 2.2994
6.7727 -1.6833 2.2994
6.8072 -1.5180 2.2994
6.8378 -1.3519 2.2994
6.8644 -1.1853 2.2994
6.8870 -1.0181 2.2994
6.9056 -0.8506 2.2994
6.9203 -0.6828 2.2994
6.9310 -0.5147 2.2994
6.9377 -0.3466 2.2994
6.9404 -0.1784 2.2994
6.9391 -0.0102 2.2994
6.9338 0.1578 2.2994
6.9246 0.3255 2.2994
6.9115 0.4929 2.2994
6.8944 0.6599 2.2994
6.8733 0.8263 2.2994
6.8484 0.9921 2.2994
6.8195 1.1573 2.2994
6.7868 1.3216 2.2994
6.7502 1.4851 2.2994
6.7098 1.6476 2.2994
6.6656 1.8091 2.2994
6.6176 1.9694 2.2994
6.5659 2.1285 2.2994
6.5105 2.2863 2.2994
6.4513 2.4427 2.2994
6.3886 2.5976 2.2994
6.3222 2.7510 2.2994
6.2522 2.9027 2.2994
6.1787 3.0528 2.2994
6.1017 3.2010 2.2994
6.0213 3.3473 2.2994
5.9374 3.4917 2.2994
5.8502 3.6341 2.2994
5.7597 3.7744 2.2994
5.6660 3.9124 2.2994
5.5690 4.0483 2.2994
5.4689 4.1818 2.2994
5.3656 4.3129 2.2994
5.2593 4.4415 2.2994
5.1501 4.5676 2.2994
5.0379 4.6911 2.2994
4.9228 4.8119 2.2994
4.8054 4.9305 2.2996
4.6856 5.0467 2.3000
3.6097 4.0821 1.8198
3.3945 4.0315 1.7599
3.3505 4.1808 1.7889
4.1796 5.4827 2.3016
4.0468 5.5841 2.3020
3.9115 5.6824 2.3023
3.7739 5.7775 2.3027
3.6341 5.8694 2.3031
3.4921 5.9579 2.3034
3.3480 6.0431 2.3038
3.2018 6.1249 2.3041
3.0537 6.2033 2.3044
2.9037 6.2781 2.3047
2.7519 6.3493 2.3050
2.5980 6.4159 2.3049
2.4422 6.4781 2.3045
2.3008 6.5819 2.3201
2.1264 6.5915 2.3038
1.9727 6.6635 2.3107
1.8428 6.8284 2.3508
1.7137 7.0218 2.4013
1.5444 7.0676 2.4025
1.3734 7.1063 2.4025
1.2015 7.1410 2.4026
1.0287 7.1718 2.4027
0.8552 7.1984 2.4028
0.6810 7.2210 2.4029
0.5062 7.2394 2.4030
0.3309 7.2537 2.4032
0.1553 7.2639 2.4033
-0.0207 7.2699 2.4034
-0.1968 7.2717 2.4035
-0.3730 7.2694 2.4036
-0.5492 7.2629 2.4037
-0.7254 7.2521 2.4038
-0.9013 7.2373 2.4039
-1.0769 7.2182 2.4040
-1.2522 7.1950 2.4041
-1.4269 7.1675 2.4043
-1.6011 7.1360 2.4044
-1.7746 7.1002 2.4045
-1.9473 7.0603 2.4046
-2.1191 7.0163 2.4048
-2.2899 6.9682 2.4049
-2.4597 6.9160 2.4050
-2.6283 6.8597 2.4051
-2.7956 6.7993 2.4053
-2.9615 6.7349 2.4054
-3.1260 6.6665 2.4055
-3.2886 6.5936 2.4055
-3.4494 6.5167 2.4053
-3.6085 6.4358 2.4052
-3.7657 6.3512 2.4051
-3.9209 6.2627 2.4050
-4.0740 6.1704 2.4049
-4.2250 6.0745 2.4048
-4.3737 5.9748 2.4047
-4.5201 5.8716 2.4045
-4.6640 5.7647 2.4044
-4.8054 5.6544 2.4043
-4.9442 5.5406 2.4042
-5.0802 5.4234 2.4041
-5.2135 5.3029 2.4039
-5.3440 5.1791 2.4038
-5.4714 5.0521 2.4037
-5.5959 4.9220 2.4036
-5.7172 4.7888 2.4034
-5.8353 4.6527 2.4033
-5.9502 4.5136 2.4032
-6.0617 4.3716 2.4031
-6.1699 4.2270 2.4029
-6.2745 4.0796 2.4028
-6.3756 3.9297 2.4027
-6.4730 3.7772 2.4025
-6.5669 3.6224 2.4025
-6.5085 3.3879 2.3487
-6.4545 3.1642 2.2994
-6.5337 3.0096 2.2994
-6.6091 2.8531 2.2994
-6.6807 2.6947 2.2994
-6.7485 2.5344 2.2994
-6.8123 2.3725 2.2994
-6.8723 2.2089 2.2994
-6.9282 2.0439 2.2994
-6.9801 1.8774 2.2994
-7.0279 1.7095 2.2994
-7.0716 1.5405 2.2994
-7.1112 1.3704 2.2994
-7.1466 1.1992 2.2994
-7.1778 1.0271 2.2994
-7.2047 0.8542 2.2994
-7.2274 0.6806 2.2994
-7.2459 0.5064 2.2994
-7.2600 0.3317 2.2994
-7.2699 0.1567 2.2994
-7.2754 -0.0187 2.2994
-7.2766 -0.1942 2.2994
-7.2734 -0.3697 2.2994
-7.2660 -0.5452 2.2994
-7.2541 -0.7205 2.2994
-7.2380 -0.8956 2.2994
-7.2175 -1.0703 2.2994
-7.1926 -1.2445 2.2994
-7.1635 -1.4181 2.2994
-7.1301 -1.5909 2.2994
-7.0923 -1.7630 2.2994
-7.0503 -1.9341 2.2994
-7.0041 -2.1041 2.2994
-6.9536 -2.2731 2.2994
-6.8990 -2.4407 2.2994
-6.8402 -2.6070 2.2994
-6.7772 -2.7718 2.2994
-6.7102 -2.9351 2.2994
-6.6391 -3.0967 2.2994
-6.5640 -3.2565 2.2994
-6.4850 -3.4144 2.2994
-6.4020 -3.5703 2.2994
-6.3152 -3.7241 2.2994
-6.2415 -3.8863 2.3056
-6.1302 -4.0251 2.2994
-6.1785 -4.2734 2.3552
-6.1962 -4.5101 2.4025
-6.0862 -4.6585 2.4025
-5.9725 -4.8040 2.4025
-5.6356 -4.7612 2.4025
-5.5194 -4.8956 2.4025
-5.3998 -5.0271 2.4025
-5.2770 -5.1556 2.4025
-5.1511 -5.2811 2.4025
-5.0221 -5.4033 2.4025
-4.8901 -5.5223 2.4025
-4.7552 -5.6379 2.4025
-4.6175 -5.7502 2.4025
-4.4770 -5.8590 2.4025
-4.3339 -5.9643 2.4025
-4.1883 -6.0659 2.4025
-4.0402 -6.1639 2.4025
-3.8897 -6.2582 2.4025
-3.7370 -6.3487 2.4025
-3.5821 -6.4353 2.4025
-3.4251 -6.5181 2.4025
-3.2662 -6.5969 2.4025
-3.1054 -6.6718 2.4025
-2.9428 -6.7426 2.4025
-2.7786 -6.8093 2.4025
-2.6128 -6.8720 2.4025
-2.4456 -6.9305 2.4025
-2.2770 -6.9848 2.4025
-2.1072 -7.0349 2.4025
-1.9363 -7.0808 2.4025
-1.7643 -7.1224 2.4025
-1.5914 -7.1597 2.4025
-1.4178 -7.1928 2.4025
-1.2434 -7.2215 2.4025
-1.0684 -7.2459 2.4025
-0.8930 -7.2660 2.4025
-0.7172 -7.2817 2.4025
-0.5412 -7.2931 2.4025
-0.3650 -7.3002 2.4025
-0.1888 -7.3029 2.4025
-0.0126 -7.3012 2.4025
0.1633 -7.2953 2.4025
0.3390 -7.2850 2.4025
0.5143 -7.2704 2.4025
0.6891 -7.2515 2.4025
0.8632 -7.2283 2.4025
1.0367 -7.2009 2.4025
1.2093 -7.1693 2.4025
1.3672 -7.0617 2.3783
1.4885 -6.8046 2.3046
1.6474 -6.7467 2.2994
1.8096 -6.7047 2.3008
1.9683 -6.6504 2.2994
2.1268 -6.5965 2.2994
2.2838 -6.5387 2.2994
2.4392 -6.4772 2.2994
2.5930 -6.4119 2.2994
2.7451 -6.3429 2.2994
2.8953 -6.2703 2.2994
3.0437 -6.1941 2.2994
3.1900 -6.1144 2.2994
3.3343 -6.0312 2.2994
3.4764 -5.9446 2.2994
3.6163 -5.8546 2.2994
3.7538 -5.7613 2.2994
3.8890 -5.6648 2.2994
4.0217 -5.5650 2.2994
4.1518 -5.4622 2.2994
4.2794 -5.3563 2.2994
4.4043 -5.2474 2.2994
4.5264 -5.1357 2.2994
4.6457 -5.0210 2.2994
4.7621 -4.9037 2.2994
4.8756 -4.7836 2.2994
4.9861 -4.6609 2.2994
5.0935 -4.5356 2.2994
5.1978 -4.4079 2.2994
5.2989 -4.2779 2.2994
5.3968 -4.1455 2.2994
5.4915 -4.0108 2.2994
5.5828 -3.8741 2.2994
5.6708 -3.7353 2.2994
5.7553 -3.5945 2.2994
5.8364 -3.4518 2.2994
5.9140 -3.3073 2.2994
5.9881 -3.1610 2.2994
6.0587 -3.0132 2.2994
6.1256 -2.8638 2.2994
6.1889 -2.7129 2.2994
6.2485 -2.5606 2.2994
6.3045 -2.4071 2.2994
6.3567 -2.2524 2.2994
6.4053 -2.0965 2.2994
6.4500 -1.9397 2.2994
6.4910 -1.7819 2.2994
6.5282 -1.6232 2.2994
6.5616 -1.4638 2.2994
6.5912 -1.3038 2.2994
6.6170 -1.1432 2.2994
6.6389 -0.9821 2.2994
6.6570 -0.8206 2.2994
6.6713 -0.6588 2.2994
6.6817 -0.4968 2.2994
6.6883 -0.3346 2.2994
6.6910 -0.1725 2.2994
6.6899 -0.0104 2.2994
6.6849 0.1516 2.2994
6.6762 0.3133 2.2994
6.6636 0.4747 2.2994
6.6472 0.6357 2.2994
6.6270 0.7962 2.2994
6.6030 0.9562 2.2994
6.5753 1.1154 2.2994
6.5438 1.2739 2.2994
6.5086 1.4316 2.2994
6.4697 1.5883 2.2994
6.4272 1.7440 2.2994
6.3810 1.8986 2.2994
6.3311 2.0521 2.2994
6.2777 2.2043 2.2994
6.2208 2.3551 2.2994
6.1603 2.5045 2.2994
6.0963 2.6525 2.2994
6.0289 2.7988 2.2994
5.9581 2.9435 2.2994
5.8839 3.0865 2.2994
5.8063 3.2276 2.2994
5.7255 3.3669 2.2994
5.6414 3.5042 2.2994
5.5542 3.6395 2.2994
5.4637 3.7727 2.2994
5.3702 3.9037 2.2994
5.2737 4.0324 2.2994
5.1741 4.1589 2.2994
5.0716 4.2829 2.2994
4.9662 4.4046 2.2994
4.8580 4.5237 2.2994
4.7470 4.6402 2.2994
4.6333 4.7541 2.2994
4.5176 4.8659 2.2997
3.6062 4.0782 1.8854
3.3924 4.0291 1.8239
3.3483 4.1783 1.8540
4.0295 5.2861 2.3012
3.9014 5.3838 2.3016
3.7710 5.4785 2.3019
3.6383 5.5702 2.3023
3.5034 5.6587 2.3026
3.3664 5.7440 2.3030
3.2275 5.8261 2.3033
3.0865 5.9049 2.3036
2.9437 5.9804 2.3039
2.7990 6.0524 2.3043
2.6527 6.1211 2.3046
2.5166 6.2158 2.3158
2.3549 6.2476 2.3050
2.2040 6.3060 2.3054
2.0823 6.4562 2.3403
1.9622 6.6294 2.3842
1.8154 6.7286 2.4025
1.6526 6.7734 2.4025
1.4887 6.8146 2.4026
1.3238 6.8519 2.4027
1.1580 6.8853 2.4028
0.9914 6.9148 2.4029
0.8240 6.9404 2.4030
0.6560 6.9620 2.4031
0.4875 6.9797 2.4032
0.3185 6.9933 2.4033
0.1491 7.0030 2.4034
-0.0205 7.0087 2.4035
-0.1903 7.0103 2.4036
-0.3602 7.0079 2.4037
-0.5301 7.0015 2.4038
-0.6999 6.9910 2.4039
-0.8695 6.9765 2.4040
-1.0388 6.9580 2.4041
-1.2077 6.9354 2.4042
-1.3761 6.9089 2.4044
-1.5440 6.8782 2.4045
-1.7112 6.8436 2.4046
-1.8776 6.8050 2.4047
-2.0432 6.7624 2.4048
-2.2078 6.7159 2.4050
-2.3714 6.6654 2.4051
-2.5338 6.6109 2.4052
-2.6950 6.5526 2.4053
-2.8548 6.4904 2.4055
-3.0131 6.4241 2.4055
-3.1697 6.3536 2.4054
-3.3247 6.2793 2.4053
-3.4779 6.2012 2.4052
-3.6292 6.1195 2.4050
-3.7787 6.0340 2.4049
-3.9262 5.9450 2.4048
-4.0715 5.8524 2.4047
-4.2147 5.7563 2.4046
-4.3556 5.6566 2.4045
-4.4942 5.5536 2.4044
-4.6303 5.4471 2.4042
-4.7639 5.3374 2.4041
-4.8949 5.2244 2.4040
-5.0232 5.1081 2.4039
-5.1487 4.9888 2.4038
-5.2714 4.8663 2.4037
-5.3911 4.7409 2.4035
-5.5079 4.6125 2.4034
-5.6216 4.4812 2.4033
-5.7321 4.3471 2.4032
-5.8394 4.2103 2.4031
-5.9434 4.0709 2.4029
-6.0441 3.9288 2.4028
-6.1413 3.7843 2.4027
-6.2351 3.6374 2.4026
-6.3253 3.4882 2.4025
-6.4121 3.3368 2.4025
-6.3235 3.0991 2.3389
-6.2927 2.8978 2.2994
-6.3652 2.7470 2.2994
-6.4340 2.5944 2.2994
-6.4991 2.4400 2.2994
-6.5604 2.2840 2.2994
-6.6180 2.1265 2.2994
-6.6717 1.9675 2.2994
-6.7215 1.8071 2.2994
-6.7674 1.6455 2.2994
-6.8093 1.4827 2.2994
-6.8473 1.3188 2.2994
-6.8812 1.1540 2.2994
-6.9111 0.9883 2.2994
-6.9369 0.8218 2.2994
-6.9587 0.6547 2.2994
-6.9763 0.4870 2.2994
-6.9898 0.3188 2.2994
-6.9991 0.1503 2.2994
-7.0043 -0.0185 2.2994
-7.0053 -0.1874 2.2994
-7.0022 -0.3564 2.2994
-6.9949 -0.5254 2.2994
-6.9834 -0.6941 2.2994
-6.9677 -0.8626 2.2994
-6.9479 -1.0308 2.2994
-6.9239 -1.1984 2.2994
-6.8957 -1.3655 2.2994
-6.8634 -1.5318 2.2994
-6.8270 -1.6974 2.2994
-6.7865 -1.8621 2.2994
-6.7419 -2.0257 2.2994
-6.6933 -2.1883 2.2994
-6.6406 -2.3496 2.2994
-6.5840 -2.5097 2.2994
-6.5233 -2.6683 2.2994
-6.4588 -2.8254 2.2994
-6.3903 -2.9809 2.2994
-6.3180 -3.1346 2.2994
-6.2419 -3.2866 2.2994
-6.1620 -3.4366 2.2994
-6.0784 -3.5847 2.2994
-6.0039 -3.7385 2.3043
-6.0787 -3.9915 2.3689
-6.0661 -4.1958 2.4025
-5.9638 -4.3411 2.4025
-5.8579 -4.4838 2.4025
-5.7485 -4.6239 2.4025
-5.4305 -4.5879 2.4025
-5.3185 -4.7174 2.4025
-5.2033 -4.8441 2.4025
-5.0850 -4.9679 2.4025
-4.9637 -5.0888 2.4025
-4.8394 -5.2066 2.4025
-4.7122 -5.3212 2.4025
-4.5822 -5.4327 2.4025
-4.4496 -5.5409 2.4025
-4.3142 -5.6457 2.4025
-4.1764 -5.7472 2.4025
-4.0361 -5.8452 2.4025
-3.8934 -5.9396 2.4025
-3.7485 -6.0305 2.4025
-3.6013 -6.1177 2.4025
-3.4521 -6.2013 2.4025
-3.3009 -6.2811 2.4025
-3.1478 -6.3571 2.4025
-2.9929 -6.4293 2.4025
-2.8362 -6.4976 2.4025
-2.6780 -6.5619 2.4025
-2.5183 -6.6224 2.4025
-2.3572 -6.6788 2.4025
-2.1948 -6.7312 2.4025
-2.0312 -6.7796 2.4025
-1.8665 -6.8239 2.4025
-1.7008 -6.8641 2.4025
-1.5342 -6.9002 2.4025
-1.3669 -6.9322 2.4025
-1.1989 -6.9600 2.4025
-1.0303 -6.9836 2.4025
-0.8613 -7.0030 2.4025
-0.6918 -7.0183 2.4025
-0.5222 -7.0294 2.4025
-0.3524 -7.0363 2.4025
-0.1826 -7.0391 2.4025
-0.0128 -7.0376 2.4025
0.1568 -7.0320 2.4025
0.3262 -7.0222 2.4025
0.4951 -7.0083 2.4025
0.6636 -6.9902 2.4025
0.8315 -6.9680 2.4025
0.9987 -6.9417 2.4025
1.1651 -6.9113 2.4025
1.3307 -6.8769 2.4025
1.4772 -6.7560 2.3735
1.5915 -6.5207 2.3051
1.7429 -6.4601 2.2994
1.9033 -6.4333 2.3070
2.0498 -6.3600 2.2994
2.2012 -6.3045 2.2994
2.3511 -6.2453 2.2994
2.4995 -6.1825 2.2994
2.6461 -6.1161 2.2994
2.7910 -6.0463 2.2994
2.9341 -5.9730 2.2994
3.0753 -5.8962 2.2994
3.2145 -5.8161 2.2994
3.3516 -5.7327 2.2994
3.4866 -5.6461 2.2994
3.6193 -5.5562 2.2994
3.7497 -5.4633 2.2994
3.8778 -5.3672 2.2994
4.0034 -5.2682 2.2994
4.1265 -5.1662 2.2994
4.2471 -5.0613 2.2994
4.3649 -4.9536 2.2994
4.4801 -4.8432 2.2994
4.5925 -4.7301 2.2994
4.7021 -4.6144 2.2994
4.8087 -4.4962 2.2994
4.9125 -4.3755 2.2994
5.0132 -4.2524 2.2994
5.1109 -4.1270 2.2994
5.2054 -3.9994 2.2994
5.2969 -3.8696 2.2994
5.3851 -3.7378 2.2994
5.4701 -3.6039 2.2994
5.5518 -3.4682 2.2994
5.6301 -3.3306 2.2994
5.7051 -3.1913 2.2994
5.7767 -3.0503 2.2994
5.8449 -2.9077 2.2994
5.9096 -2.7636 2.2994
5.9708 -2.6181 2.2994
6.0285 -2.4712 2.2994
6.0826 -2.3231 2.2994
6.1332 -2.1739 2.2994
6.1801 -2.0235 2.2994
6.2234 -1.8722 2.2994
6.2631 -1.7200 2.2994
6.2991 -1.5669 2.2994
6.3315 -1.4131 2.2994
6.3602 -1.2587 2.2994
6.3852 -1.1037 2.2994
6.4064 -0.9483 2.2994
6.4240 -0.7924 2.2994
6.4379 -0.6363 2.2994
6.4480 -0.4799 2.2994
6.4545 -0.3235 2.2994
6.4572 -0.1670 2.2994
6.4562 -0.0105 2.2994
6.4516 0.1458 2.2994
6.4432 0.3019 2.2994
6.4311 0.4577 2.2994
6.4154 0.6131 2.2994
6.3960 0.7681 2.2994
6.3729 0.9224 2.2994
6.3462 1.0761 2.2994
6.3159 1.2292 2.2994
6.2820 1.3813 2.2994
6.2446 1.5327 2.2994
6.2036 1.6830 2.2994
6.1590 1.8323 2.2994
6.1110 1.9804 2.2994
6.0595 2.1273 2.2994
6.0046 2.2730 2.2994
5.9462 2.4172 2.2994
5.8845 2.5601 2.2994
5.8195 2.7013 2.2994
5.7511 2.8411 2.2994
5.6795 2.9791 2.2994
5.6047 3.1154 2.2994
5.5267 3.2498 2.2994
5.4455 3.3824 2.2994
5.3613 3.5130 2.2994
5.2741 3.6416 2.2994
5.1838 3.7681 2.2994
5.0906 3.8924 2.2994
4.9945 4.0144 2.2994
4.8955 4.1342 2.2994
4.7938 4.2516 2.2994
4.6893 4.3666 2.2994
4.5822 4.4791 2.2994
4.4724 4.5891 2.2994
4.3601 4.6964 2.2994
3.6026 4.0742 1.9513
3.3902 4.0267 1.8884
3.3461 4.1758 1.9195
3.8888 5.1017 2.3008
3.7651 5.1960 2.3012
3.6392 5.2874 2.3015
3.5111 5.3758 2.3019
3.3809 5.4612 2.3022
3.2486 5.5434 2.3025
3.1144 5.6226 2.3029
2.9784 5.6986 2.3032
2.8405 5.7713 2.3035
2.7008 5.8408 2.3038
2.5888 5.9746 2.3304
2.4167 5.9701 2.3044
2.2978 6.0970 2.3305
2.1906 6.2688 2.3744
2.0628 6.3970 2.4025
1.9079 6.4475 2.4025
1.7518 6.4944 2.4025
1.5946 6.5378 2.4026
1.4364 6.5774 2.4027
1.2772 6.6133 2.4028
1.1172 6.6455 2.4029
0.9563 6.6739 2.4030
0.7948 6.6984 2.4031
0.6326 6.7192 2.4032
0.4699 6.7361 2.4033
0.3068 6.7492 2.4034
0.1433 6.7584 2.4035
-0.0204 6.7638 2.4036
-0.1843 6.7652 2.4037
-0.3482 6.7628 2.4038
-0.5122 6.7565 2.4039
-0.6760 6.7463 2.4040
-0.8397 6.7321 2.4041
-1.0030 6.7141 2.4042
-1.1660 6.6922 2.4043
-1.3285 6.6664 2.4045
-1.4905 6.6367 2.4046
-1.6518 6.6032 2.4047
-1.8123 6.5658 2.4048
-1.9721 6.5245 2.4049
-2.1308 6.4795 2.4050
-2.2886 6.4306 2.4052
-2.4453 6.3779 2.4053
-2.6007 6.3215 2.4054
-2.7549 6.2613 2.4055
-2.9074 6.1969 2.4055
-3.0584 6.1288 2.4054
-3.2078 6.0570 2.4052
-3.3556 5.9815 2.4051
-3.5015 5.9026 2.4050
-3.6456 5.8200 2.4049
-3.7878 5.7340 2.4048
-3.9279 5.6446 2.4047
-4.0659 5.5517 2.4046
-4.2018 5.4555 2.4045
-4.3353 5.3559 2.4043
-4.4665 5.2532 2.4042
-4.5952 5.1472 2.4041
-4.7215 5.0381 2.4040
-4.8451 4.9259 2.4039
-4.9660 4.8106 2.4038
-5.0842 4.6925 2.4037
-5.1996 4.5714 2.4035
-5.3121 4.4474 2.4034
-5.4216 4.3208 2.4033
-5.5281 4.1914 2.4032
-5.6314 4.0594 2.4031
-5.7316 3.9248 2.4030
-5.8286 3.7878 2.4029
-5.9222 3.6484 2.4028
-6.0125 3.5067 2.4027
-6.0994 3.3627 2.4026
-6.1827 3.2166 2.4025
-6.2937 3.0837 2.4143
-6.1523 2.8324 2.3316
-6.1370 2.6478 2.2994
-6.2032 2.5006 2.2994
-6.2659 2.3517 2.2994
-6.3249 2.2013 2.2994
-6.3802 2.0494 2.2994
-6.4318 1.8961 2.2994
-6.4797 1.7415 2.2994
-6.5238 1.5856 2.2994
-6.5641 1.4287 2.2994
-6.6006 1.2707 2.2994
-6.6332 1.1118 2.2994
-6.6618 0.9521 2.2994
-6.6866 0.7916 2.2994
-6.7074 0.6305 2.2994
-6.7243 0.4688 2.2994
-6.7372 0.3068 2.2994
-6.7460 0.1443 2.2994
-6.7509 -0.0183 2.2994
-6.7518 -0.1812 2.2994
-6.7487 -0.3440 2.2994
-6.7415 -0.5068 2.2994
-6.7303 -0.6694 2.2994
-6.7151 -0.8318 2.2994
-6.6959 -0.9938 2.2994
-6.6727 -1.1553 2.2994
-6.6455 -1.3163 2.2994
-6.6143 -1.4766 2.2994
-6.5792 -1.6362 2.2994
-6.5401 -1.7948 2.2994
-6.4970 -1.9525 2.2994
-6.4501 -2.1091 2.2994
-6.3993 -2.2646 2.2994
-6.3446 -2.4187 2.2994
-6.2861 -2.5716 2.2994
-6.2238 -2.7229 2.2994
-6.1578 -2.8727 2.2994
-6.0881 -3.0208 2.2994
-6.0147 -3.1672 2.2994
-5.9377 -3.3118 2.2994
-5.9209 -3.4920 2.3244
-5.9918 -3.7312 2.3865
-5.9404 -3.9008 2.4025
-5.8453 -4.0432 2.4025
-5.7467 -4.1832 2.4025
-5.6447 -4.3207 2.4025
-5.5392 -4.4556 2.4025
-5.2383 -4.4256 2.4025
-5.1303 -4.5505 2.4025
-5.0192 -4.6727 2.4025
-4.9051 -4.7922 2.4025
-4.7881 -4.9087 2.4025
-4.6682 -5.0223 2.4025
-4.5456 -5.1330 2.4025
-4.4202 -5.2405 2.4025
-4.2923 -5.3448 2.4025
-4.1618 -5.4460 2.4025
-4.0289 -5.5439 2.4025
-3.8935 -5.6384 2.4025
-3.7559 -5.7295 2.4025
-3.6162 -5.8172 2.4025
-3.4743 -5.9014 2.4025
-3.3304 -5.9820 2.4025
-3.1845 -6.0591 2.4025
-3.0369 -6.1324 2.4025
-2.8875 -6.2021 2.4025
-2.7364 -6.2680 2.4025
-2.5838 -6.3302 2.4025
-2.4298 -6.3886 2.4025
-2.2744 -6.4431 2.4025
-2.1178 -6.4937 2.4025
-1.9600 -6.5405 2.4025
-1.8011 -6.5833 2.4025
-1.6413 -6.6222 2.4025
-1.4806 -6.6571 2.4025
-1.3192 -6.6880 2.4025
-1.1572 -6.7149 2.4025
-0.9945 -6.7378 2.4025
-0.8315 -6.7567 2.4025
-0.6680 -6.7715 2.4025
-0.5044 -6.7823 2.4025
-0.3406 -6.7891 2.4025
-0.1767 -6.7918 2.4025
-0.0129 -6.7905 2.4025
0.1507 -6.7852 2.4025
0.3141 -6.7759 2.4025
0.4771 -6.7626 2.4025
0.6397 -6.7453 2.4025
0.8017 -6.7240 2.4025
0.9631 -6.6987 2.4025
1.1237 -6.6696 2.4025
1.2835 -6.6365 2.4025
1.4423 -6.5996 2.4025
1.5797 -6.4750 2.3718
1.6871 -6.2557 2.3072
1.8301 -6.1882 2.2994
1.9904 -6.1780 2.3142
2.1238 -6.0848 2.2994
2.2685 -6.0278 2.2994
2.4117 -5.9674 2.2994
2.5533 -5.9034 2.2994
2.6933 -5.8361 2.2994
2.8314 -5.7655 2.2994
2.9678 -5.6916 2.2994
3.1022 -5.6144 2.2994
3.2346 -5.5340 2.2994
3.3649 -5.4505 2.2994
3.4931 -5.3639 2.2994
3.6191 -5.2743 2.2994
3.7428 -5.1817 2.2994
3.8642 -5.0862 2.2994
3.9831 -4.9878 2.2994
4.0996 -4.8867 2.2994
4.2134 -4.7828 2.2994
4.3247 -4.6763 2.2994
4.4333 -4.5672 2.2994
4.5392 -4.4556 2.2994
4.6423 -4.3416 2.2994
4.7426 -4.2251 2.2994
4.8399 -4.1064 2.2994
4.9344 -3.9854 2.2994
5.0258 -3.8623 2.2994
5.1142 -3.7370 2.2994
5.1995 -3.6098 2.2994
5.2817 -3.4807 2.2994
5.3607 -3.3496 2.2994
5.4365 -3.2168 2.2994
5.5090 -3.0823 2.2994
5.5783 -2.9462 2.2994
5.6442 -2.8086 2.2994
5.7068 -2.6695 2.2994
5.7660 -2.5290 2.2994
5.8219 -2.3872 2.2994
5.8742 -2.2442 2.2994
5.9232 -2.1001 2.2994
5.9686 -1.9549 2.2994
6.0106 -1.8088 2.2994
6.0490 -1.6618 2.2994
6.0839 -1.5140 2.2994
6.1153 -1.3655 2.2994
6.1431 -1.2163 2.2994
6.1673 -1.0667 2.2994
6.1880 -0.9165 2.2994
6.2051 -0.7660 2.2994
6.2186 -0.6152 2.2994
6.2285 -0.4641 2.2994
6.2348 -0.3130 2.2994
6.2376 -0.1618 2.2994
6.2367 -0.0106 2.2994
6.2323 0.1404 2.2994
6.2243 0.2912 2.2994
6.2127 0.4417 2.2994
6.1976 0.5919 2.2994
6.1789 0.7416 2.2994
6.1567 0.8907 2.2994
6.1310 1.0393 2.2994
6.1018 1.1871 2.2994
6.0691 1.3342 2.2994
6.0330 1.4804 2.2994
5.9934 1.6256 2.2994
5.9504 1.7699 2.2994
5.9041 1.9130 2.2994
5.8543 2.0550 2.2994
5.8013 2.1957 2.2994
5.7450 2.3352 2.2994
5.6854 2.4732 2.2994
5.6226 2.6097 2.2994
5.5566 2.7447 2.2994
5.4874 2.8781 2.2994
5.4151 3.0098 2.2994
5.3398 3.1398 2.2994
5.2614 3.2679 2.2994
5.1801 3.3941 2.2994
5.0957 3.5183 2.2994
5.0085 3.6406 2.2994
4.9185 3.7607 2.2994
4.8256 3.8787 2.2994
4.7300 3.9944 2.2994
4.6317 4.1079 2.2994
4.5308 4.2190 2.2994
4.4272 4.3277 2.2994
4.3212 4.4339 2.2994
4.2126 4.5376 2.2994
3.5990 4.0703 2.0176
3.3880 4.0242 1.9533
3.3440 4.1732 1.9854
3.7566 4.9285 2.3005
3.6371 5.0195 2.3008
3.5154 5.1078 2.3012
3.3916 5.1931 2.3015
3.2657 5.2755 2.3018
3.1379 5.3550 2.3021
3.0083 5.4314 2.3024
2.8768 5.5047 2.3027
2.7495 5.5870 2.3080
2.6086 5.6421 2.3034
2.4721 5.7061 2.3037
2.3719 5.8601 2.3413
2.2891 6.0748 2.4035
2.1410 6.1280 2.4025
1.9925 6.1803 2.4025
1.8429 6.2292 2.4026
1.6921 6.2745 2.4027
1.5402 6.3163 2.4027
1.3873 6.3545 2.4028
1.2334 6.3891 2.4029
1.0788 6.4201 2.4030
0.9234 6.4474 2.4031
0.7673 6.4711 2.4032
0.6106 6.4910 2.4033
0.4534 6.5073 2.4034
0.2958 6.5198 2.4035
0.1379 6.5286 2.4036
-0.0203 6.5336 2.4037
-0.1786 6.5349 2.4038
-0.3370 6.5325 2.4039
-0.4953 6.5263 2.4040
-0.6536 6.5163 2.4041
-0.8117 6.5026 2.4042
-0.9695 6.4850 2.4043
-1.1269 6.4637 2.4044
-1.2838 6.4387 2.4045
-1.4402 6.4099 2.4047
-1.5960 6.3773 2.4048
-1.7510 6.3411 2.4049
-1.9052 6.3011 2.4050
-2.0586 6.2574 2.4051
-2.2109 6.2101 2.4052
-2.3621 6.1591 2.4053
-2.5122 6.1045 2.4055
-2.6610 6.0461 2.4055
-2.8082 5.9837 2.4054
-2.9539 5.9178 2.4053
-3.0982 5.8483 2.4052
-3.2407 5.7753 2.4051
-3.3816 5.6990 2.4050
-3.5207 5.6192 2.4049
-3.6579 5.5360 2.4048
-3.7931 5.4495 2.4047
-3.9263 5.3597 2.4046
-4.0574 5.2667 2.4045
-4.1862 5.1705 2.4043
-4.3128 5.0712 2.4042
-4.4370 4.9688 2.4041
-4.5587 4.8633 2.4040
-4.6780 4.7549 2.4039
-4.7947 4.6436 2.4038
-4.9087 4.5294 2.4037
-5.0199 4.4124 2.4036
-5.1284 4.2927 2.4035
-5.2340 4.1703 2.4034
-5.3367 4.0453 2.4033
-5.4364 3.9178 2.4032
-5.5330 3.7879 2.4031
-5.6264 3.6556 2.4030
-5.7167 3.5210 2.4029
-5.8038 3.3841 2.4028
-5.8875 3.2451 2.4027
-5.9678 3.1040 2.4026
-6.0448 2.9609 2.4025
-6.1233 2.8182 2.4044
-5.9926 2.5847 2.3263
-5.9869 2.4126 2.2994
-6.0472 2.2689 2.2994
-6.1040 2.1237 2.2994
-6.1573 1.9771 2.2994
-6.2070 1.8291 2.2994
-6.2531 1.6799 2.2994
-6.2955 1.5295 2.2994
-6.3343 1.3780 2.2994
-6.3693 1.2256 2.2994
-6.4007 1.0722 2.2994
-6.4282 0.9181 2.2994
-6.4520 0.7632 2.2994
-6.4720 0.6078 2.2994
-6.4881 0.4518 2.2994
-6.5004 0.2954 2.2994
-6.5089 0.1387 2.2994
-6.5135 -0.0182 2.2994
-6.5143 -0.1753 2.2994
-6.5112 -0.3324 2.2994
-6.5042 -0.4894 2.2994
-6.4933 -0.6463 2.2994
-6.4785 -0.8029 2.2994
-6.4599 -0.9592 2.2994
-6.4374 -1.1150 2.2994
-6.4111 -1.2703 2.2994
-6.3810 -1.4249 2.2994
-6.3470 -1.5788 2.2994
-6.3092 -1.7318 2.2994
-6.2676 -1.8839 2.2994
-6.2223 -2.0349 2.2994
-6.1732 -2.1849 2.2994
-6.1204 -2.3336 2.2994
-6.0639 -2.4810 2.2994
-6.0038 -2.6269 2.2994
-5.9401 -2.7714 2.2994
-5.8728 -2.9142 2.2994
-5.8020 -3.0554 2.2994
-5.8425 -3.2588 2.3454
-5.9033 -3.4818 2.4025
-5.8185 -3.6234 2.4025
-5.7302 -3.7629 2.4025
-5.6385 -3.9003 2.4025
-5.5434 -4.0353 2.4025
-5.4449 -4.1679 2.4025
-5.3432 -4.2980 2.4025
-5.0580 -4.2733 2.4025
-4.9537 -4.3939 2.4025
-4.8464 -4.5119 2.4025
-4.7363 -4.6272 2.4025
-4.6233 -4.7397 2.4025
-4.5076 -4.8494 2.4025
-4.3892 -4.9562 2.4025
-4.2682 -5.0600 2.4025
-4.1447 -5.1608 2.4025
-4.0187 -5.2585 2.4025
-3.8904 -5.3530 2.4025
-3.7597 -5.4443 2.4025
-3.6269 -5.5323 2.4025
-3.4920 -5.6170 2.4025
-3.3550 -5.6983 2.4025
-3.2161 -5.7762 2.4025
-3.0753 -5.8506 2.4025
-2.9327 -5.9215 2.4025
-2.7885 -5.9888 2.4025
-2.6427 -6.0526 2.4025
-2.4954 -6.1127 2.4025
-2.3467 -6.1691 2.4025
-2.1967 -6.2218 2.4025
-2.0454 -6.2707 2.4025
-1.8931 -6.3159 2.4025
-1.7397 -6.3574 2.4025
-1.5854 -6.3950 2.4025
-1.4303 -6.4287 2.4025
-1.2745 -6.4587 2.4025
-1.1180 -6.4847 2.4025
-0.9610 -6.5069 2.4025
-0.8035 -6.5253 2.4025
-0.6457 -6.5397 2.4025
-0.4877 -6.5502 2.4025
-0.3295 -6.5569 2.4025
-0.1712 -6.5596 2.4025
-0.0130 -6.5585 2.4025
0.1450 -6.5535 2.4025
0.3028 -6.5446 2.4025
0.4602 -6.5318 2.4025
0.6173 -6.5152 2.4025
0.7738 -6.4948 2.4025
0.9296 -6.4705 2.4025
1.0848 -6.4425 2.4025
1.2391 -6.4106 2.4025
1.3926 -6.3750 2.4025
1.5450 -6.3358 2.4025
1.6747 -6.2125 2.3718
1.7759 -6.0073 2.3106
1.9098 -5.9300 2.2994
2.0715 -5.9372 2.3224
2.1909 -5.8235 2.2994
2.3293 -5.7652 2.2994
2.4661 -5.7035 2.2994
2.6014 -5.6386 2.2994
2.7349 -5.5705 2.2994
2.8667 -5.4992 2.2994
2.9966 -5.4247 2.2994
3.1246 -5.3472 2.2994
3.2506 -5.2666 2.2994
3.3745 -5.1831 2.2994
3.4963 -5.0966 2.2994
3.6159 -5.0072 2.2994
3.7333 -4.9150 2.2994
3.8482 -4.8201 2.2994
3.9608 -4.7225 2.2994
4.0710 -4.6222 2.2994
4.1786 -4.5194 2.2994
4.2837 -4.4141 2.2994
4.3861 -4.3063 2.2994
4.4858 -4.1962 2.2994
4.5828 -4.0837 2.2994
4.6770 -3.9691 2.2994
4.7683 -3.8522 2.2994
4.8568 -3.7333 2.2994
4.9423 -3.6123 2.2994
5.0249 -3.4894 2.2994
5.1044 -3.3647 2.2994
5.1808 -3.2381 2.2994
5.2542 -3.1098 2.2994
5.3244 -2.9799 2.2994
5.3915 -2.8483 2.2994
5.4553 -2.7153 2.2994
5.5160 -2.5809 2.2994
5.5733 -2.4452 2.2994
5.6274 -2.3082 2.2994
5.6781 -2.1700 2.2994
5.7255 -2.0307 2.2994
5.7696 -1.8904 2.2994
5.8102 -1.7492 2.2994
5.8475 -1.6071 2.2994
5.8814 -1.4642 2.2994
5.9118 -1.3206 2.2994
5.9388 -1.1765 2.2994
5.9623 -1.0317 2.2994
5.9824 -0.8866 2.2994
5.9990 -0.7411 2.2994
6.0121 -0.5953 2.2994
6.0218 -0.4492 2.2994
6.0280 -0.3031 2.2994
6.0307 -0.1569 2.2994
6.0300 -0.0108 2.2994
6.0258 0.1353 2.2994
6.0181 0.2811 2.2994
6.0070 0.4267 2.2994
5.9924 0.5719 2.2994
5.9744 0.7166 2.2994
5.9530 0.8609 2.2994
5.9283 1.0045 2.2994
5.9001 1.1475 2.2994
5.8685 1.2897 2.2994
5.8336 1.4311 2.2994
5.7954 1.5716 2.2994
5.7539 1.7111 2.2994
5.7091 1.8496 2.2994
5.6611 1.9869 2.2994
5.6099 2.1230 2.2994
5.5554 2.2579 2.2994
5.4978 2.3913 2.2994
5.4371 2.5234 2.2994
5.3733 2.6540 2.2994
5.3065 2.7830 2.2994
5.2366 2.9104 2.2994
5.1637 3.0361 2.2994
5.0880 3.1600 2.2994
5.0093 3.2821 2.2994
4.9278 3.4023 2.2994
4.8434 3.5205 2.2994
4.7563 3.6367 2.2994
4.6666 3.7508 2.2994
4.5741 3.8627 2.2994
4.4790 3.9724 2.2994
4.3814 4.0799 2.2994
4.2812 4.1850 2.2994
4.1787 4.2878 2.2994
4.0737 4.3880 2.2994
3.5954 4.0663 2.0843
3.3859 4.0218 2.0186
3.3418 4.1706 2.0519
3.6321 4.7653 2.3002
3.5165 4.8533 2.3005
3.3987 4.9386 2.3008
3.2790 5.0211 2.3011
3.1573 5.1007 2.3014
3.0337 5.1775 2.3017
2.9083 5.2513 2.3020
2.8087 5.3751 2.3252
2.6523 5.3901 2.3027
2.5281 5.4687 2.3088
2.4428 5.6390 2.3543
2.3531 5.8147 2.4025
2.2122 5.8718 2.4025
2.0699 5.9257 2.4025
1.9264 5.9764 2.4026
1.7817 6.0236 2.4027
1.6358 6.0674 2.4028
1.4889 6.1077 2.4029
1.3410 6.1446 2.4029
1.1922 6.1780 2.4030
1.0427 6.2078 2.4031
0.8923 6.2342 2.4032
0.7414 6.2570 2.4033
0.5899 6.2762 2.4034
0.4379 6.2918 2.4035
0.2855 6.3038 2.4036
0.1328 6.3122 2.4037
-0.0201 6.3170 2.4038
-0.1732 6.3181 2.4039
-0.3264 6.3156 2.4040
-0.4795 6.3095 2.4041
-0.6325 6.2998 2.4042
-0.7853 6.2864 2.4043
-0.9378 6.2693 2.4044
-1.0900 6.2486 2.4045
-1.2417 6.2243 2.4046
-1.3929 6.1963 2.4047
-1.5435 6.1648 2.4048
-1.6933 6.1296 2.4049
-1.8424 6.0908 2.4051
-1.9905 6.0485 2.4052
-2.1377 6.0026 2.4053
-2.2839 5.9532 2.4054
-2.4289 5.9002 2.4055
-2.5726 5.8435 2.4055
-2.7148 5.7831 2.4054
-2.8556 5.7192 2.4053
-2.9950 5.6520 2.4052
-3.1327 5.5814 2.4051
-3.2688 5.5074 2.4050
-3.4032 5.4302 2.4049
-3.5357 5.3497 2.4048
-3.6663 5.2660 2.4047
-3.7950 5.1792 2.4045
-3.9215 5.0892 2.4044
-4.0460 4.9961 2.4043
-4.1682 4.9000 2.4042
-4.2882 4.8010 2.4041
-4.4057 4.6990 2.4040
-4.5209 4.5941 2.4039
-4.6335 4.4864 2.4038
-4.7436 4.3760 2.4037
-4.8510 4.2629 2.4036
-4.9558 4.1472 2.4035
-5.0577 4.0289 2.4034
-5.1568 3.9081 2.4033
-5.2530 3.7848 2.4032
-5.3462 3.6592 2.4031
-5.4365 3.5313 2.4030
-5.5236 3.4011 2.4029
-5.6075 3.2688 2.4028
-5.6883 3.1345 2.4027
-5.7658 2.9981 2.4026
-5.8401 2.8598 2.4025
-5.9109 2.7197 2.4025
-5.9647 2.5719 2.3969
-5.8428 2.3539 2.3229
-5.8417 2.1912 2.2994
-5.8965 2.0509 2.2994
-5.9479 1.9092 2.2994
-5.9958 1.7662 2.2994
-6.0402 1.6220 2.2994
-6.0810 1.4768 2.2994
-6.1184 1.3304 2.2994
-6.1521 1.1832 2.2994
-6.1823 1.0351 2.2994
-6.2088 0.8862 2.2994
-6.2316 0.7366 2.2994
-6.2508 0.5865 2.2994
-6.2663 0.4359 2.2994
-6.2781 0.2848 2.2994
-6.2862 0.1335 2.2994
-6.2906 -0.0181 2.2994
-6.2912 -0.1698 2.2994
-6.2881 -0.3215 2.2994
-6.2813 -0.4731 2.2994
-6.2707 -0.6246 2.2994
-6.2563 -0.7758 2.2994
-6.2383 -0.9267 2.2994
-6.2165 -1.0772 2.2994
-6.1910 -1.2271 2.2994
-6.1618 -1.3764 2.2994
-6.1290 -1.5249 2.2994
-6.0924 -1.6726 2.2994
-6.0522 -1.8195 2.2994
-6.0084 -1.9653 2.2994
-5.9609 -2.1100 2.2994
-5.9099 -2.2536 2.2994
-5.8554 -2.3959 2.2994
-5.8041 -2.5398 2.3021
-5.7357 -2.6763 2.2994
-5.7090 -2.8332 2.3149
-5.7679 -3.0377 2.3673
-5.7785 -3.2233 2.4025
-5.7000 -3.3621 2.4025
-5.6182 -3.4988 2.4025
-5.5329 -3.6335 2.4025
-5.4443 -3.7661 2.4025
-5.3525 -3.8964 2.4025
-5.2575 -4.0245 2.4025
-5.1593 -4.1501 2.4025
-4.8883 -4.1299 2.4025
-4.7875 -4.2465 2.4025
-4.6839 -4.3605 2.4025
-4.5774 -4.4720 2.4025
-4.4683 -4.5807 2.4025
-4.3565 -4.6867 2.4025
-4.2421 -4.7900 2.4025
-4.1251 -4.8903 2.4025
-4.0058 -4.9877 2.4025
-3.8841 -5.0821 2.4025
-3.7601 -5.1735 2.4025
-3.6338 -5.2617 2.4025
-3.5055 -5.3468 2.4025
-3.3751 -5.4287 2.4025
-3.2428 -5.5073 2.4025
-3.1085 -5.5826 2.4025
-2.9725 -5.6545 2.4025
-2.8348 -5.7231 2.4025
-2.6954 -5.7882 2.4025
-2.5545 -5.8498 2.4025
-2.4122 -5.9079 2.4025
-2.2685 -5.9625 2.4025
-2.1235 -6.0135 2.4025
-1.9774 -6.0609 2.4025
-1.8302 -6.1047 2.4025
-1.6820 -6.1448 2.4025
-1.5329 -6.1812 2.4025
-1.3830 -6.2139 2.4025
-1.2323 -6.2429 2.4025
-1.0811 -6.2682 2.4025
-0.9294 -6.2897 2.4025
-0.7772 -6.3075 2.4025
-0.6247 -6.3215 2.4025
-0.4719 -6.3318 2.4025
-0.3190 -6.3383 2.4025
-0.1661 -6.3411 2.4025
-0.0132 -6.3401 2.4025
0.1396 -6.3353 2.4025
0.2921 -6.3268 2.4025
0.4444 -6.3146 2.4025
0.5961 -6.2986 2.4025
0.7474 -6.2790 2.4025
0.8981 -6.2556 2.4025
1.0481 -6.2286 2.4025
1.1974 -6.1979 2.4025
1.3457 -6.1637 2.4025
1.4931 -6.1258 2.4025
1.6395 -6.0843 2.4025
1.7631 -5.9663 2.3734
1.8588 -5.7736 2.3153
1.9825 -5.6840 2.2994
2.1178 -5.6310 2.2994
2.2516 -5.5747 2.2994
2.3840 -5.5153 2.2994
2.5148 -5.4526 2.2994
2.6440 -5.3868 2.2994
2.7714 -5.3180 2.2994
2.8971 -5.2461 2.2994
3.0209 -5.1712 2.2994
3.1428 -5.0934 2.2994
3.2628 -5.0127 2.2994
3.3806 -4.9291 2.2994
3.4963 -4.8428 2.2994
3.6099 -4.7538 2.2994
3.7212 -4.6621 2.2994
3.8301 -4.5677 2.2994
3.9367 -4.4709 2.2994
4.0409 -4.3715 2.2994
4.1426 -4.2697 2.2994
4.2417 -4.1656 2.2994
4.3383 -4.0591 2.2994
4.4322 -3.9504 2.2994
4.5234 -3.8396 2.2994
4.6118 -3.7267 2.2994
4.6975 -3.6117 2.2994
4.7803 -3.4948 2.2994
4.8602 -3.3759 2.2994
4.9373 -3.2553 2.2994
5.0113 -3.1329 2.2994
5.0824 -3.0089 2.2994
5.1504 -2.8832 2.2994
5.2154 -2.7560 2.2994
5.2773 -2.6274 2.2994
5.3360 -2.4974 2.2994
5.3916 -2.3661 2.2994
5.4440 -2.2336 2.2994
5.4932 -2.1000 2.2994
5.5391 -1.9652 2.2994
5.5818 -1.8295 2.2994
5.6213 -1.6929 2.2994
5.6574 -1.5554 2.2994
5.6903 -1.4172 2.2994
5.7198 -1.2783 2.2994
5.7460 -1.1388 2.2994
5.7689 -0.9988 2.2994
5.7884 -0.8584 2.2994
5.8045 -0.7176 2.2994
5.8173 -0.5765 2.2994
5.8268 -0.4352 2.2994
5.8329 -0.2938 2.2994
5.8356 -0.1523 2.2994
5.8349 -0.0109 2.2994
5.8309 0.1304 2.2994
5.8236 0.2716 2.2994
5.8129 0.4124 2.2994
5.7989 0.5530 2.2994
5.7815 0.6931 2.2994
5.7609 0.8327 2.2994
5.7369 0.9717 2.2994
5.7097 1.1101 2.2994
5.6793 1.2478 2.2994
5.6455 1.3846 2.2994
5.6086 1.5206 2.2994
5.5685 1.6557 2.2994
5.5252 1.7897 2.2994
5.4787 1.9226 2.2994
5.4292 2.0544 2.2994
5.3765 2.1849 2.2994
5.3208 2.3141 2.2994
5.2621 2.4420 2.2994
5.2004 2.5684 2.2994
5.1357 2.6933 2.2994
5.0681 2.8166 2.2994
4.9976 2.9382 2.2994
4.9242 3.0582 2.2994
4.8481 3.1763 2.2994
4.7692 3.2927 2.2994
4.6876 3.4071 2.2994
4.6033 3.5196 2.2994
4.5164 3.6300 2.2994
4.4269 3.7384 2.2994
4.3349 3.8446 2.2994
4.2404 3.9486 2.2994
4.1434 4.0503 2.2994
4.0441 4.1498 2.2994
3.9425 4.2469 2.2994
3.5917 4.0623 2.1515
3.3837 4.0193 2.0845
3.3395 4.1680 2.1187
3.5146 4.6114 2.2998
3.4027 4.6965 2.3002
3.2887 4.7790 2.3005
3.1728 4.8588 2.3008
3.0550 4.9358 2.3011
2.9469 5.0298 2.3104
2.8140 5.0815 2.3017
2.6909 5.1500 2.3020
2.5893 5.2627 2.3231
2.5110 5.4323 2.3697
2.4121 5.5689 2.4025
2.2770 5.6273 2.4025
2.1406 5.6827 2.4025
2.0029 5.7349 2.4026
1.8640 5.7839 2.4027
1.7239 5.8295 2.4028
1.5827 5.8719 2.4029
1.4405 5.9109 2.4030
1.2973 5.9465 2.4030
1.1533 5.9787 2.4031
1.0086 6.0075 2.4032
0.8631 6.0329 2.4033
0.7170 6.0549 2.4034
0.5703 6.0734 2.4035
0.4232 6.0884 2.4036
0.2758 6.1000 2.4037
0.1280 6.1080 2.4038
-0.0200 6.1125 2.4038
-0.1682 6.1135 2.4039
-0.3164 6.1110 2.4040
-0.4645 6.1050 2.4041
-0.6126 6.0955 2.4043
-0.7604 6.0824 2.4044
-0.9080 6.0658 2.4045
-1.0552 6.0457 2.4046
-1.2020 6.0220 2.4047
-1.3483 5.9949 2.4048
-1.4939 5.9643 2.4049
-1.6389 5.9301 2.4050
-1.7831 5.8925 2.4051
-1.9264 5.8515 2.4052
-2.0688 5.8069 2.4053
-2.2101 5.7590 2.4054
-2.3504 5.7076 2.4055
-2.4892 5.6524 2.4054
-2.6268 5.5939 2.4053
-2.7630 5.5320 2.4052
-2.8977 5.4669 2.4051
-3.0309 5.3985 2.4050
-3.1625 5.3269 2.4049
-3.2924 5.2521 2.4048
-3.4205 5.1741 2.4047
-3.5468 5.0931 2.4046
-3.6712 5.0090 2.4045
-3.7935 4.9219 2.4044
-3.9138 4.8318 2.4043
-4.0320 4.7388 2.4042
-4.1479 4.6429 2.4041
-4.2616 4.5441 2.4040
-4.3729 4.4426 2.4039
-4.4817 4.3384 2.4038
-4.5881 4.2316 2.4037
-4.6919 4.1221 2.4036
-4.7931 4.0101 2.4035
-4.8916 3.8956 2.4034
-4.9874 3.7787 2.4034
-5.0803 3.6595 2.4033
-5.1703 3.5379 2.4032
-5.2575 3.4142 2.4031
-5.3416 3.2883 2.4030
-5.4227 3.1603 2.4029
-5.5007 3.0303 2.4028
-5.5756 2.8984 2.4027
-5.6473 2.7647 2.4026
-5.7157 2.6291 2.4025
-5.7809 2.4919 2.4025
-5.8181 2.3432 2.3923
-5.7490 2.1557 2.3404
-5.7011 1.9822 2.2994
-5.7507 1.8452 2.2994
-5.8088 1.7105 2.3041
-5.8397 1.5676 2.2994
-5.8791 1.4271 2.2994
-5.9151 1.2856 2.2994
-5.9476 1.1433 2.2994
-5.9767 1.0001 2.2994
-6.0022 0.8561 2.2994
-6.0242 0.7116 2.2994
-6.0427 0.5664 2.2994
-6.0576 0.4208 2.2994
-6.0689 0.2748 2.2994
-6.0766 0.1285 2.2994
-6.0807 -0.0180 2.2994
-6.0813 -0.1646 2.2994
-6.0782 -0.3112 2.2994
-6.0715 -0.4577 2.2994
-6.0612 -0.6042 2.2994
-6.0473 -0.7503 2.2994
-6.0298 -0.8961 2.2994
-6.0086 -1.0415 2.2994
-5.9839 -1.1864 2.2994
-5.9557 -1.3307 2.2994
-5.9238 -1.4742 2.2994
-5.8885 -1.6170 2.2994
-5.8495 -1.7589 2.2994
-5.8071 -1.8998 2.2994
-5.7612 -2.0396 2.2994
-5.7119 -2.1784 2.2994
-5.6591 -2.3159 2.2994
-5.6030 -2.4520 2.2994
-5.6400 -2.6318 2.3394
-5.6967 -2.8273 2.3901
-5.6572 -2.9796 2.4025
-5.5847 -3.1154 2.4025
-5.5089 -3.2495 2.4025
-5.4297 -3.3816 2.4025
-5.3473 -3.5118 2.4025
-5.2617 -3.6399 2.4025
-5.1730 -3.7658 2.4025
-5.0811 -3.8895 2.4025
-4.9862 -4.0109 2.4025
-4.7284 -3.9949 2.4025
-4.6309 -4.1076 2.4025
-4.5307 -4.2179 2.4025
-4.4277 -4.3257 2.4025
-4.3221 -4.4308 2.4025
-4.2140 -4.5334 2.4025
-4.1034 -4.6332 2.4025
-3.9903 -4.7303 2.4025
-3.8749 -4.8245 2.4025
-3.7572 -4.9158 2.4025
-3.6372 -5.0042 2.4025
-3.5152 -5.0896 2.4025
-3.3911 -5.1719 2.4025
-3.2650 -5.2511 2.4025
-3.1370 -5.3272 2.4025
-3.0072 -5.4000 2.4025
-2.8756 -5.4697 2.4025
-2.7424 -5.5360 2.4025
-2.6076 -5.5990 2.4025
-2.4714 -5.6587 2.4025
-2.3337 -5.7149 2.4025
-2.1948 -5.7678 2.4025
-2.0546 -5.8172 2.4025
-1.9132 -5.8631 2.4025
-1.7708 -5.9054 2.4025
-1.6275 -5.9443 2.4025
-1.4833 -5.9796 2.4025
-1.3383 -6.0113 2.4025
-1.1926 -6.0394 2.4025
-1.0464 -6.0639 2.4025
-0.8996 -6.0849 2.4025
-0.7524 -6.1021 2.4025
-0.6048 -6.1158 2.4025
-0.4571 -6.1258 2.4025
-0.3092 -6.1322 2.4025
-0.1612 -6.1349 2.4025
-0.0133 -6.1341 2.4025
0.1345 -6.1296 2.4025
0.2821 -6.1214 2.4025
0.4294 -6.1097 2.4025
0.5762 -6.0943 2.4025
0.7226 -6.0754 2.4025
0.8684 -6.0529 2.4025
1.0136 -6.0269 2.4025
1.1580 -5.9973 2.4025
1.3015 -5.9642 2.4025
1.4442 -5.9277 2.4025
1.5858 -5.8877 2.4025
1.7264 -5.8442 2.4025
1.8461 -5.7363 2.3771
1.9362 -5.5531 2.3213
2.0488 -5.4494 2.2994
2.1783 -5.3950 2.2994
2.3065 -5.3376 2.2994
2.4331 -5.2771 2.2994
2.5581 -5.2135 2.2994
2.6815 -5.1470 2.2994
2.8032 -5.0775 2.2994
2.9231 -5.0051 2.2994
3.0412 -4.9299 2.2994
3.1573 -4.8519 2.2994
3.2714 -4.7711 2.2994
3.3835 -4.6876 2.2994
3.4934 -4.6015 2.2994
3.6012 -4.5129 2.2994
3.7067 -4.4216 2.2994
3.8100 -4.3280 2.2994
3.9109 -4.2319 2.2994
4.0094 -4.1334 2.2994
4.1054 -4.0327 2.2994
4.1990 -3.9297 2.2994
4.2899 -3.8246 2.2994
4.3783 -3.7173 2.2994
4.4640 -3.6081 2.2994
4.5470 -3.4969 2.2994
4.6273 -3.3837 2.2994
4.7047 -3.2687 2.2994
4.7794 -3.1520 2.2994
4.8512 -3.0336 2.2994
4.9201 -2.9135 2.2994
4.9860 -2.7919 2.2994
5.0490 -2.6689 2.2994
5.1090 -2.5444 2.2994
5.1660 -2.4185 2.2994
5.2199 -2.2915 2.2994
5.2707 -2.1632 2.2994
5.3184 -2.0338 2.2994
5.3630 -1.9034 2.2994
5.4044 -1.7720 2.2994
5.4427 -1.6397 2.2994
5.4778 -1.5066 2.2994
5.5097 -1.3728 2.2994
5.5384 -1.2383 2.2994
5.5638 -1.1033 2.2994
5.5860 -0.9677 2.2994
5.6050 -0.8317 2.2994
5.6207 -0.6954 2.2994
5.6332 -0.5587 2.2994
5.6424 -0.4219 2.2994
5.6484 -0.2850 2.2994
5.6511 -0.1480 2.2994
5.6505 -0.0110 2.2994
5.6467 0.1259 2.2994
5.6397 0.2626 2.2994
5.6294 0.3990 2.2994
5.6159 0.5351 2.2994
5.5992 0.6708 2.2994
5.5792 0.8060 2.2994
5.5561 0.9407 2.2994
5.5298 1.0748 2.2994
5.5003 1.2081 2.2994
5.4677 1.3407 2.2994
5.4320 1.4724 2.2994
5.3931 1.6032 2.2994
5.3512 1.7330 2.2994
5.3063 1.8618 2.2994
5.2583 1.9894 2.2994
5.2074 2.1159 2.2994
5.1534 2.2411 2.2994
5.0966 2.3649 2.2994
5.0368 2.4874 2.2994
4.9742 2.6084 2.2994
4.9087 2.7278 2.2994
4.8404 2.8457 2.2994
4.7694 2.9619 2.2994
4.6957 3.0764 2.2994
4.6193 3.1891 2.2994
4.5402 3.2999 2.2994
4.4586 3.4088 2.2994
4.3744 3.5158 2.2994
4.2877 3.6208 2.2994
4.1986 3.7237 2.2994
4.1070 3.8244 2.2994
4.0131 3.9230 2.2994
3.9169 4.0193 2.2994
3.8185 4.1133 2.2994
3.5881 4.0582 2.2191
3.3814 4.0168 2.1508
3.3373 4.1654 2.1861
3.4035 4.4658 2.2996
3.2951 4.5483 2.2999
3.1847 4.6281 2.3002
3.0724 4.7053 2.3005
2.9965 4.8418 2.3305
2.8424 4.8518 2.3011
2.7248 4.9209 2.3014
2.6486 5.0697 2.3397
2.5776 5.2395 2.3880
2.4653 5.3340 2.4025
2.3358 5.3936 2.4025
2.2050 5.4503 2.4026
2.0729 5.5040 2.4026
1.9395 5.5545 2.4027
1.8049 5.6018 2.4028
1.6692 5.6460 2.4029
1.5325 5.6870 2.4030
1.3947 5.7247 2.4031
1.2560 5.7592 2.4032
1.1166 5.7903 2.4032
0.9763 5.8182 2.4033
0.8354 5.8427 2.4034
0.6939 5.8639 2.4035
0.5519 5.8817 2.4036
0.4094 5.8962 2.4037
0.2665 5.9073 2.4037
0.1234 5.9150 2.4038
-0.0199 5.9193 2.4039
-0.1634 5.9202 2.4040
-0.3069 5.9177 2.4041
-0.4504 5.9117 2.4042
-0.5937 5.9024 2.4043
-0.7369 5.8896 2.4044
-0.8798 5.8735 2.4045
-1.0224 5.8539 2.4046
-1.1645 5.8309 2.4047
-1.3061 5.8045 2.4048
-1.4471 5.7747 2.4049
-1.5874 5.7416 2.4051
-1.7270 5.7051 2.4052
-1.8658 5.6652 2.4053
-2.0036 5.6220 2.4054
-2.1404 5.5755 2.4055
-2.2761 5.5255 2.4055
-2.4105 5.4720 2.4054
-2.5436 5.4152 2.4053
-2.6754 5.3552 2.4052
-2.8058 5.2921 2.4051
-2.9347 5.2258 2.4050
-3.0621 5.1564 2.4049
-3.1878 5.0839 2.4048
-3.3118 5.0083 2.4047
-3.4340 4.9298 2.4046
-3.5543 4.8483 2.4045
-3.6727 4.7639 2.4044
-3.7891 4.6766 2.4043
-3.9034 4.5865 2.4043
-4.0155 4.4936 2.4042
-4.1255 4.3980 2.4041
-4.2331 4.2996 2.4040
-4.3384 4.1987 2.4039
-4.4413 4.0952 2.4038
-4.5417 3.9892 2.4037
-4.6396 3.8807 2.4036
-4.7348 3.7698 2.4035
-4.8274 3.6566 2.4034
-4.9172 3.5412 2.4033
-5.0043 3.4235 2.4032
-5.0886 3.3036 2.4031
-5.1699 3.1817 2.4030
-5.2483 3.0578 2.4029
-5.3237 2.9320 2.4029
-5.3961 2.8043 2.4028
-5.4653 2.6749 2.4027
-5.5315 2.5437 2.4026
-5.5944 2.4108 2.4025
-5.6542 2.2765 2.4025
-5.7307 2.1481 2.4108
-5.6831 1.9753 2.3687
-5.6372 1.8082 2.3294
-5.6092 1.6511 2.2994
-5.6506 1.5162 2.2994
-5.6953 1.3819 2.3021
-5.7234 1.2434 2.2994
-5.7547 1.1056 2.2994
-5.7828 0.9671 2.2994
-5.8074 0.8278 2.2994
-5.8286 0.6879 2.2994
-5.8463 0.5475 2.2994
-5.8607 0.4066 2.2994
-5.8715 0.2654 2.2994
-5.8789 0.1239 2.2994
-5.8829 -0.0178 2.2994
-5.8833 -0.1597 2.2994
-5.8802 -0.3015 2.2994
-5.8737 -0.4433 2.2994
-5.8637 -0.5849 2.2994
-5.8501 -0.7263 2.2994
-5.8331 -0.8673 2.2994
-5.8126 -1.0079 2.2994
-5.7887 -1.1481 2.2994
-5.7613 -1.2876 2.2994
-5.7304 -1.4264 2.2994
-5.6962 -1.5645 2.2994
-5.6585 -1.7017 2.2994
-5.6235 -1.8400 2.3018
-5.5730 -1.9733 2.2994
-5.5252 -2.1074 2.2994
-5.5263 -2.2617 2.3213
-5.5738 -2.4395 2.3647
-5.6026 -2.6146 2.4025
-5.5390 -2.7493 2.4025
-5.4722 -2.8823 2.4025
-5.4020 -3.0137 2.4025
-5.3287 -3.1434 2.4025
-5.2521 -3.2712 2.4025
-5.1724 -3.3970 2.4025
-5.0896 -3.5209 2.4025
-5.0037 -3.6427 2.4025
-4.9149 -3.7623 2.4025
-4.8231 -3.8797 2.4025
-4.5774 -3.8673 2.4025
-4.4830 -3.9764 2.4025
-4.3860 -4.0831 2.4025
-4.2863 -4.1875 2.4025
-4.1841 -4.2893 2.4025
-4.0795 -4.3885 2.4025
-3.9724 -4.4852 2.4025
-3.8629 -4.5791 2.4025
-3.7512 -4.6703 2.4025
-3.6373 -4.7588 2.4025
-3.5212 -4.8443 2.4025
-3.4031 -4.9270 2.4025
-3.2830 -5.0067 2.4025
-3.1609 -5.0834 2.4025
-3.0370 -5.1571 2.4025
-2.9114 -5.2276 2.4025
-2.7841 -5.2951 2.4025
-2.6552 -5.3593 2.4025
-2.5247 -5.4204 2.4025
-2.3928 -5.4781 2.4025
-2.2596 -5.5326 2.4025
-2.1251 -5.5838 2.4025
-1.9894 -5.6317 2.4025
-1.8526 -5.6762 2.4025
-1.7148 -5.7172 2.4025
-1.5761 -5.7549 2.4025
-1.4365 -5.7891 2.4025
-1.2961 -5.8199 2.4025
-1.1551 -5.8472 2.4025
-1.0135 -5.8710 2.4025
-0.8714 -5.8913 2.4025
-0.7289 -5.9081 2.4025
-0.5861 -5.9214 2.4025
-0.4430 -5.9312 2.4025
-0.2999 -5.9374 2.4025
-0.1566 -5.9402 2.4025
-0.0134 -5.9394 2.4025
0.1297 -5.9351 2.4025
0.2726 -5.9273 2.4025
0.4152 -5.9160 2.4025
0.5574 -5.9013 2.4025
0.6991 -5.8830 2.4025
0.8403 -5.8613 2.4025
0.9809 -5.8362 2.4025
1.1207 -5.8077 2.4025
1.2598 -5.7757 2.4025
1.3979 -5.7404 2.4025
1.5351 -5.7018 2.4025
1.6712 -5.6598 2.4025
1.8062 -5.6145 2.4025
1.9244 -5.5213 2.3831
2.0087 -5.3446 2.3285
2.1090 -5.2252 2.2994
2.2332 -5.1696 2.2994
2.3688 -5.1392 2.3120
2.4770 -5.0496 2.2994
2.5965 -4.9852 2.2994
2.7144 -4.9180 2.2994
2.8306 -4.8480 2.2994
2.9450 -4.7752 2.2994
3.0575 -4.6998 2.2994
3.1681 -4.6216 2.2994
3.2767 -4.5409 2.2994
3.3833 -4.4576 2.2994
3.4877 -4.3717 2.2994
3.5900 -4.2835 2.2994
3.6901 -4.1928 2.2994
3.7879 -4.0998 2.2994
3.8834 -4.0045 2.2994
3.9765 -3.9070 2.2994
4.0672 -3.8073 2.2994
4.1554 -3.7055 2.2994
4.2410 -3.6017 2.2994
4.3241 -3.4959 2.2994
4.4046 -3.3882 2.2994
4.4825 -3.2786 2.2994
4.5576 -3.1673 2.2994
4.6300 -3.0543 2.2994
4.6996 -2.9396 2.2994
4.7665 -2.8233 2.2994
4.8304 -2.7055 2.2994
4.8916 -2.5863 2.2994
4.9498 -2.4658 2.2994
5.0050 -2.3439 2.2994
5.0573 -2.2208 2.2994
5.1067 -2.0965 2.2994
5.1530 -1.9712 2.2994
5.1963 -1.8448 2.2994
5.2365 -1.7175 2.2994
5.2737 -1.5894 2.2994
5.3078 -1.4605 2.2994
5.3387 -1.3308 2.2994
5.3666 -1.2005 2.2994
5.3913 -1.0696 2.2994
5.4130 -0.9383 2.2994
5.4314 -0.8065 2.2994
5.4467 -0.6743 2.2994
5.4589 -0.5419 2.2994
5.4679 -0.4093 2.2994
5.4737 -0.2766 2.2994
5.4764 -0.1438 2.2994
5.4759 -0.0111 2.2994
5.4723 0.1216 2.2994
5.4655 0.2540 2.2994
5.4556 0.3863 2.2994
5.4426 0.5182 2.2994
5.4264 0.6497 2.2994
5.4071 0.7808 2.2994
5.3848 0.9114 2.2994
5.3593 1.0413 2.2994
5.3308 1.1705 2.2994
5.2992 1.2991 2.2994
5.2647 1.4267 2.2994
5.2271 1.5535 2.2994
5.1865 1.6794 2.2994
5.1429 1.8042 2.2994
5.0965 1.9280 2.2994
5.0471 2.0506 2.2994
4.9949 2.1719 2.2994
4.9398 2.2920 2.2994
4.8819 2.4107 2.2994
4.8212 2.5279 2.2994
4.7577 2.6438 2.2994
4.6916 2.7580 2.2994
4.6227 2.8707 2.2994
4.5513 2.9816 2.2994
4.4772 3.0909 2.2994
4.4006 3.1983 2.2994
4.3215 3.3040 2.2994
4.2399 3.4077 2.2994
4.1559 3.5094 2.2994
4.0694 3.6092 2.2994
3.9807 3.7068 2.2994
3.8897 3.8024 2.2994
3.7964 3.8957 2.2994
3.7010 3.9869 2.2994
3.5844 4.0542 2.2872
3.3792 4.0143 2.2176
3.3351 4.1628 2.2541
3.2985 4.3282 2.2994
3.1932 4.4079 2.2996
3.1165 4.5293 2.3225
2.9773 4.5601 2.3002
2.8667 4.6323 2.3005
2.7747 4.7366 2.3177
2.7054 4.8864 2.3578
2.6411 5.0557 2.4073
2.5131 5.1091 2.4025
2.3891 5.1699 2.4025
2.2637 5.2278 2.4026
2.1369 5.2827 2.4026
2.0088 5.3347 2.4027
1.8795 5.3836 2.4028
1.7490 5.4294 2.4029
1.6175 5.4722 2.4030
1.4849 5.5119 2.4031
1.3513 5.5484 2.4032
1.2169 5.5817 2.4032
1.0817 5.6119 2.4033
0.9458 5.6388 2.4034
0.8092 5.6625 2.4035
0.6720 5.6830 2.4036
0.5344 5.7002 2.4037
0.3963 5.7142 2.4037
0.2578 5.7248 2.4038
0.1191 5.7322 2.4039
-0.0198 5.7363 2.4040
-0.1589 5.7371 2.4041
-0.2979 5.7346 2.4042
-0.4370 5.7287 2.4043
-0.5759 5.7196 2.4044
-0.7147 5.7071 2.4045
-0.8531 5.6914 2.4046
-0.9913 5.6723 2.4047
-1.1290 5.6500 2.4048
-1.2662 5.6243 2.4049
-1.4028 5.5953 2.4050
-1.5388 5.5631 2.4051
-1.6740 5.5277 2.4052
-1.8084 5.4889 2.4053
-1.9419 5.4470 2.4054
-2.0745 5.4018 2.4055
-2.2058 5.3532 2.4055
-2.3360 5.3012 2.4054
-2.4650 5.2462 2.4053
-2.5926 5.1880 2.4052
-2.7189 5.1267 2.4051
-2.8438 5.0624 2.4050
-2.9671 4.9951 2.4049
-3.0888 4.9247 2.4048
-3.2089 4.8515 2.4047
-3.3272 4.7753 2.4046
-3.4437 4.6963 2.4045
-3.5583 4.6145 2.4045
-3.6710 4.5298 2.4044
-3.7817 4.4424 2.4043
-3.8903 4.3524 2.4042
-3.9967 4.2597 2.4041
-4.1009 4.1644 2.4040
-4.2028 4.0665 2.4039
-4.3024 3.9662 2.4038
-4.3996 3.8634 2.4037
-4.4943 3.7583 2.4036
-4.5865 3.6509 2.4035
-4.6761 3.5412 2.4034
-4.7631 3.4293 2.4034
-4.8473 3.3152 2.4033
-4.9288 3.1991 2.4032
-5.0075 3.0810 2.4031
-5.0834 2.9610 2.4030
-5.1563 2.8391 2.4029
-5.2263 2.7154 2.4028
-5.2933 2.5899 2.4028
-5.3573 2.4628 2.4027
-5.4182 2.3342 2.4026
-5.4760 2.2040 2.4025
-5.5306 2.0724 2.4025
-5.5821 1.9395 2.4025
