ply
format ascii 1.0
element vertex 2107
property float32 x
property float32 y
property float32 z
end_header
2.4340 -19.9468 2.3977
2.7954 -19.0674 2.2995
3.2549 -18.9934 2.2995
3.7123 -18.9077 2.2995
4.1673 -18.8106 2.2995
4.6196 -18.7019 2.2995
5.0690 -18.5818 2.2995
5.5152 -18.4505 2.2995
5.9528 -18.2926 2.2976
3.1062 -8.8158 1.1166
6.8254 -17.9743 2.2976
7.2552 -17.7987 2.2976
7.6802 -17.6125 2.2976
8.1003 -17.4155 2.2976
8.5152 -17.2081 2.2976
8.9245 -16.9903 2.2976
9.0892 -16.3333 2.2388
9.1073 -15.4742 2.1515
9.1241 -14.6798 2.0722
9.1397 -13.9422 1.9997
9.1542 -13.2548 1.9333
9.1677 -12.6119 1.8724
9.1805 -12.0086 1.8163
9.1924 -11.4408 1.7646
9.1786 -10.8748 1.7121
9.1893 -10.3688 1.6680
9.1994 -9.8884 1.6272
9.2343 -9.4573 1.5936
9.2435 -9.0203 1.5583
9.2513 -8.6016 1.5253
9.2597 -8.2016 1.4948
9.2679 -7.8176 1.4664
9.2756 -7.4483 1.4399
9.2832 -7.0925 1.4152
9.2904 -6.7490 1.3923
9.2974 -6.4169 1.3709
9.3042 -6.0952 1.3510
9.3108 -5.7830 1.3326
9.3172 -5.4797 1.3154
9.3234 -5.1844 1.2994
9.3295 -4.8966 1.2847
9.3354 -4.6156 1.2710
9.3412 -4.3409 1.2584
9.3469 -4.0720 1.2468
9.3525 -3.8084 1.2362
9.3579 -3.5496 1.2265
9.3633 -3.2952 1.2177
9.3686 -3.0448 1.2098
9.3738 -2.7980 1.2027
9.3789 -2.5545 1.1964
9.3840 -2.3139 1.1908
9.3890 -2.0759 1.1861
9.3940 -1.8401 1.1820
9.3990 -1.6064 1.1788
9.4038 -1.3743 1.1762
9.3830 -1.1404 1.1711
9.3878 -0.9115 1.1700
9.3926 -0.6834 1.1695
9.3974 -0.4558 1.1697
9.4022 -0.2285 1.1707
9.3803 -0.0013 1.1689
9.4376 0.2268 1.1778
9.4425 0.4554 1.1808
9.4473 0.6848 1.1845
9.4522 0.9152 1.1889
14.3977 1.7461 1.8178
14.4051 2.1013 1.8267
14.4127 2.4595 1.8368
14.4203 2.8210 1.8481
14.4280 3.1863 1.8605
14.4358 3.5560 1.8742
13.8037 3.7563 1.8054
12.6740 3.7801 1.6711
11.7024 3.8006 1.5564
10.8569 3.8185 1.4574
10.1136 3.8341 1.3712
9.4544 3.8480 1.2955
8.8651 3.8605 1.2285
8.4571 3.9287 1.1861
8.4625 4.1827 1.2020
8.4680 4.4433 1.2189
8.4737 4.7109 1.2371
8.4795 4.9861 1.2565
8.4854 5.2697 1.2772
8.4916 5.5624 1.2993
8.4980 5.8649 1.3229
8.5046 6.1782 1.3482
8.5115 6.5032 1.3751
8.5186 6.8410 1.4040
8.5260 7.1928 1.4348
8.5338 7.5599 1.4678
8.5419 7.9438 1.5032
8.5503 8.3462 1.5411
8.5593 8.7689 1.5819
8.5687 9.2139 1.6257
8.5786 9.6839 1.6730
8.5891 10.1814 1.7239
8.6002 10.7096 1.7791
8.5905 11.2438 1.8342
8.5982 11.8365 1.8979
8.6117 12.4789 1.9684
8.6530 13.2109 2.0518
8.9277 14.3770 2.2003
8.9454 15.2144 2.2962
8.5743 15.4251 2.2976
8.1936 15.6179 2.2976
7.8087 15.8017 2.2976
7.4199 15.9764 2.2976
7.0274 16.1419 2.2976
6.6423 16.3248 2.3013
6.2728 16.5524 2.3126
5.8678 16.6909 2.3126
5.4599 16.8199 2.3126
5.0207 16.8435 2.2995
4.6100 16.9527 2.2995
4.1971 17.0524 2.2995
3.7821 17.1424 2.2995
3.3653 17.2228 2.2995
2.9469 17.2935 2.2995
2.5278 17.3596 2.3001
2.1074 17.4170 2.3010
1.5332 15.8837 2.0934
1.2631 17.5022 2.3025
0.8396 17.5299 2.3033
0.4155 17.5477 2.3040
-0.0089 17.5555 2.3047
-0.4346 17.5989 2.3114
-0.8771 17.9317 2.3574
-1.3355 18.2472 2.4026
-1.7765 18.2101 2.4027
-2.2165 18.1635 2.4030
-2.6554 18.1067 2.4032
-3.0929 18.0397 2.4034
-3.5288 17.9627 2.4037
-3.9629 17.8756 2.4039
-4.3951 17.7786 2.4041
-4.8249 17.6715 2.4044
-5.2522 17.5544 2.4046
-5.6768 17.4274 2.4048
-6.0985 17.2904 2.4050
-6.5171 17.1438 2.4052
-6.9323 16.9874 2.4054
-7.3438 16.8213 2.4056
-7.7507 16.6436 2.4055
-8.1532 16.4560 2.4053
-8.5508 16.2580 2.4050
-8.9430 16.0492 2.4044
-9.3303 15.8314 2.4038
-9.7134 15.6059 2.4035
-10.0923 15.3733 2.4034
-10.4653 15.1308 2.4031
-10.8320 14.8787 2.4027
-11.1942 14.6198 2.4026
-11.5511 14.3532 2.4026
-11.9020 14.0782 2.4026
-12.2466 13.7949 2.4026
-12.0447 12.9242 2.2995
-12.3619 12.6376 2.2995
-12.6727 12.3436 2.2995
-12.9767 12.0422 2.2995
-13.2738 11.7336 2.2995
-13.5638 11.4178 2.2995
-13.8466 11.0952 2.2995
-14.1221 10.7657 2.2995
-14.3900 10.4297 2.2995
-14.6501 10.0872 2.2995
-14.9024 9.7384 2.2995
-15.1467 9.3834 2.2995
-15.5372 9.1131 2.3226
-15.7672 8.7427 2.3226
-15.9887 8.3668 2.3226
-16.2015 7.9853 2.3226
-16.4054 7.5986 2.3226
-16.6004 7.2068 2.3226
-13.8531 5.6202 1.9167
-14.0997 5.3270 1.9305
-17.1302 6.0029 2.3226
-17.2881 5.5929 2.3226
-11.6688 3.4657 1.5543
-11.8145 3.2004 1.5613
-17.7035 4.3392 2.3226
-17.8223 3.9143 2.3226
-17.9311 3.4861 2.3226
-18.0298 3.0551 2.3226
-18.1183 2.6213 2.3226
-18.1965 2.1851 2.3226
-18.2644 1.7466 2.3226
-18.3218 1.3062 2.3226
-18.3688 0.8640 2.3226
-18.4052 0.4204 2.3226
-18.4310 -0.0246 2.3226
-18.4461 -0.4705 2.3226
-18.4506 -0.9171 2.3226
-18.4443 -1.3643 2.3226
-18.4272 -1.8117 2.3226
-18.3993 -2.2590 2.3226
-18.3606 -2.7061 2.3226
-18.3110 -3.1526 2.3226
-11.7769 -2.3219 1.4987
-11.3279 -2.5192 1.4472
-11.4185 -2.8305 1.4654
-18.0044 -4.9277 2.3226
-17.9007 -5.3674 2.3226
-17.7861 -5.8050 2.3226
-17.6609 -6.2401 2.3226
-17.5249 -6.6726 2.3226
-17.3783 -7.1020 2.3226
-17.2210 -7.5283 2.3226
-17.0532 -7.9510 2.3226
-16.8749 -8.3699 2.3226
-16.6861 -8.7848 2.3226
-16.4871 -9.1954 2.3226
-16.2778 -9.6014 2.3226
-16.0583 -10.0025 2.3226
-15.8288 -10.3985 2.3226
-15.5894 -10.7892 2.3226
-15.3402 -11.1743 2.3226
-15.0813 -11.5534 2.3226
-14.8128 -11.9263 2.3226
-13.3060 -11.2548 2.3226
-13.0420 -11.5834 2.3226
-12.7698 -11.9055 2.3226
-12.4894 -12.2211 2.3226
-12.2011 -12.5300 2.3226
-11.9050 -12.8318 2.3226
-11.6012 -13.1264 2.3226
-11.2899 -13.4136 2.3226
-10.9713 -13.6931 2.3226
-10.6457 -13.9649 2.3226
-10.3131 -14.2286 2.3226
-9.9738 -14.4842 2.3226
-9.5288 -14.5796 2.2986
-9.1831 -14.8201 2.2993
-8.8285 -15.0477 2.2993
-8.4680 -15.2665 2.2993
-8.1021 -15.4764 2.2993
-7.7307 -15.6771 2.2993
-7.3542 -15.8686 2.2993
-6.9729 -16.0506 2.2993
-6.5868 -16.2232 2.2993
-6.1964 -16.3860 2.2993
-5.8018 -16.5391 2.2993
-5.5547 -17.1496 2.3637
-5.2258 -17.5706 2.4026
-4.8020 -17.6991 2.4026
-4.3750 -17.8171 2.4026
-3.9450 -17.9243 2.4026
-3.5123 -18.0206 2.4026
-3.0772 -18.1061 2.4026
-2.6399 -18.1806 2.4026
-2.2008 -18.2440 2.4026
-1.7601 -18.2964 2.4026
-1.3181 -18.3376 2.4026
-0.8751 -18.3677 2.4026
-0.4314 -18.3865 2.4026
0.0126 -18.3942 2.4026
0.4568 -18.3907 2.4026
0.9008 -18.3759 2.4026
1.3443 -18.3500 2.4026
1.7870 -18.3128 2.4026
2.2287 -18.2645 2.4026
2.5545 -17.4239 2.2995
2.9743 -17.3564 2.2995
3.3922 -17.2783 2.2995
3.8081 -17.1896 2.2995
4.2215 -17.0905 2.2995
4.6322 -16.9811 2.2995
5.0399 -16.8613 2.2995
5.4445 -16.7312 2.2995
3.1059 -8.8153 1.2218
6.2376 -16.4272 2.2976
6.6305 -16.2672 2.2976
7.0192 -16.0974 2.2976
7.4034 -15.9179 2.2976
7.7828 -15.7288 2.2976
8.1572 -15.5304 2.2976
8.5263 -15.3226 2.2976
8.8899 -15.1057 2.2976
9.1241 -14.6807 2.2668
9.1396 -13.9431 2.1874
9.1541 -13.2557 2.1147
9.1677 -12.6128 2.0480
9.1804 -12.0095 1.9865
9.1924 -11.4416 1.9299
9.1786 -10.8756 1.8724
9.1892 -10.3695 1.8241
9.1994 -9.8892 1.7793
9.2343 -9.4581 1.7425
9.2435 -9.0210 1.7038
9.2513 -8.6024 1.6676
9.2597 -8.2023 1.6341
9.2678 -7.8183 1.6029
9.2756 -7.4490 1.5739
9.2831 -7.0932 1.5468
9.2904 -6.7497 1.5216
9.2974 -6.4176 1.4982
9.3042 -6.0958 1.4763
9.3108 -5.7837 1.4560
9.3172 -5.4803 1.4371
9.3234 -5.1851 1.4196
9.3295 -4.8972 1.4034
9.3354 -4.6163 1.3883
9.3412 -4.3416 1.3745
9.3469 -4.0727 1.3617
9.3525 -3.8090 1.3500
9.3579 -3.5502 1.3393
9.3633 -3.2958 1.3296
9.3686 -3.0454 1.3208
9.3738 -2.7986 1.3129
9.3789 -2.5551 1.3059
9.3840 -2.3145 1.2997
9.3890 -2.0765 1.2944
9.3940 -1.8407 1.2899
9.3989 -1.6070 1.2862
9.4038 -1.3749 1.2833
9.3830 -1.1411 1.2776
9.3878 -0.9121 1.2763
9.3926 -0.6840 1.2756
9.3974 -0.4564 1.2758
9.4022 -0.2292 1.2766
9.3797 -0.0019 1.2746
9.4376 0.2262 1.2842
9.4425 0.4548 1.2873
9.4473 0.6841 1.2912
9.4522 0.9145 1.2959
14.3976 1.7451 1.9813
14.4051 2.1003 1.9908
14.4127 2.4585 2.0016
14.4203 2.8200 2.0137
14.4280 3.1853 2.0271
14.4358 3.5549 2.0418
13.8070 3.7562 1.9672
12.6768 3.7801 1.8205
11.7049 3.8006 1.6954
10.8590 3.8184 1.5874
10.1155 3.8341 1.4934
9.4561 3.8480 1.4108
8.8666 3.8604 1.3377
8.4571 3.9280 1.2912
8.4625 4.1820 1.3084
8.4680 4.4426 1.3267
8.4736 4.7102 1.3464
8.4794 4.9854 1.3674
8.4854 5.2690 1.3898
8.4916 5.5617 1.4138
8.4980 5.8642 1.4394
8.5046 6.1775 1.4667
8.5115 6.5024 1.4959
8.5186 6.8402 1.5271
8.5260 7.1920 1.5606
8.5337 7.5591 1.5963
8.5418 7.9430 1.6347
8.5503 8.3453 1.6758
8.5592 8.7679 1.7200
8.5686 9.2130 1.7676
8.5785 9.6829 1.8188
8.5890 10.1804 1.8741
8.6002 10.7085 1.9340
8.5909 11.2433 1.9939
8.5982 11.8353 2.0629
8.6117 12.4777 2.1394
8.6530 13.2096 2.2298
8.5785 13.8134 2.2976
8.2368 14.0079 2.2976
7.8908 14.1943 2.2976
7.5408 14.3725 2.2976
7.1870 14.5423 2.2976
6.8295 14.7037 2.2976
6.5108 14.9537 2.3126
6.1441 15.0991 2.3126
5.7418 15.1497 2.2995
5.3713 15.2770 2.2995
4.9981 15.3957 2.2995
4.6224 15.5055 2.2995
4.2444 15.6066 2.2995
3.8643 15.6989 2.2995
3.4823 15.7823 2.2995
3.0987 15.8567 2.2995
2.7135 15.9222 2.2995
2.3270 15.9787 2.2995
1.9394 16.0263 2.2995
1.5325 15.8741 2.2722
1.1618 16.0947 2.2995
0.7723 16.1201 2.3002
0.3915 16.5277 2.3567
-0.0084 16.8517 2.4026
-0.4159 16.8464 2.4028
-0.8232 16.8318 2.4030
-1.2301 16.8077 2.4033
-1.6363 16.7740 2.4035
-2.0417 16.7310 2.4037
-2.4460 16.6786 2.4040
-2.8490 16.6169 2.4042
-3.2506 16.5459 2.4044
-3.6505 16.4657 2.4047
-4.0485 16.3761 2.4049
-4.4444 16.2772 2.4052
-4.8380 16.1692 2.4054
-5.2291 16.0522 2.4056
-5.6165 15.9230 2.4054
-6.0008 15.7850 2.4052
-6.3820 15.6382 2.4051
-6.7597 15.4825 2.4049
-7.1338 15.3180 2.4047
-7.5039 15.1447 2.4045
-7.8701 14.9629 2.4043
-8.2322 14.7726 2.4041
-8.5897 14.5739 2.4039
-8.9425 14.3665 2.4036
-9.2896 14.1496 2.4032
-9.6324 13.9257 2.4029
-9.9708 13.6949 2.4028
-9.8614 12.8782 2.2995
-10.1753 12.6427 2.2995
-10.4839 12.3999 2.2995
-10.7869 12.1498 2.2995
-11.0841 11.8925 2.2995
-11.3755 11.6282 2.2995
-11.6608 11.3570 2.2995
-11.9398 11.0791 2.2995
-12.2125 10.7945 2.2995
-12.4786 10.5033 2.2995
-12.7380 10.2059 2.2995
-12.9906 9.9022 2.2995
-13.2362 9.5924 2.2995
-13.4746 9.2768 2.2995
-13.8433 9.0452 2.3226
-14.0692 8.7149 2.3226
-14.2875 8.3791 2.3226
-14.4980 8.0380 2.3226
-14.7006 7.6917 2.3226
-14.8952 7.3404 2.3226
-15.0815 6.9843 2.3226
-15.2596 6.6236 2.3226
-13.8519 5.6187 2.0851
-14.0983 5.3256 2.1003
-15.7428 5.5157 2.3226
-15.8866 5.1384 2.3226
-11.6672 3.4645 1.6913
-11.8136 3.1994 1.6992
-16.2643 3.9854 2.3226
-16.3720 3.5946 2.3226
-16.4705 3.2011 2.3226
-16.5597 2.8049 2.3226
-16.6395 2.4063 2.3226
-16.7099 2.0055 2.3226
-16.7707 1.6027 2.3226
-16.8219 1.1982 2.3226
-16.8635 0.7921 2.3226
-16.8954 0.3848 2.3226
-16.9175 -0.0237 2.3226
-16.9299 -0.4329 2.3226
-16.9323 -0.8428 2.3226
-16.9250 -1.2530 2.3226
-16.9077 -1.6634 2.3226
-16.8806 -2.0737 2.3226
-16.8435 -2.4836 2.3226
-16.7964 -2.8930 2.3226
-11.7639 -2.3202 1.6322
-11.3262 -2.5196 1.5778
-11.4172 -2.8310 1.5978
-16.5089 -4.5196 2.3226
-16.4122 -4.9223 2.3226
-16.3057 -5.3230 2.3226
-16.1894 -5.7214 2.3226
-16.0632 -6.1172 2.3226
-15.9273 -6.5103 2.3226
-15.7817 -6.9003 2.3226
-15.6264 -7.2870 2.3226
-15.4616 -7.6702 2.3226
-15.2873 -8.0496 2.3226
-15.1036 -8.4250 2.3226
-14.9105 -8.7962 2.3226
-14.7082 -9.1628 2.3226
-14.4967 -9.5247 2.3226
-14.2762 -9.8816 2.3226
-14.0467 -10.2333 2.3226
-13.8085 -10.5795 2.3226
-13.5615 -10.9201 2.3226
-12.2658 -10.3761 2.3226
-12.0216 -10.6782 2.3226
-11.7699 -10.9745 2.3226
-11.5107 -11.2646 2.3226
-11.2442 -11.5485 2.3226
-10.9706 -11.8258 2.3226
-10.6899 -12.0966 2.3226
-10.4024 -12.3604 2.3226
-10.1083 -12.6173 2.3226
-9.8077 -12.8669 2.3226
-9.4056 -12.9779 2.2993
-9.0957 -13.2102 2.2993
-8.7798 -13.4349 2.2993
-8.4583 -13.6517 2.2993
-8.1312 -13.8607 2.2993
-7.7989 -14.0615 2.2993
-7.4615 -14.2540 2.2993
-7.1191 -14.4382 2.2993
-6.7721 -14.6138 2.2993
-6.4206 -14.7808 2.2993
-6.0649 -14.9391 2.2993
-5.7239 -15.1379 2.3068
-5.5252 -15.7520 2.3783
-5.1980 -16.0498 2.4026
-4.8110 -16.1773 2.4026
-4.4207 -16.2952 2.4026
-4.0275 -16.4032 2.4026
-3.6315 -16.5014 2.4026
-3.2331 -16.5897 2.4026
-2.8325 -16.6679 2.4026
-2.4299 -16.7361 2.4026
-2.0256 -16.7941 2.4026
-1.6199 -16.8420 2.4026
-1.2131 -16.8797 2.4026
-0.8053 -16.9071 2.4026
-0.3970 -16.9242 2.4026
0.0118 -16.9311 2.4026
0.4206 -16.9277 2.4026
0.8292 -16.9140 2.4026
1.2374 -16.8900 2.4026
1.6449 -16.8558 2.4026
2.0514 -16.8113 2.4026
2.4566 -16.7566 2.4026
2.7376 -15.9755 2.2995
3.1223 -15.9037 2.2995
3.5050 -15.8223 2.2995
3.8856 -15.7312 2.2995
4.2636 -15.6306 2.2995
4.6390 -15.5206 2.2995
5.0114 -15.4011 2.2995
3.1056 -8.8149 1.3272
5.7464 -15.1344 2.2995
6.1035 -14.9749 2.2976
6.4614 -14.8190 2.2976
6.8152 -14.6541 2.2976
7.1647 -14.4805 2.2976
7.5095 -14.2982 2.2976
7.8496 -14.1074 2.2976
8.1847 -13.9082 2.2976
8.5145 -13.7007 2.2976
8.8389 -13.4851 2.2976
9.1541 -13.2565 2.2967
9.1677 -12.6136 2.2241
9.1804 -12.0103 2.1573
9.1924 -11.4424 2.0957
9.1785 -10.8764 2.0331
9.1892 -10.3703 1.9806
9.1994 -9.8900 1.9318
9.2343 -9.4588 1.8918
9.2435 -9.0218 1.8497
9.2513 -8.6031 1.8103
9.2597 -8.2030 1.7739
9.2678 -7.8190 1.7399
9.2756 -7.4497 1.7083
9.2831 -7.0939 1.6788
9.2904 -6.7504 1.6514
9.2974 -6.4183 1.6258
9.3042 -6.0965 1.6020
9.3108 -5.7843 1.5799
9.3172 -5.4810 1.5593
9.3234 -5.1857 1.5402
9.3295 -4.8979 1.5224
9.3354 -4.6169 1.5060
9.3412 -4.3422 1.4909
9.3469 -4.0733 1.4769
9.3524 -3.8096 1.4641
9.3579 -3.5508 1.4524
9.3633 -3.2964 1.4417
9.3686 -3.0460 1.4321
9.3738 -2.7992 1.4234
9.3789 -2.5557 1.4157
9.3840 -2.3151 1.4090
9.3890 -2.0771 1.4031
9.3940 -1.8414 1.3981
9.3989 -1.6076 1.3940
9.4038 -1.3755 1.3907
9.3830 -1.1417 1.3845
9.3878 -0.9127 1.3829
9.3926 -0.6846 1.3821
9.3974 -0.4570 1.3821
9.4022 -0.2298 1.3829
9.3791 -0.0025 1.3805
9.4376 0.2255 1.3909
9.4424 0.4541 1.3942
9.4473 0.6835 1.3983
9.4521 0.9139 1.4033
14.3976 1.7441 2.1452
14.4051 2.0994 2.1554
14.4127 2.4575 2.1669
14.4203 2.8190 2.1798
14.4280 3.1843 2.1941
14.4358 3.5539 2.2099
13.8103 3.7561 2.1295
12.6797 3.7800 1.9705
11.7073 3.8005 1.8349
10.8612 3.8184 1.7179
10.1174 3.8341 1.6160
9.4577 3.8480 1.5265
8.8680 3.8604 1.4473
8.4571 3.9273 1.3966
8.4625 4.1814 1.4151
8.4680 4.4419 1.4349
8.4736 4.7095 1.4560
8.4794 4.9847 1.4786
8.4854 5.2683 1.5028
8.4916 5.5609 1.5286
8.4980 5.8634 1.5561
8.5046 6.1767 1.5856
8.5114 6.5017 1.6170
8.5186 6.8394 1.6507
8.5260 7.1912 1.6867
8.5337 7.5582 1.7253
8.5418 7.9421 1.7666
8.5503 8.3444 1.8110
8.5592 8.7670 1.8586
8.5686 9.2120 1.9099
8.5785 9.6819 1.9651
8.5890 10.1793 2.0248
8.6002 10.7074 2.0893
8.5914 11.2428 2.1540
8.5981 11.8342 2.2283
8.5622 12.4047 2.2976
8.2546 12.6003 2.2976
7.9427 12.7884 2.2976
7.6267 12.9691 2.2976
7.3067 13.1423 2.2976
6.9829 13.3078 2.2976
6.6555 13.4656 2.2976
6.3300 13.6270 2.2995
5.9956 13.7693 2.2995
5.6582 13.9038 2.2995
5.3180 14.0302 2.2995
4.9750 14.1486 2.2995
4.6295 14.2590 2.2995
4.2816 14.3612 2.2995
3.9317 14.4552 2.2995
3.5797 14.5410 2.2995
3.2259 14.6187 2.2995
2.8706 14.6880 2.2995
2.5138 14.7490 2.2995
2.1558 14.8016 2.2995
1.8012 14.8826 2.3051
1.4440 14.9556 2.3109
1.1166 15.4669 2.3854
0.7475 15.5984 2.4026
0.3700 15.6112 2.4029
-0.0077 15.6152 2.4031
-0.3853 15.6104 2.4033
-0.7628 15.5969 2.4036
-1.1398 15.5746 2.4038
-1.5163 15.5436 2.4041
-1.8919 15.5039 2.4043
-2.2666 15.4555 2.4046
-2.6401 15.3983 2.4048
-3.0122 15.3323 2.4050
-3.3828 15.2577 2.4053
-3.7516 15.1746 2.4055
-4.1181 15.0816 2.4056
-4.4819 14.9785 2.4053
-4.8433 14.8670 2.4051
-5.2020 14.7472 2.4049
-5.5578 14.6190 2.4047
-5.9107 14.4826 2.4045
-6.2603 14.3380 2.4043
-6.6066 14.1852 2.4041
-6.9492 14.0243 2.4039
-7.2882 13.8557 2.4037
-7.6232 13.6791 2.4035
-7.9541 13.4946 2.4033
-8.2806 13.3023 2.4030
-8.6027 13.1024 2.4028
-8.5371 12.3414 2.2995
-8.8371 12.1369 2.2995
-9.1324 11.9254 2.2995
-9.4228 11.7069 2.2995
-9.7082 11.4815 2.2995
-9.9883 11.2495 2.2995
-10.2631 11.0108 2.2995
-10.5324 10.7656 2.2995
-10.7961 10.5140 2.2995
-11.0539 10.2561 2.2995
-11.3058 9.9922 2.2995
-11.5516 9.7221 2.2995
-11.7911 9.4463 2.2995
-12.1450 9.2567 2.3226
-12.3739 8.9666 2.3226
-12.5960 8.6710 2.3226
-12.8114 8.3701 2.3226
-13.0197 8.0639 2.3226
-13.2209 7.7526 2.3226
-13.4149 7.4365 2.3226
-13.6015 7.1157 2.3226
-13.7806 6.7902 2.3226
-13.9521 6.4603 2.3226
-14.1159 6.1262 2.3226
-13.8506 5.6172 2.2540
-14.0970 5.3241 2.2705
-14.5600 5.1003 2.3226
-14.6920 4.7510 2.3226
-11.6657 3.4633 1.8288
-11.8127 3.1983 1.8375
-15.0380 3.6839 2.3226
-15.1365 3.3224 2.3226
-15.2264 2.9583 2.3226
-15.3077 2.5918 2.3226
-15.3804 2.2232 2.3226
-15.4442 1.8526 2.3226
-15.4993 1.4802 2.3226
-15.5455 1.1062 2.3226
-15.5827 0.7309 2.3226
-15.6109 0.3545 2.3226
-15.6301 -0.0229 2.3226
-15.6403 -0.4010 2.3226
-15.6413 -0.7796 2.3226
-15.6333 -1.1585 2.3226
-15.6161 -1.5374 2.3226
-15.5898 -1.9162 2.3226
-15.5542 -2.2946 2.3226
-15.5096 -2.6724 2.3226
-11.7509 -2.3184 1.7658
-11.3244 -2.5200 1.7087
-11.4160 -2.8315 1.7306
-15.2392 -4.1730 2.3226
-15.1488 -4.5445 2.3226
-15.0492 -4.9139 2.3226
-14.9407 -5.2812 2.3226
-14.8231 -5.6460 2.3226
-14.6965 -6.0083 2.3226
-14.5610 -6.3677 2.3226
-14.4167 -6.7239 2.3226
-14.2635 -7.0769 2.3226
-14.1016 -7.4264 2.3226
-13.9310 -7.7721 2.3226
-13.7519 -8.1138 2.3226
-13.5643 -8.4513 2.3226
-13.3682 -8.7844 2.3226
-13.1639 -9.1128 2.3226
-12.9514 -9.4365 2.3226
-12.7308 -9.7550 2.3226
-12.5022 -10.0683 2.3226
-11.3737 -9.6225 2.3226
-11.1466 -9.9021 2.3226
-10.9126 -10.1762 2.3226
-10.6716 -10.4446 2.3226
-10.4240 -10.7072 2.3226
-10.1697 -10.9637 2.3226
-9.9090 -11.2140 2.3226
-9.6420 -11.4580 2.3226
-9.2751 -11.5784 2.2993
-8.9988 -11.8069 2.2993
-8.7167 -12.0285 2.2993
-8.4291 -12.2432 2.2993
-8.1360 -12.4508 2.2993
-7.8377 -12.6512 2.2993
-7.5343 -12.8442 2.2993
-7.2260 -13.0297 2.2993
-6.9130 -13.2076 2.2993
-6.5956 -13.3777 2.2993
-6.2738 -13.5399 2.2993
-5.9480 -13.6941 2.2993
-5.6183 -13.8401 2.2993
-5.4998 -14.5465 2.3928
-5.1701 -14.7411 2.4026
-4.8147 -14.8677 2.4026
-4.4560 -14.9854 2.4026
-4.0945 -15.0941 2.4026
-3.7301 -15.1938 2.4026
-3.3633 -15.2843 2.4026
-2.9942 -15.3657 2.4026
-2.6231 -15.4378 2.4026
-2.2502 -15.5006 2.4026
-1.8758 -15.5541 2.4026
-1.5001 -15.5982 2.4026
-1.1233 -15.6328 2.4026
-0.7457 -15.6580 2.4026
-0.3675 -15.6737 2.4026
0.0110 -15.6800 2.4026
0.3896 -15.6767 2.4026
0.7680 -15.6639 2.4026
1.1460 -15.6416 2.4026
1.5233 -15.6099 2.4026
1.8997 -15.5687 2.4026
2.2750 -15.5181 2.4026
2.5495 -14.8782 2.3124
2.8914 -14.7283 2.2995
3.2459 -14.6530 2.2995
3.5983 -14.5688 2.2995
3.9485 -14.4758 2.2995
4.2961 -14.3740 2.2995
4.6411 -14.2636 2.2995
3.1053 -8.8145 1.4330
5.3219 -14.0171 2.2995
5.6574 -13.8812 2.2995
5.9893 -13.7369 2.2995
6.3121 -13.5731 2.2976
6.6359 -13.4127 2.2976
6.9555 -13.2442 2.2976
7.2707 -13.0678 2.2976
7.5813 -12.8836 2.2976
7.8870 -12.6919 2.2976
8.1877 -12.4925 2.2976
8.4833 -12.2859 2.2976
8.7734 -12.0720 2.2976
9.0581 -11.8510 2.2976
9.1924 -11.4432 2.2620
9.1785 -10.8772 2.1944
9.1892 -10.3711 2.1376
9.1993 -9.8907 2.0849
9.2342 -9.4596 2.0416
9.2435 -9.0225 1.9961
9.2513 -8.6038 1.9535
9.2597 -8.2037 1.9141
9.2678 -7.8197 1.8773
9.2756 -7.4504 1.8431
9.2831 -7.0946 1.8113
9.2904 -6.7511 1.7815
9.2974 -6.4189 1.7539
9.3042 -6.0972 1.7281
9.3108 -5.7850 1.7041
9.3172 -5.4816 1.6818
9.3234 -5.1864 1.6611
9.3295 -4.8985 1.6419
9.3354 -4.6175 1.6241
9.3412 -4.3429 1.6076
9.3469 -4.0739 1.5925
9.3524 -3.8103 1.5786
9.3579 -3.5515 1.5659
9.3633 -3.2971 1.5543
9.3686 -3.0466 1.5438
9.3738 -2.7999 1.5343
9.3789 -2.5563 1.5259
9.3840 -2.3157 1.5185
9.3890 -2.0777 1.5121
9.3940 -1.8420 1.5066
9.3989 -1.6082 1.5021
9.4038 -1.3761 1.4985
9.3829 -1.1423 1.4916
9.3878 -0.9133 1.4898
9.3926 -0.6852 1.4889
9.3974 -0.4577 1.4888
9.4022 -0.2304 1.4896
9.3786 -0.0032 1.4868
9.4376 0.2249 1.4979
9.4424 0.4535 1.5014
9.4473 0.6829 1.5057
9.4521 0.9132 1.5109
14.3976 1.7431 2.3097
14.4051 2.0984 2.3205
14.4126 2.4565 2.3327
14.4203 2.8180 2.3464
14.4280 3.1833 2.3617
14.4358 3.5529 2.3785
13.8137 3.7561 2.2924
12.6825 3.7799 2.1211
11.7098 3.8005 1.9750
10.8633 3.8183 1.8489
10.1193 3.8340 1.7391
9.4594 3.8479 1.6426
8.8695 3.8604 1.5573
8.4571 3.9267 1.5024
8.4625 4.1807 1.5222
8.4680 4.4412 1.5434
8.4736 4.7088 1.5660
8.4794 4.9840 1.5902
8.4854 5.2676 1.6161
8.4916 5.5602 1.6437
8.4980 5.8627 1.6732
8.5046 6.1759 1.7048
8.5114 6.5009 1.7385
8.5185 6.8386 1.7746
8.5260 7.1904 1.8132
8.5337 7.5574 1.8546
8.5418 7.9412 1.8989
8.5503 8.3435 1.9465
8.5592 8.7661 1.9976
8.5686 9.2111 2.0526
8.5785 9.6809 2.1119
8.5890 10.1783 2.1759
8.6001 10.7064 2.2451
8.5281 11.1589 2.2976
8.2507 11.3549 2.2976
7.9689 11.5441 2.2976
7.6830 11.7266 2.2976
7.3930 11.9023 2.2976
7.0991 12.0709 2.2976
6.8015 12.2326 2.2976
6.5058 12.3974 2.2995
6.2010 12.5449 2.2995
5.8930 12.6851 2.2995
5.5819 12.8180 2.2995
5.2680 12.9436 2.2995
4.9514 13.0617 2.2995
4.6321 13.1723 2.2995
4.3106 13.2754 2.2995
3.9868 13.3710 2.2995
3.6610 13.4589 2.2995
3.3334 13.5391 2.2995
3.0040 13.6117 2.2995
2.6732 13.6765 2.2995
2.3440 13.7510 2.3024
2.0127 13.8172 2.3052
1.7414 14.3864 2.3930
1.3983 14.4797 2.4026
1.0476 14.5081 2.4029
0.6964 14.5283 2.4031
0.3447 14.5404 2.4033
-0.0070 14.5442 2.4036
-0.3588 14.5400 2.4038
-0.7104 14.5275 2.4041
-1.0616 14.5068 2.4043
-1.4123 14.4778 2.4045
-1.7622 14.4407 2.4048
-2.1112 14.3955 2.4050
-2.4591 14.3421 2.4052
-2.8057 14.2807 2.4055
-3.1507 14.2104 2.4056
-3.4935 14.1302 2.4054
-3.8344 14.0421 2.4052
-4.1731 13.9460 2.4050
-4.5096 13.8421 2.4048
-4.8435 13.7304 2.4046
-5.1748 13.6108 2.4043
-5.5033 13.4836 2.4041
-5.8287 13.3487 2.4039
-6.1510 13.2062 2.4037
-6.4698 13.0562 2.4035
-6.7852 12.8987 2.4033
-7.0969 12.7339 2.4031
-7.4047 12.5618 2.4029
-7.7085 12.3825 2.4026
-7.6649 11.6734 2.2995
-7.9482 11.4893 2.2995
-8.2273 11.2985 2.2995
-8.5019 11.1012 2.2995
-8.7719 10.8975 2.2995
-9.0373 10.6873 2.2995
-9.2978 10.4709 2.2995
-9.5532 10.2483 2.2995
-9.8035 10.0197 2.2995
-10.0485 9.7851 2.2995
-10.2881 9.5447 2.2995
-10.5220 9.2986 2.2995
-10.8582 9.1377 2.3226
-11.0829 8.8780 2.3226
-11.3015 8.6129 2.3226
-11.5140 8.3426 2.3226
-11.7201 8.0672 2.3226
-11.9199 7.7867 2.3226
-12.1131 7.5015 2.3226
-12.2997 7.2115 2.3226
-12.4795 6.9171 2.3226
-12.6524 6.6182 2.3226
-12.8183 6.3151 2.3226
-12.9771 6.0080 2.3226
-13.1288 5.6969 2.3226
-13.2731 5.3821 2.3226
-13.4100 5.0637 2.3226
-13.5394 4.7419 2.3226
-13.6613 4.4168 2.3226
-11.6642 3.4620 1.9666
-11.8117 3.1973 1.9762
-13.9805 3.4239 2.3226
-14.0711 3.0876 2.3226
-14.1538 2.7490 2.3226
-14.2285 2.4082 2.3226
-14.2951 2.0654 2.3226
-14.3535 1.7208 2.3226
-14.4037 1.3746 2.3226
-14.4456 1.0270 2.3226
-14.4793 0.6782 2.3226
-14.5045 0.3284 2.3226
-14.5214 -0.0222 2.3226
-14.5298 -0.3735 2.3226
-14.5298 -0.7252 2.3226
-14.5214 -1.0770 2.3226
-14.5044 -1.4289 2.3226
-14.4790 -1.7806 2.3226
-14.4450 -2.1319 2.3226
-14.4025 -2.4826 2.3226
-11.7379 -2.3166 1.8996
-11.3226 -2.5204 1.8400
-11.4148 -2.8320 1.8638
-14.1475 -3.8751 2.3226
-14.0626 -4.2196 2.3226
-13.9693 -4.5623 2.3226
-13.8675 -4.9029 2.3226
-13.7575 -5.2412 2.3226
-13.6390 -5.5770 2.3226
-13.5124 -5.9101 2.3226
-13.3775 -6.2403 2.3226
-13.2345 -6.5675 2.3226
-13.0834 -6.8912 2.3226
-12.9244 -7.2115 2.3226
-12.7573 -7.5280 2.3226
-12.5824 -7.8406 2.3226
-12.3998 -8.1491 2.3226
-12.2095 -8.4532 2.3226
-12.0116 -8.7528 2.3226
-11.8063 -9.0477 2.3226
-11.5936 -9.3377 2.3226
-10.6000 -8.9690 2.3226
-10.3878 -9.2291 2.3226
-10.1692 -9.4840 2.3226
-9.9442 -9.7336 2.3226
-9.7129 -9.9778 2.3226
-9.3807 -10.1141 2.2993
-9.1398 -10.3446 2.2993
-8.8931 -10.5691 2.2993
-8.6408 -10.7876 2.2993
-8.3830 -11.0000 2.2993
-8.1199 -11.2060 2.2993
-7.8516 -11.4055 2.2993
-7.5783 -11.5984 2.2993
-7.3001 -11.7846 2.2993
-7.0172 -11.9639 2.2993
-6.7299 -12.1362 2.2993
-6.4382 -12.3014 2.2993
-6.1423 -12.4594 2.2993
-5.8425 -12.6100 2.2993
-5.5388 -12.7532 2.2993
-5.4665 -13.4676 2.4026
-5.1420 -13.6014 2.4026
-4.8140 -13.7270 2.4026
-4.4829 -13.8445 2.4026
-4.1489 -13.9537 2.4026
-3.8121 -14.0546 2.4026
-3.4728 -14.1471 2.4026
-3.1312 -14.2311 2.4026
-2.7875 -14.3066 2.4026
-2.4420 -14.3735 2.4026
-2.0948 -14.4317 2.4026
-1.7462 -14.4812 2.4026
-1.3964 -14.5221 2.4026
-1.0456 -14.5541 2.4026
-0.6940 -14.5774 2.4026
-0.3420 -14.5919 2.4026
0.0104 -14.5976 2.4026
0.3628 -14.5944 2.4026
0.7150 -14.5824 2.4026
1.0669 -14.5617 2.4026
1.4181 -14.5321 2.4026
1.7686 -14.4937 2.4026
2.1179 -14.4466 2.4026
2.4659 -14.3908 2.4026
2.6918 -13.7115 2.2995
3.0217 -13.6414 2.2995
3.3498 -13.5632 2.2995
3.6758 -13.4767 2.2995
3.9995 -13.3821 2.2995
4.3207 -13.2795 2.2995
3.1050 -8.8141 1.5391
4.9546 -13.0504 2.2995
5.2670 -12.9240 2.2995
5.5761 -12.7900 2.2995
5.8817 -12.6482 2.2995
6.1784 -12.4886 2.2976
6.4761 -12.3320 2.2976
6.7697 -12.1680 2.2976
7.0590 -11.9969 2.2976
7.3439 -11.8186 2.2976
7.6241 -11.6334 2.2976
7.8996 -11.4413 2.2976
8.1700 -11.2425 2.2976
8.4353 -11.0371 2.2976
8.6953 -10.8252 2.2976
8.9498 -10.6070 2.2976
9.1892 -10.3719 2.2952
9.1993 -9.8915 2.2385
9.2342 -9.4603 2.1919
9.2434 -9.0233 2.1430
9.2512 -8.6046 2.0972
9.2597 -8.2045 2.0547
9.2678 -7.8205 2.0152
9.2756 -7.4511 1.9784
9.2831 -7.0953 1.9441
9.2903 -6.7518 1.9122
9.2974 -6.4196 1.8824
9.3041 -6.0979 1.8546
9.3107 -5.7857 1.8288
9.3171 -5.4823 1.8048
9.3234 -5.1870 1.7824
9.3295 -4.8992 1.7617
9.3354 -4.6182 1.7425
9.3412 -4.3435 1.7248
9.3469 -4.0746 1.7085
9.3524 -3.8109 1.6935
9.3579 -3.5521 1.6797
9.3633 -3.2977 1.6672
9.3685 -3.0473 1.6558
9.3737 -2.8005 1.6456
9.3789 -2.5570 1.6365
9.3840 -2.3164 1.6285
9.3890 -2.0783 1.6215
9.3940 -1.8426 1.6156
9.3989 -1.6088 1.6106
9.4038 -1.3767 1.6066
9.3829 -1.1429 1.5992
9.3878 -0.9140 1.5971
9.3926 -0.6858 1.5960
9.3974 -0.4583 1.5959
9.4022 -0.2310 1.5966
9.3780 -0.0038 1.5934
9.4376 0.2243 1.6054
9.4424 0.4529 1.6090
9.4473 0.6822 1.6135
9.4521 0.9126 1.6190
15.2576 1.8462 2.6226
15.1954 2.2125 2.6226
15.1245 2.5768 2.6226
15.0449 2.9390 2.6226
14.9567 3.2989 2.6226
14.8600 3.6562 2.6226
13.8171 3.7560 2.4559
12.6854 3.7799 2.2723
11.7122 3.8004 2.1156
10.8654 3.8183 1.9804
10.1212 3.8340 1.8626
9.4610 3.8479 1.7592
8.8710 3.8603 1.6677
8.4571 3.9260 1.6086
8.4625 4.1800 1.6296
8.4679 4.4405 1.6522
8.4736 4.7081 1.6764
8.4794 4.9833 1.7022
8.4854 5.2668 1.7298
8.4916 5.5594 1.7593
8.4979 5.8619 1.7908
8.5045 6.1751 1.8245
8.5114 6.5001 1.8605
8.5185 6.8378 1.8990
8.5259 7.1895 1.9402
8.5337 7.5565 1.9844
8.5418 7.9403 2.0317
8.5503 8.3426 2.0826
8.5592 8.7651 2.1371
8.5686 9.2101 2.1959
8.5785 9.6799 2.2592
8.4782 10.0460 2.2976
8.2278 10.2419 2.2976
7.9731 10.4316 2.2976
7.7140 10.6152 2.2976
7.4509 10.7926 2.2976
7.1838 10.9636 2.2976
6.9129 11.1283 2.2976
6.6383 11.2864 2.2976
6.3655 11.4474 2.2995
6.0839 11.5924 2.2995
5.7991 11.7307 2.2995
5.5112 11.8622 2.2995
5.2205 11.9869 2.2995
4.9270 12.1046 2.2995
4.6310 12.2154 2.2995
4.3325 12.3192 2.2995
4.0319 12.4159 2.2995
3.7291 12.5055 2.2995
3.4245 12.5880 2.2995
3.1181 12.6633 2.2995
2.8101 12.7314 2.2995
2.5006 12.7923 2.2995
2.2458 13.1735 2.3581
1.9624 13.4702 2.4026
1.6358 13.5121 2.4028
1.3084 13.5465 2.4030
0.9803 13.5733 2.4032
0.6516 13.5924 2.4035
0.3227 13.6037 2.4037
-0.0065 13.6073 2.4039
-0.3356 13.6033 2.4042
-0.6646 13.5916 2.4044
-0.9932 13.5723 2.4046
-1.3213 13.5452 2.4049
-1.6487 13.5106 2.4051
-1.9752 13.4682 2.4053
-2.3008 13.4183 2.4056
-2.6247 13.3589 2.4055
-2.9470 13.2914 2.4053
-3.2677 13.2164 2.4051
-3.5865 13.1339 2.4049
-3.9034 13.0440 2.4047
-4.2180 12.9466 2.4045
-4.5303 12.8419 2.4043
-4.8401 12.7300 2.4041
-5.1473 12.6108 2.4039
-5.4516 12.4844 2.4037
-5.7529 12.3509 2.4035
-6.0511 12.2104 2.4033
-6.3460 12.0630 2.4030
-6.6374 11.9086 2.4028
-6.9251 11.7475 2.4026
-6.9001 11.0833 2.2995
-7.1688 10.9171 2.2995
-7.4336 10.7447 2.2995
-7.6944 10.5660 2.2995
-7.9510 10.3812 2.2995
-8.2033 10.1903 2.2995
-8.4512 9.9934 2.2995
-8.6945 9.7907 2.2995
-8.9331 9.5823 2.2995
-9.1668 9.3682 2.2995
-9.3956 9.1485 2.2995
-9.6192 8.9234 2.2995
-9.9364 8.7803 2.3226
-10.1516 8.5423 2.3226
-10.3612 8.2991 2.3226
-10.5652 8.0510 2.3226
-10.7633 7.7979 2.3226
-10.9556 7.5401 2.3226
-11.1418 7.2777 2.3226
-11.3219 7.0107 2.3226
-11.4958 6.7394 2.3226
-11.6633 6.4639 2.3226
-11.8244 6.1843 2.3226
-11.9789 5.9007 2.3226
-12.1267 5.6134 2.3226
-12.2678 5.3225 2.3226
-12.4020 5.0280 2.3226
-12.5293 4.7303 2.3226
-12.6496 4.4294 2.3226
-12.7627 4.1254 2.3226
-11.6627 3.4608 2.1049
-11.8108 3.1963 2.1154
-13.0588 3.1973 2.3226
-13.1428 2.8830 2.3226
-13.2193 2.5666 2.3226
-13.2883 2.2482 2.3226
-13.3498 1.9279 2.3226
-13.4035 1.6060 2.3226
-13.4497 1.2827 2.3226
-13.4880 0.9580 2.3226
-13.5186 0.6323 2.3226
-13.5414 0.3057 2.3226
-13.5564 -0.0217 2.3226
-13.5635 -0.3496 2.3226
-13.5627 -0.6778 2.3226
-13.5540 -1.0062 2.3226
-13.5373 -1.3346 2.3226
-13.5128 -1.6627 2.3226
-13.4802 -1.9905 2.3226
-13.4398 -2.3176 2.3226
-11.7249 -2.3149 2.0335
-11.3208 -2.5208 1.9717
-11.4135 -2.8325 1.9975
-13.1987 -3.6162 2.3226
-13.1187 -3.9373 2.3226
-13.0308 -4.2568 2.3226
-12.9352 -4.5742 2.3226
-12.8317 -4.8895 2.3226
-12.7205 -5.2024 2.3226
-12.6017 -5.5127 2.3226
-12.4752 -5.8204 2.3226
-12.3411 -6.1251 2.3226
-12.1995 -6.4266 2.3226
-12.0504 -6.7249 2.3226
-11.8940 -7.0196 2.3226
-11.7303 -7.3106 2.3226
-11.5594 -7.5978 2.3226
-11.3814 -7.8809 2.3226
-11.1963 -8.1597 2.3226
-11.0044 -8.4342 2.3226
-10.8055 -8.7040 2.3226
-9.9224 -8.3967 2.3226
-9.7234 -8.6397 2.3226
-9.5183 -8.8780 2.3226
-9.2142 -9.0201 2.2993
-8.9995 -9.2459 2.2993
-8.7792 -9.4665 2.2993
-8.5534 -9.6818 2.2993
-8.3222 -9.8916 2.2993
-8.0857 -10.0957 2.2993
-7.8442 -10.2939 2.2993
-7.5977 -10.4863 2.2993
-7.3464 -10.6726 2.2993
-7.0904 -10.8527 2.2993
-6.8299 -11.0265 2.2993
-6.5650 -11.1939 2.2993
-6.2959 -11.3548 2.2993
-6.0228 -11.5089 2.2993
-5.7459 -11.6564 2.2993
-5.4652 -11.7969 2.2993
-5.4137 -12.4663 2.4026
-5.1133 -12.5985 2.4026
-4.8095 -12.7233 2.4026
-4.5027 -12.8405 2.4026
-4.1929 -12.9501 2.4026
-3.8804 -13.0519 2.4026
-3.5653 -13.1460 2.4026
-3.2479 -13.2322 2.4026
-2.9284 -13.3105 2.4026
-2.6069 -13.3809 2.4026
-2.2837 -13.4432 2.4026
-1.9589 -13.4975 2.4026
-1.6329 -13.5436 2.4026
-1.3057 -13.5816 2.4026
-0.9777 -13.6115 2.4026
-0.6489 -13.6331 2.4026
-0.3197 -13.6465 2.4026
0.0098 -13.6517 2.4026
0.3394 -13.6487 2.4026
0.6688 -13.6375 2.4026
0.9978 -13.6180 2.4026
1.3263 -13.5903 2.4026
1.6539 -13.5544 2.4026
1.9806 -13.5104 2.4026
2.3061 -13.4582 2.4026
2.5778 -13.1314 2.3548
2.8258 -12.7575 2.2995
3.1327 -12.6844 2.2995
3.4375 -12.6037 2.2995
3.7403 -12.5153 2.2995
4.0407 -12.4195 2.2995
3.0782 -8.7384 1.6315
4.6337 -12.2055 2.2995
4.9259 -12.0875 2.2995
5.2150 -11.9623 2.2995
5.5009 -11.8300 2.2995
5.7833 -11.6906 2.2995
6.0570 -11.5346 2.2976
6.3318 -11.3816 2.2976
6.6025 -11.2217 2.2976
6.8691 -11.0553 2.2976
7.1314 -10.8823 2.2976
7.3892 -10.7028 2.2976
7.6424 -10.5172 2.2976
7.8908 -10.3253 2.2976
8.1342 -10.1274 2.2976
8.3726 -9.9236 2.2976
8.6057 -9.7140 2.2976
8.8334 -9.4988 2.2976
9.0557 -9.2782 2.2976
9.2434 -9.0240 2.2904
9.2512 -8.6053 2.2414
9.2597 -8.2052 2.1960
9.2678 -7.8212 2.1537
9.2756 -7.4518 2.1143
9.2831 -7.0960 2.0775
9.2903 -6.7525 2.0433
9.2973 -6.4203 2.0114
9.3041 -6.0985 1.9816
9.3107 -5.7863 1.9539
9.3171 -5.4830 1.9282
9.3234 -5.1877 1.9043
9.3294 -4.8998 1.8820
9.3354 -4.6188 1.8615
9.3412 -4.3441 1.8424
9.3468 -4.0752 1.8249
9.3524 -3.8116 1.8088
9.3579 -3.5527 1.7940
9.3632 -3.2983 1.7806
9.3685 -3.0479 1.7683
9.3737 -2.8011 1.7574
9.3789 -2.5576 1.7476
9.3840 -2.3170 1.7389
9.3890 -2.0790 1.7313
9.3940 -1.8432 1.7249
9.3989 -1.6095 1.7195
9.4038 -1.3774 1.7151
9.3829 -1.1435 1.7072
9.3878 -0.9146 1.7049
9.3926 -0.6865 1.7036
9.3974 -0.4589 1.7033
9.4022 -0.2317 1.7040
9.3774 -0.0044 1.7004
9.4376 0.2236 1.7132
9.4424 0.4522 1.7169
9.4472 0.6816 1.7217
9.4521 0.9120 1.7275
12.5280 1.5151 2.2976
12.4776 1.8159 2.2976
12.4201 2.1152 2.2976
12.3554 2.4127 2.2976
12.2836 2.7084 2.2976
12.2047 3.0021 2.2976
12.1189 3.2935 2.2976
12.0262 3.5826 2.2976
11.7147 3.8003 2.2567
10.8676 3.8182 2.1124
10.1231 3.8339 1.9866
9.4627 3.8479 1.8762
8.8725 3.8603 1.7786
8.4571 3.9254 1.7151
8.4624 4.1794 1.7375
8.4679 4.4398 1.7615
8.4736 4.7074 1.7871
8.4794 4.9826 1.8146
8.4854 5.2661 1.8439
8.4915 5.5587 1.8753
8.4979 5.8612 1.9088
8.5045 6.1743 1.9446
8.5114 6.4993 1.9829
8.5185 6.8370 2.0239
8.5259 7.1887 2.0677
8.5337 7.5557 2.1147
8.5418 7.9394 2.1650
8.5503 8.3417 2.2191
8.5592 8.7642 2.2772
8.4143 9.0433 2.2976
8.1882 9.2386 2.2976
7.9578 9.4283 2.2976
7.7230 9.6125 2.2976
7.4841 9.7910 2.2976
7.2412 9.9637 2.2976
6.9944 10.1305 2.2976
6.7439 10.2914 2.2976
6.4952 10.4549 2.2995
6.2374 10.6038 2.2995
5.9764 10.7465 2.2995
5.7121 10.8830 2.2995
5.4448 11.0131 2.2995
5.1747 11.1369 2.2995
4.9018 11.2542 2.2995
4.6264 11.3650 2.2995
4.3485 11.4693 2.2995
4.0684 11.5670 2.2995
3.7862 11.6581 2.2995
3.5019 11.7425 2.2995
3.2159 11.8202 2.2995
2.9491 11.9759 2.3159
2.6515 12.0119 2.3104
2.4538 12.5512 2.4026
2.1491 12.6045 2.4027
1.8433 12.6512 2.4029
1.5366 12.6908 2.4031
1.2290 12.7231 2.4033
0.9209 12.7483 2.4035
0.6122 12.7663 2.4038
0.3032 12.7770 2.4040
-0.0060 12.7806 2.4042
-0.3151 12.7768 2.4044
-0.6241 12.7659 2.4047
-0.9328 12.7478 2.4049
-1.2410 12.7223 2.4051
-1.5485 12.6897 2.4054
-1.8552 12.6499 2.4056
-2.1607 12.6013 2.4055
-2.4648 12.5449 2.4053
-2.7675 12.4815 2.4051
-3.0687 12.4109 2.4049
-3.3681 12.3333 2.4047
-3.6656 12.2488 2.4045
-3.9610 12.1573 2.4043
-4.2543 12.0589 2.4041
-4.5452 11.9537 2.4039
-4.8336 11.8417 2.4037
-5.1193 11.7229 2.4035
-5.4022 11.5974 2.4033
-5.6821 11.4653 2.4031
-5.9589 11.3266 2.4029
-6.2325 11.1815 2.4027
-6.5027 11.0302 2.4026
-6.4793 10.4067 2.2995
-6.7315 10.2504 2.2995
-6.9799 10.0883 2.2995
-7.2246 9.9202 2.2995
-7.4654 9.7464 2.2995
-7.7021 9.5670 2.2995
-7.9346 9.3819 2.2995
-8.1628 9.1913 2.2995
-8.3866 8.9954 2.2995
-8.6058 8.7941 2.2995
-8.8203 8.5876 2.2995
-9.0299 8.3760 2.2995
-9.2347 8.1594 2.2995
-9.5290 8.0177 2.3226
-9.7255 7.7892 2.3226
-9.9166 7.5560 2.3226
-10.1022 7.3182 2.3226
-10.2823 7.0759 2.3226
-10.4567 6.8293 2.3226
-10.6253 6.5786 2.3226
-10.7880 6.3237 2.3226
-10.9448 6.0649 2.3226
-11.0955 5.8023 2.3226
-11.2400 5.5360 2.3226
-11.3782 5.2661 2.3226
-11.5101 4.9929 2.3226
-11.6355 4.7165 2.3226
-11.7544 4.4369 2.3226
-11.8667 4.1544 2.3226
-11.9723 3.8691 2.3226
-11.6611 3.4596 2.2437
-11.8099 3.1952 2.2551
-12.2483 2.9981 2.3226
-12.3265 2.7031 2.3226
-12.3976 2.4062 2.3226
-12.4618 2.1075 2.3226
-12.5187 1.8071 2.3226
-12.5685 1.5051 2.3226
-12.6111 1.2018 2.3226
-12.6465 0.8974 2.3226
-12.6745 0.5920 2.3226
-12.6952 0.2857 2.3226
-12.7086 -0.0212 2.3226
-12.7146 -0.3285 2.3226
-12.7132 -0.6362 2.3226
-12.7044 -0.9440 2.3226
-12.6881 -1.2517 2.3226
-12.6644 -1.5592 2.3226
-12.6333 -1.8663 2.3226
-12.5947 -2.1727 2.3226
-11.7118 -2.3131 2.1677
-11.3190 -2.5212 2.1039
-11.4123 -2.8330 2.1316
-12.3662 -3.3889 2.3226
-12.2905 -3.6897 2.3226
-12.2076 -3.9887 2.3226
-12.1173 -4.2859 2.3226
-12.0198 -4.5810 2.3226
-11.9150 -4.8739 2.3226
-11.8031 -5.1643 2.3226
-11.6840 -5.4522 2.3226
-11.5578 -5.7372 2.3226
-11.4247 -6.0194 2.3226
-11.2845 -6.2984 2.3226
-11.1375 -6.5740 2.3226
-10.9837 -6.8462 2.3226
-10.8231 -7.1148 2.3226
-10.6559 -7.3795 2.3226
-10.4822 -7.6402 2.3226
-10.3019 -7.8967 2.3226
-10.1153 -8.1489 2.3226
-9.2307 -7.8122 2.2993
-9.0452 -8.0380 2.2993
-8.8541 -8.2593 2.2993
-8.6575 -8.4760 2.2993
-8.4555 -8.6879 2.2993
-8.2481 -8.8948 2.2993
-8.0357 -9.0968 2.2993
-7.8182 -9.2935 2.2993
-7.5958 -9.4849 2.2993
-7.3686 -9.6708 2.2993
-7.1368 -9.8512 2.2993
-6.9005 -10.0259 2.2993
-6.6599 -10.1947 2.2993
-6.4150 -10.3577 2.2993
-6.1660 -10.5146 2.2993
-5.9131 -10.6653 2.2993
-5.6565 -10.8098 2.2993
-5.4341 -11.0249 2.3155
-5.3630 -11.5773 2.4026
-5.0840 -11.7081 2.4026
-4.8017 -11.8320 2.4026
-4.5164 -11.9489 2.4026
-4.2281 -12.0587 2.4026
-3.9371 -12.1613 2.4026
-3.6436 -12.2567 2.4026
-3.3477 -12.3448 2.4026
-3.0496 -12.4256 2.4026
-2.7495 -12.4989 2.4026
-2.4476 -12.5647 2.4026
-2.1441 -12.6231 2.4026
-1.8392 -12.6739 2.4026
-1.5330 -12.7170 2.4026
-1.2258 -12.7526 2.4026
-0.9178 -12.7805 2.4026
-0.6092 -12.8007 2.4026
-0.3000 -12.8132 2.4026
0.0093 -12.8180 2.4026
0.3187 -12.8151 2.4026
0.6280 -12.8045 2.4026
0.9369 -12.7861 2.4026
1.2453 -12.7601 2.4026
1.5529 -12.7264 2.4026
1.8596 -12.6851 2.4026
2.1652 -12.6361 2.4026
2.4694 -12.5795 2.4026
2.6532 -11.9784 2.2995
2.9413 -11.9098 2.2995
3.2275 -11.8341 2.2995
3.5118 -11.7512 2.2995
3.7938 -11.6613 2.2995
3.0765 -8.7339 1.7366
4.3507 -11.4607 2.2995
4.6251 -11.3500 2.2995
4.8967 -11.2327 2.2995
5.1651 -11.1085 2.2995
5.4304 -10.9778 2.2995
5.6922 -10.8406 2.2995
5.9505 -10.6969 2.2995
6.1999 -10.5382 2.2976
6.4504 -10.3821 2.2976
6.6968 -10.2198 2.2976
6.9391 -10.0516 2.2976
7.1770 -9.8774 2.2976
7.4105 -9.6975 2.2976
7.6393 -9.5119 2.2976
7.8633 -9.3207 2.2976
8.0825 -9.1242 2.2976
8.2966 -8.9223 2.2976
8.5056 -8.7153 2.2976
8.7093 -8.5033 2.2976
8.9076 -8.2864 2.2976
9.1004 -8.0648 2.2976
9.2678 -7.8219 2.2927
9.2756 -7.4526 2.2506
9.2831 -7.0967 2.2114
9.2903 -6.7532 2.1749
9.2973 -6.4210 2.1409
9.3041 -6.0992 2.1091
9.3107 -5.7870 2.0796
9.3171 -5.4836 2.0521
9.3233 -5.1883 2.0266
9.3294 -4.9005 2.0028
9.3354 -4.6195 1.9809
9.3412 -4.3448 1.9605
9.3468 -4.0758 1.9418
9.3524 -3.8122 1.9246
9.3579 -3.5534 1.9088
9.3632 -3.2990 1.8944
9.3685 -3.0485 1.8813
9.3737 -2.8017 1.8695
9.3789 -2.5582 1.8590
9.3839 -2.3176 1.8497
9.3890 -2.0796 1.8416
9.3939 -1.8439 1.8347
9.3989 -1.6101 1.8288
9.4038 -1.3780 1.8241
9.3829 -1.1442 1.8155
9.3877 -0.9152 1.8130
9.3926 -0.6871 1.8116
9.3974 -0.4595 1.8112
9.4022 -0.2323 1.8119
9.3768 -0.0050 1.8079
9.4376 0.2230 1.8215
9.4424 0.4516 1.8254
9.4472 0.6809 1.8303
9.4521 0.9113 1.8364
11.7855 1.4245 2.2976
11.7387 1.7075 2.2976
11.6850 1.9892 2.2976
11.6247 2.2692 2.2976
11.5577 2.5475 2.2976
11.4840 2.8240 2.2976
11.4038 3.0983 2.2976
11.3171 3.3705 2.2976
11.2239 3.6403 2.2976
10.8698 3.8182 2.2450
10.1250 3.8339 2.1112
9.4644 3.8478 1.9938
8.8740 3.8603 1.8899
8.4571 3.9247 1.8221
8.4624 4.1787 1.8458
8.4679 4.4391 1.8712
8.4736 4.7067 1.8984
8.4794 4.9818 1.9274
8.4854 5.2654 1.9585
8.4915 5.5579 1.9917
8.4979 5.8604 2.0273
8.5045 6.1736 2.0652
8.5114 6.4985 2.1058
8.5185 6.8362 2.1492
8.5259 7.1878 2.1957
8.5337 7.5548 2.2455
8.5368 7.9339 2.2976
8.3374 8.1332 2.2976
8.1335 8.3275 2.2976
7.9252 8.5168 2.2976
7.7126 8.7010 2.2976
7.4957 8.8801 2.2976
7.2749 9.0538 2.2976
7.0501 9.2222 2.2976
6.8215 9.3852 2.2976
6.5892 9.5426 2.2976
6.3587 9.7025 2.2995
6.1192 9.8488 2.2995
5.8765 9.9893 2.2995
5.6307 10.1240 2.2995
5.3819 10.2529 2.2995
5.1302 10.3757 2.2995
4.8758 10.4926 2.2995
4.6188 10.6034 2.2995
4.3594 10.7080 2.2995
4.0976 10.8065 2.2995
3.8337 10.8988 2.2995
3.5679 10.9849 2.2995
3.3001 11.0646 2.2995
3.0306 11.1380 2.2995
2.7945 11.3467 2.3286
2.5986 11.7707 2.4026
2.3127 11.8281 2.4027
2.0256 11.8789 2.4029
1.7374 11.9231 2.4031
1.4483 11.9605 2.4033
1.1585 11.9911 2.4035
0.8680 12.0149 2.4038
0.5771 12.0318 2.4040
0.2858 12.0420 2.4042
-0.0055 12.0453 2.4044
-0.2969 12.0418 2.4046
-0.5882 12.0315 2.4048
-0.8791 12.0143 2.4051
-1.1696 11.9904 2.4053
-1.4594 11.9596 2.4055
-1.7484 11.9213 2.4056
-2.0362 11.8749 2.4054
-2.3228 11.8217 2.4052
-2.6081 11.7619 2.4050
-2.8918 11.6953 2.4048
-3.1740 11.6222 2.4046
-3.4543 11.5425 2.4044
-3.7328 11.4562 2.4042
-4.0091 11.3634 2.4040
-4.2832 11.2641 2.4038
-4.5549 11.1584 2.4036
-4.8242 11.0463 2.4034
-5.0907 10.9280 2.4032
-5.3544 10.8034 2.4030
-5.6152 10.6726 2.4028
-5.8729 10.5358 2.4027
-5.8647 9.9473 2.2995
-6.1054 9.8055 2.2995
-6.3429 9.6581 2.2995
-6.5769 9.5051 2.2995
-6.8073 9.3466 2.2995
-7.0340 9.1827 2.2995
-7.2569 9.0133 2.2995
-7.4758 8.8388 2.2995
-7.6907 8.6590 2.2995
-7.9013 8.4741 2.2995
-8.1076 8.2843 2.2995
-8.3094 8.0895 2.2995
-8.5067 7.8900 2.2995
-8.6993 7.6857 2.2995
-8.8871 7.4769 2.2995
-9.0701 7.2635 2.2995
-9.3408 7.1165 2.3226
-9.5154 6.8923 2.3226
-9.6847 6.6639 2.3226
-9.8486 6.4315 2.3226
-10.0071 6.1950 2.3226
-10.1600 5.9548 2.3226
-10.3072 5.7108 2.3226
-10.4487 5.4633 2.3226
-10.5844 5.2123 2.3226
-10.7142 4.9581 2.3226
-10.8379 4.7006 2.3226
-10.9556 4.4401 2.3226
-11.0671 4.1767 2.3226
-11.1724 3.9106 2.3226
-11.2714 3.6418 2.3226
-11.3640 3.3706 2.3226
-11.4501 3.0971 2.3226
-11.5298 2.8214 2.3226
-11.6029 2.5437 2.3226
-11.6694 2.2641 2.3226
-11.7292 1.9828 2.3226
-11.7823 1.7000 2.3226
-11.8287 1.4157 2.3226
-11.8682 1.1303 2.3226
-11.9010 0.8437 2.3226
-11.9268 0.5563 2.3226
-11.9458 0.2681 2.3226
-11.9578 -0.0207 2.3226
-11.9629 -0.3099 2.3226
-11.9610 -0.5994 2.3226
-11.9521 -0.8889 2.3226
-11.9363 -1.1784 2.3226
-11.9134 -1.4676 2.3226
-11.8836 -1.7563 2.3226
-11.8468 -2.0445 2.3226
-11.6987 -2.3114 2.3020
-11.3172 -2.5216 2.2366
-11.4110 -2.8335 2.2663
-11.6296 -3.1879 2.3226
-11.5580 -3.4706 2.3226
-11.4794 -3.7517 2.3226
-11.3940 -4.0309 2.3226
-11.3018 -4.3082 2.3226
-11.2028 -4.5834 2.3226
-11.0970 -4.8562 2.3226
-10.9846 -5.1266 2.3226
-10.8655 -5.3944 2.3226
-10.7398 -5.6594 2.3226
-10.6076 -5.9214 2.3226
-10.4689 -6.1803 2.3226
-10.3239 -6.4358 2.3226
-10.1725 -6.6880 2.3226
-10.0149 -6.9365 2.3226
-9.8512 -7.1812 2.3226
-9.6814 -7.4220 2.3226
-9.5057 -7.6587 2.3226
-8.7036 -7.3669 2.2993
-8.5283 -7.5795 2.2993
-8.3479 -7.7879 2.2993
-8.1622 -7.9919 2.2993
-7.9714 -8.1914 2.2993
-7.7758 -8.3863 2.2993
-7.5752 -8.5764 2.2993
-7.3700 -8.7615 2.2993
-7.1601 -8.9417 2.2993
-6.9457 -9.1167 2.2993
-6.7270 -9.2864 2.2993
-6.5041 -9.4508 2.2993
-6.2771 -9.6097 2.2993
-6.0461 -9.7630 2.2993
-5.8113 -9.9106 2.2993
-5.5728 -10.0524 2.2993
-5.4147 -10.3488 2.3355
-5.3137 -10.7817 2.4026
-5.0539 -10.9111 2.4026
-4.7909 -11.0342 2.4026
-4.5248 -11.1507 2.4026
-4.2558 -11.2606 2.4026
-3.9841 -11.3639 2.4026
-3.7098 -11.4604 2.4026
-3.4332 -11.5501 2.4026
-3.1543 -11.6329 2.4026
-2.8734 -11.7088 2.4026
-2.5906 -11.7777 2.4026
-2.3061 -11.8396 2.4026
-2.0201 -11.8944 2.4026
-1.7328 -11.9421 2.4026
-1.4443 -11.9827 2.4026
-1.1549 -12.0160 2.4026
-0.8646 -12.0422 2.4026
-0.5738 -12.0611 2.4026
-0.2826 -12.0728 2.4026
0.0089 -12.0773 2.4026
0.3004 -12.0745 2.4026
0.5917 -12.0645 2.4026
0.8828 -12.0472 2.4026
1.1733 -12.0226 2.4026
1.4631 -11.9909 2.4026
1.7521 -11.9520 2.4026
2.0400 -11.9058 2.4026
2.3266 -11.8526 2.4026
2.6066 -11.7684 2.3977
2.7712 -11.2216 2.2995
3.0409 -11.1503 2.2995
3.3088 -11.0724 2.2995
3.5745 -10.9878 2.2995
3.0747 -8.7293 1.8421
4.0993 -10.7990 2.2995
4.3579 -10.6948 2.2995
4.6138 -10.5843 2.2995
4.8668 -10.4676 2.2995
5.1168 -10.3445 2.2995
5.3636 -10.2154 2.2995
5.6071 -10.0802 2.2995
5.8471 -9.9390 2.2995
6.0834 -9.7919 2.2995
6.3107 -9.6311 2.2976
6.5391 -9.4728 2.2976
6.7634 -9.3089 2.2976
6.9836 -9.1395 2.2976
7.1994 -8.9648 2.2976
7.4107 -8.7849 2.2976
7.6174 -8.5998 2.2976
7.8194 -8.4098 2.2976
8.0166 -8.2149 2.2976
8.2088 -8.0153 2.2976
8.3959 -7.8111 2.2976
8.5779 -7.6024 2.2976
8.7546 -7.3894 2.2976
8.9258 -7.1723 2.2976
9.0916 -6.9510 2.2976
9.2518 -6.7259 2.2976
9.2973 -6.4217 2.2709
9.3041 -6.0999 2.2372
9.3107 -5.7877 2.2058
9.3171 -5.4843 2.1766
9.3233 -5.1890 2.1494
9.3294 -4.9012 2.1242
9.3353 -4.6202 2.1008
9.3411 -4.3454 2.0791
9.3468 -4.0765 2.0592
9.3524 -3.8128 2.0408
9.3578 -3.5540 2.0240
9.3632 -3.2996 2.0087
9.3685 -3.0492 1.9947
9.3737 -2.8024 1.9822
9.3788 -2.5588 1.9710
9.3839 -2.3182 1.9610
9.3889 -2.0802 1.9523
9.3939 -1.8445 1.9449
9.3989 -1.6107 1.9386
9.4038 -1.3786 1.9336
9.3829 -1.1448 1.9244
9.3877 -0.9158 1.9217
9.3925 -0.6877 1.9201
9.3973 -0.4602 1.9196
9.4021 -0.2329 1.9202
9.3763 -0.0057 1.9157
9.4375 0.2224 1.9302
9.4424 0.4509 1.9343
9.4472 0.6803 1.9395
9.4521 0.9107 1.9458
11.1234 1.3437 2.2976
11.0797 1.6109 2.2976
11.0295 1.8768 2.2976
10.9730 2.1412 2.2976
10.9102 2.4041 2.2976
10.8411 2.6651 2.2976
10.7658 2.9242 2.2976
10.6844 3.1813 2.2976
10.5968 3.4361 2.2976
10.5033 3.6886 2.2976
10.1269 3.8339 2.2364
9.4661 3.8478 2.1119
8.8755 3.8603 2.0017
8.4571 3.9240 1.9295
8.4624 4.1780 1.9546
8.4679 4.4385 1.9814
8.4735 4.7060 2.0101
8.4794 4.9811 2.0408
8.4853 5.2646 2.0736
8.4915 5.5572 2.1087
8.4979 5.8596 2.1462
8.5045 6.1728 2.1863
8.5113 6.4977 2.2292
8.5185 6.8353 2.2751
8.4280 7.1045 2.2976
8.2489 7.3019 2.2976
8.0652 7.4948 2.2976
7.8771 7.6833 2.2976
7.6847 7.8671 2.2976
7.4881 8.0462 2.2976
7.2874 8.2206 2.2976
7.0828 8.3900 2.2976
6.8743 8.5544 2.2976
6.6620 8.7138 2.2976
6.4515 8.8754 2.2995
6.2320 9.0245 2.2995
6.0092 9.1684 2.2995
5.7830 9.3068 2.2995
5.5538 9.4399 2.2995
5.3216 9.5674 2.2995
5.0866 9.6894 2.2995
4.8488 9.8057 2.2995
4.6084 9.9164 2.2995
4.3656 10.0213 2.2995
4.1205 10.1204 2.2995
3.8732 10.2137 2.2995
3.6238 10.3011 2.2995
3.3726 10.3826 2.2995
3.1195 10.4581 2.2995
2.9235 10.7433 2.3466
2.7256 11.0660 2.4026
2.4567 11.1268 2.4027
2.1865 11.1814 2.4029
1.9151 11.2296 2.4031
1.6427 11.2714 2.4033
1.3694 11.3068 2.4035
1.0954 11.3358 2.4037
0.8207 11.3583 2.4039
0.5457 11.3744 2.4041
0.2703 11.3840 2.4043
-0.0051 11.3871 2.4045
-0.2806 11.3838 2.4047
-0.5560 11.3740 2.4049
-0.8310 11.3578 2.4052
-1.1057 11.3351 2.4054
-1.3797 11.3059 2.4056
-1.6528 11.2692 2.4055
-1.9249 11.2253 2.4053
-2.1958 11.1751 2.4051
-2.4655 11.1185 2.4050
-2.7338 11.0556 2.4048
-3.0005 10.9864 2.4046
-3.2655 10.9110 2.4044
-3.5287 10.8293 2.4042
-3.7899 10.7415 2.4040
-4.0490 10.6476 2.4038
-4.3058 10.5475 2.4036
-4.5603 10.4415 2.4034
-4.8122 10.3295 2.4032
-5.0614 10.2116 2.4030
-5.3078 10.0878 2.4028
-5.5513 9.9583 2.4026
-5.7331 9.7235 2.3781
-5.7710 9.2678 2.2995
-5.9954 9.1283 2.2995
-6.2164 8.9835 2.2995
-6.4341 8.8335 2.2995
-6.6483 8.6784 2.2995
-6.8588 8.5182 2.2995
-7.0655 8.3530 2.2995
-7.2684 8.1829 2.2995
-7.4673 8.0080 2.2995
-7.6621 7.8284 2.2995
-7.8526 7.6442 2.2995
-8.0389 7.4554 2.2995
-8.2207 7.2622 2.2995
-8.3979 7.0646 2.2995
-8.5706 6.8628 2.2995
-8.7384 6.6569 2.2995
-8.9015 6.4470 2.2995
-9.0596 6.2331 2.2995
-9.3051 6.0759 2.3226
-9.4546 5.8523 2.3226
-9.5987 5.6251 2.3226
-9.7375 5.3945 2.3226
-9.8709 5.1605 2.3226
-9.9988 4.9232 2.3226
-10.1210 4.6829 2.3226
-10.2376 4.4395 2.3226
-10.3483 4.1933 2.3226
-10.4533 3.9444 2.3226
-10.5524 3.6928 2.3226
-10.6455 3.4389 2.3226
-10.7325 3.1826 2.3226
-10.8135 2.9242 2.3226
-10.8883 2.6637 2.3226
-10.9569 2.4013 2.3226
-11.0193 2.1372 2.3226
-11.0753 1.8715 2.3226
-11.1251 1.6044 2.3226
-11.1684 1.3360 2.3226
-11.2053 1.0664 2.3226
-11.2357 0.7958 2.3226
-11.2597 0.5244 2.3226
-11.2771 0.2523 2.3226
-11.2880 -0.0203 2.3226
-11.2923 -0.2933 2.3226
-11.2901 -0.5665 2.3226
-11.2813 -0.8398 2.3226
-11.2659 -1.1130 2.3226
-11.2438 -1.3859 2.3226
-11.2152 -1.6583 2.3226
-11.1800 -1.9302 2.3226
-11.1381 -2.2014 2.3226
-11.0897 -2.4717 2.3226
-11.0348 -2.7408 2.3226
-10.9732 -3.0088 2.3226
-10.9052 -3.2754 2.3226
-10.8306 -3.5404 2.3226
-10.7496 -3.8037 2.3226
-10.6622 -4.0652 2.3226
-10.5683 -4.3246 2.3226
-10.4681 -4.5818 2.3226
-10.3616 -4.8367 2.3226
-10.2489 -5.0891 2.3226
-10.1299 -5.3388 2.3226
-10.0048 -5.5857 2.3226
-9.8736 -5.8297 2.3226
-9.7365 -6.0705 2.3226
-9.5934 -6.3080 2.3226
-9.4444 -6.5421 2.3226
-9.1967 -6.7049 2.2993
-9.0378 -6.9295 2.2993
-8.8735 -7.1502 2.2993
-8.2313 -6.9680 2.2993
-8.0654 -7.1689 2.2993
-7.8944 -7.3657 2.2993
-7.7186 -7.5584 2.2993
-7.5380 -7.7468 2.2993
-7.3527 -7.9309 2.2993
-7.1629 -8.1104 2.2993
-6.9686 -8.2852 2.2993
-6.7700 -8.4553 2.2993
-6.5671 -8.6206 2.2993
-6.3602 -8.7808 2.2993
-6.1492 -8.9360 2.2993
-5.9344 -9.0860 2.2993
-5.7159 -9.2307 2.2993
-5.4938 -9.3700 2.2993
-5.3983 -9.7386 2.3561
-5.2656 -10.0647 2.4026
-5.0231 -10.1929 2.4026
-4.7774 -10.3151 2.4026
-4.5286 -10.4311 2.4026
-4.2770 -10.5411 2.4026
-4.0227 -10.6448 2.4026
-3.7658 -10.7422 2.4026
-3.5065 -10.8332 2.4026
-3.2449 -10.9178 2.4026
-2.9813 -10.9960 2.4026
-2.7157 -11.0675 2.4026
-2.4484 -11.1325 2.4026
-2.1795 -11.1909 2.4026
-1.9092 -11.2426 2.4026
-1.6376 -11.2875 2.4026
-1.3649 -11.3257 2.4026
-1.0914 -11.3572 2.4026
-0.8171 -11.3818 2.4026
-0.5422 -11.3996 2.4026
-0.2670 -11.4106 2.4026
0.0085 -11.4148 2.4026
0.2840 -11.4121 2.4026
0.5593 -11.4026 2.4026
0.8344 -11.3862 2.4026
1.1090 -11.3630 2.4026
1.3829 -11.3330 2.4026
1.6559 -11.2962 2.4026
1.9280 -11.2526 2.4026
2.1989 -11.2023 2.4026
2.4685 -11.1453 2.4026
2.6374 -10.6802 2.3155
2.8740 -10.5388 2.2995
3.1272 -10.4652 2.2995
3.3784 -10.3853 2.2995
3.0730 -8.7248 1.9480
3.8744 -10.2070 2.2995
4.1188 -10.1087 2.2995
4.3607 -10.0044 2.2995
4.5999 -9.8941 2.2995
4.8363 -9.7780 2.2995
5.0696 -9.6560 2.2995
5.2998 -9.5284 2.2995
5.5267 -9.3951 2.2995
5.7502 -9.2562 2.2995
5.9701 -9.1120 2.2995
6.1811 -8.9549 2.2976
6.3933 -8.8001 2.2976
6.6015 -8.6402 2.2976
6.8057 -8.4752 2.2976
7.0056 -8.3053 2.2976
7.2012 -8.1305 2.2976
7.3923 -7.9511 2.2976
