ply
format ascii 1.0
element vertex 2173
property float32 x
property float32 y
property float32 z
end_header
-5.4895 -1.2294 2.2995
-5.4602 -1.3621 2.2995
-5.4278 -1.4940 2.2995
-5.3921 -1.6251 2.2995
-5.3532 -1.7554 2.2995
-5.3112 -1.8848 2.2995
-5.2660 -2.0131 2.2995
-5.2177 -2.1403 2.2995
-5.1663 -2.2664 2.2995
-5.1628 -2.4150 2.3224
-5.1594 -2.5669 2.3473
-5.1557 -2.7221 2.3740
-5.1512 -2.8808 2.4026
-5.0818 -3.0052 2.4026
-5.0093 -3.1278 2.4026
-4.9339 -3.2487 2.4026
-4.8555 -3.3677 2.4026
-4.7742 -3.4848 2.4026
-4.6900 -3.5999 2.4026
-4.6030 -3.7129 2.4026
-4.3735 -3.7057 2.4026
-4.2839 -3.8110 2.4026
-4.1917 -3.9141 2.4026
-4.0970 -4.0150 2.4026
-3.9999 -4.1135 2.4026
-3.9004 -4.2096 2.4026
-3.7985 -4.3033 2.4026
-3.6944 -4.3945 2.4026
-3.5880 -4.4831 2.4026
-3.4795 -4.5691 2.4026
-3.3689 -4.6524 2.4026
-3.2563 -4.7330 2.4026
-3.1417 -4.8108 2.4026
-3.0252 -4.8858 2.4026
-2.9069 -4.9580 2.4026
-2.7869 -5.0272 2.4026
-2.6652 -5.0935 2.4026
-2.5419 -5.1567 2.4026
-2.4171 -5.2170 2.4026
-2.2908 -5.2742 2.4026
-2.1632 -5.3282 2.4026
-2.0343 -5.3791 2.4026
-1.9041 -5.4269 2.4026
-1.7728 -5.4714 2.4026
-1.6405 -5.5128 2.4026
-1.5072 -5.5508 2.4026
-1.3730 -5.5856 2.4026
-1.2380 -5.6171 2.4026
-1.1022 -5.6452 2.4026
-0.9658 -5.6701 2.4026
-0.8288 -5.6915 2.4026
-0.6914 -5.7097 2.4026
-0.5535 -5.7244 2.4026
-0.4154 -5.7357 2.4026
-0.2770 -5.7437 2.4026
-0.1385 -5.7483 2.4026
0.0001 -5.7495 2.4026
0.1387 -5.7472 2.4026
0.2772 -5.7416 2.4026
0.4154 -5.7326 2.4026
0.5534 -5.7202 2.4026
0.6911 -5.7044 2.4026
0.8283 -5.6853 2.4026
0.9649 -5.6628 2.4026
1.1010 -5.6370 2.4026
1.2364 -5.6079 2.4026
1.3710 -5.5755 2.4026
1.5047 -5.5397 2.4026
1.6375 -5.5008 2.4026
1.7693 -5.4586 2.4026
1.9000 -5.4132 2.4026
2.0295 -5.3646 2.4026
2.1578 -5.3129 2.4026
2.2847 -5.2580 2.4026
2.4102 -5.2001 2.4026
2.5343 -5.1392 2.4026
2.6568 -5.0753 2.4026
2.7777 -5.0084 2.4026
2.8894 -4.9257 2.3963
2.9120 -4.7006 2.3210
2.9956 -4.5848 2.2995
3.1044 -4.5099 2.2995
3.2113 -4.4323 2.2995
3.3162 -4.3522 2.2995
3.4192 -4.2696 2.2995
3.5201 -4.1845 2.2995
3.6188 -4.0970 2.2995
3.7154 -4.0072 2.2995
3.8097 -3.9150 2.2995
3.9017 -3.8206 2.2995
3.9914 -3.7241 2.2995
4.0786 -3.6254 2.2995
4.1635 -3.5246 2.2995
4.2458 -3.4219 2.2995
4.3255 -3.3172 2.2995
4.4027 -3.2106 2.2995
4.4772 -3.1022 2.2995
4.5491 -2.9921 2.2995
4.6183 -2.8803 2.2995
4.6846 -2.7669 2.2995
4.7482 -2.6519 2.2995
4.8090 -2.5355 2.2995
4.8669 -2.4177 2.2995
4.9219 -2.2985 2.2995
4.9740 -2.1781 2.2995
5.0232 -2.0565 2.2995
5.0694 -1.9338 2.2995
5.1125 -1.8101 2.2995
5.1527 -1.6854 2.2995
5.1898 -1.5598 2.2995
5.2239 -1.4334 2.2995
5.2548 -1.3062 2.2995
5.2827 -1.1784 2.2995
5.3075 -1.0499 2.2995
5.3292 -0.9210 2.2995
5.3477 -0.7916 2.2995
5.3631 -0.6619 2.2995
5.3754 -0.5318 2.2995
5.3845 -0.4016 2.2995
5.3905 -0.2712 2.2995
5.3933 -0.1408 2.2995
5.3930 -0.0103 2.2995
5.3896 0.1200 2.2995
5.3830 0.2502 2.2995
5.3733 0.3801 2.2995
5.3605 0.5098 2.2995
5.3445 0.6390 2.2995
5.3255 0.7678 2.2995
5.3034 0.8960 2.2995
5.2782 1.0237 2.2995
5.2500 1.1506 2.2995
5.2187 1.2768 2.2995
5.1844 1.4022 2.2995
5.1472 1.5267 2.2995
5.1069 1.6502 2.2995
5.0638 1.7727 2.2995
5.0177 1.8940 2.2995
4.9687 2.0142 2.2995
4.9169 2.1332 2.2995
4.8623 2.2508 2.2995
4.8049 2.3671 2.2995
4.7447 2.4819 2.2995
4.6818 2.5953 2.2995
4.6163 2.7070 2.2995
4.5481 2.8172 2.2995
4.4773 2.9256 2.2995
4.4039 3.0323 2.2995
4.3281 3.1372 2.2995
4.2497 3.2402 2.2995
4.1690 3.3413 2.2995
4.0859 3.4404 2.2995
4.0004 3.5375 2.2995
3.9127 3.6325 2.2995
3.8227 3.7254 2.2995
3.7306 3.8160 2.2995
3.6363 3.9045 2.2995
3.5400 3.9906 2.2995
3.4417 4.0744 2.2995
3.3414 4.1558 2.2995
3.2392 4.2348 2.2995
3.1463 4.3266 2.3076
3.0293 4.3853 2.2995
2.9218 4.4567 2.2995
2.8669 4.6130 2.3439
2.8230 4.7977 2.4026
2.7056 4.8641 2.4026
2.5867 4.9277 2.4026
2.4664 4.9886 2.4027
2.3448 5.0467 2.4028
2.2218 5.1019 2.4029
2.0975 5.1541 2.4030
1.9719 5.2033 2.4031
1.8453 5.2495 2.4032
1.7176 5.2926 2.4033
1.5889 5.3327 2.4034
1.4592 5.3697 2.4035
1.3288 5.4037 2.4036
1.1975 5.4345 2.4037
1.0656 5.4622 2.4038
0.9330 5.4867 2.4039
0.7998 5.5081 2.4040
0.6662 5.5263 2.4041
0.5322 5.5413 2.4042
0.3978 5.5531 2.4043
0.2632 5.5617 2.4044
0.1284 5.5671 2.4045
-0.0065 5.5693 2.4046
-0.1414 5.5682 2.4047
-0.2763 5.5638 2.4047
-0.4110 5.5563 2.4048
-0.5456 5.5455 2.4048
-0.6799 5.5315 2.4049
-0.8138 5.5143 2.4049
-0.9473 5.4939 2.4050
-1.0802 5.4703 2.4050
-1.2126 5.4435 2.4051
-1.3444 5.4135 2.4051
-1.4753 5.3802 2.4050
-1.6054 5.3437 2.4049
-1.7346 5.3040 2.4048
-1.8629 5.2613 2.4047
-1.9901 5.2156 2.4046
-2.1162 5.1668 2.4044
-2.2411 5.1150 2.4043
-2.3647 5.0602 2.4042
-2.4870 5.0024 2.4041
-2.6079 4.9417 2.4039
-2.7274 4.8782 2.4038
-2.8453 4.8118 2.4037
-2.9616 4.7425 2.4035
-3.0763 4.6705 2.4034
-3.1892 4.5959 2.4033
-3.3005 4.5186 2.4033
-3.4099 4.4387 2.4032
-3.5173 4.3561 2.4032
-3.6228 4.2710 2.4031
-3.7263 4.1834 2.4031
-3.8276 4.0933 2.4031
-3.9268 4.0007 2.4030
-4.0237 3.9058 2.4030
-4.1184 3.8086 2.4029
-4.2108 3.7091 2.4029
-4.3007 3.6073 2.4029
-4.3882 3.5035 2.4028
-4.4732 3.3974 2.4028
-4.5555 3.2893 2.4026
-4.6353 3.1792 2.4026
-4.7127 3.0673 2.4026
-4.7873 2.9536 2.4026
-4.8592 2.8380 2.4026
-4.9283 2.7208 2.4026
-4.9946 2.6018 2.4026
-5.0580 2.4813 2.4026
-5.1185 2.3592 2.4026
-5.1761 2.2356 2.4026
-5.1936 2.0957 2.3855
-5.1924 1.9506 2.3616
-5.1910 1.8082 2.3395
-5.1895 1.6682 2.3191
-5.1881 1.5304 2.3003
-5.2238 1.4046 2.2995
-5.2584 1.2785 2.2995
-5.2899 1.1515 2.2995
-5.3183 1.0238 2.2995
-5.3620 0.8984 2.3074
-5.3659 0.7663 2.2995
-5.3850 0.6367 2.2995
-5.4010 0.5067 2.2995
-5.4138 0.3762 2.2995
-5.4235 0.2454 2.2995
-5.4300 0.1144 2.2995
-5.4334 -0.0168 2.2995
-5.4335 -0.1480 2.2995
-5.4305 -0.2793 2.2995
-5.4243 -0.4105 2.2995
-5.4149 -0.5415 2.2995
-5.4023 -0.6724 2.2995
-5.3865 -0.8029 2.2995
-5.3676 -0.9330 2.2995
-5.3529 -1.0642 2.3027
-5.3203 -1.1919 2.2995
-5.2919 -1.3205 2.2995
-5.2604 -1.4483 2.2995
-5.2258 -1.5754 2.2995
-5.1880 -1.7017 2.2995
-5.1673 -1.8341 2.3084
-5.1646 -1.9747 2.3270
-5.1617 -2.1177 2.3473
-5.1586 -2.2634 2.3692
-5.1553 -2.4119 2.3930
-5.1176 -2.5465 2.4026
-5.0563 -2.6700 2.4026
-4.9919 -2.7921 2.4026
-4.9246 -2.9126 2.4026
-4.8543 -3.0314 2.4026
-4.7812 -3.1485 2.4026
-4.7052 -3.2638 2.4026
-4.6263 -3.3773 2.4026
-4.5448 -3.4888 2.4026
-4.4604 -3.5983 2.4026
-4.2409 -3.5937 2.4026
-4.1539 -3.6958 2.4026
-4.0646 -3.7957 2.4026
-3.9727 -3.8935 2.4026
-3.8785 -3.9890 2.4026
-3.7820 -4.0822 2.4026
-3.6832 -4.1730 2.4026
-3.5822 -4.2614 2.4026
-3.4791 -4.3473 2.4026
-3.3738 -4.4306 2.4026
-3.2666 -4.5114 2.4026
-3.1574 -4.5895 2.4026
-3.0463 -4.6650 2.4026
-2.9333 -4.7377 2.4026
-2.8186 -4.8076 2.4026
-2.7022 -4.8747 2.4026
-2.5842 -4.9390 2.4026
-2.4647 -5.0003 2.4026
-2.3437 -5.0587 2.4026
-2.2212 -5.1141 2.4026
-2.0975 -5.1665 2.4026
-1.9725 -5.2159 2.4026
-1.8463 -5.2622 2.4026
-1.7190 -5.3054 2.4026
-1.5907 -5.3454 2.4026
-1.4614 -5.3823 2.4026
-1.3313 -5.4160 2.4026
-1.2004 -5.4466 2.4026
-1.0688 -5.4739 2.4026
-0.9365 -5.4980 2.4026
-0.8037 -5.5188 2.4026
-0.6704 -5.5363 2.4026
-0.5368 -5.5506 2.4026
-0.4028 -5.5617 2.4026
-0.2687 -5.5694 2.4026
-0.1343 -5.5738 2.4026
0.0000 -5.5750 2.4026
0.1344 -5.5728 2.4026
0.2686 -5.5674 2.4026
0.4027 -5.5587 2.4026
0.5365 -5.5467 2.4026
0.6700 -5.5314 2.4026
0.8030 -5.5129 2.4026
0.9355 -5.4911 2.4026
1.0674 -5.4661 2.4026
1.1987 -5.4379 2.4026
1.3292 -5.4065 2.4026
1.4589 -5.3719 2.4026
1.5877 -5.3341 2.4026
1.7155 -5.2932 2.4026
1.8422 -5.2492 2.4026
1.9678 -5.2021 2.4026
2.0922 -5.1520 2.4026
2.2153 -5.0989 2.4026
2.3370 -5.0428 2.4026
2.4573 -4.9837 2.4026
2.5761 -4.9217 2.4026
2.6934 -4.8569 2.4026
2.8090 -4.7893 2.4026
2.8902 -4.6661 2.3757
2.9160 -4.4635 2.3084
3.0102 -4.3737 2.2995
3.1139 -4.2985 2.2995
3.2157 -4.2208 2.2995
3.3156 -4.1408 2.2995
3.4135 -4.0583 2.2995
3.5092 -3.9735 2.2995
3.6029 -3.8864 2.2995
3.6944 -3.7971 2.2995
3.7837 -3.7056 2.2995
3.8707 -3.6119 2.2995
3.9553 -3.5163 2.2995
4.0376 -3.4186 2.2995
4.1175 -3.3190 2.2995
4.1949 -3.2174 2.2995
4.2698 -3.1141 2.2995
4.3421 -3.0090 2.2995
4.4118 -2.9023 2.2995
4.4789 -2.7939 2.2995
4.5434 -2.6839 2.2995
4.6051 -2.5724 2.2995
4.6641 -2.4595 2.2995
4.7203 -2.3453 2.2995
4.7737 -2.2298 2.2995
4.8243 -2.1130 2.2995
4.8720 -1.9951 2.2995
4.9168 -1.8761 2.2995
4.9588 -1.7561 2.2995
4.9978 -1.6351 2.2995
5.0338 -1.5133 2.2995
5.0669 -1.3907 2.2995
5.0970 -1.2674 2.2995
5.1241 -1.1434 2.2995
5.1482 -1.0189 2.2995
5.1693 -0.8938 2.2995
5.1873 -0.7683 2.2995
5.2023 -0.6424 2.2995
5.2143 -0.5163 2.2995
5.2232 -0.3900 2.2995
5.2290 -0.2635 2.2995
5.2318 -0.1370 2.2995
5.2316 -0.0104 2.2995
5.2283 0.1160 2.2995
5.2220 0.2423 2.2995
5.2126 0.3684 2.2995
5.2002 0.4941 2.2995
5.1848 0.6195 2.2995
5.1664 0.7445 2.2995
5.1450 0.8689 2.2995
5.1206 0.9927 2.2995
5.0932 1.1159 2.2995
5.0629 1.2383 2.2995
5.0297 1.3600 2.2995
4.9936 1.4808 2.2995
4.9547 1.6006 2.2995
4.9128 1.7195 2.2995
4.8682 1.8372 2.2995
4.8207 1.9539 2.2995
4.7705 2.0693 2.2995
4.7175 2.1834 2.2995
4.6618 2.2963 2.2995
4.6035 2.4077 2.2995
4.5425 2.5177 2.2995
4.4789 2.6261 2.2995
4.4128 2.7330 2.2995
4.3441 2.8383 2.2995
4.2730 2.9418 2.2995
4.1994 3.0436 2.2995
4.1234 3.1436 2.2995
4.0451 3.2417 2.2995
3.9645 3.3379 2.2995
3.8816 3.4321 2.2995
3.7965 3.5243 2.2995
3.7092 3.6144 2.2995
3.6198 3.7024 2.2995
3.5284 3.7883 2.2995
3.4349 3.8718 2.2995
3.3395 3.9532 2.2995
3.2422 4.0322 2.2995
3.1520 4.1205 2.3060
3.0421 4.1831 2.2995
2.9395 4.2549 2.2995
2.8762 4.3869 2.3328
2.8516 4.5880 2.4026
2.7392 4.6551 2.4026
2.6254 4.7196 2.4026
2.5101 4.7814 2.4026
2.3933 4.8405 2.4027
2.2752 4.8967 2.4027
2.1558 4.9501 2.4028
2.0352 5.0008 2.4029
1.9134 5.0486 2.4030
1.7905 5.0935 2.4031
1.6666 5.1354 2.4032
1.5417 5.1743 2.4034
1.4159 5.2103 2.4035
1.2893 5.2432 2.4036
1.1619 5.2731 2.4037
1.0339 5.3000 2.4038
0.9052 5.3238 2.4038
0.7760 5.3445 2.4039
0.6464 5.3621 2.4040
0.5163 5.3766 2.4041
0.3859 5.3880 2.4042
0.2553 5.3963 2.4043
0.1245 5.4015 2.4043
-0.0064 5.4035 2.4044
-0.1373 5.4024 2.4045
-0.2682 5.3982 2.4045
-0.3989 5.3908 2.4046
-0.5295 5.3803 2.4046
-0.6598 5.3667 2.4047
-0.7897 5.3500 2.4047
-0.9192 5.3302 2.4048
-1.0482 5.3073 2.4048
-1.1767 5.2813 2.4049
-1.3045 5.2522 2.4049
-1.4315 5.2198 2.4048
-1.5578 5.1844 2.4047
-1.6831 5.1459 2.4046
-1.8076 5.1045 2.4045
-1.9310 5.0601 2.4044
-2.0533 5.0127 2.4043
-2.1745 4.9624 2.4042
-2.2944 4.9092 2.4040
-2.4131 4.8532 2.4039
-2.5304 4.7943 2.4038
-2.6463 4.7326 2.4037
-2.7607 4.6681 2.4035
-2.8736 4.6010 2.4034
-2.9849 4.5312 2.4034
-3.0945 4.4589 2.4033
-3.2024 4.3838 2.4033
-3.3086 4.3063 2.4033
-3.4128 4.2262 2.4032
-3.5151 4.1435 2.4032
-3.6155 4.0585 2.4031
-3.7138 3.9710 2.4031
-3.8099 3.8812 2.4030
-3.9040 3.7891 2.4030
-3.9958 3.6947 2.4030
-4.0854 3.5981 2.4029
-4.1726 3.4993 2.4029
-4.2573 3.3984 2.4028
-4.3396 3.2955 2.4026
-4.4195 3.1906 2.4026
-4.4970 3.0839 2.4026
-4.5720 2.9753 2.4026
-4.6443 2.8649 2.4026
-4.7140 2.7528 2.4026
-4.7810 2.6390 2.4026
-4.8453 2.5236 2.4026
-4.9068 2.4066 2.4026
-4.9654 2.2882 2.4026
-5.0213 2.1683 2.4026
-5.0742 2.0471 2.4026
-5.1242 1.9246 2.4026
-5.1712 1.8008 2.4026
-5.1821 1.6653 2.3873
-5.1806 1.5277 2.3679
-5.1796 1.3923 2.3504
-5.1805 1.2591 2.3354
-5.1812 1.1275 2.3219
-5.1819 0.9971 2.3098
-5.1832 0.8681 2.2995
-5.2048 0.7429 2.2995
-5.2233 0.6172 2.2995
-5.2387 0.4910 2.2995
-5.2511 0.3645 2.2995
-5.2604 0.2377 2.2995
-5.2667 0.1106 2.2995
-5.2699 -0.0167 2.2995
-5.2700 -0.1440 2.2995
-5.2670 -0.2713 2.2995
-5.2609 -0.3985 2.2995
-5.2517 -0.5256 2.2995
-5.2395 -0.6525 2.2995
-5.2242 -0.7791 2.2995
-5.2058 -0.9053 2.2995
-5.1843 -1.0311 2.2995
-5.1713 -1.1589 2.3046
-5.1693 -1.2903 2.3161
-5.1673 -1.4231 2.3291
-5.1650 -1.5575 2.3435
-5.1626 -1.6937 2.3595
-5.1600 -1.8319 2.3770
-5.1572 -1.9723 2.3961
-5.1235 -2.1025 2.4026
-5.0729 -2.2262 2.4026
-5.0194 -2.3486 2.4026
-4.9628 -2.4698 2.4026
-4.9033 -2.5896 2.4026
-4.8408 -2.7080 2.4026
-4.7755 -2.8248 2.4026
-4.7073 -2.9400 2.4026
-4.6364 -3.0535 2.4026
-4.5626 -3.1653 2.4026
-4.4861 -3.2753 2.4026
-4.4070 -3.3834 2.4026
-4.3252 -3.4895 2.4026
-4.1149 -3.4873 2.4026
-4.0305 -3.5863 2.4026
-3.9438 -3.6833 2.4026
-3.8547 -3.7781 2.4026
-3.7632 -3.8707 2.4026
-3.6696 -3.9611 2.4026
-3.5737 -4.0492 2.4026
-3.4757 -4.1349 2.4026
-3.3756 -4.2183 2.4026
-3.2735 -4.2991 2.4026
-3.1694 -4.3775 2.4026
-3.0634 -4.4533 2.4026
-2.9556 -4.5264 2.4026
-2.8460 -4.5970 2.4026
-2.7347 -4.6648 2.4026
-2.6218 -4.7299 2.4026
-2.5073 -4.7922 2.4026
-2.3913 -4.8517 2.4026
-2.2739 -4.9084 2.4026
-2.1551 -4.9621 2.4026
-2.0351 -5.0130 2.4026
-1.9138 -5.0609 2.4026
-1.7913 -5.1058 2.4026
-1.6678 -5.1476 2.4026
-1.5434 -5.1865 2.4026
-1.4179 -5.2223 2.4026
-1.2917 -5.2550 2.4026
-1.1647 -5.2846 2.4026
-1.0370 -5.3111 2.4026
-0.9087 -5.3345 2.4026
-0.7798 -5.3547 2.4026
-0.6506 -5.3717 2.4026
-0.5209 -5.3856 2.4026
-0.3909 -5.3963 2.4026
-0.2607 -5.4038 2.4026
-0.1304 -5.4081 2.4026
-0.0001 -5.4093 2.4026
0.1303 -5.4072 2.4026
0.2605 -5.4019 2.4026
0.3906 -5.3935 2.4026
0.5204 -5.3819 2.4026
0.6499 -5.3671 2.4026
0.7790 -5.3491 2.4026
0.9076 -5.3280 2.4026
1.0356 -5.3038 2.4026
1.1629 -5.2764 2.4026
1.2895 -5.2459 2.4026
1.4154 -5.2124 2.4026
1.5403 -5.1758 2.4026
1.6643 -5.1361 2.4026
1.7873 -5.0935 2.4026
1.9092 -5.0478 2.4026
2.0299 -4.9992 2.4026
2.1493 -4.9477 2.4026
2.2674 -4.8933 2.4026
2.3842 -4.8360 2.4026
2.4995 -4.7759 2.4026
2.6133 -4.7130 2.4026
2.7254 -4.6474 2.4026
2.8360 -4.5791 2.4026
2.8947 -4.4316 2.3618
2.9208 -4.2442 2.2995
3.0214 -4.1713 2.2995
3.1618 -4.1505 2.3301
3.2172 -4.0184 2.2995
3.3121 -3.9384 2.2995
3.4051 -3.8561 2.2995
3.4960 -3.7716 2.2995
3.5849 -3.6850 2.2995
3.6715 -3.5962 2.2995
3.7560 -3.5054 2.2995
3.8381 -3.4126 2.2995
3.9180 -3.3178 2.2995
3.9956 -3.2212 2.2995
4.0707 -3.1227 2.2995
4.1434 -3.0224 2.2995
4.2136 -2.9205 2.2995
4.2814 -2.8169 2.2995
4.3465 -2.7117 2.2995
4.4091 -2.6050 2.2995
4.4690 -2.4969 2.2995
4.5263 -2.3874 2.2995
4.5809 -2.2765 2.2995
4.6328 -2.1644 2.2995
4.6819 -2.0511 2.2995
4.7283 -1.9367 2.2995
4.7718 -1.8212 2.2995
4.8126 -1.7048 2.2995
4.8505 -1.5874 2.2995
4.8855 -1.4692 2.2995
4.9177 -1.3502 2.2995
4.9469 -1.2305 2.2995
4.9733 -1.1102 2.2995
4.9967 -0.9893 2.2995
5.0172 -0.8679 2.2995
5.0348 -0.7461 2.2995
5.0494 -0.6240 2.2995
5.0610 -0.5016 2.2995
5.0697 -0.3789 2.2995
5.0755 -0.2562 2.2995
5.0783 -0.1333 2.2995
5.0781 -0.0105 2.2995
5.0749 0.1122 2.2995
5.0688 0.2348 2.2995
5.0598 0.3572 2.2995
5.0478 0.4793 2.2995
5.0329 0.6010 2.2995
5.0150 0.7223 2.2995
4.9943 0.8431 2.2995
4.9707 0.9633 2.2995
4.9442 1.0829 2.2995
4.9148 1.2018 2.2995
4.8826 1.3198 2.2995
4.8476 1.4371 2.2995
4.8098 1.5535 2.2995
4.7693 1.6688 2.2995
4.7259 1.7832 2.2995
4.6799 1.8964 2.2995
4.6312 2.0085 2.2995
4.5798 2.1193 2.2995
4.5258 2.2289 2.2995
4.4692 2.3371 2.2995
4.4100 2.4439 2.2995
4.3483 2.5492 2.2995
4.2841 2.6530 2.2995
4.2175 2.7552 2.2995
4.1485 2.8557 2.2995
4.0770 2.9546 2.2995
4.0033 3.0517 2.2995
3.9273 3.1470 2.2995
3.8490 3.2404 2.2995
3.7685 3.3319 2.2995
3.6859 3.4214 2.2995
3.6012 3.5089 2.2995
3.5145 3.5944 2.2995
3.4257 3.6777 2.2995
3.3350 3.7589 2.2995
3.2424 3.8379 2.2995
3.1565 3.9254 2.3058
3.0516 3.9891 2.2995
2.9537 4.0612 2.2995
2.8843 4.1748 2.3239
2.8590 4.3604 2.3883
2.7686 4.4543 2.4026
2.6596 4.5196 2.4026
2.5491 4.5822 2.4026
2.4371 4.6422 2.4027
2.3237 4.6996 2.4027
2.2090 4.7542 2.4027
2.0931 4.8060 2.4028
1.9759 4.8551 2.4028
1.8577 4.9014 2.4029
1.7383 4.9449 2.4030
1.6180 4.9856 2.4031
1.4968 5.0234 2.4032
1.3747 5.0583 2.4033
1.2517 5.0903 2.4034
1.1281 5.1193 2.4035
1.0037 5.1454 2.4036
0.8788 5.1685 2.4037
0.7534 5.1886 2.4038
0.6275 5.2057 2.4039
0.5012 5.2198 2.4039
0.3746 5.2308 2.4040
0.2478 5.2388 2.4041
0.1208 5.2438 2.4042
-0.0063 5.2458 2.4042
-0.1334 5.2447 2.4043
-0.2605 5.2406 2.4043
-0.3874 5.2334 2.4044
-0.5142 5.2233 2.4045
-0.6406 5.2100 2.4045
-0.7668 5.1938 2.4046
-0.8925 5.1745 2.4046
-1.0178 5.1522 2.4046
-1.1425 5.1270 2.4047
-1.2666 5.0987 2.4047
-1.3899 5.0673 2.4046
-1.5125 5.0329 2.4045
-1.6342 4.9956 2.4044
-1.7550 4.9553 2.4043
-1.8748 4.9121 2.4042
-1.9935 4.8661 2.4041
-2.1112 4.8173 2.4040
-2.2276 4.7656 2.4039
-2.3428 4.7112 2.4038
-2.4567 4.6540 2.4037
-2.5692 4.5941 2.4035
-2.6803 4.5316 2.4035
-2.7900 4.4665 2.4034
-2.8980 4.3988 2.4034
-3.0045 4.3285 2.4034
-3.1092 4.2557 2.4033
-3.2122 4.1803 2.4033
-3.3134 4.1025 2.4032
-3.4127 4.0223 2.4032
-3.5101 3.9397 2.4032
-3.6055 3.8547 2.4031
-3.6988 3.7675 2.4031
-3.7901 3.6780 2.4030
-3.8792 3.5863 2.4030
-3.9660 3.4924 2.4029
-4.0505 3.3965 2.4028
-4.1327 3.2985 2.4026
-4.2126 3.1985 2.4026
-4.2903 3.0968 2.4026
-4.3655 2.9932 2.4026
-4.4382 2.8878 2.4026
-4.5084 2.7806 2.4026
-4.5760 2.6717 2.4026
-4.6410 2.5612 2.4026
-4.7034 2.4492 2.4026
-4.7630 2.3356 2.4026
-4.8199 2.2206 2.4026
-4.8740 2.1042 2.4026
-4.9254 1.9866 2.4026
-4.9738 1.8676 2.4026
-5.0195 1.7475 2.4026
-5.0622 1.6263 2.4026
-5.1020 1.5041 2.4026
-5.1389 1.3809 2.4026
-5.1727 1.2568 2.4026
-5.1740 1.1255 2.3889
-5.1747 0.9953 2.3765
-5.1752 0.8663 2.3655
-5.1756 0.7383 2.3559
-5.1758 0.6112 2.3477
-5.1759 0.4847 2.3408
-5.1758 0.3589 2.3353
-5.1756 0.2334 2.3311
-5.1753 0.1083 2.3282
-5.1748 -0.0168 2.3266
-5.1742 -0.1417 2.3263
-5.1734 -0.2669 2.3273
-5.1725 -0.3922 2.3296
-5.1715 -0.5180 2.3332
-5.1703 -0.6443 2.3382
-5.1690 -0.7713 2.3444
-5.1675 -0.8991 2.3521
-5.1659 -1.0278 2.3611
-5.1641 -1.1577 2.3715
-5.1621 -1.2888 2.3834
-5.1600 -1.4214 2.3967
-5.1385 -1.5499 2.4026
-5.1013 -1.6740 2.4026
-5.0611 -1.7972 2.4026
-5.0179 -1.9194 2.4026
-4.9717 -2.0406 2.4026
-4.9226 -2.1606 2.4026
-4.8706 -2.2794 2.4026
-4.8157 -2.3970 2.4026
-4.7579 -2.5132 2.4026
-4.6972 -2.6280 2.4026
-4.6338 -2.7413 2.4026
-4.5677 -2.8531 2.4026
-4.4988 -2.9632 2.4026
-4.4272 -3.0717 2.4026
-4.3529 -3.1784 2.4026
-4.2761 -3.2832 2.4026
-4.1967 -3.3862 2.4026
-3.9950 -3.3860 2.4026
-3.9131 -3.4822 2.4026
-3.8288 -3.5763 2.4026
-3.7423 -3.6683 2.4026
-3.6535 -3.7582 2.4026
-3.5626 -3.8460 2.4026
-3.4695 -3.9315 2.4026
-3.3743 -4.0147 2.4026
-3.2771 -4.0955 2.4026
-3.1780 -4.1740 2.4026
-3.0769 -4.2501 2.4026
-2.9741 -4.3236 2.4026
-2.8694 -4.3947 2.4026
-2.7630 -4.4631 2.4026
-2.6550 -4.5289 2.4026
-2.5453 -4.5921 2.4026
-2.4342 -4.6526 2.4026
-2.3216 -4.7104 2.4026
-2.2076 -4.7654 2.4026
-2.0922 -4.8175 2.4026
-1.9757 -4.8669 2.4026
-1.8579 -4.9133 2.4026
-1.7391 -4.9569 2.4026
-1.6192 -4.9976 2.4026
-1.4983 -5.0353 2.4026
-1.3766 -5.0701 2.4026
-1.2540 -5.1018 2.4026
-1.1307 -5.1306 2.4026
-1.0068 -5.1563 2.4026
-0.8822 -5.1790 2.4026
-0.7571 -5.1986 2.4026
-0.6316 -5.2151 2.4026
-0.5058 -5.2286 2.4026
-0.3796 -5.2390 2.4026
-0.2532 -5.2463 2.4026
-0.1267 -5.2505 2.4026
-0.0001 -5.2516 2.4026
0.1264 -5.2496 2.4026
0.2528 -5.2445 2.4026
0.3791 -5.2363 2.4026
0.5051 -5.2251 2.4026
0.6308 -5.2107 2.4026
0.7561 -5.1933 2.4026
0.8810 -5.1728 2.4026
1.0052 -5.1493 2.4026
1.1289 -5.1228 2.4026
1.2518 -5.0932 2.4026
1.3740 -5.0607 2.4026
1.4953 -5.0252 2.4026
1.6157 -4.9867 2.4026
1.7351 -4.9453 2.4026
1.8534 -4.9010 2.4026
1.9706 -4.8539 2.4026
2.0866 -4.8039 2.4026
2.2013 -4.7511 2.4026
2.3146 -4.6955 2.4026
2.4266 -4.6372 2.4026
2.5370 -4.5761 2.4026
2.6460 -4.5125 2.4026
2.7533 -4.4462 2.4026
2.8589 -4.3773 2.4026
2.8984 -4.2122 2.3503
2.9334 -4.0504 2.2995
3.0294 -3.9773 2.2995
3.1623 -3.9504 2.3280
3.2157 -3.8242 2.2995
3.3060 -3.7444 2.2995
3.3943 -3.6624 2.2995
3.4806 -3.5783 2.2995
3.5648 -3.4921 2.2995
3.6468 -3.4040 2.2995
3.7266 -3.3139 2.2995
3.8042 -3.2219 2.2995
3.8795 -3.1281 2.2995
3.9525 -3.0325 2.2995
4.0232 -2.9352 2.2995
4.0914 -2.8362 2.2995
4.1572 -2.7357 2.2995
4.2205 -2.6335 2.2995
4.2813 -2.5300 2.2995
4.3395 -2.4250 2.2995
4.3952 -2.3186 2.2995
4.4483 -2.2110 2.2995
4.4987 -2.1022 2.2995
4.5464 -1.9922 2.2995
4.5915 -1.8811 2.2995
4.6338 -1.7690 2.2995
4.6734 -1.6559 2.2995
4.7103 -1.5419 2.2995
4.7444 -1.4271 2.2995
4.7756 -1.3116 2.2995
4.8041 -1.1954 2.2995
4.8297 -1.0785 2.2995
4.8525 -0.9612 2.2995
4.8725 -0.8433 2.2995
4.8896 -0.7250 2.2995
4.9038 -0.6064 2.2995
4.9152 -0.4875 2.2995
4.9237 -0.3684 2.2995
4.9293 -0.2492 2.2995
4.9320 -0.1299 2.2995
4.9319 -0.0106 2.2995
4.9289 0.1086 2.2995
4.9230 0.2277 2.2995
4.9143 0.3465 2.2995
4.9027 0.4651 2.2995
4.8882 0.5833 2.2995
4.8709 0.7011 2.2995
4.8508 0.8185 2.2995
4.8279 0.9353 2.2995
4.8022 1.0514 2.2995
4.7738 1.1669 2.2995
4.7425 1.2816 2.2995
4.7086 1.3955 2.2995
4.6719 1.5086 2.2995
4.6325 1.6206 2.2995
4.5905 1.7317 2.2995
4.5458 1.8417 2.2995
4.4985 1.9506 2.2995
4.4486 2.0583 2.2995
4.3962 2.1647 2.2995
4.3412 2.2699 2.2995
4.2838 2.3736 2.2995
4.2239 2.4759 2.2995
4.1616 2.5768 2.2995
4.0969 2.6761 2.2995
4.0298 2.7737 2.2995
3.9605 2.8698 2.2995
3.8889 2.9641 2.2995
3.8150 3.0567 2.2995
3.7390 3.1474 2.2995
3.6609 3.2364 2.2995
3.5806 3.3233 2.2995
3.4984 3.4084 2.2995
3.4141 3.4914 2.2995
3.3279 3.5724 2.2995
3.2398 3.6513 2.2995
3.1600 3.7402 2.3069
3.0580 3.8026 2.2995
2.9645 3.8749 2.2995
2.8913 3.9751 2.3170
2.8634 4.1443 2.3748
2.7940 4.2610 2.4026
2.6896 4.3270 2.4026
2.5837 4.3904 2.4026
2.4764 4.4513 2.4026
2.3676 4.5096 2.4027
2.2575 4.5653 2.4027
2.1460 4.6184 2.4028
2.0334 4.6687 2.4028
1.9196 4.7164 2.4028
1.8046 4.7613 2.4029
1.6887 4.8035 2.4029
1.5718 4.8429 2.4030
1.4540 4.8796 2.4031
1.3353 4.9135 2.4032
1.2159 4.9446 2.4033
1.0958 4.9728 2.4034
0.9750 4.9981 2.4034
0.8536 5.0205 2.4035
0.7318 5.0401 2.4036
0.6095 5.0567 2.4037
0.4868 5.0703 2.4038
0.3638 5.0810 2.4038
0.2406 5.0888 2.4039
0.1172 5.0937 2.4040
-0.0062 5.0956 2.4041
-0.1297 5.0945 2.4041
-0.2531 5.0905 2.4042
-0.3764 5.0835 2.4042
-0.4996 5.0736 2.4043
-0.6224 5.0607 2.4043
-0.7450 5.0449 2.4044
-0.8671 5.0262 2.4044
-0.9888 5.0045 2.4045
-1.1099 4.9800 2.4045
-1.2305 4.9525 2.4045
-1.3503 4.9221 2.4045
-1.4693 4.8886 2.4044
-1.5875 4.8523 2.4043
-1.7049 4.8132 2.4042
-1.8213 4.7712 2.4041
-1.9366 4.7265 2.4040
-2.0509 4.6791 2.4039
-2.1640 4.6289 2.4038
-2.2759 4.5760 2.4036
-2.3865 4.5205 2.4036
-2.4959 4.4624 2.4036
-2.6038 4.4018 2.4035
-2.7103 4.3385 2.4035
-2.8153 4.2727 2.4034
-2.9186 4.2043 2.4034
-3.0204 4.1336 2.4033
-3.1204 4.0603 2.4033
-3.2187 3.9847 2.4033
-3.3151 3.9068 2.4032
-3.4097 3.8265 2.4032
-3.5023 3.7440 2.4032
-3.5929 3.6591 2.4031
-3.6814 3.5721 2.4030
-3.7679 3.4829 2.4029
-3.8521 3.3917 2.4027
-3.9342 3.2985 2.4026
-4.0141 3.2033 2.4026
-4.0918 3.1063 2.4026
-4.1672 3.0075 2.4026
-4.2402 2.9068 2.4026
-4.3108 2.8044 2.4026
-4.3790 2.7003 2.4026
-4.4446 2.5945 2.4026
-4.5077 2.4872 2.4026
-4.5682 2.3784 2.4026
-4.6261 2.2680 2.4026
-4.6813 2.1563 2.4026
-4.7338 2.0433 2.4026
-4.7836 1.9290 2.4026
-4.8307 1.8134 2.4026
-4.8750 1.6968 2.4026
-4.9164 1.5791 2.4026
-4.9550 1.4603 2.4026
-4.9908 1.3407 2.4026
-5.0236 1.2202 2.4026
-5.0536 1.0988 2.4026
-5.0806 0.9768 2.4026
-5.1046 0.8541 2.4026
-5.1257 0.7308 2.4026
-5.1438 0.6070 2.4026
-5.1590 0.4827 2.4026
-5.1687 0.3579 2.4015
-5.1685 0.2327 2.3972
-5.1682 0.1077 2.3942
-5.1677 -0.0171 2.3926
-5.1671 -0.1420 2.3923
-5.1663 -0.2669 2.3933
-5.1654 -0.3921 2.3957
-5.1644 -0.5177 2.3995
-5.1589 -0.6433 2.4026
-5.1437 -0.7679 2.4026
-5.1255 -0.8921 2.4026
-5.1042 -1.0159 2.4026
-5.0800 -1.1392 2.4026
-5.0528 -1.2619 2.4026
-5.0225 -1.3840 2.4026
-4.9894 -1.5053 2.4026
-4.9532 -1.6258 2.4026
-4.9142 -1.7454 2.4026
-4.8722 -1.8640 2.4026
-4.8273 -1.9816 2.4026
-4.7796 -2.0982 2.4026
-4.7290 -2.2135 2.4026
-4.6757 -2.3277 2.4026
-4.6195 -2.4405 2.4026
-4.5606 -2.5519 2.4026
-4.4990 -2.6619 2.4026
-4.4347 -2.7704 2.4026
-4.3678 -2.8773 2.4026
-4.2983 -2.9826 2.4026
-4.2262 -3.0862 2.4026
-4.1516 -3.1880 2.4026
-4.0745 -3.2879 2.4026
-3.8808 -3.2895 2.4026
-3.8012 -3.3829 2.4026
-3.7193 -3.4743 2.4026
-3.6353 -3.5637 2.4026
-3.5490 -3.6510 2.4026
-3.4606 -3.7362 2.4026
-3.3702 -3.8193 2.4026
-3.2778 -3.9001 2.4026
-3.1833 -3.9786 2.4026
-3.0870 -4.0548 2.4026
-2.9889 -4.1287 2.4026
-2.8889 -4.2001 2.4026
-2.7872 -4.2691 2.4026
-2.6839 -4.3356 2.4026
-2.5789 -4.3995 2.4026
-2.4724 -4.4609 2.4026
-2.3645 -4.5196 2.4026
-2.2551 -4.5757 2.4026
-2.1443 -4.6291 2.4026
-2.0323 -4.6798 2.4026
-1.9191 -4.7277 2.4026
-1.8047 -4.7728 2.4026
-1.6893 -4.8151 2.4026
-1.5728 -4.8546 2.4026
-1.4554 -4.8913 2.4026
-1.3372 -4.9250 2.4026
-1.2182 -4.9559 2.4026
-1.0984 -4.9838 2.4026
-0.9780 -5.0088 2.4026
-0.8570 -5.0308 2.4026
-0.7355 -5.0499 2.4026
-0.6136 -5.0659 2.4026
-0.4913 -5.0790 2.4026
-0.3688 -5.0891 2.4026
-0.2460 -5.0962 2.4026
-0.1232 -5.1003 2.4026
-0.0002 -5.1014 2.4026
0.1227 -5.0995 2.4026
0.2455 -5.0945 2.4026
0.3682 -5.0866 2.4026
0.4906 -5.0757 2.4026
0.6127 -5.0618 2.4026
0.7344 -5.0449 2.4026
0.8556 -5.0250 2.4026
0.9763 -5.0022 2.4026
1.0964 -4.9764 2.4026
1.2159 -4.9477 2.4026
1.3345 -4.9161 2.4026
1.4524 -4.8816 2.4026
1.5693 -4.8443 2.4026
1.6853 -4.8041 2.4026
1.8002 -4.7611 2.4026
1.9141 -4.7153 2.4026
2.0268 -4.6668 2.4026
2.1382 -4.6155 2.4026
2.2483 -4.5616 2.4026
2.3571 -4.5049 2.4026
2.4644 -4.4457 2.4026
2.5702 -4.3839 2.4026
2.6745 -4.3195 2.4026
2.7771 -4.2526 2.4026
2.8781 -4.1832 2.4026
2.9012 -4.0063 2.3411
2.9428 -3.8641 2.2995
3.0342 -3.7909 2.2995
3.1619 -3.7607 2.3275
3.2116 -3.6379 2.2995
3.2974 -3.5583 2.2995
3.3812 -3.4766 2.2995
3.4630 -3.3929 2.2995
3.5428 -3.3073 2.2995
3.6203 -3.2198 2.2995
3.6958 -3.1305 2.2995
3.7690 -3.0394 2.2995
3.8399 -2.9465 2.2995
3.9086 -2.8520 2.2995
3.9749 -2.7559 2.2995
4.0388 -2.6582 2.2995
4.1004 -2.5590 2.2995
4.1595 -2.4584 2.2995
4.2161 -2.3564 2.2995
4.2702 -2.2531 2.2995
4.3218 -2.1486 2.2995
4.3708 -2.0429 2.2995
4.4173 -1.9360 2.2995
4.4611 -1.8281 2.2995
4.5023 -1.7192 2.2995
4.5408 -1.6093 2.2995
4.5766 -1.4986 2.2995
4.6098 -1.3871 2.2995
4.6402 -1.2748 2.2995
4.6679 -1.1619 2.2995
4.6929 -1.0484 2.2995
4.7151 -0.9343 2.2995
4.7345 -0.8198 2.2995
4.7511 -0.7049 2.2995
4.7650 -0.5896 2.2995
4.7761 -0.4741 2.2995
4.7844 -0.3584 2.2995
4.7899 -0.2425 2.2995
4.7926 -0.1266 2.2995
4.7925 -0.0107 2.2995
4.7896 0.1052 2.2995
4.7839 0.2209 2.2995
4.7755 0.3364 2.2995
4.7643 0.4516 2.2995
4.7503 0.5665 2.2995
4.7335 0.6810 2.2995
4.7140 0.7950 2.2995
4.6918 0.9085 2.2995
4.6669 1.0214 2.2995
4.6392 1.1336 2.2995
4.6089 1.2451 2.2995
4.5759 1.3559 2.2995
4.5403 1.4657 2.2995
4.5021 1.5747 2.2995
4.4613 1.6826 2.2995
4.4179 1.7896 2.2995
4.3719 1.8954 2.2995
4.3235 2.0001 2.2995
4.2726 2.1035 2.2995
4.2192 2.2057 2.2995
4.1634 2.3066 2.2995
4.1052 2.4060 2.2995
4.0446 2.5040 2.2995
3.9818 2.6006 2.2995
3.9166 2.6955 2.2995
3.8493 2.7889 2.2995
3.7797 2.8806 2.2995
3.7079 2.9706 2.2995
3.6341 3.0588 2.2995
3.5581 3.1452 2.2995
3.4802 3.2298 2.2995
3.4002 3.3125 2.2995
3.3183 3.3932 2.2995
3.2345 3.4719 2.2995
3.1625 3.5640 2.3094
3.0615 3.6232 2.2995
2.9723 3.6957 2.2995
2.8972 3.7867 2.3121
2.8699 3.9455 2.3662
2.8156 4.0749 2.4026
2.7157 4.1414 2.4026
2.6143 4.2055 2.4026
2.5114 4.2672 2.4026
2.4070 4.3264 2.4027
2.3013 4.3831 2.4027
2.1942 4.4372 2.4027
2.0859 4.4888 2.4028
1.9764 4.5378 2.4028
1.8658 4.5841 2.4029
1.7541 4.6278 2.4029
1.6414 4.6688 2.4029
1.5277 4.7071 2.4030
1.4132 4.7427 2.4030
1.2978 4.7755 2.4031
1.1817 4.8056 2.4031
1.0650 4.8330 2.4032
0.9476 4.8576 2.4033
0.8296 4.8794 2.4034
0.7112 4.8984 2.4035
0.5923 4.9145 2.4035
0.4731 4.9278 2.4036
0.3535 4.9382 2.4037
0.2338 4.9457 2.4038
0.1139 4.9504 2.4038
-0.0061 4.9523 2.4039
-0.1261 4.9512 2.4040
-0.2461 4.9473 2.4040
-0.3660 4.9405 2.4041
-0.4856 4.9309 2.4041
-0.6050 4.9183 2.4042
-0.7241 4.9030 2.4042
-0.8429 4.8847 2.4042
-0.9611 4.8637 2.4043
-1.0789 4.8398 2.4043
-1.1960 4.8130 2.4043
-1.3125 4.7835 2.4043
-1.4282 4.7509 2.4042
-1.5431 4.7156 2.4041
-1.6571 4.6776 2.4040
-1.7702 4.6368 2.4039
-1.8823 4.5934 2.4038
-1.9933 4.5472 2.4037
-2.1033 4.4985 2.4037
-2.2121 4.4472 2.4037
-2.3197 4.3933 2.4036
-2.4260 4.3369 2.4036
-2.5309 4.2778 2.4035
-2.6343 4.2163 2.4035
-2.7363 4.1523 2.4035
-2.8368 4.0859 2.4034
-2.9356 4.0171 2.4034
-3.0328 3.9459 2.4033
-3.1283 3.8724 2.4033
-3.2220 3.7965 2.4032
-3.3138 3.7184 2.4031
-3.4038 3.6381 2.4030
-3.4917 3.5556 2.4029
-3.5778 3.4710 2.4028
-3.6617 3.3843 2.4027
-3.7436 3.2957 2.4026
-3.8234 3.2051 2.4026
-3.9011 3.1127 2.4026
-3.9766 3.0184 2.4026
-4.0499 2.9223 2.4026
-4.1208 2.8245 2.4026
-4.1894 2.7249 2.4026
-4.2555 2.6237 2.4026
-4.3193 2.5209 2.4026
-4.3806 2.4166 2.4026
-4.4393 2.3108 2.4026
-4.4955 2.2036 2.4026
-4.5491 2.0950 2.4026
-4.6002 1.9851 2.4026
-4.6485 1.8740 2.4026
-4.6942 1.7618 2.4026
-4.7372 1.6484 2.4026
-4.7774 1.5340 2.4026
-4.8149 1.4186 2.4026
-4.8496 1.3023 2.4026
-4.8814 1.1852 2.4026
-4.9105 1.0673 2.4026
-4.9367 0.9487 2.4026
-4.9600 0.8295 2.4026
-4.9805 0.7097 2.4026
-4.9980 0.5894 2.4026
-5.0127 0.4686 2.4026
-5.0244 0.3475 2.4026
-5.0332 0.2262 2.4026
-5.0391 0.1046 2.4026
-5.0420 -0.0171 2.4026
-5.0419 -0.1389 2.4026
-5.0389 -0.2607 2.4026
-5.0330 -0.3824 2.4026
-5.0241 -0.5040 2.4026
-5.0122 -0.6254 2.4026
-4.9974 -0.7464 2.4026
-4.9797 -0.8671 2.4026
-4.9590 -0.9874 2.4026
-4.9354 -1.1072 2.4026
-4.9089 -1.2264 2.4026
-4.8795 -1.3449 2.4026
-4.8472 -1.4628 2.4026
-4.8121 -1.5798 2.4026
-4.7741 -1.6960 2.4026
-4.7333 -1.8113 2.4026
-4.6897 -1.9255 2.4026
-4.6433 -2.0387 2.4026
-4.5941 -2.1508 2.4026
-4.5423 -2.2616 2.4026
-4.4877 -2.3712 2.4026
-4.4304 -2.4794 2.4026
-4.3706 -2.5863 2.4026
-4.3081 -2.6917 2.4026
-4.2431 -2.7955 2.4026
-4.1755 -2.8977 2.4026
-4.1054 -2.9983 2.4026
-4.0329 -3.0972 2.4026
-3.9580 -3.1943 2.4026
-3.7718 -3.1975 2.4026
-3.6944 -3.2882 2.4026
-3.6149 -3.3770 2.4026
-3.5331 -3.4639 2.4026
-3.4493 -3.5487 2.4026
-3.3634 -3.6315 2.4026
-3.2755 -3.7122 2.4026
-3.1856 -3.7907 2.4026
-3.0938 -3.8670 2.4026
-3.0002 -3.9411 2.4026
-2.9048 -4.0129 2.4026
-2.8077 -4.0823 2.4026
-2.7089 -4.1493 2.4026
-2.6084 -4.2139 2.4026
-2.5064 -4.2760 2.4026
-2.4029 -4.3356 2.4026
-2.2980 -4.3927 2.4026
-2.1916 -4.4472 2.4026
-2.0840 -4.4991 2.4026
-1.9752 -4.5483 2.4026
-1.8651 -4.5949 2.4026
-1.7540 -4.6388 2.4026
-1.6418 -4.6799 2.4026
-1.5286 -4.7183 2.4026
-1.4145 -4.7539 2.4026
-1.2996 -4.7867 2.4026
-1.1839 -4.8166 2.4026
-1.0675 -4.8438 2.4026
-0.9505 -4.8680 2.4026
-0.8329 -4.8895 2.4026
-0.7149 -4.9080 2.4026
-0.5964 -4.9236 2.4026
-0.4776 -4.9363 2.4026
-0.3585 -4.9462 2.4026
-0.2392 -4.9531 2.4026
-0.1198 -4.9570 2.4026
-0.0003 -4.9581 2.4026
0.1191 -4.9562 2.4026
0.2385 -4.9515 2.4026
0.3577 -4.9438 2.4026
0.4767 -4.9332 2.4026
0.5953 -4.9196 2.4026
0.7136 -4.9032 2.4026
0.8314 -4.8839 2.4026
0.9488 -4.8618 2.4026
1.0655 -4.8368 2.4026
1.1815 -4.8089 2.4026
1.2969 -4.7782 2.4026
1.4114 -4.7447 2.4026
1.5251 -4.7084 2.4026
1.6378 -4.6694 2.4026
1.7495 -4.6276 2.4026
1.8602 -4.5832 2.4026
1.9697 -4.5360 2.4026
2.0780 -4.4862 2.4026
2.1851 -4.4338 2.4026
2.2908 -4.3788 2.4026
2.3951 -4.3212 2.4026
2.4980 -4.2612 2.4026
2.5993 -4.1986 2.4026
2.6991 -4.1336 2.4026
2.7972 -4.0662 2.4026
2.8855 -3.9853 2.3958
2.9032 -3.8126 2.3341
2.9491 -3.6849 2.2995
3.0362 -3.6117 2.2995
3.1606 -3.5807 2.3283
3.2049 -3.4590 2.2995
3.2864 -3.3796 2.2995
3.3660 -3.2983 2.2995
3.4435 -3.2151 2.2995
3.5189 -3.1301 2.2995
3.5922 -3.0433 2.2995
3.6634 -2.9547 2.2995
3.7324 -2.8645 2.2995
3.7992 -2.7726 2.2995
3.8637 -2.6792 2.2995
3.9259 -2.5843 2.2995
3.9857 -2.4879 2.2995
4.0432 -2.3901 2.2995
4.0983 -2.2910 2.2995
4.1509 -2.1906 2.2995
4.2011 -2.0890 2.2995
4.2488 -1.9862 2.2995
4.2940 -1.8824 2.2995
4.3366 -1.7775 2.2995
4.3767 -1.6716 2.2995
4.4142 -1.5648 2.2995
4.4490 -1.4572 2.2995
4.4813 -1.3488 2.2995
4.5109 -1.2397 2.2995
4.5379 -1.1299 2.2995
4.5622 -1.0196 2.2995
4.5838 -0.9087 2.2995
4.6027 -0.7974 2.2995
4.6190 -0.6857 2.2995
4.6325 -0.5736 2.2995
4.6433 -0.4613 2.2995
4.6514 -0.3488 2.2995
4.6568 -0.2362 2.2995
4.6594 -0.1235 2.2995
4.6594 -0.0108 2.2995
4.6566 0.1019 2.2995
4.6512 0.2144 2.2995
4.6430 0.3267 2.2995
4.6321 0.4387 2.2995
4.6185 0.5504 2.2995
4.6023 0.6618 2.2995
4.5834 0.7726 2.2995
4.5618 0.8830 2.2995
4.5376 0.9928 2.2995
4.5107 1.1019 2.2995
4.4813 1.2103 2.2995
4.4493 1.3180 2.2995
4.4147 1.4248 2.2995
4.3775 1.5307 2.2995
4.3379 1.6357 2.2995
4.2957 1.7397 2.2995
4.2511 1.8426 2.2995
4.2040 1.9444 2.2995
4.1545 2.0451 2.2995
4.1026 2.1444 2.2995
4.0484 2.2425 2.2995
3.9918 2.3392 2.2995
3.9329 2.4346 2.2995
3.8718 2.5284 2.2995
3.8085 2.6208 2.2995
3.7430 2.7116 2.2995
3.6754 2.8008 2.2995
3.6056 2.8883 2.2995
3.5338 2.9741 2.2995
3.4600 3.0582 2.2995
3.3842 3.1405 2.2995
3.3065 3.2209 2.2995
3.2268 3.2994 2.2995
3.1635 3.3953 2.3127
3.0621 3.4505 2.2995
2.9771 3.5231 2.2995
2.9022 3.6083 2.3089
2.8761 3.7588 2.3603
2.8337 3.8954 2.4026
2.7381 3.9624 2.4026
2.6409 4.0271 2.4026
2.5423 4.0895 2.4026
2.4422 4.1494 2.4027
2.3407 4.2070 2.4027
2.2379 4.2622 2.4027
2.1338 4.3148 2.4028
2.0285 4.3650 2.4028
1.9220 4.4126 2.4028
1.8144 4.4577 2.4029
1.7058 4.5002 2.4029
1.5962 4.5401 2.4030
1.4856 4.5773 2.4030
1.3742 4.6119 2.4030
1.2621 4.6439 2.4031
1.1492 4.6731 2.4031
1.0356 4.6997 2.4032
0.9214 4.7235 2.4032
0.8067 4.7446 2.4032
0.6915 4.7630 2.4033
0.5759 4.7787 2.4034
0.4599 4.7916 2.4035
0.3437 4.8017 2.4035
0.2272 4.8091 2.4036
0.1106 4.8136 2.4037
-0.0060 4.8154 2.4037
-0.1228 4.8143 2.4038
-0.2394 4.8105 2.4038
-0.3560 4.8039 2.4039
-0.4723 4.7945 2.4039
-0.5885 4.7823 2.4040
-0.7043 4.7673 2.4040
-0.8197 4.7496 2.4041
-0.9347 4.7291 2.4041
-1.0492 4.7058 2.4041
-1.1631 4.6798 2.4042
-1.2763 4.6511 2.4042
-1.3888 4.6195 2.4041
-1.5006 4.5851 2.4040
-1.6114 4.5481 2.4039
-1.7214 4.5085 2.4038
-1.8305 4.4663 2.4038
-1.9385 4.4215 2.4038
-2.0455 4.3742 2.4037
-2.1512 4.3243 2.4037
-2.2558 4.2718 2.4036
-2.3592 4.2169 2.4036
-2.4612 4.1595 2.4036
-2.5618 4.0996 2.4035
-2.6609 4.0374 2.4035
-2.7586 3.9728 2.4034
-2.8547 3.9057 2.4033
-2.9491 3.8364 2.4033
-3.0419 3.7649 2.4032
-3.1329 3.6910 2.4031
-3.2222 3.6151 2.4030
-3.3096 3.5369 2.4029
-3.3951 3.4567 2.4028
-3.4788 3.3745 2.4027
-3.5604 3.2902 2.4026
-3.6400 3.2040 2.4026
-3.7177 3.1160 2.4026
-3.7932 3.0261 2.4026
-3.8666 2.9344 2.4026
-3.9378 2.8410 2.4026
-4.0067 2.7458 2.4026
-4.0734 2.6490 2.4026
-4.1377 2.5506 2.4026
-4.1996 2.4506 2.4026
-4.2592 2.3492 2.4026
-4.3162 2.2463 2.4026
-4.3709 2.1420 2.4026
-4.4230 2.0365 2.4026
-4.4725 1.9296 2.4026
-4.5195 1.8216 2.4026
-4.5639 1.7124 2.4026
-4.6056 1.6022 2.4026
-4.6447 1.4909 2.4026
-4.6811 1.3788 2.4026
-4.7148 1.2657 2.4026
-4.7457 1.1518 2.4026
-4.7739 1.0372 2.4026
-4.7994 0.9219 2.4026
-4.8220 0.8060 2.4026
-4.8418 0.6895 2.4026
-4.8589 0.5725 2.4026
-4.8731 0.4552 2.4026
-4.8844 0.3375 2.4026
-4.8929 0.2195 2.4026
-4.8986 0.1013 2.4026
-4.9013 -0.0170 2.4026
-4.9013 -0.1354 2.4026
-4.8983 -0.2538 2.4026
-4.8925 -0.3721 2.4026
-4.8838 -0.4903 2.4026
-4.8722 -0.6083 2.4026
-4.8578 -0.7260 2.4026
-4.8405 -0.8433 2.4026
-4.8204 -0.9602 2.4026
-4.7974 -1.0766 2.4026
-4.7716 -1.1925 2.4026
-4.7430 -1.3077 2.4026
-4.7116 -1.4222 2.4026
-4.6774 -1.5360 2.4026
-4.6405 -1.6489 2.4026
-4.6008 -1.7609 2.4026
-4.5583 -1.8719 2.4026
-4.5132 -1.9819 2.4026
-4.4654 -2.0908 2.4026
-4.4150 -2.1986 2.4026
-4.3619 -2.3051 2.4026
-4.3062 -2.4103 2.4026
-4.2480 -2.5141 2.4026
-4.1873 -2.6165 2.4026
-4.1240 -2.7174 2.4026
-4.0583 -2.8168 2.4026
-3.9902 -2.9145 2.4026
-3.9197 -3.0106 2.4026
-3.8469 -3.1049 2.4026
-3.6677 -3.1095 2.4026
-3.5924 -3.1977 2.4026
-3.5150 -3.2841 2.4026
-3.4356 -3.3685 2.4026
-3.3540 -3.4510 2.4026
-3.2705 -3.5315 2.4026
-3.1850 -3.6099 2.4026
-3.0976 -3.6863 2.4026
-3.0084 -3.7605 2.4026
-2.9173 -3.8325 2.4026
-2.8245 -3.9022 2.4026
-2.7301 -3.9697 2.4026
-2.6340 -4.0349 2.4026
-2.5363 -4.0977 2.4026
-2.4371 -4.1581 2.4026
-2.3365 -4.2160 2.4026
-2.2344 -4.2715 2.4026
-2.1311 -4.3245 2.4026
-2.0264 -4.3749 2.4026
-1.9206 -4.4228 2.4026
-1.8136 -4.4680 2.4026
-1.7055 -4.5107 2.4026
-1.5964 -4.5507 2.4026
-1.4864 -4.5880 2.4026
-1.3754 -4.6226 2.4026
-1.2637 -4.6545 2.4026
-1.1512 -4.6836 2.4026
-1.0381 -4.7100 2.4026
-0.9243 -4.7336 2.4026
-0.8100 -4.7544 2.4026
-0.6952 -4.7724 2.4026
-0.5800 -4.7877 2.4026
-0.4645 -4.8000 2.4026
-0.3487 -4.8096 2.4026
-0.2327 -4.8163 2.4026
-0.1166 -4.8202 2.4026
-0.0004 -4.8212 2.4026
0.1157 -4.8194 2.4026
0.2318 -4.8148 2.4026
0.3477 -4.8073 2.4026
0.4634 -4.7970 2.4026
0.5788 -4.7839 2.4026
0.6938 -4.7679 2.4026
0.8084 -4.7492 2.4026
0.9224 -4.7277 2.4026
1.0359 -4.7033 2.4026
1.1488 -4.6763 2.4026
1.2609 -4.6465 2.4026
1.3723 -4.6139 2.4026
1.4828 -4.5787 2.4026
1.5924 -4.5407 2.4026
1.7011 -4.5001 2.4026
1.8087 -4.4569 2.4026
1.9152 -4.4111 2.4026
2.0205 -4.3627 2.4026
2.1246 -4.3117 2.4026
2.2274 -4.2583 2.4026
2.3289 -4.2023 2.4026
2.4289 -4.1439 2.4026
2.5275 -4.0831 2.4026
2.6245 -4.0200 2.4026
2.7200 -3.9545 2.4026
2.8138 -3.8867 2.4026
2.8847 -3.7888 2.3851
2.9045 -3.6297 2.3290
2.9524 -3.5125 2.2995
3.0354 -3.4393 2.2995
3.1585 -3.4093 2.3304
3.1958 -3.2869 2.2995
3.2732 -3.2078 2.2995
3.3486 -3.1270 2.2995
3.4220 -3.0443 2.2995
3.4933 -2.9599 2.2995
3.5626 -2.8738 2.2995
3.6297 -2.7861 2.2995
3.6946 -2.6968 2.2995
3.7574 -2.6060 2.2995
3.8179 -2.5136 2.2995
3.8761 -2.4199 2.2995
3.9321 -2.3249 2.2995
3.9857 -2.2285 2.2995
4.0369 -2.1309 2.2995
4.0857 -2.0320 2.2995
4.1322 -1.9321 2.2995
4.1761 -1.8311 2.2995
4.2176 -1.7291 2.2995
4.2566 -1.6262 2.2995
4.2931 -1.5223 2.2995
4.3271 -1.4177 2.2995
4.3585 -1.3122 2.2995
4.3873 -1.2061 2.2995
4.4136 -1.0994 2.2995
4.4373 -0.9921 2.2995
4.4583 -0.8842 2.2995
4.4768 -0.7759 2.2995
4.4926 -0.6673 2.2995
4.5058 -0.5583 2.2995
4.5163 -0.4491 2.2995
4.5243 -0.3396 2.2995
4.5295 -0.2301 2.2995
4.5322 -0.1205 2.2995
4.5321 -0.0108 2.2995
4.5295 0.0987 2.2995
4.5242 0.2082 2.2995
4.5163 0.3174 2.2995
4.5057 0.4264 2.2995
4.4926 0.5351 2.2995
4.4768 0.6434 2.2995
4.4584 0.7512 2.2995
4.4375 0.8586 2.2995
4.4139 0.9654 2.2995
4.3879 1.0715 2.2995
4.3593 1.1770 2.2995
4.3281 1.2818 2.2995
4.2945 1.3857 2.2995
4.2584 1.4888 2.2995
4.2198 1.5909 2.2995
4.1789 1.6921 2.2995
4.1355 1.7922 2.2995
4.0897 1.8913 2.2995
4.0416 1.9891 2.2995
3.9911 2.0858 2.2995
3.9384 2.1813 2.2995
3.8834 2.2754 2.2995
3.8261 2.3681 2.2995
3.7667 2.4595 2.2995
3.7051 2.5493 2.2995
3.6414 2.6377 2.2995
3.5756 2.7245 2.2995
3.5078 2.8096 2.2995
3.4380 2.8931 2.2995
3.3662 2.9749 2.2995
3.2924 3.0550 2.2995
3.2168 3.1332 2.2995
3.1631 3.2339 2.3168
3.0601 3.2841 2.2995
2.9791 3.3567 2.2995
2.9063 3.4390 2.3073
2.8814 3.5821 2.3561
2.8483 3.7222 2.4026
2.7569 3.7896 2.4026
2.6639 3.8548 2.4026
2.5694 3.9178 2.4026
2.4735 3.9785 2.4026
2.3761 4.0368 2.4027
2.2773 4.0929 2.4027
2.1773 4.1465 2.4028
2.0760 4.1978 2.4028
1.9735 4.2466 2.4028
1.8699 4.2929 2.4029
1.7653 4.3368 2.4029
1.6596 4.3781 2.4029
1.5529 4.4169 2.4030
1.4454 4.4532 2.4030
1.3370 4.4868 2.4031
1.2279 4.5179 2.4031
1.1180 4.5464 2.4031
1.0075 4.5722 2.4032
0.8964 4.5954 2.4032
0.7848 4.6159 2.4033
0.6727 4.6338 2.4033
0.5602 4.6490 2.4033
0.4474 4.6614 2.4034
0.3343 4.6712 2.4034
0.2210 4.6783 2.4035
0.1076 4.6827 2.4035
-0.0060 4.6844 2.4036
-0.1195 4.6834 2.4036
-0.2330 4.6797 2.4037
-0.3464 4.6732 2.4037
-0.4596 4.6641 2.4038
-0.5726 4.6522 2.4038
-0.6852 4.6376 2.4039
-0.7975 4.6203 2.4039
-0.9094 4.6004 2.4040
-1.0208 4.5777 2.4040
-1.1316 4.5524 2.4040
-1.2418 4.5245 2.4040
-1.3512 4.4937 2.4040
-1.4600 4.4604 2.4039
-1.5679 4.4245 2.4039
-1.6749 4.3860 2.4038
-1.7810 4.3449 2.4038
-1.8861 4.3013 2.4038
-1.9901 4.2552 2.4037
-2.0930 4.2067 2.4037
-2.1947 4.1556 2.4036
-2.2952 4.1021 2.4036
-2.3944 4.0462 2.4035
-2.4923 3.9879 2.4034
-2.5887 3.9273 2.4034
-2.6836 3.8643 2.4033
-2.7771 3.7991 2.4032
-2.8689 3.7317 2.4031
-2.9592 3.6620 2.4031
-3.0477 3.5902 2.4030
-3.1345 3.5163 2.4029
-3.2196 3.4403 2.4028
-3.3028 3.3622 2.4027
-3.3841 3.2822 2.4026
-3.4635 3.2002 2.4026
-3.5411 3.1164 2.4026
-3.6166 3.0308 2.4026
-3.6900 2.9434 2.4026
-3.7614 2.8542 2.4026
-3.8306 2.7632 2.4026
-3.8977 2.6706 2.4026
-3.9624 2.5765 2.4026
-4.0250 2.4807 2.4026
-4.0852 2.3834 2.4026
-4.1431 2.2847 2.4026
-4.1986 2.1846 2.4026
-4.2517 2.0832 2.4026
-4.3023 1.9805 2.4026
-4.3505 1.8765 2.4026
-4.3961 1.7715 2.4026
-4.4393 1.6653 2.4026
-4.4798 1.5580 2.4026
-4.5178 1.4498 2.4026
-4.5532 1.3407 2.4026
-4.5859 1.2307 2.4026
-4.6160 1.1199 2.4026
-4.6434 1.0084 2.4026
-4.6681 0.8963 2.4026
-4.6900 0.7835 2.4026
-4.7093 0.6702 2.4026
-4.7258 0.5565 2.4026
-4.7396 0.4423 2.4026
-4.7506 0.3278 2.4026
-4.7588 0.2131 2.4026
-4.7643 0.0981 2.4026
-4.7670 -0.0170 2.4026
-4.7668 -0.1321 2.4026
-4.7639 -0.2472 2.4026
-4.7582 -0.3623 2.4026
-4.7497 -0.4772 2.4026
-4.7384 -0.5919 2.4026
-4.7244 -0.7064 2.4026
-4.7075 -0.8205 2.4026
-4.6879 -0.9342 2.4026
-4.6656 -1.0474 2.4026
-4.6404 -1.1600 2.4026
-4.6126 -1.2721 2.4026
-4.5820 -1.3834 2.4026
-4.5487 -1.4941 2.4026
-4.5128 -1.6039 2.4026
-4.4741 -1.7128 2.4026
-4.4328 -1.8207 2.4026
-4.3889 -1.9277 2.4026
-4.3424 -2.0336 2.4026
-4.2933 -2.1383 2.4026
-4.2417 -2.2419 2.4026
-4.1875 -2.3442 2.4026
-4.1309 -2.4451 2.4026
-4.0718 -2.5447 2.4026
-4.0103 -2.6428 2.4026
-3.9464 -2.7394 2.4026
-3.8801 -2.8344 2.4026
-3.8116 -2.9278 2.4026
-3.7407 -3.0196 2.4026
-3.5681 -3.0254 2.4026
-3.4949 -3.1112 2.4026
-3.4196 -3.1952 2.4026
-3.3422 -3.2773 2.4026
-3.2629 -3.3575 2.4026
-3.1816 -3.4358 2.4026
-3.0984 -3.5121 2.4026
-3.0134 -3.5864 2.4026
-2.9266 -3.6585 2.4026
-2.8380 -3.7285 2.4026
-2.7477 -3.7964 2.4026
-2.6558 -3.8620 2.4026
-2.5624 -3.9254 2.4026
-2.4673 -3.9865 2.4026
-2.3708 -4.0452 2.4026
-2.2729 -4.1016 2.4026
-2.1737 -4.1555 2.4026
-2.0731 -4.2071 2.4026
-1.9713 -4.2561 2.4026
-1.8683 -4.3027 2.4026
-1.7643 -4.3467 2.4026
-1.6591 -4.3882 2.4026
-1.5530 -4.4271 2.4026
-1.4460 -4.4634 2.4026
-1.3381 -4.4970 2.4026
-1.2294 -4.5281 2.4026
-1.1199 -4.5564 2.4026
-1.0099 -4.5821 2.4026
-0.8992 -4.6050 2.4026
-0.7880 -4.6253 2.4026
-0.6763 -4.6428 2.4026
-0.5643 -4.6576 2.4026
-0.4519 -4.6697 2.4026
-0.3392 -4.6790 2.4026
-0.2264 -4.6855 2.4026
-0.1135 -4.6893 2.4026
-0.0005 -4.6903 2.4026
0.1125 -4.6886 2.4026
0.2254 -4.6841 2.4026
0.3382 -4.6768 2.4026
0.4507 -4.6668 2.4026
0.5629 -4.6540 2.4026
0.6748 -4.6385 2.4026
0.7863 -4.6203 2.4026
0.8972 -4.5994 2.4026
1.0076 -4.5757 2.4026
1.1174 -4.5494 2.4026
1.2265 -4.5204 2.4026
1.3349 -4.4888 2.4026
1.4424 -4.4545 2.4026
1.5490 -4.4176 2.4026
1.6547 -4.3782 2.4026
1.7594 -4.3361 2.4026
1.8630 -4.2916 2.4026
1.9655 -4.2445 2.4026
2.0668 -4.1950 2.4026
2.1668 -4.1430 2.4026
2.2655 -4.0886 2.4026
2.3629 -4.0318 2.4026
2.4588 -3.9726 2.4026
2.5532 -3.9112 2.4026
2.6461 -3.8475 2.4026
2.7373 -3.7816 2.4026
2.8270 -3.7135 2.4026
2.8850 -3.6059 2.3779
2.9050 -3.4566 2.3257
2.9530 -3.3464 2.2995
3.0320 -3.2732 2.2995
3.1091 -3.1982 2.2995
3.1844 -3.1213 2.2995
3.2578 -3.0426 2.2995
3.3292 -2.9622 2.2995
3.3987 -2.8801 2.2995
3.4661 -2.7964 2.2995
3.5314 -2.7111 2.2995
3.5946 -2.6242 2.2995
3.6557 -2.5358 2.2995
3.7146 -2.4460 2.2995
3.7713 -2.3549 2.2995
3.8257 -2.2624 2.2995
3.8779 -2.1686 2.2995
3.9278 -2.0737 2.2995
3.9753 -1.9775 2.2995
4.0205 -1.8803 2.2995
4.0633 -1.7821 2.2995
4.1037 -1.6828 2.2995
4.1417 -1.5827 2.2995
4.1773 -1.4816 2.2995
4.2104 -1.3798 2.2995
4.2409 -1.2773 2.2995
4.2690 -1.1740 2.2995
4.2946 -1.0701 2.2995
4.3177 -0.9657 2.2995
4.3382 -0.8608 2.2995
4.3562 -0.7554 2.2995
4.3716 -0.6497 2.2995
4.3845 -0.5436 2.2995
4.3948 -0.4373 2.2995
4.4026 -0.3309 2.2995
4.4077 -0.2243 2.2995
4.4103 -0.1176 2.2995
4.4103 -0.0109 2.2995
4.4078 0.0957 2.2995
4.4027 0.2022 2.2995
4.3950 0.3085 2.2995
4.3848 0.4146 2.2995
4.3720 0.5203 2.2995
4.3567 0.6257 2.2995
4.3388 0.7307 2.2995
4.3185 0.8352 2.2995
4.2956 0.9391 2.2995
4.2702 1.0425 2.2995
4.2424 1.1451 2.2995
4.2122 1.2471 2.2995
4.1795 1.3482 2.2995
4.1444 1.4485 2.2995
4.1069 1.5480 2.2995
4.0670 1.6465 2.2995
4.0248 1.7439 2.2995
3.9803 1.8403 2.2995
3.9334 1.9356 2.2995
3.8844 2.0297 2.2995
3.8330 2.1226 2.2995
3.7795 2.2142 2.2995
3.7239 2.3045 2.2995
3.6660 2.3934 2.2995
3.6061 2.4809 2.2995
3.5441 2.5669 2.2995
3.4801 2.6514 2.2995
3.4141 2.7343 2.2995
3.3461 2.8156 2.2995
3.2763 2.8952 2.2995
3.2045 2.9731 2.2995
3.1595 3.0771 2.3204
3.0556 3.1237 2.2995
2.9784 3.1962 2.2995
2.9087 3.2771 2.3067
2.8857 3.4143 2.3537
2.8597 3.5550 2.4026
2.7723 3.6227 2.4026
2.6834 3.6883 2.4026
2.5929 3.7518 2.4026
2.5009 3.8131 2.4026
2.4075 3.8722 2.4027
2.3127 3.9290 2.4027
2.2166 3.9835 2.4027
2.1193 4.0358 2.4028
2.0207 4.0856 2.4028
1.9209 4.1332 2.4028
1.8201 4.1783 2.4029
1.7182 4.2210 2.4029
1.6153 4.2612 2.4030
1.5115 4.2990 2.4030
1.4068 4.3343 2.4030
1.3013 4.3671 2.4031
1.1951 4.3973 2.4031
1.0882 4.4250 2.4031
0.9806 4.4502 2.4032
0.8724 4.4727 2.4032
0.7638 4.4927 2.4033
0.6547 4.5101 2.4033
0.5452 4.5248 2.4033
0.4354 4.5370 2.4034
0.3253 4.5465 2.4034
0.2150 4.5534 2.4035
0.1046 4.5576 2.4035
-0.0059 4.5593 2.4035
-0.1164 4.5582 2.4036
-0.2269 4.5546 2.4036
-0.3372 4.5482 2.4037
-0.4474 4.5393 2.4037
-0.5574 4.5277 2.4037
-0.6670 4.5135 2.4038
-0.7764 4.4967 2.4038
-0.8852 4.4773 2.4039
-0.9936 4.4552 2.4039
-1.1015 4.4306 2.4039
-1.2087 4.4033 2.4039
-1.3153 4.3734 2.4039
-1.4211 4.3409 2.4038
-1.5261 4.3059 2.4038
-1.6302 4.2685 2.4037
-1.7335 4.2285 2.4037
-1.8357 4.1860 2.4037
-1.9370 4.1411 2.4036
-2.0371 4.0938 2.4035
-2.1361 4.0441 2.4035
-2.2339 3.9920 2.4034
-2.3304 3.9375 2.4034
-2.4257 3.8808 2.4033
-2.5195 3.8218 2.4032
-2.6119 3.7605 2.4032
-2.7028 3.6970 2.4031
-2.7922 3.6314 2.4030
-2.8800 3.5636 2.4029
-2.9662 3.4937 2.4029
-3.0507 3.4217 2.4028
-3.1334 3.3477 2.4027
-3.2143 3.2717 2.4026
-3.2935 3.1939 2.4026
-3.3709 3.1142 2.4026
-3.4463 3.0326 2.4026
-3.5198 2.9493 2.4026
-3.5913 2.8641 2.4026
-3.6607 2.7773 2.4026
-3.7280 2.6888 2.4026
-3.7932 2.5987 2.4026
-3.8563 2.5070 2.4026
-3.9171 2.4138 2.4026
-3.9757 2.3191 2.4026
-4.0320 2.2230 2.4026
-4.0859 2.1256 2.4026
-4.1376 2.0269 2.4026
-4.1868 1.9269 2.4026
-4.2337 1.8257 2.4026
-4.2781 1.7235 2.4026
-4.3200 1.6201 2.4026
-4.3594 1.5157 2.4026
-4.3964 1.4104 2.4026
-4.4307 1.3042 2.4026
-4.4625 1.1972 2.4026
-4.4918 1.0894 2.4026
-4.5184 0.9809 2.4026
-4.5424 0.8717 2.4026
-4.5638 0.7620 2.4026
-4.5825 0.6518 2.4026
-4.5985 0.5411 2.4026
-4.6119 0.4300 2.4026
-4.6225 0.3186 2.4026
-4.6305 0.2069 2.4026
-4.6358 0.0951 2.4026
-4.6383 -0.0169 2.4026
-4.6382 -0.1289 2.4026
-4.6353 -0.2409 2.4026
-4.6297 -0.3529 2.4026
-4.6214 -0.4647 2.4026
-4.6104 -0.5763 2.4026
-4.5967 -0.6877 2.4026
-4.5803 -0.7987 2.4026
-4.5612 -0.9093 2.4026
-4.5394 -1.0194 2.4026
-4.5149 -1.1290 2.4026
-4.4878 -1.2380 2.4026
-4.4580 -1.3464 2.4026
-4.4256 -1.4540 2.4026
-4.3906 -1.5608 2.4026
-4.3529 -1.6667 2.4026
-4.3127 -1.7718 2.4026
-4.2700 -1.8758 2.4026
-4.2247 -1.9788 2.4026
-4.1769 -2.0807 2.4026
-4.1267 -2.1814 2.4026
-4.0740 -2.2809 2.4026
-4.0188 -2.3791 2.4026
-3.9613 -2.4760 2.4026
-3.9015 -2.5714 2.4026
-3.8393 -2.6654 2.4026
-3.7748 -2.7578 2.4026
-3.7081 -2.8487 2.4026
-3.6392 -2.9379 2.4026
-3.4727 -2.9448 2.4026
-3.4014 -3.0283 2.4026
-3.3281 -3.1100 2.4026
-3.2528 -3.1899 2.4026
-3.1756 -3.2680 2.4026
-3.0965 -3.3442 2.4026
-3.0155 -3.4184 2.4026
-2.9328 -3.4907 2.4026
-2.8483 -3.5609 2.4026
-2.7621 -3.6290 2.4026
-2.6742 -3.6950 2.4026
-2.5848 -3.7589 2.4026
-2.4938 -3.8206 2.4026
-2.4013 -3.8800 2.4026
-2.3074 -3.9372 2.4026
-2.2121 -3.9920 2.4026
-2.1155 -4.0445 2.4026
-2.0176 -4.0947 2.4026
-1.9185 -4.1424 2.4026
-1.8183 -4.1877 2.4026
-1.7170 -4.2305 2.4026
-1.6147 -4.2709 2.4026
-1.5114 -4.3087 2.4026
-1.4073 -4.3441 2.4026
-1.3023 -4.3768 2.4026
-1.1965 -4.4070 2.4026
-1.0900 -4.4346 2.4026
-0.9829 -4.4596 2.4026
-0.8752 -4.4819 2.4026
-0.7669 -4.5016 2.4026
-0.6583 -4.5187 2.4026
-0.5492 -4.5331 2.4026
-0.4399 -4.5448 2.4026
-0.3302 -4.5539 2.4026
-0.2204 -4.5602 2.4026
-0.1105 -4.5639 2.4026
-0.0005 -4.5649 2.4026
0.1094 -4.5632 2.4026
0.2193 -4.5589 2.4026
0.3290 -4.5518 2.4026
0.4385 -4.5421 2.4026
0.5477 -4.5297 2.4026
0.6566 -4.5146 2.4026
0.7651 -4.4969 2.4026
0.8731 -4.4765 2.4026
0.9806 -4.4535 2.4026
1.0874 -4.4279 2.4026
1.1936 -4.3997 2.4026
1.2990 -4.3689 2.4026
1.4037 -4.3356 2.4026
1.5075 -4.2997 2.4026
1.6104 -4.2613 2.4026
1.7122 -4.2205 2.4026
1.8131 -4.1771 2.4026
1.9128 -4.1313 2.4026
2.0114 -4.0831 2.4026
2.1088 -4.0325 2.4026
2.2049 -3.9796 2.4026
2.2996 -3.9244 2.4026
2.3930 -3.8668 2.4026
2.4849 -3.8071 2.4026
2.5753 -3.7451 2.4026
2.6641 -3.6809 2.4026
2.7514 -3.6147 2.4026
2.8370 -3.5463 2.4026
2.8859 -3.4343 2.3738
2.9050 -3.2924 2.3242
2.9510 -3.1862 2.2995
3.0261 -3.1132 2.2995
3.0994 -3.0384 2.2995
3.1755 -2.9662 2.3029
3.2404 -2.8836 2.2995
3.3080 -2.8037 2.2995
