ply
format ascii 1.0
element vertex 2103
property float32 x
property float32 y
property float32 z
end_header
-13.9436 -0.3541 1.5144
-14.0790 -0.6980 1.5285
-21.3879 -1.5790 2.3225
-21.3698 -2.0976 2.3225
-21.3387 -2.6161 2.3225
-21.2942 -3.1343 2.3225
-21.2365 -3.6518 2.3225
-21.1656 -4.1681 2.3225
-12.0837 -2.6842 1.3312
-12.0227 -2.9771 1.3307
-20.8734 -5.7069 2.3225
-20.7496 -6.2153 2.3225
-20.6127 -6.7208 2.3225
-20.4627 -7.2229 2.3225
-20.2998 -7.7215 2.3225
-20.1239 -8.2162 2.3225
-19.9352 -8.7064 2.3225
-19.7338 -9.1920 2.3225
-19.5198 -9.6726 2.3225
-19.2933 -10.1477 2.3225
-19.0545 -10.6172 2.3225
-18.8035 -11.0805 2.3225
-18.5405 -11.5375 2.3225
-18.2656 -11.9877 2.3225
-12.4034 -8.5758 1.6023
-12.1641 -8.8519 1.5978
-17.3715 -13.2946 2.3225
-17.0509 -13.7145 2.3225
-15.1205 -12.7755 2.3225
-14.8109 -13.1396 2.3225
-14.4919 -13.4957 2.3225
-14.1638 -13.8434 2.3225
-13.8268 -14.1827 2.3225
-13.4811 -14.5131 2.3225
-13.1270 -14.8345 2.3225
-12.7648 -15.1467 2.3225
-12.3946 -15.4494 2.3225
-12.0168 -15.7425 2.3225
-11.6316 -16.0257 2.3225
-11.2392 -16.2988 2.3225
-10.7315 -16.3958 2.2993
-10.3299 -16.6457 2.2993
-9.9220 -16.8851 2.2993
-9.5082 -17.1139 2.2993
-9.0888 -17.3318 2.2993
-8.6641 -17.5388 2.2993
-8.2344 -17.7347 2.2993
-7.8000 -17.9194 2.2993
-7.3612 -18.0928 2.2993
-7.2280 -19.0719 2.4022
-6.7622 -19.2317 2.4025
-6.2919 -19.3769 2.4025
-5.8183 -19.5098 2.4025
-5.3418 -19.6305 2.4025
-4.8626 -19.7389 2.4025
-4.3812 -19.8349 2.4025
-3.8978 -19.9185 2.4025
-3.4128 -19.9897 2.4025
-2.9266 -20.0485 2.4025
-2.4395 -20.0948 2.4025
-1.9517 -20.1287 2.4025
-1.4637 -20.1501 2.4025
-0.9758 -20.1591 2.4025
-0.4882 -20.1558 2.4025
-0.0014 -20.1401 2.4025
0.4844 -20.1121 2.4025
0.9272 -19.2106 2.2994
1.3892 -19.1605 2.2994
1.5771 -16.2878 1.9610
2.3071 -19.0256 2.2994
2.7625 -18.9410 2.2994
3.2151 -18.8451 2.2994
3.6645 -18.7380 2.2994
4.1106 -18.6198 2.2994
4.5493 -18.4754 2.2975
4.9874 -18.3355 2.2975
5.4214 -18.1849 2.2975
5.8509 -18.0238 2.2975
6.2757 -17.8523 2.2975
6.6956 -17.6705 2.2975
7.1103 -17.4787 2.2975
7.5195 -17.2768 2.2975
7.7536 -16.7003 2.2484
7.8456 -15.8825 2.1663
7.9310 -15.1239 2.0915
8.0105 -14.4177 2.0230
8.0848 -13.7577 1.9602
8.1544 -13.1389 1.9025
8.2199 -12.5569 1.8492
8.2817 -12.0079 1.8001
8.3401 -11.4886 1.7546
8.3956 -10.9960 1.7125
8.4483 -10.5277 1.6735
8.4985 -10.0813 1.6373
8.5465 -9.6549 1.6036
8.5693 -9.2218 1.5680
8.6132 -8.8313 1.5390
8.6555 -8.4558 1.5119
8.7197 -8.1162 1.4907
8.7590 -7.7664 1.4672
8.7971 -7.4283 1.4454
8.9265 -7.1754 1.4399
9.4607 -7.2355 1.4998
10.0396 -7.3006 1.5656
10.6701 -7.3716 1.6381
11.3601 -7.4492 1.7185
12.1193 -7.5347 1.8080
12.9598 -7.6293 1.9083
13.7309 -7.6425 1.9970
13.7765 -7.2374 1.9806
8.1160 -4.0165 1.1542
8.1418 -3.7871 1.1462
8.1672 -3.5614 1.1390
8.1922 -3.3390 1.1325
8.2169 -3.1197 1.1268
8.2413 -2.9030 1.1218
8.2654 -2.6888 1.1174
8.2893 -2.4766 1.1138
8.3129 -2.2663 1.1108
8.3364 -2.0575 1.1085
8.3598 -1.8501 1.1068
8.3830 -1.6437 1.1057
8.4061 -1.4382 1.1053
8.4292 -1.2332 1.1054
8.4522 -1.0285 1.1063
8.4752 -0.8239 1.1077
8.4983 -0.6191 1.1098
8.5214 -0.4140 1.1125
8.5445 -0.2082 1.1158
8.5678 -0.0016 1.1197
8.5912 0.2062 1.1244
8.6147 0.4154 1.1297
8.6384 0.6262 1.1356
8.6624 0.8390 1.1423
8.6866 1.0539 1.1496
8.7110 1.2713 1.1577
8.7358 1.4915 1.1666
8.7609 1.7148 1.1762
8.7864 1.9415 1.1866
8.8124 2.1721 1.1979
8.8388 2.4067 1.2100
8.8657 2.6460 1.2231
8.8932 2.8902 1.2371
8.8755 3.1237 1.2457
8.9229 3.3851 1.2644
8.9523 3.6463 1.2815
8.9825 3.9145 1.2998
9.0136 4.1903 1.3194
9.0730 4.4879 1.3444
9.1061 4.7818 1.3667
9.1402 5.0855 1.3906
9.4451 5.5584 1.4577
9.4828 5.8940 1.4858
9.5221 6.2426 1.5157
9.5629 6.6055 1.5478
9.6055 6.9841 1.5821
9.6501 7.3798 1.6189
9.6967 7.7943 1.6583
9.7457 8.2295 1.7006
9.7972 8.6876 1.7461
9.8516 9.1710 1.7951
9.9092 9.6824 1.8479
9.9703 10.2250 1.9050
10.0353 10.8026 1.9669
10.1047 11.4192 2.0341
10.1790 12.0797 2.1073
10.2589 12.7901 2.1871
10.3148 13.5171 2.2679
10.1167 13.9444 2.2975
9.7781 14.1874 2.2975
9.4339 14.4226 2.2975
9.0844 14.6500 2.2975
8.7298 14.8695 2.2975
8.3701 15.0809 2.2975
8.0579 15.3838 2.3125
7.6863 15.5801 2.3125
7.3102 15.7679 2.3125
6.9297 15.9471 2.3125
6.5451 16.1177 2.3125
6.1565 16.2796 2.3125
5.7640 16.4327 2.3125
5.2932 16.3460 2.2803
4.8799 16.4139 2.2713
4.4969 16.5838 2.2776
4.1005 16.7125 2.2794
3.6615 16.6541 2.2571
3.2345 16.6186 2.2394
2.8496 16.7975 2.2518
2.4673 17.0328 2.2729
2.0847 17.3375 2.3042
1.7446 18.2164 2.4126
1.3372 18.7229 2.4725
0.8848 18.7670 2.4725
0.4311 18.8008 2.4725
-0.0237 18.8241 2.4725
-0.4483 17.6180 2.3125
-0.8751 17.6202 2.3125
-1.3023 17.6125 2.3125
-1.7297 17.5950 2.3125
-2.1570 17.5675 2.3125
-2.5841 17.5301 2.3125
-2.9936 17.3838 2.2994
-3.4171 17.3269 2.2994
-3.8397 17.2600 2.2994
-4.2611 17.1833 2.2994
-4.6811 17.0966 2.2994
-5.0996 17.0001 2.2994
-5.5162 16.8937 2.2994
-5.9308 16.7775 2.2994
-6.3431 16.6514 2.2994
-6.7529 16.5155 2.2994
-7.1600 16.3699 2.2994
-7.5641 16.2145 2.2994
-7.9650 16.0494 2.2994
-8.3625 15.8747 2.2994
-8.7564 15.6904 2.2994
-9.1463 15.4966 2.2994
-9.5321 15.2934 2.2994
-9.9136 15.0808 2.2994
-10.3429 14.9346 2.3111
-10.9154 14.9746 2.3540
-11.5195 15.0265 2.4016
-11.9020 14.7719 2.4025
-12.2742 14.5020 2.4025
-12.6404 14.2230 2.4025
-13.0004 13.9348 2.4025
-13.3539 13.6376 2.4025
-13.7008 13.3316 2.4025
-14.0407 13.0168 2.4025
-14.3735 12.6935 2.4025
-14.6989 12.3618 2.4025
-15.0167 12.0217 2.4025
-15.3267 11.6736 2.4025
-15.6287 11.3175 2.4025
-15.9223 10.9537 2.4025
-16.2075 10.5823 2.4025
-16.4840 10.2034 2.4025
-16.7516 9.8174 2.4025
-17.0102 9.4244 2.4025
-17.2594 9.0246 2.4025
-17.4991 8.6182 2.4025
-17.7291 8.2055 2.4025
-17.1791 7.4525 2.2994
-17.3803 7.0459 2.2994
-17.5716 6.6340 2.2994
-17.7530 6.2168 2.2994
-17.9243 5.7947 2.2994
-18.0853 5.3679 2.2994
-18.2359 4.9366 2.2994
-18.3761 4.5011 2.2994
-18.5055 4.0617 2.2994
-18.8111 3.6550 2.3225
-18.9198 3.2040 2.3225
-19.0175 2.7499 2.3225
-19.1038 2.2928 2.3225
-19.1788 1.8332 2.3225
-19.2424 1.3713 2.3225
-19.2944 0.9074 2.3225
-19.3348 0.4418 2.3225
-19.3636 -0.0253 2.3225
-13.9411 -0.3549 1.6707
-14.0776 -0.6989 1.6866
-19.3790 -1.4319 2.3225
-19.3605 -1.9015 2.3225
-19.3301 -2.3710 2.3225
-19.2877 -2.8401 2.3225
-19.2334 -3.3084 2.3225
-19.1672 -3.7756 2.3225
-12.0808 -2.6843 1.4698
-12.0200 -2.9770 1.4694
-18.8971 -5.1676 2.3225
-18.7833 -5.6273 2.3225
-18.6578 -6.0843 2.3225
-18.5205 -6.5383 2.3225
-18.3715 -6.9889 2.3225
-18.2110 -7.4360 2.3225
-18.0389 -7.8790 2.3225
-17.8554 -8.3178 2.3225
-17.6607 -8.7521 2.3225
-17.4547 -9.1814 2.3225
-17.2376 -9.6055 2.3225
-17.0096 -10.0241 2.3225
-16.7709 -10.4369 2.3225
-16.5214 -10.8436 2.3225
-12.4006 -8.5743 1.7711
-12.1626 -8.8512 1.7664
-15.7109 -12.0241 2.3225
-15.4206 -12.4036 2.3225
-13.7975 -11.6579 2.3225
-13.5147 -11.9899 2.3225
-13.2235 -12.3146 2.3225
-12.9240 -12.6318 2.3225
-12.6164 -12.9412 2.3225
-12.3010 -13.2426 2.3225
-11.9779 -13.5359 2.3225
-11.6474 -13.8208 2.3225
-11.3097 -14.0970 2.3225
-10.9651 -14.3645 2.3225
-10.5075 -14.4767 2.2993
-10.1533 -14.7236 2.2993
-9.7929 -14.9614 2.2993
-9.4266 -15.1897 2.2993
-9.0547 -15.4085 2.2993
-8.6774 -15.6177 2.2993
-8.2950 -15.8171 2.2993
-7.9077 -16.0065 2.2993
-7.5158 -16.1860 2.2993
-7.1408 -16.4038 2.3061
-7.0213 -17.2558 2.4025
-6.5992 -17.4112 2.4025
-6.1735 -17.5556 2.4025
-5.7445 -17.6890 2.4025
-5.3125 -17.8114 2.4025
-4.8778 -17.9227 2.4025
-4.4406 -18.0228 2.4025
-4.0014 -18.1117 2.4025
-3.5603 -18.1894 2.4025
-3.1177 -18.2557 2.4025
-2.6739 -18.3108 2.4025
-2.2292 -18.3545 2.4025
-1.7838 -18.3869 2.4025
-1.3382 -18.4081 2.4025
-0.8925 -18.4179 2.4025
-0.4472 -18.4164 2.4025
-0.0024 -18.4038 2.4025
0.4415 -18.3799 2.4025
0.8843 -18.3449 2.4025
1.2687 -17.5137 2.2994
1.5752 -16.2798 2.1441
2.1081 -17.3939 2.2994
2.5246 -17.3184 2.2994
2.9387 -17.2325 2.2994
3.3500 -17.1365 2.2994
3.7584 -17.0302 2.2994
4.1635 -16.9140 2.2994
4.5651 -16.7879 2.2994
4.9589 -16.6381 2.2975
5.3525 -16.4926 2.2975
5.7418 -16.3376 2.2975
6.1268 -16.1732 2.2975
6.5070 -15.9994 2.2975
6.8824 -15.8166 2.2975
7.2527 -15.6248 2.2975
7.6177 -15.4243 2.2975
7.9307 -15.1264 2.2841
8.0102 -14.4200 2.2091
8.0845 -13.7599 2.1402
8.1542 -13.1410 2.0769
8.2197 -12.5590 2.0185
8.2815 -12.0099 1.9646
8.3399 -11.4904 1.9148
8.3954 -10.9978 1.8686
8.4481 -10.5294 1.8258
8.4983 -10.0829 1.7860
8.5463 -9.6565 1.7490
8.5691 -9.2233 1.7100
8.6131 -8.8327 1.6781
8.6553 -8.4572 1.6484
8.7195 -8.1175 1.6251
8.7589 -7.7677 1.5993
8.7969 -7.4295 1.5752
8.9246 -7.1751 1.5688
9.4586 -7.2352 1.6338
10.0374 -7.3004 1.7052
10.6677 -7.3713 1.7840
11.3574 -7.4489 1.8714
12.1164 -7.5344 1.9686
12.9566 -7.6289 2.0774
13.7308 -7.6440 2.1743
13.7763 -7.2389 2.1561
8.1159 -4.0173 1.2564
8.1417 -3.7879 1.2475
8.1671 -3.5622 1.2395
8.1921 -3.3398 1.2323
8.2168 -3.1204 1.2260
8.2412 -2.9038 1.2204
8.2653 -2.6895 1.2155
8.2892 -2.4773 1.2114
8.3129 -2.2670 1.2080
8.3363 -2.0582 1.2053
8.3597 -1.8508 1.2034
8.3829 -1.6444 1.2021
8.4060 -1.4388 1.2015
8.4291 -1.2338 1.2016
8.4522 -1.0291 1.2023
8.4752 -0.8245 1.2038
8.4982 -0.6197 1.2059
8.5213 -0.4146 1.2087
8.5445 -0.2088 1.2122
8.5677 -0.0021 1.2164
8.5911 0.2057 1.2214
8.6146 0.4149 1.2270
8.6384 0.6257 1.2334
8.6623 0.8384 1.2405
8.6865 1.0534 1.2484
8.7110 1.2708 1.2571
8.7357 1.4910 1.2666
8.7609 1.7143 1.2770
8.7864 1.9410 1.2882
8.8123 2.1716 1.3003
8.8387 2.4062 1.3134
8.8657 2.6455 1.3275
8.8931 2.8897 1.3427
8.8757 3.1233 1.3520
8.9229 3.3846 1.3721
8.9523 3.6459 1.3907
8.9825 3.9140 1.4105
9.0135 4.1898 1.4316
9.0729 4.4875 1.4587
9.1060 4.7814 1.4829
9.1402 5.0851 1.5087
9.4450 5.5580 1.5815
9.4828 5.8936 1.6118
9.5220 6.2423 1.6443
9.5629 6.6052 1.6790
9.6055 6.9838 1.7162
9.6500 7.3795 1.7560
9.6967 7.7940 1.7988
9.7457 8.2293 1.8446
9.7972 8.6874 1.8939
9.8516 9.1708 1.9471
9.9092 9.6823 2.0044
9.9703 10.2250 2.0664
10.0353 10.8025 2.1335
10.1047 11.4192 2.2063
10.1790 12.0798 2.2857
9.9355 12.3869 2.2975
9.6337 12.6247 2.2975
9.3266 12.8556 2.2975
9.0143 13.0795 2.2975
8.6968 13.2962 2.2975
8.3745 13.5056 2.2975
8.0473 13.7076 2.2975
7.7659 13.9929 2.3125
7.4275 14.1811 2.3125
7.0847 14.3616 2.3125
6.7378 14.5343 2.3125
6.3869 14.6990 2.3125
6.0321 14.8558 2.3125
5.6737 15.0044 2.3125
5.3117 15.1448 2.3125
4.9465 15.2770 2.3125
4.5781 15.4009 2.3125
4.2067 15.5163 2.3125
3.8326 15.6233 2.3125
3.4558 15.7217 2.3125
3.0767 15.8115 2.3125
2.6953 15.8926 2.3125
2.3118 15.9649 2.3125
1.9265 16.0284 2.3125
1.5395 16.0831 2.3125
1.1510 16.1289 2.3125
0.7613 16.1658 2.3125
0.3704 16.1937 2.3125
-0.0213 16.2125 2.3125
-0.4115 16.1305 2.2994
-0.8022 16.1312 2.2994
-1.1932 16.1228 2.2994
-1.5843 16.1054 2.2994
-1.9753 16.0789 2.2994
-2.3660 16.0432 2.2994
-2.7562 15.9986 2.2994
-3.1457 15.9446 2.2994
-3.5342 15.8815 2.2994
-3.9216 15.8094 2.2994
-4.3077 15.7281 2.2994
-4.6922 15.6377 2.2994
-5.0750 15.5383 2.2994
-5.4558 15.4297 2.2994
-5.8344 15.3122 2.2994
-6.2106 15.1856 2.2994
-6.5842 15.0500 2.2994
-6.9550 14.9055 2.2994
-7.3569 14.8210 2.3102
-7.7035 14.6207 2.3043
-8.1887 14.6703 2.3395
-8.6895 14.7199 2.3771
-9.1519 14.6806 2.4025
-9.5172 14.4750 2.4026
-9.8776 14.2600 2.4025
-10.2335 14.0365 2.4025
-10.5844 13.8042 2.4025
-10.9302 13.5633 2.4025
-11.2706 13.3139 2.4025
-11.6054 13.0560 2.4025
-11.9344 12.7899 2.4025
-12.2574 12.5156 2.4025
-12.5742 12.2331 2.4025
-12.8845 11.9428 2.4025
-13.1882 11.6446 2.4025
-13.4851 11.3388 2.4025
-13.7748 11.0255 2.4025
-14.0574 10.7048 2.4025
-14.3325 10.3769 2.4025
-14.5999 10.0420 2.4025
-14.8595 9.7002 2.4025
-15.1111 9.3517 2.4025
-15.3544 8.9968 2.4025
-15.5894 8.6355 2.4025
-15.8158 8.2680 2.4025
-16.0334 7.8947 2.4025
-15.5452 7.1931 2.2994
-15.7363 6.8249 2.2994
-15.9185 6.4518 2.2994
-16.0917 6.0737 2.2994
-16.2558 5.6910 2.2994
-16.4107 5.3039 2.2994
-16.5561 4.9125 2.2994
-16.6920 4.5172 2.2994
-16.8182 4.1181 2.2994
-16.9346 3.7156 2.2994
-17.2123 3.3429 2.3225
-17.3098 2.9300 2.3225
-17.3972 2.5142 2.3225
-17.4742 2.0959 2.3225
-17.5408 1.6754 2.3225
-17.5971 1.2528 2.3225
-17.6427 0.8285 2.3225
-17.6778 0.4027 2.3225
-17.7023 -0.0243 2.3225
-13.9386 -0.3558 1.8273
-14.0763 -0.6997 1.8450
-17.7112 -1.3098 2.3225
-17.6925 -1.7388 2.3225
-17.6631 -2.1676 2.3225
-17.6228 -2.5960 2.3225
-17.5716 -3.0236 2.3225
-17.5096 -3.4501 2.3225
-12.0778 -2.6843 1.6087
-12.0173 -2.9770 1.6084
-17.2587 -4.7205 2.3225
-17.1535 -5.1399 2.3225
-17.0376 -5.5568 2.3225
-16.9111 -5.9709 2.3225
-16.7740 -6.3820 2.3225
-16.6263 -6.7897 2.3225
-16.4682 -7.1938 2.3225
-16.2998 -7.5939 2.3225
-16.1211 -7.9898 2.3225
-15.9323 -8.3812 2.3225
-15.7334 -8.7679 2.3225
-15.5247 -9.1495 2.3225
-15.3061 -9.5258 2.3225
-15.0779 -9.8966 2.3225
-12.3979 -8.5728 1.9403
-12.1611 -8.8504 1.9354
-14.3369 -10.9729 2.3225
-14.0716 -11.3188 2.3225
-12.6844 -10.7177 2.3225
-12.4243 -11.0227 2.3225
-12.1564 -11.3211 2.3225
-11.8810 -11.6125 2.3225
-11.5982 -11.8969 2.3225
-11.3082 -12.1739 2.3225
-11.0112 -12.4434 2.3225
-10.7074 -12.7053 2.3225
-10.2930 -12.8296 2.2993
-9.9795 -13.0732 2.2993
-9.6598 -13.3086 2.2993
-9.3343 -13.5357 2.2993
-9.0032 -13.7545 2.2993
-8.6667 -13.9647 2.2993
-8.3249 -14.1661 2.2993
-7.9783 -14.3588 2.2993
-7.6269 -14.5425 2.2993
-7.2711 -14.7171 2.2993
-6.9111 -14.8826 2.2993
-6.8411 -15.7141 2.4025
-6.4569 -15.8674 2.4025
-6.0691 -16.0110 2.4025
-5.6779 -16.1445 2.4025
-5.2837 -16.2679 2.4025
-4.8867 -16.3813 2.4025
-4.4871 -16.4845 2.4025
-4.0853 -16.5775 2.4025
-3.6815 -16.6602 2.4025
-3.2759 -16.7326 2.4025
-2.8690 -16.7946 2.4025
-2.4609 -16.8463 2.4025
-2.0519 -16.8877 2.4025
-1.6423 -16.9187 2.4025
-1.2323 -16.9393 2.4025
-0.8223 -16.9496 2.4025
-0.4125 -16.9496 2.4025
-0.0032 -16.9392 2.4025
0.4054 -16.9186 2.4025
0.8130 -16.8878 2.4025
1.1819 -16.3311 2.3290
1.5544 -16.0749 2.2994
1.9400 -16.0163 2.2994
2.3238 -15.9482 2.2994
2.7053 -15.8705 2.2994
3.0844 -15.7835 2.2994
3.4608 -15.6872 2.2994
3.8343 -15.5816 2.2994
4.2046 -15.4668 2.2994
4.5716 -15.3431 2.2994
4.9309 -15.1978 2.2975
5.2902 -15.0564 2.2975
5.6455 -14.9064 2.2975
5.9966 -14.7478 2.2975
6.3432 -14.5808 2.2975
6.6853 -14.4055 2.2975
7.0225 -14.2220 2.2975
7.3546 -14.0305 2.2975
7.6816 -13.8312 2.2975
8.0032 -13.6242 2.2975
8.1539 -13.1432 2.2519
8.2194 -12.5610 2.1883
8.2812 -12.0118 2.1297
8.3397 -11.4923 2.0754
8.3952 -10.9996 2.0251
8.4479 -10.5311 1.9785
8.4981 -10.0846 1.9352
8.5461 -9.6580 1.8949
8.5689 -9.2248 1.8525
8.6129 -8.8341 1.8177
8.6552 -8.4586 1.7853
8.7194 -8.1188 1.7599
8.7587 -7.7689 1.7317
8.7968 -7.4308 1.7055
8.9227 -7.1749 1.6981
9.4565 -7.2350 1.7682
10.0352 -7.3001 1.8453
10.6652 -7.3710 1.9303
11.3548 -7.4486 2.0246
12.1135 -7.5340 2.1296
12.9533 -7.6286 2.2470
13.7306 -7.6455 2.3521
13.7762 -7.2403 2.3323
8.1158 -4.0181 1.3588
8.1416 -3.7887 1.3491
8.1670 -3.5630 1.3404
8.1920 -3.3406 1.3325
8.2167 -3.1212 1.3254
8.2411 -2.9045 1.3192
8.2652 -2.6902 1.3139
8.2891 -2.4780 1.3093
8.3128 -2.2677 1.3055
8.3363 -2.0589 1.3025
8.3596 -1.8515 1.3003
8.3828 -1.6451 1.2988
8.4060 -1.4395 1.2980
8.4290 -1.2344 1.2980
8.4521 -1.0297 1.2987
8.4751 -0.8251 1.3002
8.4982 -0.6203 1.3024
8.5212 -0.4152 1.3053
8.5444 -0.2094 1.3090
8.5677 -0.0027 1.3134
8.5910 0.2051 1.3187
8.6146 0.4143 1.3246
8.6383 0.6251 1.3314
8.6623 0.8379 1.3390
8.6864 1.0528 1.3475
8.7109 1.2703 1.3568
8.7357 1.4905 1.3669
8.7608 1.7138 1.3780
8.7863 1.9405 1.3901
8.8123 2.1711 1.4031
8.8387 2.4058 1.4172
8.8656 2.6450 1.4323
8.8931 2.8892 1.4486
8.8760 3.1230 1.4586
8.9228 3.3842 1.4802
8.9522 3.6454 1.5001
8.9824 3.9136 1.5214
9.0135 4.1894 1.5442
9.0729 4.4871 1.5733
9.1060 4.7810 1.5994
9.1402 5.0847 1.6272
9.4450 5.5576 1.7056
9.4828 5.8932 1.7383
9.5220 6.2419 1.7733
9.5628 6.6049 1.8107
9.6055 6.9835 1.8508
9.6500 7.3792 1.8937
9.6966 7.7938 1.9397
9.7456 8.2290 1.9891
9.7972 8.6872 2.0423
9.8516 9.1706 2.0996
9.9092 9.6821 2.1614
9.9702 10.2249 2.2282
10.0220 10.7882 2.2975
9.7580 11.0274 2.2975
9.4885 11.2605 2.2975
9.2138 11.4873 2.2975
8.9339 11.7078 2.2975
8.6490 11.9218 2.2975
8.3592 12.1293 2.2975
8.0647 12.3301 2.2975
7.8163 12.6059 2.3125
7.5108 12.7942 2.3125
7.2010 12.9756 2.3125
6.8870 13.1498 2.3125
6.5689 13.3169 2.3125
6.2471 13.4766 2.3125
5.9215 13.6290 2.3125
5.5923 13.7739 2.3125
5.2598 13.9112 2.3125
4.9240 14.0409 2.3125
4.5852 14.1630 2.3125
4.2435 14.2773 2.3125
3.8990 14.3837 2.3125
3.5520 14.4822 2.3125
3.2026 14.5727 2.3125
2.8510 14.6552 2.3125
2.4973 14.7296 2.3125
2.1418 14.7959 2.3125
1.7845 14.8540 2.3125
1.4177 14.8194 2.2994
1.0597 14.8608 2.2994
0.7005 14.8938 2.2994
0.3404 14.9186 2.2994
-0.0206 14.9350 2.2994
-0.3821 14.9430 2.2994
-0.7440 14.9426 2.2994
-1.1062 14.9338 2.2994
-1.4684 14.9166 2.2994
-1.8304 14.8909 2.2994
-2.1921 14.8568 2.2994
-2.5533 14.8141 2.2994
-2.9137 14.7631 2.2994
-3.2732 14.7035 2.2994
-3.6316 14.6355 2.2994
-3.9887 14.5590 2.2994
-4.3443 14.4741 2.2994
-4.6982 14.3808 2.2994
-5.0691 14.3326 2.3080
-5.4001 14.1690 2.2994
-5.8484 14.2966 2.3397
-6.2823 14.3566 2.3709
-6.7238 14.4070 2.4025
-7.0788 14.2578 2.4026
-7.4309 14.1005 2.4027
-7.7796 13.9346 2.4029
-8.1239 13.7590 2.4028
-8.4650 13.5761 2.4029
-8.8020 13.3848 2.4029
-9.1349 13.1854 2.4030
-9.4621 12.9761 2.4028
-9.7844 12.7585 2.4025
-10.1029 12.5345 2.4025
-10.4165 12.3027 2.4025
-10.7248 12.0631 2.4025
-11.0276 11.8160 2.4025
-11.3248 11.5613 2.4025
-11.6162 11.2991 2.4025
-11.9017 11.0298 2.4025
-12.1808 10.7532 2.4025
-12.4536 10.4697 2.4025
-12.7199 10.1792 2.4025
-12.9794 9.8821 2.4025
-13.2319 9.5783 2.4025
-13.4773 9.2681 2.4025
-13.7154 8.9517 2.4025
-13.9461 8.6291 2.4025
-14.1692 8.3006 2.4025
-14.3844 7.9664 2.4025
-14.5917 7.6265 2.4025
-14.1563 6.9689 2.2994
-14.3390 6.6335 2.2994
-14.5137 6.2932 2.2994
-14.6802 5.9485 2.2994
-14.8384 5.5992 2.2994
-14.9882 5.2458 2.2994
-15.1294 4.8884 2.2994
-15.2619 4.5271 2.2994
-15.3856 4.1623 2.2994
-15.5003 3.7941 2.2994
-15.6061 3.4228 2.2994
-15.8604 3.0791 2.3225
-15.9487 2.6984 2.3225
-16.0276 2.3151 2.3225
-16.0970 1.9296 2.3225
-16.1569 1.5420 2.3225
-16.2072 1.1527 2.3225
-16.2478 0.7619 2.3225
-16.2787 0.3697 2.3225
-16.2998 -0.0235 2.3225
-13.9361 -0.3566 1.9844
-14.0749 -0.7005 2.0039
-16.3038 -1.2067 2.3225
-16.2854 -1.6015 2.3225
-16.2570 -1.9961 2.3225
-16.2187 -2.3901 2.3225
-16.1704 -2.7834 2.3225
-16.1122 -3.1757 2.3225
-12.0749 -2.6843 1.7479
-12.0146 -2.9770 1.7477
-15.8781 -4.3437 2.3225
-15.7803 -4.7292 2.3225
-15.6727 -5.1124 2.3225
-15.5554 -5.4930 2.3225
-15.4284 -5.8708 2.3225
-15.2918 -6.2454 2.3225
-15.1457 -6.6167 2.3225
-14.9900 -6.9843 2.3225
-14.8250 -7.3481 2.3225
-14.6508 -7.7077 2.3225
-14.4673 -8.0629 2.3225
-14.2748 -8.4135 2.3225
-14.0734 -8.7592 2.3225
-13.8631 -9.0997 2.3225
-12.3951 -8.5712 2.1099
-12.1595 -8.8497 2.1049
-13.1808 -10.0885 2.3225
-12.9366 -10.4062 2.3225
-11.7348 -9.9156 2.3225
-11.4940 -10.1976 2.3225
-11.2461 -10.4735 2.3225
-10.9912 -10.7430 2.3225
-10.7295 -11.0060 2.3225
-10.3565 -11.1495 2.2993
-10.0846 -11.3963 2.2993
-9.8064 -11.6361 2.2993
-9.5222 -11.8688 2.2993
-9.2323 -12.0941 2.2993
-8.9367 -12.3120 2.2993
-8.6357 -12.5223 2.2993
-8.3295 -12.7248 2.2993
-8.0183 -12.9195 2.2993
-7.7023 -13.1061 2.2993
-7.3818 -13.2846 2.2993
-7.0569 -13.4549 2.2993
-6.7279 -13.6168 2.2993
-6.6822 -14.3886 2.4025
-6.3305 -14.5400 2.4025
-5.9752 -14.6824 2.4025
-5.6166 -14.8157 2.4025
-5.2548 -14.9398 2.4025
-4.8902 -15.0547 2.4025
-4.5230 -15.1602 2.4025
-4.1535 -15.2564 2.4025
-3.7818 -15.3431 2.4025
-3.4082 -15.4204 2.4025
-3.0330 -15.4882 2.4025
-2.6565 -15.5465 2.4025
-2.2789 -15.5952 2.4025
-1.9004 -15.6344 2.4025
-1.5213 -15.6640 2.4025
-1.1419 -15.6840 2.4025
-0.7623 -15.6945 2.4025
-0.3829 -15.6955 2.4025
-0.0039 -15.6869 2.4025
0.3745 -15.6689 2.4025
0.7520 -15.6414 2.4025
1.1283 -15.6045 2.4025
1.4389 -14.8907 2.2994
1.7962 -14.8375 2.2994
2.1519 -14.7755 2.2994
2.5055 -14.7047 2.2994
2.8569 -14.6252 2.2994
3.2059 -14.5371 2.2994
3.5523 -14.4404 2.2994
3.8958 -14.3353 2.2994
4.2363 -14.2217 2.2994
4.5735 -14.0999 2.2994
4.9068 -13.9688 2.2992
5.2330 -13.8205 2.2975
5.5590 -13.6746 2.2975
5.8809 -13.5209 2.2975
6.1986 -13.3596 2.2975
6.5118 -13.1906 2.2975
6.8205 -13.0142 2.2975
7.1244 -12.8305 2.2975
7.4234 -12.6396 2.2975
7.7172 -12.4417 2.2975
8.0058 -12.2369 2.2975
8.2810 -12.0137 2.2953
8.3395 -11.4941 2.2366
8.3950 -11.0013 2.1822
8.4477 -10.5327 2.1317
8.4980 -10.0862 2.0849
8.5460 -9.6596 2.0413
8.5688 -9.2262 1.9954
8.6128 -8.8355 1.9578
8.6550 -8.4600 1.9227
8.7192 -8.1201 1.8952
8.7586 -7.7702 1.8647
8.7967 -7.4320 1.8363
8.9208 -7.1747 1.8277
9.4545 -7.2348 1.9030
10.0330 -7.2999 1.9858
10.6628 -7.3708 2.0771
11.3521 -7.4483 2.1783
12.1105 -7.5337 2.2910
12.9501 -7.6282 2.4171
13.8858 -7.7335 2.5592
14.3995 -7.5695 2.6225
8.1157 -4.0190 1.4617
8.1415 -3.7895 1.4511
8.1669 -3.5638 1.4415
8.1919 -3.3414 1.4329
8.2166 -3.1220 1.4252
8.2410 -2.9052 1.4185
8.2651 -2.6909 1.4126
8.2890 -2.4787 1.4076
8.3127 -2.2684 1.4034
8.3362 -2.0596 1.4001
8.3595 -1.8521 1.3975
8.3828 -1.6457 1.3958
8.4059 -1.4401 1.3949
8.4290 -1.2351 1.3948
8.4520 -1.0304 1.3955
8.4750 -0.8257 1.3969
8.4981 -0.6210 1.3992
8.5212 -0.4158 1.4022
8.5443 -0.2100 1.4061
8.5676 -0.0033 1.4108
8.5910 0.2045 1.4163
8.6145 0.4137 1.4226
8.6382 0.6246 1.4298
8.6622 0.8373 1.4379
8.6864 1.0523 1.4469
8.7108 1.2697 1.4568
8.7356 1.4900 1.4676
8.7608 1.7133 1.4795
8.7863 1.9400 1.4923
8.8122 2.1706 1.5063
8.8386 2.4053 1.5213
8.8656 2.6445 1.5375
8.8930 2.8888 1.5548
8.8762 3.1227 1.5656
8.9228 3.3838 1.5886
8.9522 3.6450 1.6100
8.9824 3.9132 1.6328
9.0134 4.1890 1.6572
9.0729 4.4867 1.6883
9.1059 4.7806 1.7163
9.1401 5.0843 1.7461
9.4449 5.5573 1.8302
9.4827 5.8929 1.8652
9.5220 6.2416 1.9027
9.5628 6.6046 1.9428
9.6054 6.9832 1.9858
9.6500 7.3789 2.0318
9.6966 7.7935 2.0811
9.7456 8.2288 2.1342
9.7972 8.6870 2.1912
9.8516 9.1704 2.2526
9.8178 9.5927 2.2975
9.5822 9.8268 2.2975
9.3412 10.0554 2.2975
9.0951 10.2783 2.2975
8.8439 10.4956 2.2975
8.5878 10.7070 2.2975
8.3268 10.9124 2.2975
8.0612 11.1119 2.2975
7.7910 11.3051 2.2975
7.5655 11.5672 2.3125
7.2848 11.7491 2.3125
6.9999 11.9245 2.3125
6.7110 12.0933 2.3125
6.4182 12.2555 2.3125
6.1217 12.4109 2.3125
5.8215 12.5595 2.3125
5.5179 12.7012 2.3125
5.2110 12.8359 2.3125
4.9010 12.9635 2.3125
4.5879 13.0840 2.3125
4.2720 13.1973 2.3125
3.9535 13.3033 2.3125
3.6323 13.4020 2.3125
3.3089 13.4932 2.3125
2.9832 13.5770 2.3125
2.6433 13.5912 2.3020
2.3147 13.6562 2.3014
1.9844 13.7137 2.3009
1.6528 13.7632 2.3002
1.3199 13.8042 2.2995
0.9862 13.8416 2.2994
0.6516 13.8716 2.2994
0.3162 13.8939 2.2994
-0.0200 13.9084 2.2994
-0.3567 13.9150 2.2994
-0.6937 13.9139 2.2994
-1.0309 13.9048 2.2994
-1.3681 13.8879 2.2994
-1.7050 13.8631 2.2994
-2.0416 13.8304 2.2994
-2.3777 13.7898 2.2994
-2.7131 13.7413 2.2994
-3.0475 13.6849 2.2994
-3.3822 13.6262 2.3004
-3.7129 13.5485 2.2994
-4.1028 13.6657 2.3331
-4.5098 13.8006 2.3716
-4.9104 13.8805 2.4025
-5.2504 13.7731 2.4026
-5.5884 13.6579 2.4028
-5.9239 13.5346 2.4030
-6.2567 13.4031 2.4031
-6.5866 13.2636 2.4033
-6.9136 13.1162 2.4034
-7.2374 12.9609 2.4036
-7.5578 12.7978 2.4037
-7.8736 12.6253 2.4036
-8.1854 12.4448 2.4034
-8.4938 12.2577 2.4033
-8.7984 12.0636 2.4034
-9.0981 11.8614 2.4034
-9.3922 11.6506 2.4031
-9.6815 11.4327 2.4028
-9.9662 11.2079 2.4025
-10.2466 10.9772 2.4025
-10.5218 10.7395 2.4025
-10.7915 10.4951 2.4025
-11.0557 10.2439 2.4025
-11.3139 9.9861 2.4025
-11.5662 9.7218 2.4025
-11.8124 9.4512 2.4025
-12.0522 9.1744 2.4025
-12.2855 8.8916 2.4025
-12.5122 8.6028 2.4025
-12.7321 8.3083 2.4025
-12.9450 8.0081 2.4025
-13.1508 7.7025 2.4025
-13.3494 7.3916 2.4025
-12.9595 6.7720 2.2994
-13.1352 6.4648 2.2994
-13.3035 6.1530 2.2994
-13.4644 5.8369 2.2994
-13.6176 5.5165 2.2994
-13.7631 5.1922 2.2994
-13.9008 4.8639 2.2994
-14.0305 4.5320 2.2994
-14.1521 4.1967 2.2994
-14.2655 3.8581 2.2994
-14.3707 3.5164 2.2994
-14.6127 3.2037 2.3225
-14.7020 2.8530 2.3225
-14.7826 2.4999 2.3225
-14.8545 2.1445 2.3225
-14.9177 1.7871 2.3225
-14.9720 1.4278 2.3225
-15.0174 1.0670 2.3225
-15.0538 0.7048 2.3225
-15.0813 0.3415 2.3225
-15.0997 -0.0228 2.3225
-13.9336 -0.3575 2.1418
-14.0735 -0.7014 2.1633
-15.1002 -1.1186 2.3225
-15.0821 -1.4841 2.3225
-15.0548 -1.8494 2.3225
-15.0183 -2.2141 2.3225
-14.9726 -2.5781 2.3225
-14.9178 -2.9411 2.3225
-12.0720 -2.6843 1.8875
-12.0119 -2.9770 1.8874
-14.6985 -4.0218 2.3225
-14.6072 -4.3784 2.3225
-14.5069 -4.7329 2.3225
-14.3976 -5.0849 2.3225
-14.2794 -5.4342 2.3225
-14.1523 -5.7807 2.3225
-14.0164 -6.1240 2.3225
-13.8719 -6.4639 2.3225
-13.7187 -6.8002 2.3225
-13.5569 -7.1327 2.3225
-13.3867 -7.4611 2.3225
-13.2081 -7.7853 2.3225
-13.0214 -8.1049 2.3225
-12.8265 -8.4197 2.3225
-12.3923 -8.5697 2.2800
-12.1580 -8.8489 2.2748
-12.1944 -9.3338 2.3225
-11.9683 -9.6276 2.3225
-10.9149 -9.2230 2.3225
-10.6908 -9.4852 2.3225
-10.4602 -9.7417 2.3225
-10.1207 -9.8923 2.2993
-9.8797 -10.1343 2.2993
-9.6327 -10.3702 2.2993
-9.3797 -10.5998 2.2993
-9.1210 -10.8228 2.2993
-8.8568 -11.0392 2.2993
-8.5871 -11.2489 2.2993
-8.3123 -11.4516 2.2993
-8.0324 -11.6473 2.2993
-7.7478 -11.8358 2.2993
-7.4584 -12.0170 2.2993
-7.1647 -12.1908 2.2993
-6.8667 -12.3570 2.2993
-6.5646 -12.5157 2.2993
-6.5398 -13.2354 2.4025
-6.2164 -13.3848 2.4025
-5.8894 -13.5260 2.4025
-5.5591 -13.6589 2.4025
-5.2257 -13.7833 2.4025
-4.8893 -13.8992 2.4025
-4.5503 -14.0065 2.4025
-4.2088 -14.1052 2.4025
-3.8652 -14.1952 2.4025
-3.5195 -14.2765 2.4025
-3.1721 -14.3490 2.4025
-2.8231 -14.4127 2.4025
-2.4729 -14.4676 2.4025
-2.1216 -14.5136 2.4025
-1.7695 -14.5508 2.4025
-1.4167 -14.5791 2.4025
-1.0637 -14.5985 2.4025
-0.7104 -14.6091 2.4025
-0.3573 -14.6108 2.4025
-0.0045 -14.6036 2.4025
0.3477 -14.5877 2.4025
0.6992 -14.5630 2.4025
1.0497 -14.5295 2.4025
1.3923 -14.4194 2.3912
1.6718 -13.8171 2.2994
2.0030 -13.7602 2.2994
2.3325 -13.6952 2.2994
2.6600 -13.6221 2.2994
2.9852 -13.5410 2.2994
3.3081 -13.4518 2.2994
3.6283 -13.3549 2.2994
3.9458 -13.2501 2.2994
4.2602 -13.1376 2.2994
4.5715 -13.0174 2.2994
4.8794 -12.8898 2.2994
5.1795 -12.7441 2.2975
5.4799 -12.6019 2.2975
5.7764 -12.4524 2.2975
6.0688 -12.2959 2.2975
6.3571 -12.1324 2.2975
6.6409 -11.9621 2.2975
6.9201 -11.7851 2.2975
7.1947 -11.6015 2.2975
7.4644 -11.4114 2.2975
7.7291 -11.2150 2.2975
7.9886 -11.0125 2.2975
8.2428 -10.8039 2.2975
8.4475 -10.5344 2.2856
8.4978 -10.0878 2.2351
8.5458 -9.6611 2.1883
8.5686 -9.2277 2.1388
8.6126 -8.8370 2.0983
8.6549 -8.4613 2.0606
8.7190 -8.1214 2.0309
8.7585 -7.7715 1.9981
8.7965 -7.4333 1.9675
8.9188 -7.1745 1.9577
9.4524 -7.2345 2.0382
10.0307 -7.2996 2.1267
10.6604 -7.3705 2.2243
11.1792 -7.3363 2.2975
11.3403 -7.0560 2.2975
11.4945 -6.7722 2.2975
11.6418 -6.4851 2.2975
11.7820 -6.1949 2.2975
8.1156 -4.0198 1.5649
8.1414 -3.7903 1.5534
8.1668 -3.5646 1.5431
8.1919 -3.3421 1.5338
8.2166 -3.1227 1.5254
8.2409 -2.9060 1.5181
8.2651 -2.6917 1.5117
8.2889 -2.4795 1.5062
8.3126 -2.2691 1.5016
8.3361 -2.0603 1.4979
8.3595 -1.8528 1.4951
8.3827 -1.6464 1.4932
8.4058 -1.4408 1.4921
8.4289 -1.2357 1.4919
8.4519 -1.0310 1.4925
8.4750 -0.8264 1.4940
8.4980 -0.6216 1.4963
8.5211 -0.4164 1.4995
8.5443 -0.2106 1.5035
8.5675 -0.0039 1.5085
8.5909 0.2040 1.5143
8.6145 0.4132 1.5210
8.6382 0.6240 1.5286
8.6621 0.8368 1.5371
8.6863 1.0518 1.5467
8.7108 1.2692 1.5572
8.7356 1.4894 1.5687
8.7607 1.7128 1.5813
8.7862 1.9395 1.5950
8.8122 2.1701 1.6098
8.8386 2.4048 1.6257
8.8655 2.6441 1.6430
8.8930 2.8883 1.6615
8.8765 3.1223 1.6729
8.9227 3.3833 1.6975
8.9521 3.6445 1.7202
8.9823 3.9128 1.7446
9.0134 4.1886 1.7706
9.0728 4.4863 1.8038
9.1059 4.7802 1.8336
9.1401 5.0839 1.8654
9.4449 5.5569 1.9552
9.4827 5.8925 1.9926
9.5219 6.2412 2.0326
9.5628 6.6042 2.0754
9.6054 6.9829 2.1213
9.6499 7.3786 2.1704
9.6966 7.7932 2.2231
9.7456 8.2286 2.2797
9.6168 8.5269 2.2975
9.4066 8.7561 2.2975
9.1911 8.9803 2.2975
8.9706 9.1995 2.2975
8.7450 9.4135 2.2975
8.5146 9.6222 2.2975
8.2794 9.8256 2.2975
8.0396 10.0235 2.2975
7.7952 10.2159 2.2975
7.5958 10.4704 2.3125
7.3411 10.6525 2.3125
7.0822 10.8286 2.3125
6.8194 10.9988 2.3125
6.5526 11.1628 2.3125
6.2820 11.3207 2.3125
6.0078 11.4723 2.3125
5.7301 11.6176 2.3125
5.4489 11.7565 2.3125
5.1646 11.8889 2.3125
4.8772 12.0147 2.3125
4.5869 12.1338 2.3125
4.2937 12.2463 2.3125
3.9836 12.3077 2.3042
3.6873 12.4094 2.3048
3.3878 12.5016 2.3049
3.0851 12.5832 2.3044
2.7806 12.6579 2.3038
2.4744 12.7256 2.3033
2.1666 12.7862 2.3027
1.8573 12.8397 2.3022
1.5468 12.8861 2.3017
1.2350 12.9243 2.3010
0.9224 12.9552 2.3003
0.6090 12.9789 2.2996
0.2950 12.9979 2.2994
-0.0195 13.0108 2.2994
-0.3344 13.0164 2.2994
-0.6497 13.0146 2.2994
-0.9650 13.0054 2.2994
-1.2804 12.9889 2.2994
-1.5955 12.9650 2.2994
-1.9102 12.9337 2.2994
-2.2343 12.9526 2.3097
-2.5378 12.8488 2.2994
-2.8963 13.0014 2.3365
-3.2761 13.1944 2.3825
-3.6278 13.2340 2.4025
-3.9508 13.1558 2.4027
-4.2722 13.0701 2.4028
-4.5918 12.9766 2.4030
-4.9095 12.8755 2.4032
-5.2250 12.7669 2.4033
-5.5383 12.6507 2.4035
-5.8490 12.5271 2.4037
-6.1570 12.3959 2.4038
-6.4622 12.2573 2.4040
-6.7643 12.1112 2.4042
-7.0632 11.9579 2.4043
-7.3587 11.7973 2.4045
-7.6501 11.6287 2.4045
-7.9371 11.4522 2.4043
-8.2202 11.2688 2.4041
-8.4991 11.0784 2.4039
-8.7741 10.8819 2.4038
-9.0438 10.6776 2.4036
-9.3088 10.4667 2.4033
-9.5689 10.2493 2.4030
-9.8240 10.0255 2.4028
-10.0740 9.7954 2.4025
-10.3196 9.5602 2.4025
-10.5598 9.3188 2.4025
-10.7944 9.0715 2.4025
-11.0233 8.8182 2.4025
-11.2461 8.5592 2.4025
-11.4629 8.2946 2.4025
-11.6735 8.0246 2.4025
-11.8777 7.7492 2.4025
-12.0753 7.4686 2.4025
-11.7399 6.8747 2.2994
-11.9162 6.5967 2.2994
-12.0858 6.3141 2.2994
-12.2487 6.0271 2.2994
-12.4047 5.7360 2.2994
-12.5537 5.4408 2.2994
-12.6955 5.1417 2.2994
-12.8302 4.8390 2.2994
-12.9575 4.5326 2.2994
-13.0773 4.2230 2.2994
-13.1897 3.9101 2.2994
-13.2944 3.5943 2.2994
-13.3914 3.2757 2.2994
-13.6160 2.9840 2.3225
-13.6981 2.6571 2.3225
-13.7722 2.3280 2.3225
-13.8382 1.9967 2.3225
-13.8961 1.6636 2.3225
-13.9457 1.3289 2.3225
-13.9870 0.9928 2.3225
-14.0200 0.6554 2.3225
-14.0447 0.3170 2.3225
-14.0609 -0.0221 2.3225
-13.9311 -0.3583 2.2998
-14.0679 -0.7020 2.3225
-14.0587 -1.0423 2.3225
-14.0411 -1.3825 2.3225
-14.0148 -1.7225 2.3225
-13.9801 -2.0619 2.3225
-13.9368 -2.4005 2.3225
-13.8850 -2.7383 2.3225
-12.0690 -2.6843 2.0275
-12.0091 -2.9769 2.0276
-13.6789 -3.7435 2.3225
-13.5933 -4.0752 2.3225
-13.4993 -4.4048 2.3225
-13.3971 -4.7322 2.3225
-13.2865 -5.0570 2.3225
-13.1678 -5.3791 2.3225
-13.0408 -5.6983 2.3225
-12.9059 -6.0144 2.3225
-12.7629 -6.3270 2.3225
-12.6120 -6.6361 2.3225
-12.4533 -6.9414 2.3225
-12.2869 -7.2427 2.3225
-12.1129 -7.5398 2.3225
-11.9313 -7.8325 2.3225
-11.7423 -8.1206 2.3225
-11.5460 -8.4039 2.3225
-11.3427 -8.6822 2.3225
-11.1322 -8.9553 2.3225
-10.0983 -8.5332 2.2994
-9.8909 -8.7757 2.2994
-9.6774 -9.0129 2.2994
-9.4580 -9.2446 2.2994
-9.2328 -9.4708 2.2994
-9.0019 -9.6912 2.2994
-8.7655 -9.9057 2.2994
-8.5232 -10.1134 2.2993
-8.2763 -10.3157 2.2993
-8.0244 -10.5116 2.2993
-7.7677 -10.7011 2.2993
-7.5062 -10.8840 2.2993
-7.2403 -11.0603 2.2993
-6.9701 -11.2297 2.2993
-6.6956 -11.3923 2.2993
-6.4173 -11.5478 2.2993
-6.4107 -12.2215 2.4025
-6.1121 -12.3690 2.4025
-5.8101 -12.5090 2.4025
-5.5046 -12.6412 2.4025
-5.1961 -12.7657 2.4025
-4.8846 -12.8823 2.4025
-4.5704 -12.9910 2.4025
-4.2536 -13.0917 2.4025
-3.9346 -13.1844 2.4025
-3.6135 -13.2689 2.4025
-3.2906 -13.3454 2.4025
-2.9659 -13.4137 2.4025
-2.6398 -13.4737 2.4025
-2.3125 -13.5255 2.4025
-1.9842 -13.5691 2.4025
-1.6551 -13.6045 2.4025
-1.3254 -13.6315 2.4025
-0.9953 -13.6503 2.4025
-0.6651 -13.6608 2.4025
-0.3349 -13.6630 2.4025
-0.0050 -13.6571 2.4025
0.3244 -13.6428 2.4025
0.6531 -13.6205 2.4025
0.9809 -13.5899 2.4025
1.3076 -13.5512 2.4025
1.5670 -12.9586 2.3054
1.8729 -12.8725 2.2994
2.1812 -12.8125 2.2994
2.4877 -12.7448 2.2994
2.7922 -12.6696 2.2994
3.0944 -12.5870 2.2994
3.3943 -12.4971 2.2994
3.6915 -12.3998 2.2994
3.9860 -12.2953 2.2994
4.2776 -12.1836 2.2994
4.5661 -12.0650 2.2994
4.8513 -11.9393 2.2994
5.1330 -11.8069 2.2994
5.4067 -11.6579 2.2975
5.6808 -11.5122 2.2975
5.9510 -11.3599 2.2975
6.2172 -11.2012 2.2975
6.4791 -11.0362 2.2975
6.7367 -10.8651 2.2975
6.9897 -10.6878 2.2975
7.2381 -10.5047 2.2975
7.4817 -10.3157 2.2975
7.7204 -10.1210 2.2975
7.9540 -9.9209 2.2975
8.1825 -9.7153 2.2975
8.4057 -9.5044 2.2975
8.5684 -9.2292 2.2829
8.6124 -8.8384 2.2395
8.6547 -8.4627 2.1990
8.7182 -8.1221 2.1670
8.7583 -7.7728 2.1320
8.7964 -7.4345 2.0992
8.9169 -7.1743 2.0882
9.4503 -7.2343 2.1739
10.0284 -7.2994 2.2681
10.3230 -7.1386 2.2975
10.4812 -6.8797 2.2975
10.6331 -6.6172 2.2975
10.7784 -6.3516 2.2975
10.9172 -6.0827 2.2975
11.0495 -5.8110 2.2975
8.1155 -4.0206 1.6685
8.1413 -3.7912 1.6562
8.1667 -3.5654 1.6450
8.1918 -3.3429 1.6350
8.2165 -3.1235 1.6260
8.2409 -2.9068 1.6181
8.2650 -2.6924 1.6111
8.2889 -2.4802 1.6052
8.3125 -2.2698 1.6002
8.3360 -2.0610 1.5962
8.3594 -1.8535 1.5931
8.3826 -1.6470 1.5910
8.4058 -1.4414 1.5897
8.4288 -1.2364 1.5894
8.4519 -1.0316 1.5900
8.4749 -0.8270 1.5914
8.4979 -0.6222 1.5938
8.5210 -0.4170 1.5971
8.5442 -0.2112 1.6014
8.5675 -0.0045 1.6065
8.5908 0.2034 1.6126
8.6144 0.4126 1.6197
8.6381 0.6235 1.6277
8.6621 0.8362 1.6368
8.6863 1.0512 1.6468
8.7107 1.2687 1.6579
8.7355 1.4889 1.6701
8.7606 1.7123 1.6835
8.7862 1.9390 1.6980
8.8121 2.1696 1.7137
8.8385 2.4043 1.7306
8.8655 2.6436 1.7489
8.8929 2.8878 1.7685
8.8767 3.1219 1.7808
8.9227 3.3829 1.8068
8.9521 3.6441 1.8309
8.9823 3.9123 1.8568
9.0133 4.1882 1.8844
9.0728 4.4858 1.9197
9.1058 4.7798 1.9514
9.1400 5.0835 1.9852
9.4449 5.5565 2.0807
9.4826 5.8922 2.1205
9.5219 6.2409 2.1630
9.5627 6.6039 2.2085
9.6054 6.9826 2.2573
9.5997 7.3400 2.2975
9.4175 7.5687 2.2975
9.2301 7.7931 2.2975
9.0376 8.0131 2.2975
8.8400 8.2286 2.2975
8.6376 8.4394 2.2975
8.4303 8.6454 2.2975
8.2184 8.8466 2.2975
8.0018 9.0428 2.2975
7.7808 9.2339 2.2975
7.5553 9.4199 2.2975
7.3735 9.6633 2.3125
7.1381 9.8398 2.3125
6.8987 10.0108 2.3125
6.6554 10.1763 2.3125
6.4083 10.3361 2.3125
6.1574 10.4901 2.3125
5.9031 10.6384 2.3125
5.6453 10.7807 2.3125
5.3842 10.9171 2.3125
5.1199 11.0474 2.3125
4.8526 11.1716 2.3125
4.5608 11.2361 2.3016
4.2902 11.3501 2.3021
4.0168 11.4579 2.3027
3.7409 11.5593 2.3033
3.4624 11.6542 2.3038
2.2670 8.3672 1.6420
2.0716 8.4510 1.6473
2.6130 11.8974 2.3049
2.3251 11.9608 2.3044
2.0357 12.0175 2.3039
1.7450 12.0676 2.3034
1.4531 12.1109 2.3029
1.1601 12.1470 2.3024
0.8662 12.1758 2.3017
0.5716 12.1978 2.3011
0.2765 12.2129 2.3004
-0.0190 12.2212 2.2998
-0.3148 12.2238 2.2994
-0.6109 12.2216 2.2994
-0.9070 12.2124 2.2994
-1.2031 12.1963 2.2994
-1.4989 12.1732 2.2994
-1.8179 12.3031 2.3297
-2.1650 12.5457 2.3829
-2.4902 12.6030 2.4025
-2.7968 12.5505 2.4026
-3.1024 12.4910 2.4028
-3.4068 12.4241 2.4030
-3.7099 12.3501 2.4031
-4.0114 12.2689 2.4033
-4.3112 12.1805 2.4035
-4.6091 12.0849 2.4036
-4.9050 11.9822 2.4038
-5.1987 11.8724 2.4040
-5.4899 11.7555 2.4041
-5.7787 11.6317 2.4043
-6.0647 11.5009 2.4045
-6.3478 11.3632 2.4046
-6.6278 11.2186 2.4048
-6.9047 11.0673 2.4050
-7.1781 10.9092 2.4051
-7.4478 10.7442 2.4052
-7.7129 10.5714 2.4050
-7.9740 10.3921 2.4049
-8.2303 10.2055 2.4045
-8.4822 10.0128 2.4041
-8.7298 9.8139 2.4037
-8.9736 9.6099 2.4036
-9.2128 9.4001 2.4035
-9.4468 9.1840 2.4033
-9.6756 8.9619 2.4031
-9.8992 8.7342 2.4029
-10.1174 8.5009 2.4026
-10.3306 8.2626 2.4025
-10.5387 8.0193 2.4025
-10.7411 7.7709 2.4025
-10.9376 7.5173 2.4025
-11.1281 7.2587 2.4025
-10.8271 6.6952 2.2994
-10.9975 6.4386 2.2994
-11.1618 6.1778 2.2994
-11.3199 5.9127 2.2994
-11.4716 5.6435 2.2994
-11.6169 5.3705 2.2994
-11.7556 5.0937 2.2994
-11.8876 4.8133 2.2994
-12.0129 4.5296 2.2994
-12.1312 4.2425 2.2994
-12.2426 3.9523 2.2994
-12.3470 3.6592 2.2994
-12.4442 3.3634 2.2994
-12.5341 3.0649 2.2994
-12.7435 2.7918 2.3225
-12.8196 2.4857 2.3225
-12.8881 2.1775 2.3225
-12.9491 1.8674 2.3225
-13.0024 1.5557 2.3225
-13.0480 1.2424 2.3225
-13.0859 0.9279 2.3225
-13.1160 0.6122 2.3225
-13.1383 0.2957 2.3225
-13.1527 -0.0216 2.3225
-13.1592 -0.3394 2.3225
-13.1579 -0.6575 2.3225
-13.1486 -0.9757 2.3225
-13.1313 -1.2938 2.3225
-13.1062 -1.6116 2.3225
-13.0730 -1.9289 2.3225
-13.0320 -2.2454 2.3225
-12.9829 -2.5611 2.3225
-12.0661 -2.6843 2.1680
-12.0064 -2.9769 2.1681
-12.7885 -3.5005 2.3225
-12.7080 -3.8104 2.3225
-12.6196 -4.1184 2.3225
-12.5236 -4.4242 2.3225
-12.4198 -4.7277 2.3225
-12.3083 -5.0286 2.3225
-12.1893 -5.3268 2.3225
-12.0628 -5.6220 2.3225
-11.9288 -5.9141 2.3225
-11.7875 -6.2027 2.3225
-11.6389 -6.4879 2.3225
-11.4831 -6.7693 2.3225
-11.3201 -7.0468 2.3225
-11.1502 -7.3201 2.3225
-10.9734 -7.5892 2.3225
-10.7899 -7.8538 2.3225
-10.5996 -8.1137 2.3225
-10.4029 -8.3688 2.3225
-9.4750 -8.0067 2.2994
-9.2803 -8.2342 2.2994
-9.0800 -8.4566 2.2994
-8.8741 -8.6740 2.2994
-8.6628 -8.8861 2.2994
-8.4461 -9.0929 2.2994
-8.2244 -9.2941 2.2994
-7.9976 -9.4897 2.2994
-7.7660 -9.6795 2.2994
-7.5297 -9.8633 2.2994
-7.2888 -10.0412 2.2994
-7.0431 -10.2122 2.2993
-6.7936 -10.3777 2.2993
-6.5402 -10.5368 2.2993
-6.2991 -10.7171 2.3052
-6.2921 -11.3220 2.4025
-6.0156 -11.4677 2.4025
-5.7356 -11.6064 2.4025
-5.4523 -11.7379 2.4025
-5.1658 -11.8623 2.4025
-4.8764 -11.9793 2.4025
-4.5842 -12.0890 2.4025
-4.2895 -12.1913 2.4025
-3.9924 -12.2861 2.4025
-3.6931 -12.3734 2.4025
-3.3919 -12.4532 2.4025
-3.0889 -12.5253 2.4025
-2.7843 -12.5898 2.4025
-2.4784 -12.6466 2.4025
-2.1713 -12.6956 2.4025
-1.8632 -12.7370 2.4025
-1.5543 -12.7706 2.4025
-1.2449 -12.7965 2.4025
-0.9351 -12.8147 2.4025
-0.6252 -12.8251 2.4025
-0.3152 -12.8277 2.4025
-0.0055 -12.8227 2.4025
0.3038 -12.8099 2.4025
0.6124 -12.7895 2.4025
0.9203 -12.7614 2.4025
1.2271 -12.7257 2.4025
1.5327 -12.6824 2.4025
1.7581 -12.0896 2.2994
2.0478 -12.0337 2.2994
2.3357 -11.9708 2.2994
2.6218 -11.9009 2.2994
2.9059 -11.8239 2.2994
3.1877 -11.7400 2.2994
3.4671 -11.6493 2.2994
3.7440 -11.5518 2.2994
4.0180 -11.4472 2.2994
4.2893 -11.3365 2.2994
4.5576 -11.2192 2.2994
4.8227 -11.0955 2.2994
5.0843 -10.9653 2.2994
5.3381 -10.8199 2.2975
5.5924 -10.6774 2.2975
5.8428 -10.5289 2.2975
6.0894 -10.3745 2.2975
6.3319 -10.2142 2.2975
6.5701 -10.0482 2.2975
6.8041 -9.8766 2.2975
7.0335 -9.6996 2.2975
7.2584 -9.5172 2.2975
7.4785 -9.3295 2.2975
7.6938 -9.1368 2.2975
7.9042 -8.9391 2.2975
8.1095 -8.7365 2.2975
8.3097 -8.5292 2.2975
8.5045 -8.3174 2.2975
8.6940 -8.1011 2.2975
8.7582 -7.7741 2.2665
8.7962 -7.4358 2.2315
8.9150 -7.1741 2.2192
9.3966 -7.1945 2.2975
9.5579 -6.9582 2.2975
9.7134 -6.7184 2.2975
9.8629 -6.4751 2.2975
10.0064 -6.2285 2.2975
10.1438 -5.9788 2.2975
10.2751 -5.7262 2.2975
10.4002 -5.4707 2.2975
8.1154 -4.0215 1.7725
8.1412 -3.7920 1.7594
8.1666 -3.5662 1.7474
8.1917 -3.3437 1.7366
8.2164 -3.1243 1.7270
8.2408 -2.9075 1.7185
8.2649 -2.6931 1.7110
8.2888 -2.4809 1.7046
8.3125 -2.2705 1.6992
8.3360 -2.0617 1.6949
8.3593 -1.8542 1.6915
8.3825 -1.6477 1.6891
8.4057 -1.4421 1.6877
8.4288 -1.2370 1.6873
8.4518 -1.0323 1.6878
8.4748 -0.8276 1.6893
8.4979 -0.6228 1.6918
8.5210 -0.4176 1.6952
8.5441 -0.2117 1.6996
8.5674 -0.0050 1.7050
8.5908 0.2028 1.7114
8.6143 0.4120 1.7188
8.6381 0.6229 1.7273
8.6620 0.8357 1.7368
8.6862 1.0507 1.7474
8.7107 1.2681 1.7591
8.7355 1.4884 1.7720
8.7606 1.7117 1.7861
8.7861 1.9385 1.8014
8.8121 2.1691 1.8180
8.8385 2.4038 1.8359
8.8654 2.6431 1.8553
8.8929 2.8874 1.8761
8.8769 3.1216 1.8890
8.9226 3.3824 1.9165
8.9520 3.6437 1.9421
8.9822 3.9119 1.9694
9.0133 4.1877 1.9987
9.0727 4.4854 2.0361
9.1058 4.7794 2.0696
9.1400 5.0832 2.1055
9.1754 5.3976 2.1438
9.4826 5.8918 2.2489
9.5218 6.2405 2.2940
9.3802 6.4776 2.2975
9.2186 6.7012 2.2975
9.0520 6.9209 2.2975
8.8803 7.1367 2.2975
8.7036 7.3484 2.2975
8.5221 7.5559 2.2975
8.3359 7.7591 2.2975
8.1450 7.9580 2.2975
7.9496 8.1523 2.2975
7.7497 8.3420 2.2975
7.5455 8.5271 2.2975
7.3849 8.7642 2.3125
7.1709 8.9407 2.3125
6.9529 9.1122 2.3125
6.7309 9.2786 2.3125
6.5051 9.4398 2.3125
6.2756 9.5958 2.3125
6.0424 9.7464 2.3125
5.8059 9.8916 2.3125
5.5659 10.0312 2.3125
5.2926 10.1078 2.2994
5.0477 10.2355 2.2994
4.8003 10.3584 2.2996
4.5508 10.4775 2.3002
4.2983 10.5905 2.3008
4.0431 10.6976 2.3013
3.7854 10.7988 2.3019
3.5251 10.8940 2.3024
3.2625 10.9831 2.3029
2.2651 8.3614 1.7404
2.0699 8.4454 1.7462
2.4622 11.2134 2.3044
2.1918 11.2777 2.3049
1.9193 11.3334 2.3049
1.6450 11.3804 2.3045
1.3697 11.4210 2.3040
1.0934 11.4552 2.3036
0.8162 11.4821 2.3029
0.5384 11.5026 2.3023
0.2600 11.5167 2.3017
-0.0186 11.5242 2.3012
-0.2976 11.5254 2.3006
-0.5765 11.5200 2.3000
-0.8602 11.5721 2.3123
-1.1631 11.7836 2.3577
-1.4764 11.9841 2.4025
-1.7672 11.9542 2.4026
-2.0576 11.9181 2.4027
-2.3473 11.8751 2.4029
-2.6361 11.8252 2.4031
-2.9240 11.7685 2.4032
-3.2106 11.7050 2.4034
-3.4959 11.6346 2.4035
-3.7798 11.5575 2.4037
-4.0620 11.4735 2.4039
-4.3425 11.3829 2.4041
-4.6209 11.2856 2.4042
-4.8973 11.1815 2.4044
-5.1713 11.0708 2.4045
-5.4429 10.9535 2.4047
-5.7119 10.8297 2.4049
-5.9782 10.6995 2.4050
-6.2415 10.5627 2.4052
-6.5018 10.4195 2.4053
-6.7589 10.2701 2.4055
-7.0122 10.1139 2.4055
-7.2614 9.9506 2.4054
-7.5067 9.7813 2.4052
-7.7477 9.6054 2.4049
-7.9845 9.4235 2.4045
-8.2171 9.2358 2.4042
-8.4452 9.0424 2.4038
-8.6689 8.8435 2.4035
-8.8884 8.6395 2.4033
-9.1036 8.4305 2.4032
-9.3138 8.2162 2.4031
-9.5191 7.9967 2.4030
-9.7191 7.7721 2.4029
-9.9139 7.5424 2.4028
-10.1032 7.3079 2.4027
-10.2869 7.0687 2.4026
-10.0161 6.5321 2.2994
-10.1814 6.2946 2.2994
-10.3410 6.0530 2.2994
-10.4948 5.8074 2.2994
-10.6428 5.5578 2.2994
-10.7848 5.3045 2.2994
-10.9207 5.0475 2.2994
-11.0504 4.7870 2.2994
-11.1738 4.5232 2.2994
-11.2908 4.2562 2.2994
-11.4014 3.9862 2.2994
-11.5054 3.7132 2.2994
-11.6028 3.4376 2.2994
-11.6934 3.1594 2.2994
-11.8955 2.9077 2.3225
-11.9733 2.6220 2.3225
-12.0441 2.3343 2.3225
-12.1078 2.0447 2.3225
-12.1644 1.7533 2.3225
-12.2138 1.4604 2.3225
-12.2560 1.1661 2.3225
-12.2909 0.8706 2.3225
-12.3186 0.5741 2.3225
-12.3389 0.2768 2.3225
-12.3518 -0.0211 2.3225
-12.3573 -0.3195 2.3225
-12.3555 -0.6182 2.3225
-12.3462 -0.9169 2.3225
-12.3294 -1.2155 2.3225
-12.3052 -1.5138 2.3225
-12.2736 -1.8116 2.3225
-12.2345 -2.1088 2.3225
-12.1880 -2.4050 2.3225
-12.0631 -2.6844 2.3089
-12.0037 -2.9769 2.3092
-12.0040 -3.2864 2.3225
-11.9280 -3.5772 2.3225
-11.8447 -3.8661 2.3225
-11.7542 -4.1530 2.3225
-11.6564 -4.4377 2.3225
-11.5515 -4.7200 2.3225
-11.4394 -4.9996 2.3225
-11.3204 -5.2765 2.3225
-11.1944 -5.5504 2.3225
-11.0615 -5.8212 2.3225
-10.9218 -6.0886 2.3225
-10.7753 -6.3525 2.3225
-10.6223 -6.6127 2.3225
-10.4627 -6.8691 2.3225
-10.2966 -7.1214 2.3225
-10.1242 -7.3696 2.3225
-9.8467 -7.5377 2.2994
-9.6638 -7.7745 2.2994
-8.9220 -7.5397 2.2994
-8.7387 -7.7537 2.2994
-8.5500 -7.9631 2.2994
-8.3561 -8.1678 2.2994
-8.1571 -8.3675 2.2994
-7.9531 -8.5621 2.2994
-7.7443 -8.7516 2.2994
-7.5308 -8.9357 2.2994
-7.3127 -9.1144 2.2994
-7.0902 -9.2876 2.2994
-6.8635 -9.4551 2.2994
-6.6327 -9.6169 2.2994
-6.3978 -9.7727 2.2994
-6.2402 -10.0531 2.3297
-6.1822 -10.5178 2.4025
-5.9254 -10.6616 2.4025
-5.6651 -10.7990 2.4025
-5.4015 -10.9297 2.4025
-5.1348 -11.0537 2.4025
-4.8652 -11.1710 2.4025
-4.5927 -11.2815 2.4025
-4.3177 -11.3850 2.4025
-4.0402 -11.4816 2.4025
-3.7605 -11.5711 2.4025
-3.4788 -11.6537 2.4025
-3.1952 -11.7291 2.4025
-2.9099 -11.7973 2.4025
-2.6231 -11.8584 2.4025
-2.3351 -11.9122 2.4025
-2.0459 -11.9588 2.4025
-1.7557 -11.9982 2.4025
-1.4649 -12.0303 2.4025
-1.1734 -12.0550 2.4025
-0.8816 -12.0726 2.4025
-0.5897 -12.0828 2.4025
-0.2977 -12.0858 2.4025
-0.0059 -12.0815 2.4025
0.2855 -12.0700 2.4025
0.5763 -12.0512 2.4025
0.8664 -12.0252 2.4025
1.1555 -11.9921 2.4025
1.4436 -11.9518 2.4025
1.6994 -11.6913 2.3595
1.9311 -11.3529 2.3017
2.2005 -11.2821 2.2993
2.4702 -11.2168 2.2993
2.7381 -11.1449 2.2993
3.0039 -11.0665 2.2993
3.2675 -10.9816 2.2994
3.5286 -10.8903 2.2994
3.7873 -10.7927 2.2994
4.0433 -10.6888 2.2994
4.2964 -10.5787 2.2994
4.5465 -10.4625 2.2994
4.7935 -10.3403 2.2994
5.0372 -10.2122 2.2994
5.2775 -10.0783 2.2994
5.5096 -9.9304 2.2975
5.7424 -9.7853 2.2975
5.9714 -9.6347 2.2975
6.1965 -9.4786 2.2975
6.4175 -9.3173 2.2975
6.6343 -9.1508 2.2975
6.8468 -8.9792 2.2975
7.0549 -8.8027 2.2975
7.2584 -8.6213 2.2975
7.4573 -8.4352 2.2975
7.6515 -8.2445 2.2975
7.8408 -8.0494 2.2975
8.0251 -7.8500 2.2975
8.2044 -7.6463 2.2975
8.3786 -7.4386 2.2975
8.5475 -7.2269 2.2975
8.7112 -7.0114 2.2975
8.8694 -6.7922 2.2975
9.0222 -6.5695 2.2975
9.1695 -6.3434 2.2975
9.3112 -6.1141 2.2975
9.4472 -5.8816 2.2975
9.5774 -5.6461 2.2975
9.7019 -5.4079 2.2975
9.8205 -5.1669 2.2975
8.1153 -4.0223 1.8770
8.1411 -3.7928 1.8630
8.1666 -3.5670 1.8502
8.1916 -3.3445 1.8387
8.2163 -3.1250 1.8284
8.2407 -2.9083 1.8193
8.2648 -2.6939 1.8113
8.2887 -2.4816 1.8044
8.3124 -2.2712 1.7987
8.3359 -2.0624 1.7940
8.3592 -1.8549 1.7903
8.3825 -1.6484 1.7877
8.4056 -1.4427 1.7862
8.4287 -1.2376 1.7856
8.4517 -1.0329 1.7861
8.4748 -0.8282 1.7876
8.4978 -0.6234 1.7901
8.5209 -0.4182 1.7937
8.5441 -0.2124 1.7983
8.5673 -0.0056 1.8039
8.5907 0.2022 1.8106
8.6143 0.4115 1.8184
8.6380 0.6224 1.8273
8.6619 0.8351 1.8373
8.6861 1.0501 1.8484
8.7106 1.2676 1.8608
8.7354 1.4879 1.8743
8.7605 1.7112 1.8892
8.7861 1.9380 1.9053
8.8120 2.1686 1.9228
8.8384 2.4033 1.9417
8.8653 2.6426 1.9621
8.8928 2.8869 1.9840
8.8772 3.1212 1.9978
8.9226 3.3820 2.0267
8.9520 3.6432 2.0537
8.9822 3.9115 2.0826
9.0132 4.1873 2.1135
9.0727 4.4850 2.1530
9.1058 4.7790 2.1884
9.1399 5.0828 2.2263
9.1753 5.3972 2.2668
9.1621 5.6923 2.2975
9.0194 5.9109 2.2975
8.8716 6.1260 2.2975
8.7189 6.3376 2.2975
8.5613 6.5456 2.2975
8.3990 6.7497 2.2975
8.2320 6.9500 2.2975
8.0604 7.1463 2.2975
7.8842 7.3386 2.2975
7.7037 7.5267 2.2975
7.5189 7.7105 2.2975
7.3719 7.9353 2.3107
7.1832 8.1177 2.3125
6.9848 8.2893 2.3125
6.7823 8.4563 2.3125
6.5760 8.6185 2.3125
6.3661 8.7758 2.3125
6.1524 8.9283 2.3125
5.9353 9.0757 2.3125
5.6824 9.1659 2.2994
5.4598 9.3024 2.2994
5.2341 9.4337 2.2994
5.0053 9.5597 2.2994
4.7737 9.6803 2.2994
4.5392 9.7956 2.2994
4.3020 9.9054 2.2994
4.0630 10.0115 2.2998
3.8217 10.1127 2.3004
3.5780 10.2084 2.3010
3.3319 10.2983 2.3016
3.0837 10.3824 2.3021
2.2631 8.3555 1.8392
2.0681 8.4399 1.8454
2.3269 10.5991 2.3035
2.0711 10.6595 2.3040
1.8138 10.7139 2.3045
1.5551 10.7622 2.3049
1.2950 10.8029 2.3050
1.0336 10.8350 2.3046
0.7714 10.8606 2.3041
0.5086 10.8798 2.3035
0.2453 10.8929 2.3029
-0.0183 10.9000 2.3024
-0.2845 10.9946 2.3217
-0.5635 11.2441 2.3750
-0.8456 11.3650 2.4025
-1.1211 11.3497 2.4026
-1.3964 11.3280 2.4028
-1.6713 11.2997 2.4029
-1.9457 11.2651 2.4031
-2.2194 11.2239 2.4032
-2.4923 11.1763 2.4034
-2.7643 11.1222 2.4036
-3.0351 11.0616 2.4037
-3.3046 10.9947 2.4039
-3.5727 10.9213 2.4041
-3.8392 10.8415 2.4042
-4.1040 10.7553 2.4044
-4.3670 10.6628 2.4046
-4.6279 10.5640 2.4047
-4.8865 10.4588 2.4049
-5.1429 10.3475 2.4050
-5.3967 10.2300 2.4052
-5.6480 10.1064 2.4054
-5.8965 9.9767 2.4055
-6.1416 9.8404 2.4055
-6.3833 9.6975 2.4054
-6.6216 9.5487 2.4052
-6.8565 9.3941 2.4051
-7.0878 9.2337 2.4049
-7.3154 9.0678 2.4047
-7.5391 8.8962 2.4046
-7.7588 8.7192 2.4044
-7.9743 8.5367 2.4042
-8.1853 8.3486 2.4039
-8.3917 8.1552 2.4036
-8.5936 7.9568 2.4033
-8.7907 7.7533 2.4030
-8.9839 7.5457 2.4029
-9.1722 7.3334 2.4028
-9.3555 7.1163 2.4027
-9.5336 6.8946 2.4026
-9.2900 6.3824 2.2994
-9.4507 6.1621 2.2994
-9.6061 5.9378 2.2994
-9.7562 5.7095 2.2994
-9.9008 5.4775 2.2994
-10.0398 5.2418 2.2994
-10.1731 5.0025 2.2994
-10.3008 4.7599 2.2994
-10.4225 4.5139 2.2994
-10.5383 4.2649 2.2994
-10.6481 4.0129 2.2994
-10.7518 3.7580 2.2994
-10.8493 3.5005 2.2994
-10.9406 3.2404 2.2994
-11.0255 2.9780 2.2994
-11.2154 2.7405 2.3225
-11.2882 2.4711 2.3225
-11.3543 2.1997 2.3225
-11.4138 1.9266 2.3225
-11.4666 1.6518 2.3225
-11.5126 1.3757 2.3225
-11.5519 1.0982 2.3225
-11.5843 0.8197 2.3225
-11.6098 0.5403 2.3225
-11.6284 0.2601 2.3225
-11.6401 -0.0207 2.3225
-11.6448 -0.3019 2.3225
-11.6425 -0.5833 2.3225
-11.6332 -0.8647 2.3225
-11.6170 -1.1460 2.3225
-11.5937 -1.4270 2.3225
-11.5635 -1.7075 2.3225
-11.5262 -1.9874 2.3225
-11.4820 -2.2663 2.3225
-11.4308 -2.5443 2.3225
-11.3726 -2.8210 2.3225
-11.3076 -3.0963 2.3225
-11.2356 -3.3701 2.3225
-11.1568 -3.6422 2.3225
-11.0712 -3.9122 2.3225
-10.9788 -4.1802 2.3225
-10.8797 -4.4460 2.3225
-10.7739 -4.7092 2.3225
-10.6615 -4.9699 2.3225
-10.5426 -5.2277 2.3225
-10.4172 -5.4825 2.3225
-10.2854 -5.7342 2.3225
-10.1474 -5.9827 2.3225
-10.0030 -6.2276 2.3225
