ply
format ascii 1.0
element vertex 2176
property float32 x
property float32 y
property float32 z
end_header
2.1622 7.2477 2.4026
1.9858 7.2970 2.4026
1.8084 7.3420 2.4026
1.6300 7.3828 2.4026
1.4506 7.4194 2.4026
1.2705 7.4517 2.4026
1.0896 7.4797 2.4026
0.9082 7.5034 2.4026
0.7263 7.5228 2.4026
0.5439 7.5379 2.4026
0.3613 7.5486 2.4026
0.1784 7.5551 2.4026
-0.0045 7.5571 2.4026
-0.1875 7.5549 2.4026
-0.3703 7.5483 2.4026
-0.5530 7.5373 2.4026
-0.7353 7.5220 2.4026
-0.9172 7.5025 2.4026
-1.0986 7.4785 2.4026
-1.2795 7.4503 2.4026
-1.4596 7.4179 2.4026
-1.6389 7.3811 2.4026
-1.8173 7.3401 2.4026
-1.9947 7.2949 2.4026
-2.1710 7.2454 2.4026
-2.3461 7.1918 2.4026
-2.5199 7.1341 2.4026
-2.6922 7.0722 2.4026
-2.8632 7.0062 2.4026
-3.0325 6.9362 2.4026
-3.2001 6.8621 2.4026
-3.3660 6.7841 2.4026
-3.5300 6.7022 2.4026
-3.6921 6.6163 2.4026
-3.8520 6.5266 2.4026
-4.0099 6.4331 2.4026
-4.1655 6.3359 2.4026
-4.3188 6.2350 2.4026
-4.4697 6.1304 2.4026
-4.6181 6.0222 2.4026
-4.7639 5.9105 2.4026
-4.9071 5.7953 2.4026
-5.0475 5.6767 2.4026
-5.1851 5.5547 2.4026
-5.2694 5.3780 2.3798
-5.2791 5.1334 2.3266
-5.3404 4.9473 2.2993
-5.4605 4.8184 2.2993
-5.5776 4.6866 2.2993
-5.6915 4.5521 2.2993
-5.8022 4.4148 2.2993
-5.9096 4.2748 2.2993
-6.0137 4.1323 2.2993
-6.1144 3.9873 2.2993
-6.2117 3.8398 2.2993
-6.3054 3.6900 2.2993
-6.3955 3.5380 2.2993
-6.4820 3.3837 2.2993
-6.5649 3.2274 2.2993
-6.6440 3.0691 2.2993
-6.7193 2.9088 2.2993
-6.7907 2.7468 2.2993
-6.8583 2.5830 2.2993
-6.9220 2.4175 2.2993
-6.9817 2.2505 2.2993
-7.0374 2.0820 2.2993
-7.0890 1.9122 2.2993
-7.1366 1.7411 2.2993
-7.1801 1.5688 2.2993
-7.2194 1.3955 2.2993
-7.2546 1.2212 2.2993
-7.2856 1.0460 2.2993
-7.3123 0.8700 2.2993
-7.3348 0.6934 2.2993
-7.3531 0.5162 2.2993
-7.3671 0.3385 2.2993
-7.3768 0.1605 2.2993
-7.3822 -0.0178 2.2993
-7.3832 -0.1963 2.2993
-7.3800 -0.3748 2.2993
-7.3725 -0.5533 2.2993
-7.3606 -0.7316 2.2993
-7.3444 -0.9096 2.2993
-7.3239 -1.0873 2.2993
-7.2991 -1.2646 2.2993
-7.2700 -1.4412 2.2993
-7.2366 -1.6172 2.2993
-5.7575 -1.4335 1.8389
-7.1570 -1.9667 2.2993
-7.1108 -2.1400 2.2993
-7.0604 -2.3122 2.2993
-7.0058 -2.4832 2.2993
-6.9471 -2.6529 2.2993
-6.8842 -2.8212 2.2993
-6.8172 -2.9879 2.2993
-6.7462 -3.1531 2.2993
-6.6711 -3.3166 2.2993
-6.5920 -3.4782 2.2993
-6.5090 -3.6380 2.2993
-6.4220 -3.7957 2.2993
-6.3312 -3.9513 2.2993
-6.2366 -4.1047 2.2993
-6.1383 -4.2558 2.2993
-6.0362 -4.4046 2.2993
-5.9306 -4.5508 2.2993
-5.8213 -4.6945 2.2993
-5.4908 -4.6516 2.2993
-5.4394 -4.8383 2.3252
-5.4370 -5.0764 2.3750
-5.3765 -5.2685 2.4026
-5.2496 -5.3985 2.4026
-5.1195 -5.5255 2.4026
-4.9863 -5.6492 2.4026
-4.8501 -5.7697 2.4026
-4.7109 -5.8869 2.4026
-4.5689 -6.0007 2.4026
-4.4241 -6.1109 2.4026
-4.2766 -6.2176 2.4026
-4.1264 -6.3207 2.4026
-3.9738 -6.4201 2.4026
-3.8187 -6.5157 2.4026
-3.6613 -6.6075 2.4026
-3.5016 -6.6955 2.4026
-3.3398 -6.7795 2.4026
-3.1760 -6.8595 2.4026
-3.0102 -6.9355 2.4026
-2.8425 -7.0074 2.4026
-2.6732 -7.0752 2.4026
-2.5021 -7.1388 2.4026
-2.3296 -7.1982 2.4026
-2.1556 -7.2534 2.4026
-1.9803 -7.3042 2.4026
-1.8037 -7.3507 2.4026
-1.6261 -7.3929 2.4026
-1.4474 -7.4307 2.4026
-1.2679 -7.4641 2.4026
-1.0876 -7.4931 2.4026
-0.9066 -7.5176 2.4026
-0.7251 -7.5377 2.4026
-0.5431 -7.5533 2.4026
-0.3608 -7.5644 2.4026
-0.1782 -7.5710 2.4026
0.0044 -7.5731 2.4026
0.1871 -7.5708 2.4026
0.3696 -7.5639 2.4026
0.5519 -7.5525 2.4026
0.7339 -7.5367 2.4026
0.9154 -7.5164 2.4026
1.0964 -7.4916 2.4026
1.2766 -7.4624 2.4026
1.4561 -7.4288 2.4026
1.6347 -7.3908 2.4026
1.8123 -7.3484 2.4026
1.9888 -7.3016 2.4026
2.1640 -7.2505 2.4026
2.3379 -7.1952 2.4026
2.5104 -7.1356 2.4026
2.5888 -6.8277 2.3196
2.7283 -6.7032 2.2995
2.8886 -6.6342 2.2995
3.0472 -6.5612 2.2995
3.2039 -6.4844 2.2995
3.3587 -6.4038 2.2995
3.5114 -6.3195 2.2995
3.6619 -6.2314 2.2995
3.8102 -6.1397 2.2995
3.9562 -6.0444 2.2995
4.0997 -5.9456 2.2995
4.2408 -5.8433 2.2995
4.3792 -5.7376 2.2995
4.5150 -5.6285 2.2995
4.6481 -5.5162 2.2995
4.7783 -5.4007 2.2995
4.9056 -5.2821 2.2995
5.0300 -5.1605 2.2995
5.1512 -5.0358 2.2995
5.2694 -4.9083 2.2995
5.3844 -4.7780 2.2995
5.4961 -4.6449 2.2995
5.6045 -4.5093 2.2995
5.7095 -4.3710 2.2995
5.8111 -4.2303 2.2995
5.9091 -4.0871 2.2995
6.0036 -3.9417 2.2995
6.0895 -3.7909 2.2976
6.1766 -3.6413 2.2976
6.2601 -3.4897 2.2976
6.3398 -3.3361 2.2976
6.4157 -3.1807 2.2976
6.4878 -3.0235 2.2976
6.5560 -2.8647 2.2976
6.6203 -2.7044 2.2976
6.6807 -2.5426 2.2976
6.7370 -2.3794 2.2976
6.7894 -2.2150 2.2976
6.8378 -2.0495 2.2976
6.8820 -1.8829 2.2976
6.9223 -1.7153 2.2976
6.9584 -1.5469 2.2976
6.9904 -1.3777 2.2976
7.0183 -1.2079 2.2976
7.0421 -1.0375 2.2976
7.0617 -0.8666 2.2976
7.0772 -0.6955 2.2976
7.0885 -0.5240 2.2976
7.0957 -0.3524 2.2976
7.0987 -0.1808 2.2976
7.0976 -0.0092 2.2976
7.0923 0.1622 2.2976
7.0829 0.3334 2.2976
7.0694 0.5042 2.2976
3.1575 0.3021 1.0288
3.1118 0.3738 1.0170
7.0042 1.0136 2.2976
6.9744 1.1821 2.2976
6.9405 1.3497 2.2976
6.9026 1.5163 2.2976
6.8607 1.6820 2.2976
6.8149 1.8464 2.2976
6.7651 2.0097 2.2976
6.7115 2.1717 2.2976
6.6540 2.3323 2.2976
6.5927 2.4914 2.2976
6.5276 2.6489 2.2976
6.4588 2.8047 2.2976
6.3863 2.9588 2.2976
6.3101 3.1110 2.2976
6.2304 3.2613 2.2976
6.1522 3.4125 2.2995
6.0654 3.5588 2.2995
5.9751 3.7029 2.2995
5.8814 3.8448 2.2995
5.7844 3.9844 2.2995
5.6841 4.1215 2.2995
5.5806 4.2562 2.2995
5.4739 4.3883 2.2995
5.3642 4.5178 2.2995
5.2514 4.6446 2.2995
5.1357 4.7686 2.2995
5.0171 4.8898 2.2995
4.8957 5.0081 2.2995
4.7715 5.1234 2.2995
4.6446 5.2357 2.2995
4.5152 5.3449 2.2995
4.3832 5.4509 2.2995
4.2485 5.5535 2.2994
4.1117 5.6531 2.2994
3.9726 5.7494 2.2994
3.8313 5.8423 2.2994
3.6879 5.9318 2.2994
3.5424 6.0179 2.2994
3.3949 6.1004 2.2994
3.2455 6.1794 2.2994
3.0943 6.2548 2.2994
2.9414 6.3266 2.2994
2.7883 6.3980 2.3006
2.7488 6.7489 2.4026
2.5842 6.8123 2.4026
2.4181 6.8718 2.4026
2.2507 6.9272 2.4026
2.0821 6.9787 2.4026
1.9123 7.0262 2.4026
1.7414 7.0696 2.4026
1.5696 7.1089 2.4026
1.3969 7.1441 2.4026
1.2234 7.1753 2.4026
1.0493 7.2023 2.4026
0.8746 7.2251 2.4026
0.6994 7.2438 2.4026
0.5238 7.2583 2.4026
0.3479 7.2687 2.4026
0.1718 7.2749 2.4026
-0.0044 7.2769 2.4026
-0.1805 7.2747 2.4026
-0.3566 7.2683 2.4026
-0.5325 7.2578 2.4026
-0.7081 7.2430 2.4026
-0.8833 7.2242 2.4026
-1.0580 7.2011 2.4026
-1.2321 7.1740 2.4026
-1.4055 7.1426 2.4026
-1.5782 7.1072 2.4026
-1.7500 7.0677 2.4026
-1.9208 7.0241 2.4026
-2.0905 6.9765 2.4026
-2.2591 6.9248 2.4026
-2.4265 6.8692 2.4026
-2.5925 6.8095 2.4026
-2.7570 6.7460 2.4026
-2.9201 6.6785 2.4026
-3.0815 6.6072 2.4026
-3.2412 6.5320 2.4026
-3.3991 6.4530 2.4026
-3.5551 6.3703 2.4026
-3.7091 6.2839 2.4026
-3.8611 6.1938 2.4026
-4.0109 6.1001 2.4026
-4.1584 6.0029 2.4026
-4.3037 5.9021 2.4026
-4.4465 5.7979 2.4026
-4.5869 5.6903 2.4026
-4.7247 5.5793 2.4026
-4.8598 5.4651 2.4026
-4.9923 5.3476 2.4026
-5.1219 5.2270 2.4026
-5.2486 5.1032 2.4026
-5.2772 4.8883 2.3600
-5.2899 4.6674 2.3137
-5.3698 4.5115 2.2993
-5.4968 4.3959 2.3066
-5.5859 4.2497 2.2993
-5.6892 4.1149 2.2993
-5.7894 3.9776 2.2993
-5.8862 3.8380 2.2993
-5.9798 3.6960 2.2993
-6.0699 3.5517 2.2993
-6.1566 3.4053 2.2993
-6.2398 3.2568 2.2993
-6.3194 3.1062 2.2993
-6.3954 2.9538 2.2993
-6.4678 2.7995 2.2993
-6.5365 2.6434 2.2993
-6.6015 2.4857 2.2993
-6.6627 2.3264 2.2993
-6.7200 2.1656 2.2993
-6.7735 2.0035 2.2993
-6.8231 1.8400 2.2993
-6.8688 1.6753 2.2993
-6.9105 1.5094 2.2993
-6.9483 1.3426 2.2993
-6.9820 1.1748 2.2993
-7.0117 1.0062 2.2993
-7.0373 0.8368 2.2993
-7.0589 0.6668 2.2993
-7.0763 0.4963 2.2993
-7.0897 0.3253 2.2993
-7.0989 0.1539 2.2993
-7.1039 -0.0177 2.2993
-7.1049 -0.1894 2.2993
-7.1016 -0.3612 2.2993
-7.0942 -0.5329 2.2993
-7.0827 -0.7045 2.2993
-7.0670 -0.8758 2.2993
-7.0472 -1.0468 2.2993
-7.0232 -1.2173 2.2993
-6.9950 -1.3872 2.2993
-6.9628 -1.5565 2.2993
-5.7576 -1.4339 1.9113
-6.8860 -1.8927 2.2993
-6.8414 -2.0594 2.2993
-6.7928 -2.2251 2.2993
-6.7402 -2.3895 2.2993
-6.6836 -2.5527 2.2993
-6.6230 -2.7146 2.2993
-6.5584 -2.8750 2.2993
-6.4900 -3.0339 2.2993
-6.4176 -3.1911 2.2993
-6.3414 -3.3465 2.2993
-6.2615 -3.5001 2.2993
-6.1777 -3.6518 2.2993
-6.0903 -3.8014 2.2993
-5.9992 -3.9490 2.2993
-5.9045 -4.0943 2.2993
-5.8063 -4.2373 2.2993
-5.7046 -4.3779 2.2993
-5.5994 -4.5160 2.2993
-5.4294 -4.6000 2.3609
-5.4125 -4.8149 2.4026
-5.2966 -4.9458 2.4026
-5.1775 -5.0739 2.4026
-5.0552 -5.1991 2.4026
-4.9299 -5.3213 2.4026
-4.8016 -5.4404 2.4026
-4.6703 -5.5564 2.4026
-4.5363 -5.6692 2.4026
-4.3995 -5.7786 2.4026
-4.2600 -5.8847 2.4026
-4.1179 -5.9874 2.4026
-3.9733 -6.0866 2.4026
-3.8263 -6.1823 2.4026
-3.6769 -6.2743 2.4026
-3.5253 -6.3627 2.4026
-3.3716 -6.4473 2.4026
-3.2157 -6.5282 2.4026
-3.0580 -6.6052 2.4026
-2.8983 -6.6783 2.4026
-2.7369 -6.7475 2.4026
-2.5738 -6.8127 2.4026
-2.4091 -6.8739 2.4026
-2.2429 -6.9311 2.4026
-2.0754 -6.9841 2.4026
-1.9066 -7.0330 2.4026
-1.7366 -7.0778 2.4026
-1.5656 -7.1184 2.4026
-1.3936 -7.1548 2.4026
-1.2207 -7.1869 2.4026
-1.0471 -7.2148 2.4026
-0.8729 -7.2384 2.4026
-0.6981 -7.2577 2.4026
-0.5229 -7.2727 2.4026
-0.3473 -7.2834 2.4026
-0.1716 -7.2897 2.4026
0.0043 -7.2918 2.4026
0.1801 -7.2895 2.4026
0.3559 -7.2829 2.4026
0.5314 -7.2720 2.4026
0.7066 -7.2568 2.4026
0.8813 -7.2372 2.4026
1.0556 -7.2134 2.4026
1.2291 -7.1853 2.4026
1.4019 -7.1529 2.4026
1.5739 -7.1163 2.4026
1.7449 -7.0755 2.4026
1.9148 -7.0306 2.4026
2.0835 -6.9814 2.4026
2.2510 -6.9281 2.4026
2.4171 -6.8708 2.4026
2.5816 -6.8094 2.4026
2.6269 -6.4546 2.2995
2.7818 -6.3893 2.2999
2.9340 -6.3179 2.2995
3.0849 -6.2440 2.2995
3.2339 -6.1665 2.2995
3.3810 -6.0853 2.2995
3.5260 -6.0006 2.2995
3.6688 -5.9123 2.2995
3.8094 -5.8206 2.2995
3.9476 -5.7255 2.2995
4.0835 -5.6270 2.2995
4.2168 -5.5253 2.2995
4.3477 -5.4204 2.2995
4.4758 -5.3123 2.2995
4.6013 -5.2011 2.2995
4.7239 -5.0870 2.2995
4.8437 -4.9699 2.2995
4.9605 -4.8499 2.2995
5.0744 -4.7272 2.2995
5.1852 -4.6017 2.2995
5.2928 -4.4737 2.2995
5.3973 -4.3430 2.2995
5.4985 -4.2099 2.2995
5.5964 -4.0745 2.2995
5.6909 -3.9367 2.2995
5.7820 -3.7967 2.2995
5.8696 -3.6546 2.2995
5.9537 -3.5104 2.2995
6.0342 -3.3643 2.2995
6.1061 -3.2136 2.2976
6.1793 -3.0640 2.2976
6.2488 -2.9126 2.2976
6.3146 -2.7597 2.2976
6.3766 -2.6053 2.2976
6.4348 -2.4495 2.2976
6.4892 -2.2924 2.2976
6.5398 -2.1341 2.2976
6.5865 -1.9747 2.2976
6.6292 -1.8142 2.2976
6.6681 -1.6528 2.2976
6.7030 -1.4906 2.2976
6.7339 -1.3276 2.2976
6.7609 -1.1641 2.2976
6.7839 -0.9999 2.2976
6.8029 -0.8354 2.2976
6.8180 -0.6705 2.2976
6.8290 -0.5053 2.2976
6.8360 -0.3400 2.2976
6.8390 -0.1747 2.2976
6.8380 -0.0094 2.2976
6.8331 0.1558 2.2976
6.8241 0.3207 2.2976
6.8112 0.4853 2.2976
3.1576 0.3018 1.0678
3.1115 0.3735 1.0554
6.7487 0.9762 2.2976
6.7201 1.1385 2.2976
6.6875 1.3000 2.2976
6.6511 1.4606 2.2976
6.6108 1.6202 2.2976
6.5668 1.7788 2.2976
6.5189 1.9361 2.2976
6.4673 2.0922 2.2976
6.4120 2.2470 2.2976
6.3531 2.4003 2.2976
6.2904 2.5522 2.2976
6.2242 2.7024 2.2976
6.1596 2.8533 2.2995
6.0862 3.0001 2.2995
6.0094 3.1451 2.2995
5.9291 3.2882 2.2995
5.8455 3.4293 2.2995
5.7586 3.5683 2.2995
5.6683 3.7051 2.2995
5.5749 3.8396 2.2995
5.4783 3.9719 2.2995
5.3786 4.1017 2.2995
5.2759 4.2291 2.2995
5.1702 4.3539 2.2995
5.0616 4.4762 2.2995
4.9501 4.5958 2.2995
4.8358 4.7126 2.2995
4.7188 4.8267 2.2995
4.5992 4.9379 2.2995
4.4770 5.0462 2.2995
4.3522 5.1515 2.2995
4.2250 5.2538 2.2995
4.0955 5.3530 2.2995
3.9636 5.4490 2.2995
3.8294 5.5416 2.2994
3.6932 5.6312 2.2994
3.5549 5.7175 2.2994
3.4147 5.8005 2.2994
3.2725 5.8801 2.2994
3.1286 5.9563 2.2994
2.9958 6.0552 2.3093
2.8355 6.0983 2.2994
2.7649 6.3439 2.3665
2.6499 6.5055 2.4026
2.4912 6.5667 2.4026
2.3311 6.6240 2.4026
2.1698 6.6775 2.4026
2.0072 6.7272 2.4026
1.8435 6.7730 2.4026
1.6788 6.8148 2.4026
1.5132 6.8528 2.4026
1.3467 6.8868 2.4026
1.1795 6.9168 2.4026
1.0116 6.9428 2.4026
0.8431 6.9649 2.4026
0.6742 6.9829 2.4026
0.5049 6.9969 2.4026
0.3354 7.0069 2.4026
0.1656 7.0129 2.4026
-0.0042 7.0148 2.4026
-0.1741 7.0127 2.4026
-0.3438 7.0065 2.4026
-0.5133 6.9964 2.4026
-0.6826 6.9822 2.4026
-0.8515 6.9639 2.4026
-1.0199 6.9417 2.4026
-1.1878 6.9155 2.4026
-1.3550 6.8853 2.4026
-1.5214 6.8511 2.4026
-1.6870 6.8130 2.4026
-1.8517 6.7710 2.4026
-2.0153 6.7250 2.4026
-2.1779 6.6752 2.4026
-2.3392 6.6215 2.4026
-2.4992 6.5640 2.4026
-2.6578 6.5027 2.4026
-2.8150 6.4376 2.4026
-2.9705 6.3688 2.4026
-3.1245 6.2963 2.4026
-3.2766 6.2201 2.4026
-3.4270 6.1403 2.4026
-3.5755 6.0570 2.4026
-3.7219 5.9701 2.4026
-3.8663 5.8797 2.4026
-4.0085 5.7859 2.4026
-4.1485 5.6888 2.4026
-4.2861 5.5882 2.4026
-4.4214 5.4845 2.4026
-4.5542 5.3774 2.4026
-4.6844 5.2672 2.4026
-4.8120 5.1540 2.4026
-4.9369 5.0376 2.4026
-5.0590 4.9183 2.4026
-5.1782 4.7961 2.4026
-5.2809 4.6589 2.3964
-5.2848 4.4397 2.3479
-5.2986 4.2368 2.3069
-5.3837 4.0954 2.2993
-5.5032 3.9799 2.3077
-5.5797 3.8331 2.2993
-5.6730 3.6984 2.2993
-5.7630 3.5615 2.2993
-5.8498 3.4224 2.2993
-5.9333 3.2813 2.2993
-6.0134 3.1381 2.2993
-6.0901 2.9930 2.2993
-6.1632 2.8460 2.2993
-6.2329 2.6973 2.2993
-6.2990 2.5469 2.2993
-6.3615 2.3949 2.2993
-6.4204 2.2413 2.2993
-6.4756 2.0864 2.2993
-6.5270 1.9301 2.2993
-6.5747 1.7725 2.2993
-6.6186 1.6138 2.2993
-6.6587 1.4540 2.2993
-6.6950 1.2932 2.2993
-6.7274 1.1315 2.2993
-6.7559 0.9690 2.2993
-6.7805 0.8058 2.2993
-6.8011 0.6420 2.2993
-6.8178 0.4776 2.2993
-6.8306 0.3129 2.2993
-6.8393 0.1478 2.2993
-6.8441 -0.0175 2.2993
-6.8449 -0.1830 2.2993
-6.8417 -0.3484 2.2993
-6.8345 -0.5139 2.2993
-6.8232 -0.6792 2.2993
-6.8080 -0.8442 2.2993
-6.7888 -1.0089 2.2993
-6.7656 -1.1731 2.2993
-6.7384 -1.3368 2.2993
-6.7072 -1.4999 2.2993
-5.7576 -1.4344 1.9842
-6.6330 -1.8236 2.2993
-6.5900 -1.9842 2.2993
-6.5430 -2.1437 2.2993
-6.4923 -2.3021 2.2993
-6.4376 -2.4593 2.2993
-6.3791 -2.6152 2.2993
-6.3169 -2.7696 2.2993
-6.2508 -2.9226 2.2993
-6.1811 -3.0740 2.2993
-6.1076 -3.2236 2.2993
-6.0305 -3.3715 2.2993
-5.9498 -3.5176 2.2993
-5.8655 -3.6616 2.2993
-5.7777 -3.8036 2.2993
-5.6864 -3.9435 2.2993
-5.5918 -4.0812 2.2993
-5.4937 -4.2166 2.2993
-5.4341 -4.3832 2.3171
-5.3267 -4.5135 2.4026
-5.2180 -4.6424 2.4026
-5.1062 -4.7685 2.4026
-4.9913 -4.8920 2.4026
-4.8734 -5.0126 2.4026
-4.7525 -5.1303 2.4026
-4.6288 -5.2451 2.4026
-4.5022 -5.3569 2.4026
-4.3729 -5.4655 2.4026
-4.2410 -5.5710 2.4026
-4.1065 -5.6733 2.4026
-3.9695 -5.7722 2.4026
-3.8301 -5.8678 2.4026
-3.6883 -5.9599 2.4026
-3.5443 -6.0486 2.4026
-3.3982 -6.1337 2.4026
-3.2499 -6.2152 2.4026
-3.0997 -6.2931 2.4026
-2.9476 -6.3673 2.4026
-2.7937 -6.4378 2.4026
-2.6381 -6.5044 2.4026
-2.4809 -6.5673 2.4026
-2.3221 -6.6262 2.4026
-2.1619 -6.6813 2.4026
-2.0005 -6.7324 2.4026
-1.8377 -6.7795 2.4026
-1.6739 -6.8226 2.4026
-1.5090 -6.8617 2.4026
-1.3432 -6.8968 2.4026
-1.1766 -6.9277 2.4026
-1.0093 -6.9546 2.4026
-0.8413 -6.9773 2.4026
-0.6729 -6.9959 2.4026
-0.5040 -7.0104 2.4026
-0.3348 -7.0207 2.4026
-0.1654 -7.0268 2.4026
0.0041 -7.0288 2.4026
0.1736 -7.0266 2.4026
0.3430 -7.0202 2.4026
0.5122 -7.0097 2.4026
0.6810 -6.9950 2.4026
0.8495 -6.9762 2.4026
1.0174 -6.9532 2.4026
1.1847 -6.9262 2.4026
1.3513 -6.8950 2.4026
1.5170 -6.8598 2.4026
1.6818 -6.8205 2.4026
1.8456 -6.7771 2.4026
2.0083 -6.7298 2.4026
2.1697 -6.6785 2.4026
2.3298 -6.6232 2.4026
2.4884 -6.5640 2.4026
2.5893 -6.3628 2.3515
2.6809 -6.1581 2.2995
2.8281 -6.0905 2.2995
2.9736 -6.0193 2.2995
3.1173 -5.9445 2.2995
3.2590 -5.8663 2.2995
3.3988 -5.7847 2.2995
3.5365 -5.6997 2.2995
3.6721 -5.6113 2.2995
3.8054 -5.5197 2.2995
3.9364 -5.4248 2.2995
4.0650 -5.3268 2.2995
4.1911 -5.2257 2.2995
4.3147 -5.1215 2.2995
4.4357 -5.0144 2.2995
4.5540 -4.9044 2.2995
4.6695 -4.7916 2.2995
4.7822 -4.6760 2.2995
4.8920 -4.5578 2.2995
4.9989 -4.4369 2.2995
5.1027 -4.3134 2.2995
5.2035 -4.1875 2.2995
5.3011 -4.0593 2.2995
5.3955 -3.9287 2.2995
5.4867 -3.7959 2.2995
5.5746 -3.6610 2.2995
5.6592 -3.5240 2.2995
5.7403 -3.3851 2.2995
5.8180 -3.2442 2.2995
5.8923 -3.1016 2.2995
5.9630 -2.9572 2.2995
6.0302 -2.8112 2.2995
6.0912 -2.6626 2.2985
6.1486 -2.5126 2.2976
6.2048 -2.3624 2.2976
6.2574 -2.2110 2.2976
6.3062 -2.0583 2.2976
6.3513 -1.9046 2.2976
6.3926 -1.7499 2.2976
6.4302 -1.5943 2.2976
6.4639 -1.4379 2.2976
6.4939 -1.2808 2.2976
6.5200 -1.1231 2.2976
6.5423 -0.9648 2.2976
6.5607 -0.8061 2.2976
6.5753 -0.6471 2.2976
6.5860 -0.4878 2.2976
6.5929 -0.3284 2.2976
6.5959 -0.1689 2.2976
6.5951 -0.0095 2.2976
6.5904 0.1498 2.2976
6.5818 0.3089 2.2976
6.5695 0.4676 2.2976
3.1577 0.3016 1.1071
3.1112 0.3733 1.0941
6.5095 0.9411 2.2976
6.4820 1.0976 2.2976
6.4506 1.2535 2.2976
6.4156 1.4084 2.2976
6.3769 1.5624 2.2976
6.3345 1.7153 2.2976
6.2884 1.8672 2.2976
6.2387 2.0178 2.2976
6.1855 2.1671 2.2976
6.1337 2.3170 2.2995
6.0734 2.4636 2.2995
6.0095 2.6087 2.2995
5.9422 2.7521 2.2995
5.8715 2.8938 2.2995
5.7975 3.0338 2.2995
5.7201 3.1719 2.2995
5.6395 3.3080 2.2995
5.5557 3.4421 2.2995
5.4688 3.5741 2.2995
5.3787 3.7040 2.2995
5.2856 3.8316 2.2995
5.1894 3.9570 2.2995
5.0904 4.0799 2.2995
4.9884 4.2004 2.2995
4.8837 4.3184 2.2995
4.7762 4.4338 2.2995
4.6660 4.5467 2.2995
4.5531 4.6567 2.2995
4.4377 4.7641 2.2995
4.3198 4.8686 2.2995
4.1995 4.9703 2.2995
4.0768 5.0690 2.2995
3.9519 5.1648 2.2995
3.8247 5.2575 2.2995
3.6954 5.3472 2.2995
3.5640 5.4337 2.2995
3.4306 5.5170 2.2995
3.2950 5.5968 2.2993
3.1579 5.6737 2.2993
3.0190 5.7472 2.2993
2.8784 5.8175 2.2993
2.7714 5.9601 2.3289
2.7088 6.2148 2.4026
2.5571 6.2774 2.4026
2.4040 6.3364 2.4026
2.2496 6.3918 2.4026
2.0939 6.4435 2.4026
1.9370 6.4914 2.4026
1.7790 6.5356 2.4026
1.6201 6.5761 2.4026
1.4603 6.6127 2.4026
1.2996 6.6455 2.4026
1.1382 6.6745 2.4026
0.9762 6.6996 2.4026
0.8137 6.7209 2.4026
0.6507 6.7383 2.4026
0.4873 6.7519 2.4026
0.3237 6.7615 2.4026
0.1598 6.7673 2.4026
-0.0041 6.7691 2.4026
-0.1680 6.7671 2.4026
-0.3318 6.7612 2.4026
-0.4954 6.7513 2.4026
-0.6588 6.7376 2.4026
-0.8217 6.7201 2.4026
-0.9843 6.6986 2.4026
-1.1463 6.6733 2.4026
-1.3076 6.6441 2.4026
-1.4682 6.6111 2.4026
-1.6281 6.5743 2.4026
-1.7869 6.5337 2.4026
-1.9449 6.4893 2.4026
-2.1017 6.4412 2.4026
-2.2573 6.3894 2.4026
-2.4117 6.3338 2.4026
-2.5648 6.2746 2.4026
-2.7164 6.2118 2.4026
-2.8666 6.1454 2.4026
-3.0151 6.0754 2.4026
-3.1619 6.0018 2.4026
-3.3070 5.9248 2.4026
-3.4502 5.8443 2.4026
-3.5915 5.7604 2.4026
-3.7308 5.6732 2.4026
-3.8680 5.5826 2.4026
-4.0030 5.4888 2.4026
-4.1358 5.3918 2.4026
-4.2663 5.2916 2.4026
-4.3944 5.1883 2.4026
-4.5200 5.0819 2.4026
-4.6431 4.9725 2.4026
-4.7635 4.8602 2.4026
-4.8813 4.7451 2.4026
-4.9963 4.6271 2.4026
-5.1085 4.5063 2.4026
-5.2178 4.3829 2.4026
-5.2878 4.2278 2.3861
-5.2927 4.0257 2.3429
-5.3053 3.8362 2.3058
-5.3833 3.6977 2.2993
-5.4732 3.5677 2.2993
-5.5600 3.4356 2.2993
-5.6437 3.3014 2.2993
-5.7242 3.1652 2.2993
-5.8014 3.0270 2.2993
-5.8752 2.8870 2.2993
-5.9458 2.7451 2.2993
-6.0129 2.6016 2.2993
-6.0766 2.4565 2.2993
-6.1368 2.3098 2.2993
-6.1935 2.1617 2.2993
-6.2466 2.0121 2.2993
-6.2962 1.8613 2.2993
-6.3421 1.7093 2.2993
-6.3844 1.5562 2.2993
-6.4230 1.4020 2.2993
-6.4579 1.2469 2.2993
-6.4890 1.0909 2.2993
-6.5164 0.9342 2.2993
-6.5400 0.7767 2.2993
-6.5598 0.6187 2.2993
-6.5759 0.4602 2.2993
-6.5880 0.3013 2.2993
-6.5964 0.1421 2.2993
-6.6009 -0.0174 2.2993
-6.6016 -0.1769 2.2993
-6.5984 -0.3365 2.2993
-6.5913 -0.4961 2.2993
-6.5804 -0.6555 2.2993
-6.5656 -0.8146 2.2993
-6.5469 -0.9734 2.2993
-6.5244 -1.1318 2.2993
-6.4981 -1.2896 2.2993
-6.4680 -1.4469 2.2993
-5.7577 -1.4348 2.0576
-6.3962 -1.7590 2.2993
-6.3546 -1.9138 2.2993
-6.3093 -2.0676 2.2993
-6.2603 -2.2203 2.2993
-6.2075 -2.3719 2.2993
-6.1510 -2.5221 2.2993
-6.0909 -2.6710 2.2993
-6.0271 -2.8185 2.2993
-5.9598 -2.9644 2.2993
-5.8889 -3.1087 2.2993
-5.8145 -3.2512 2.2993
-5.7366 -3.3920 2.2993
-5.6552 -3.5308 2.2993
-5.5705 -3.6677 2.2993
-5.4824 -3.8025 2.2993
-5.4279 -3.9621 2.3150
-5.4223 -4.1623 2.3540
-5.4258 -4.3770 2.3998
-5.1406 -4.3563 2.4026
-5.0356 -4.4806 2.4026
-4.9277 -4.6023 2.4026
-4.8168 -4.7214 2.4026
-4.7029 -4.8378 2.4026
-4.5862 -4.9513 2.4026
-4.4668 -5.0621 2.4026
-4.3446 -5.1699 2.4026
-4.2198 -5.2747 2.4026
-4.0925 -5.3764 2.4026
-3.9626 -5.4750 2.4026
-3.8304 -5.5704 2.4026
-3.6958 -5.6626 2.4026
-3.5590 -5.7515 2.4026
-3.4201 -5.8370 2.4026
-3.2790 -5.9191 2.4026
-3.1359 -5.9977 2.4026
-2.9910 -6.0728 2.4026
-2.8442 -6.1444 2.4026
-2.6957 -6.2123 2.4026
-2.5455 -6.2766 2.4026
-2.3938 -6.3372 2.4026
-2.2406 -6.3941 2.4026
-2.0860 -6.4472 2.4026
-1.9302 -6.4964 2.4026
-1.7732 -6.5419 2.4026
-1.6151 -6.5835 2.4026
-1.4560 -6.6212 2.4026
-1.2960 -6.6550 2.4026
-1.1353 -6.6848 2.4026
-0.9738 -6.7107 2.4026
-0.8118 -6.7326 2.4026
-0.6492 -6.7506 2.4026
-0.4863 -6.7645 2.4026
-0.3230 -6.7744 2.4026
-0.1596 -6.7803 2.4026
0.0040 -6.7823 2.4026
0.1675 -6.7801 2.4026
0.3310 -6.7740 2.4026
0.4942 -6.7639 2.4026
0.6571 -6.7497 2.4026
0.8196 -6.7316 2.4026
0.9817 -6.7094 2.4026
1.1431 -6.6833 2.4026
1.3038 -6.6533 2.4026
1.4637 -6.6193 2.4026
1.6228 -6.5814 2.4026
1.7808 -6.5396 2.4026
1.9378 -6.4939 2.4026
2.0935 -6.4445 2.4026
2.2480 -6.3912 2.4026
2.4011 -6.3341 2.4026
2.5527 -6.2733 2.4026
2.6036 -5.9809 2.3144
2.7289 -5.8772 2.2995
2.8693 -5.8086 2.2995
3.0079 -5.7365 2.2995
3.1448 -5.6611 2.2995
3.2797 -5.5823 2.2995
3.4126 -5.5003 2.2995
3.5434 -5.4151 2.2995
3.6720 -5.3267 2.2995
3.7985 -5.2352 2.2995
3.9226 -5.1407 2.2995
4.0444 -5.0432 2.2995
4.1637 -4.9427 2.2995
4.2805 -4.8394 2.2995
4.3946 -4.7333 2.2995
4.5062 -4.6245 2.2995
4.6150 -4.5130 2.2995
4.7210 -4.3989 2.2995
4.8242 -4.2823 2.2995
4.9244 -4.1632 2.2995
5.0217 -4.0418 2.2995
5.1160 -3.9180 2.2995
5.2072 -3.7921 2.2995
5.2953 -3.6640 2.2995
5.3802 -3.5338 2.2995
5.4618 -3.4016 2.2995
5.5402 -3.2675 2.2995
5.6153 -3.1316 2.2995
5.6870 -2.9940 2.2995
5.7554 -2.8547 2.2995
5.8203 -2.7138 2.2995
5.8817 -2.5715 2.2995
5.9396 -2.4277 2.2995
5.9940 -2.2827 2.2995
6.0449 -2.1364 2.2995
6.0921 -1.9890 2.2995
6.1307 -1.8389 2.2976
6.1707 -1.6896 2.2976
6.2070 -1.5395 2.2976
6.2397 -1.3885 2.2976
6.2687 -1.2368 2.2976
6.2940 -1.0846 2.2976
6.3156 -0.9318 2.2976
6.3335 -0.7787 2.2976
6.3476 -0.6251 2.2976
6.3581 -0.4714 2.2976
6.3648 -0.3175 2.2976
6.3678 -0.1636 2.2976
6.3671 -0.0096 2.2976
6.3626 0.1442 2.2976
6.3545 0.2977 2.2976
6.3426 0.4510 2.2976
3.1577 0.3014 1.1467
3.1109 0.3730 1.1331
6.2850 0.9082 2.2976
6.2585 1.0593 2.2976
6.2283 1.2098 2.2976
6.1946 1.3594 2.2976
6.1580 1.5083 2.2978
6.1215 1.6572 2.2995
6.0771 1.8040 2.2995
6.0291 1.9495 2.2995
5.9777 2.0939 2.2995
5.9229 2.2369 2.2995
5.8647 2.3785 2.2995
5.8031 2.5186 2.2995
5.7382 2.6572 2.2995
5.6700 2.7940 2.2995
5.5986 2.9292 2.2995
5.5239 3.0626 2.2995
5.4462 3.1941 2.2995
5.3653 3.3237 2.2995
5.2814 3.4512 2.2995
5.1944 3.5767 2.2995
5.1046 3.7000 2.2995
5.0118 3.8210 2.2995
4.9162 3.9398 2.2995
4.8178 4.0562 2.2995
4.7167 4.1703 2.2995
4.6129 4.2818 2.2995
4.5065 4.3908 2.2995
4.3975 4.4971 2.2995
4.2861 4.6009 2.2995
4.1723 4.7019 2.2995
4.0561 4.8001 2.2995
3.9377 4.8955 2.2995
3.8170 4.9880 2.2995
3.6942 5.0776 2.2995
3.5693 5.1643 2.2995
3.4424 5.2479 2.2995
3.3136 5.3284 2.2995
3.1829 5.4059 2.2995
3.0504 5.4801 2.2995
2.9161 5.5508 2.2993
2.7803 5.6187 2.2993
2.7610 5.9372 2.4020
2.6166 6.0026 2.4026
2.4700 6.0631 2.4026
2.3222 6.1202 2.4026
2.1730 6.1737 2.4026
2.0226 6.2236 2.4026
1.8711 6.2700 2.4026
1.7185 6.3127 2.4026
1.5650 6.3518 2.4026
1.4106 6.3872 2.4026
1.2554 6.4189 2.4026
1.0995 6.4469 2.4026
0.9430 6.4712 2.4026
0.7860 6.4918 2.4026
0.6285 6.5086 2.4026
0.4707 6.5217 2.4026
0.3126 6.5310 2.4026
0.1544 6.5366 2.4026
-0.0039 6.5384 2.4026
-0.1623 6.5364 2.4026
-0.3205 6.5307 2.4026
-0.4786 6.5212 2.4026
-0.6364 6.5079 2.4026
-0.7938 6.4909 2.4026
-0.9508 6.4702 2.4026
-1.1073 6.4457 2.4026
-1.2631 6.4175 2.4026
-1.4183 6.3856 2.4026
-1.5726 6.3501 2.4026
-1.7261 6.3108 2.4026
-1.8786 6.2679 2.4026
-2.0301 6.2214 2.4026
-2.1805 6.1713 2.4026
-2.3296 6.1176 2.4026
-2.4774 6.0604 2.4026
-2.6239 5.9997 2.4026
-2.7689 5.9355 2.4026
-2.9123 5.8678 2.4026
-3.0541 5.7968 2.4026
-3.1943 5.7223 2.4026
-3.3326 5.6446 2.4026
-3.4690 5.5635 2.4026
-3.6035 5.4792 2.4026
-3.7360 5.3917 2.4026
-3.8664 5.3010 2.4026
-3.9946 5.2073 2.4026
-4.1206 5.1104 2.4026
-4.2443 5.0106 2.4026
-4.3656 4.9078 2.4026
-4.4844 4.8022 2.4026
-4.6007 4.6937 2.4026
-4.7144 4.5824 2.4026
-4.8255 4.4684 2.4026
-4.9338 4.3517 2.4026
-5.0393 4.2325 2.4026
-5.1420 4.1107 2.4026
-5.2418 3.9865 2.4026
-5.2942 3.8278 2.3826
-5.2988 3.6392 2.3435
-5.3102 3.4610 2.3100
-5.3694 3.3174 2.2993
-5.4502 3.1877 2.2993
-5.5278 3.0561 2.2993
-5.6023 2.9227 2.2993
-5.6736 2.7874 2.2993
-5.7416 2.6504 2.2993
-5.8063 2.5118 2.2993
-5.8678 2.3716 2.2993
-5.9258 2.2299 2.2993
-5.9805 2.0869 2.2993
-6.0317 1.9425 2.2993
-6.0795 1.7968 2.2993
-6.1238 1.6500 2.2993
-6.1645 1.5021 2.2993
-6.2017 1.3532 2.2993
-6.2353 1.2034 2.2993
-6.2653 1.0528 2.2993
-6.2916 0.9015 2.2993
-6.3143 0.7495 2.2993
-6.3334 0.5969 2.2993
-6.3488 0.4439 2.2993
-6.3604 0.2904 2.2993
-6.3684 0.1367 2.2993
-6.3727 -0.0172 2.2993
-6.3732 -0.1713 2.2993
-6.3700 -0.3253 2.2993
-6.3631 -0.4794 2.2993
-6.3525 -0.6332 2.2993
-6.3381 -0.7869 2.2993
-6.3201 -0.9401 2.2993
-6.2983 -1.0930 2.2993
-6.2727 -1.2454 2.2993
-6.2436 -1.3971 2.2993
-5.7578 -1.4353 2.1316
-6.1741 -1.6984 2.2993
-6.1339 -1.8478 2.2993
-6.0901 -1.9963 2.2993
-6.0426 -2.1436 2.2993
-5.9916 -2.2899 2.2993
-5.9370 -2.4349 2.2993
-5.8789 -2.5785 2.2993
-5.8173 -2.7208 2.2993
-5.7522 -2.8616 2.2993
-5.6837 -3.0008 2.2993
-5.6188 -3.1423 2.3022
-5.5366 -3.2742 2.2993
-5.4580 -3.4082 2.2993
-5.4208 -3.5696 2.3184
-5.4158 -3.7568 2.3535
-5.4190 -3.9561 2.3948
-5.3411 -4.1004 2.4026
-5.2424 -4.2296 2.4026
-4.9657 -4.2086 2.4026
-4.8643 -4.3286 2.4026
-4.7599 -4.4461 2.4026
-4.6527 -4.5611 2.4026
-4.5427 -4.6735 2.4026
-4.4300 -4.7831 2.4026
-4.3146 -4.8900 2.4026
-4.1965 -4.9941 2.4026
-4.0760 -5.0953 2.4026
-3.9529 -5.1935 2.4026
-3.8275 -5.2887 2.4026
-3.6997 -5.3809 2.4026
-3.5697 -5.4699 2.4026
-3.4376 -5.5557 2.4026
-3.3033 -5.6382 2.4026
-3.1670 -5.7175 2.4026
-3.0288 -5.7934 2.4026
-2.8888 -5.8659 2.4026
-2.7470 -5.9350 2.4026
-2.6036 -6.0006 2.4026
-2.4585 -6.0626 2.4026
-2.3120 -6.1211 2.4026
-2.1640 -6.1760 2.4026
-2.0147 -6.2272 2.4026
-1.8642 -6.2748 2.4026
-1.7126 -6.3187 2.4026
-1.5599 -6.3588 2.4026
-1.4062 -6.3952 2.4026
-1.2517 -6.4278 2.4026
-1.0965 -6.4566 2.4026
-0.9405 -6.4816 2.4026
-0.7840 -6.5028 2.4026
-0.6270 -6.5201 2.4026
-0.4696 -6.5336 2.4026
-0.3120 -6.5431 2.4026
-0.1541 -6.5489 2.4026
0.0038 -6.5507 2.4026
0.1618 -6.5487 2.4026
0.3196 -6.5427 2.4026
0.4773 -6.5330 2.4026
0.6346 -6.5193 2.4026
0.7916 -6.5018 2.4026
0.9481 -6.4804 2.4026
1.1040 -6.4552 2.4026
1.2592 -6.4262 2.4026
1.4137 -6.3934 2.4026
1.5673 -6.3568 2.4026
1.7199 -6.3165 2.4026
1.8715 -6.2724 2.4026
2.0219 -6.2246 2.4026
2.1712 -6.1732 2.4026
2.3190 -6.1181 2.4026
2.4655 -6.0594 2.4026
2.5957 -5.9634 2.3890
2.6357 -5.6769 2.2995
2.7901 -5.6486 2.3150
2.9052 -5.5411 2.2995
3.0374 -5.4683 2.2995
3.1677 -5.3922 2.2995
3.2961 -5.3131 2.2995
3.4225 -5.2308 2.2995
3.5468 -5.1455 2.2995
3.6689 -5.0571 2.2995
3.7889 -4.9659 2.2995
3.9065 -4.8717 2.2995
4.0218 -4.7747 2.2995
4.1346 -4.6750 2.2995
4.2449 -4.5725 2.2995
4.3527 -4.4675 2.2995
4.4578 -4.3598 2.2995
4.5603 -4.2496 2.2995
4.6600 -4.1370 2.2995
4.7569 -4.0220 2.2995
4.8509 -3.9048 2.2995
4.9421 -3.7853 2.2995
5.0302 -3.6636 2.2995
5.1153 -3.5399 2.2995
5.1974 -3.4142 2.2995
5.2764 -3.2866 2.2995
5.3522 -3.1571 2.2995
5.4248 -3.0258 2.2995
5.4941 -2.8929 2.2995
5.5602 -2.7584 2.2995
5.6230 -2.6223 2.2995
5.6824 -2.4848 2.2995
5.7384 -2.3460 2.2995
5.7911 -2.2058 2.2995
5.8403 -2.0645 2.2995
5.8860 -1.9221 2.2995
5.9282 -1.7787 2.2995
5.9670 -1.6343 2.2995
6.0022 -1.4891 2.2995
6.0339 -1.3432 2.2995
6.0620 -1.1965 2.2995
6.0865 -1.0493 2.2995
6.1075 -0.9016 2.2995
6.1218 -0.7530 2.2983
6.1336 -0.6045 2.2976
6.1437 -0.4560 2.2976
6.1503 -0.3073 2.2976
6.1533 -0.1585 2.2976
6.1527 -0.0098 2.2976
6.1484 0.1388 2.2976
6.1406 0.2873 2.2976
6.1344 0.4357 2.2995
3.1578 0.3012 1.1866
3.1106 0.3727 1.1724
6.0789 0.8779 2.2995
6.0533 1.0242 2.2995
6.0242 1.1697 2.2995
5.9917 1.3144 2.2995
5.9557 1.4583 2.2995
5.9162 1.6012 2.2995
5.8733 1.7430 2.2995
5.8271 1.8838 2.2995
5.7775 2.0233 2.2995
5.7246 2.1615 2.2995
5.6683 2.2984 2.2995
5.6089 2.4339 2.2995
5.5462 2.5678 2.2995
5.4804 2.7002 2.2995
5.4114 2.8309 2.2995
5.3393 2.9598 2.2995
5.2642 3.0869 2.2995
5.1861 3.2122 2.2995
5.1050 3.3355 2.2995
5.0211 3.4568 2.2995
4.9342 3.5760 2.2995
4.8446 3.6931 2.2995
4.7522 3.8080 2.2995
4.6572 3.9206 2.2995
4.5595 4.0308 2.2995
4.4592 4.1387 2.2995
4.3564 4.2441 2.2995
4.2511 4.3469 2.2995
4.1434 4.4472 2.2995
4.0334 4.5449 2.2995
3.9211 4.6399 2.2995
3.8067 4.7322 2.2995
3.6900 4.8217 2.2995
3.5713 4.9083 2.2995
3.4506 4.9921 2.2995
3.3280 5.0730 2.2995
3.2034 5.1509 2.2995
3.0771 5.2258 2.2995
2.9665 5.3289 2.3131
2.8194 5.3664 2.2995
2.7574 5.5721 2.3588
2.6699 5.7409 2.4026
2.5297 5.8028 2.4026
2.3881 5.8614 2.4026
2.2451 5.9166 2.4026
2.1009 5.9683 2.4026
1.9555 6.0167 2.4026
1.8090 6.0615 2.4026
1.6615 6.1028 2.4026
1.5130 6.1406 2.4026
1.3638 6.1748 2.4026
1.2137 6.2055 2.4026
1.0630 6.2326 2.4026
0.9117 6.2561 2.4026
0.7599 6.2760 2.4026
0.6077 6.2923 2.4026
0.4551 6.3050 2.4026
0.3023 6.3140 2.4026
0.1493 6.3194 2.4026
-0.0038 6.3211 2.4026
-0.1569 6.3192 2.4026
-0.3099 6.3136 2.4026
-0.4627 6.3045 2.4026
-0.6153 6.2916 2.4026
-0.7675 6.2752 2.4026
-0.9193 6.2551 2.4026
-1.0705 6.2315 2.4026
-1.2212 6.2042 2.4026
-1.3712 6.1734 2.4026
-1.5205 6.1389 2.4026
-1.6689 6.1010 2.4026
-1.8163 6.0595 2.4026
-1.9628 6.0145 2.4026
-2.1081 5.9661 2.4026
-2.2523 5.9141 2.4026
-2.3952 5.8588 2.4026
-2.5368 5.8000 2.4026
-2.6769 5.7379 2.4026
-2.8156 5.6725 2.4026
-2.9527 5.6038 2.4026
-3.0881 5.5318 2.4026
-3.2218 5.4565 2.4026
-3.3537 5.3781 2.4026
-3.4837 5.2966 2.4026
-3.6118 5.2120 2.4026
-3.7378 5.1243 2.4026
-3.8618 5.0336 2.4026
-3.9835 4.9399 2.4026
-4.1031 4.8434 2.4026
-4.2203 4.7440 2.4026
-4.3351 4.6418 2.4026
-4.4475 4.5369 2.4026
-4.5574 4.4293 2.4026
-4.6647 4.3190 2.4026
-4.7693 4.2062 2.4026
-4.8713 4.0909 2.4026
-4.9705 3.9731 2.4026
-5.0669 3.8530 2.4026
-5.1604 3.7306 2.4026
-5.2510 3.6059 2.4026
-5.3002 3.4540 2.3853
-5.3031 3.2759 2.3494
-5.3135 3.1073 2.3191
-5.3430 2.9535 2.2993
-5.4150 2.8245 2.2993
-5.4838 2.6937 2.2993
-5.5495 2.5613 2.2993
-5.6120 2.4273 2.2993
-5.6713 2.2918 2.2993
-5.7274 2.1548 2.2993
-5.7801 2.0165 2.2993
-5.8296 1.8769 2.2993
-5.8757 1.7361 2.2993
-5.9184 1.5942 2.2993
-5.9577 1.4513 2.2993
-5.9935 1.3074 2.2993
-6.0259 1.1626 2.2993
-6.0548 1.0170 2.2993
-6.0802 0.8707 2.2993
-6.1021 0.7238 2.2993
-6.1204 0.5764 2.2993
-6.1352 0.4285 2.2993
-6.1464 0.2802 2.2993
-6.1540 0.1316 2.2993
-6.1581 -0.0171 2.2993
-6.1585 -0.1660 2.2993
-6.1554 -0.3148 2.2993
-6.1486 -0.4637 2.2993
-6.1382 -0.6123 2.2993
-6.1243 -0.7608 2.2993
-6.1067 -0.9089 2.2993
-6.0856 -1.0566 2.2993
-6.0609 -1.2038 2.2993
-6.0326 -1.3504 2.2993
-5.7578 -1.4357 2.2062
-5.9653 -1.6414 2.2993
-5.9264 -1.7858 2.2993
-5.8840 -1.9292 2.2993
-5.8381 -2.0715 2.2993
-5.7887 -2.2128 2.2993
-5.7359 -2.3528 2.2993
-5.6797 -2.4916 2.2993
-5.6201 -2.6290 2.2993
-5.5572 -2.7650 2.2993
-5.4909 -2.8995 2.2993
-5.4214 -3.0323 2.2993
-5.4127 -3.2014 2.3269
-5.4098 -3.3785 2.3591
-5.4128 -3.5648 2.3964
-5.3409 -3.7053 2.4026
-5.2517 -3.8345 2.4026
-5.1595 -3.9614 2.4026
-5.0641 -4.0862 2.4026
-4.8010 -4.0695 2.4026
-4.7029 -4.1855 2.4026
-4.6020 -4.2991 2.4026
-4.4983 -4.4102 2.4026
-4.3919 -4.5188 2.4026
-4.2829 -4.6248 2.4026
-4.1712 -4.7281 2.4026
-4.0571 -4.8287 2.4026
-3.9405 -4.9264 2.4026
-3.8215 -5.0214 2.4026
-3.7002 -5.1134 2.4026
-3.5767 -5.2024 2.4026
-3.4510 -5.2884 2.4026
-3.3232 -5.3713 2.4026
-3.1934 -5.4511 2.4026
-3.0616 -5.5277 2.4026
-2.9280 -5.6010 2.4026
-2.7926 -5.6711 2.4026
-2.6556 -5.7378 2.4026
-2.5168 -5.8012 2.4026
-2.3766 -5.8611 2.4026
-2.2349 -5.9177 2.4026
-2.0919 -5.9707 2.4026
-1.9476 -6.0202 2.4026
-1.8021 -6.0662 2.4026
-1.6555 -6.1086 2.4026
-1.5079 -6.1474 2.4026
-1.3594 -6.1825 2.4026
-1.2100 -6.2140 2.4026
-1.0599 -6.2419 2.4026
-0.9092 -6.2660 2.4026
-0.7579 -6.2864 2.4026
-0.6061 -6.3032 2.4026
-0.4540 -6.3162 2.4026
-0.3016 -6.3254 2.4026
-0.1490 -6.3310 2.4026
0.0037 -6.3327 2.4026
0.1564 -6.3308 2.4026
0.3090 -6.3250 2.4026
0.4614 -6.3156 2.4026
0.6135 -6.3024 2.4026
0.7652 -6.2855 2.4026
0.9165 -6.2648 2.4026
1.0672 -6.2405 2.4026
1.2172 -6.2124 2.4026
1.3666 -6.1808 2.4026
1.5150 -6.1454 2.4026
1.6626 -6.1064 2.4026
1.8091 -6.0638 2.4026
1.9546 -6.0177 2.4026
2.0988 -5.9680 2.4026
2.2418 -5.9148 2.4026
2.3834 -5.8581 2.4026
2.5235 -5.7980 2.4026
2.6018 -5.6044 2.3481
2.6790 -5.4243 2.2995
2.8085 -5.3571 2.2995
2.9363 -5.2867 2.2995
3.0623 -5.2133 2.2995
3.1864 -5.1368 2.2995
3.3086 -5.0573 2.2995
3.4288 -4.9748 2.2995
3.5469 -4.8894 2.2995
3.6629 -4.8013 2.2995
3.7767 -4.7103 2.2995
3.8881 -4.6165 2.2995
3.9973 -4.5201 2.2995
4.1040 -4.4211 2.2995
4.2082 -4.3196 2.2995
4.3099 -4.2155 2.2995
4.4090 -4.1091 2.2995
4.5054 -4.0002 2.2995
4.5992 -3.8891 2.2995
4.6901 -3.7758 2.2995
4.7783 -3.6603 2.2995
4.8635 -3.5427 2.2995
4.9459 -3.4231 2.2995
5.0253 -3.3016 2.2995
5.1017 -3.1782 2.2995
5.1750 -3.0531 2.2995
5.2453 -2.9262 2.2995
5.3124 -2.7977 2.2995
5.3764 -2.6676 2.2995
5.4371 -2.5361 2.2995
5.4947 -2.4031 2.2995
5.5489 -2.2689 2.2995
5.5999 -2.1334 2.2995
5.6475 -1.9968 2.2995
5.6918 -1.8591 2.2995
5.7327 -1.7205 2.2995
5.7703 -1.5809 2.2995
5.8044 -1.4405 2.2995
5.8351 -1.2993 2.2995
5.8623 -1.1576 2.2995
5.8861 -1.0152 2.2995
5.9065 -0.8724 2.2995
5.9234 -0.7291 2.2995
5.9368 -0.5856 2.2995
5.9467 -0.4418 2.2995
5.9531 -0.2979 2.2995
5.9561 -0.1539 2.2995
5.9555 -0.0099 2.2995
5.9515 0.1340 2.2995
5.9441 0.2776 2.2995
5.9331 0.4210 2.2995
3.1578 0.3009 1.2268
3.1103 0.3724 1.2120
5.8797 0.8487 2.2995
5.8550 0.9902 2.2995
5.8270 1.1310 2.2995
5.7955 1.2710 2.2995
5.7608 1.4101 2.2995
5.7227 1.5484 2.2995
5.6813 1.6856 2.2995
5.6366 1.8217 2.2995
5.5887 1.9567 2.2995
5.5376 2.0905 2.2995
5.4833 2.2229 2.2995
5.4258 2.3540 2.2995
5.3652 2.4836 2.2995
5.3016 2.6116 2.2995
5.2349 2.7381 2.2995
5.1653 2.8629 2.2995
5.0927 2.9859 2.2995
5.0171 3.1071 2.2995
4.9388 3.2265 2.2995
4.8576 3.3438 2.2995
4.7736 3.4592 2.2995
4.6870 3.5725 2.2995
4.5976 3.6837 2.2995
4.5057 3.7926 2.2995
4.4112 3.8993 2.2995
4.3142 4.0037 2.2995
4.2148 4.1057 2.2995
4.1130 4.2053 2.2995
4.0088 4.3023 2.2995
3.9024 4.3969 2.2995
3.7938 4.4888 2.2995
3.6831 4.5782 2.2995
3.5703 4.6648 2.2995
3.4555 4.7487 2.2995
3.3387 4.8298 2.2995
3.2200 4.9080 2.2995
3.0996 4.9834 2.2995
2.9774 5.0559 2.2995
2.8535 5.1255 2.2995
2.7779 5.2870 2.3415
2.7176 5.4912 2.4026
2.5834 5.5544 2.4026
2.4478 5.6144 2.4026
2.3107 5.6711 2.4026
2.1724 5.7245 2.4026
2.0328 5.7746 2.4026
1.8922 5.8214 2.4026
1.7504 5.8648 2.4026
1.6077 5.9048 2.4026
1.4641 5.9414 2.4026
1.3196 5.9746 2.4026
1.1745 6.0043 2.4026
1.0286 6.0305 2.4026
0.8822 6.0533 2.4026
0.7353 6.0725 2.4026
0.5880 6.0883 2.4026
0.4404 6.1005 2.4026
0.2925 6.1093 2.4026
0.1444 6.1145 2.4026
-0.0037 6.1161 2.4026
-0.1518 6.1143 2.4026
-0.2998 6.1089 2.4026
-0.4477 6.1000 2.4026
-0.5953 6.0876 2.4026
-0.7426 6.0717 2.4026
-0.8895 6.0523 2.4026
-1.0359 6.0294 2.4026
-1.1817 6.0030 2.4026
-1.3269 5.9731 2.4026
-1.4713 5.9398 2.4026
-1.6148 5.9030 2.4026
-1.7575 5.8629 2.4026
-1.8992 5.8193 2.4026
-2.0399 5.7724 2.4026
-2.1794 5.7222 2.4026
-2.3176 5.6686 2.4026
-2.4546 5.6117 2.4026
-2.5902 5.5516 2.4026
-2.7244 5.4882 2.4026
-2.8570 5.4217 2.4026
-2.9880 5.3520 2.4026
-3.1174 5.2792 2.4026
-3.2450 5.2033 2.4026
-3.3708 5.1244 2.4026
-3.4947 5.0424 2.4026
-3.6166 4.9576 2.4026
-3.7365 4.8698 2.4026
-3.8542 4.7791 2.4026
-3.9698 4.6857 2.4026
-4.0832 4.5895 2.4026
-4.1943 4.4906 2.4026
-4.3030 4.3890 2.4026
-4.4093 4.2849 2.4026
-4.5130 4.1782 2.4026
-4.6142 4.0690 2.4026
-4.7129 3.9574 2.4026
-4.8088 3.8434 2.4026
-4.9020 3.7272 2.4026
-4.9924 3.6087 2.4026
-5.0800 3.4880 2.4026
-5.1647 3.3653 2.4026
-5.2465 3.2405 2.4026
-5.3059 3.1024 2.3938
-5.3086 2.9340 2.3615
-5.3153 2.7721 2.3331
-5.3243 2.6149 2.3077
-5.3684 2.4773 2.2993
-5.4288 2.3476 2.2993
-5.4861 2.2165 2.2993
-5.5403 2.0840 2.2993
-5.5913 1.9502 2.2993
-5.6390 1.8151 2.2993
-5.6835 1.6789 2.2993
-5.7248 1.5416 2.2993
-5.7627 1.4033 2.2993
-5.7973 1.2641 2.2993
-5.8286 1.1241 2.2993
-5.8565 0.9832 2.2993
-5.8810 0.8417 2.2993
-5.9020 0.6996 2.2993
-5.9197 0.5570 2.2993
-5.9339 0.4140 2.2993
-5.9447 0.2706 2.2993
-5.9520 0.1269 2.2993
-5.9558 -0.0170 2.2993
-5.9562 -0.1609 2.2993
-5.9530 -0.3049 2.2993
-5.9464 -0.4489 2.2993
-5.9363 -0.5926 2.2993
-5.9228 -0.7362 2.2993
-5.9057 -0.8794 2.2993
-5.8852 -1.0222 2.2993
-5.8612 -1.1645 2.2993
-5.8338 -1.3063 2.2993
-5.7579 -1.4362 2.2815
-5.7686 -1.5878 2.2993
-5.7309 -1.7273 2.2993
-5.6898 -1.8659 2.2993
-5.6454 -2.0036 2.2993
-5.6030 -2.1422 2.3015
-5.5464 -2.2756 2.2993
-5.4920 -2.4097 2.2993
-5.4343 -2.5426 2.2993
-5.4078 -2.6912 2.3140
-5.4037 -2.8539 2.3402
-5.4041 -3.0231 2.3704
-5.4038 -3.1966 2.4026
-5.3270 -3.3273 2.4026
-5.2471 -3.4561 2.4026
-5.1639 -3.5830 2.4026
-5.0777 -3.7079 2.4026
-4.9884 -3.8306 2.4026
-4.8962 -3.9512 2.4026
-4.6456 -3.9382 2.4026
-4.5506 -4.0504 2.4026
-4.4530 -4.1603 2.4026
-4.3526 -4.2678 2.4026
-4.2496 -4.3728 2.4026
-4.1441 -4.4753 2.4026
-4.0360 -4.5752 2.4026
-3.9255 -4.6725 2.4026
-3.8127 -4.7671 2.4026
-3.6975 -4.8589 2.4026
-3.5802 -4.9479 2.4026
-3.4606 -5.0340 2.4026
-3.3390 -5.1172 2.4026
-3.2153 -5.1974 2.4026
-3.0897 -5.2745 2.4026
-2.9622 -5.3486 2.4026
-2.8329 -5.4195 2.4026
-2.7019 -5.4873 2.4026
-2.5693 -5.5518 2.4026
-2.4351 -5.6131 2.4026
-2.2994 -5.6711 2.4026
-2.1623 -5.7257 2.4026
-2.0239 -5.7770 2.4026
-1.8843 -5.8249 2.4026
-1.7435 -5.8694 2.4026
-1.6017 -5.9104 2.4026
-1.4588 -5.9479 2.4026
-1.3151 -5.9819 2.4026
-1.1706 -6.0123 2.4026
-1.0254 -6.0393 2.4026
-0.8796 -6.0626 2.4026
-0.7332 -6.0824 2.4026
-0.5864 -6.0985 2.4026
-0.4392 -6.1111 2.4026
-0.2917 -6.1201 2.4026
-0.1441 -6.1254 2.4026
0.0036 -6.1271 2.4026
0.1513 -6.1252 2.4026
0.2989 -6.1197 2.4026
0.4464 -6.1105 2.4026
0.5935 -6.0978 2.4026
0.7403 -6.0814 2.4026
0.8867 -6.0615 2.4026
1.0325 -6.0379 2.4026
1.1777 -6.0108 2.4026
1.3221 -5.9802 2.4026
1.4658 -5.9460 2.4026
1.6085 -5.9083 2.4026
1.7503 -5.8671 2.4026
1.8910 -5.8225 2.4026
2.0306 -5.7744 2.4026
2.1689 -5.7230 2.4026
2.3059 -5.6681 2.4026
2.4415 -5.6100 2.4026
2.5756 -5.5485 2.4026
2.6136 -5.2923 2.3187
2.7173 -5.1835 2.2995
2.8409 -5.1155 2.2995
2.9629 -5.0444 2.2995
3.0830 -4.9704 2.2995
3.2012 -4.8935 2.2995
3.3176 -4.8138 2.2995
3.4319 -4.7312 2.2995
3.5441 -4.6459 2.2995
3.6542 -4.5579 2.2995
3.7621 -4.4673 2.2995
3.8677 -4.3741 2.2995
3.9710 -4.2783 2.2995
4.0718 -4.1801 2.2995
4.1703 -4.0794 2.2995
4.2662 -3.9764 2.2995
4.3596 -3.8712 2.2995
4.4503 -3.7637 2.2995
4.5384 -3.6540 2.2995
4.6237 -3.5423 2.2995
4.7063 -3.4286 2.2995
4.7860 -3.3129 2.2995
4.8629 -3.1953 2.2995
4.9369 -3.0760 2.2995
5.0079 -2.9549 2.2995
5.0759 -2.8321 2.2995
5.1409 -2.7078 2.2995
5.2029 -2.5820 2.2995
5.2617 -2.4547 2.2995
5.3175 -2.3261 2.2995
5.3700 -2.1962 2.2995
5.4194 -2.0651 2.2995
5.4656 -1.9329 2.2995
5.5085 -1.7997 2.2995
5.5482 -1.6655 2.2995
5.5845 -1.5304 2.2995
5.6176 -1.3946 2.2995
5.6474 -1.2580 2.2995
5.6739 -1.1208 2.2995
5.6970 -0.9830 2.2995
5.7167 -0.8448 2.2995
5.7331 -0.7061 2.2995
5.7462 -0.5672 2.2995
5.7558 -0.4280 2.2995
5.7621 -0.2887 2.2995
5.7651 -0.1494 2.2995
5.7646 -0.0100 2.2995
5.7608 0.1292 2.2995
5.7536 0.2683 2.2995
5.7431 0.4071 2.2995
3.1579 0.3007 1.2674
3.1099 0.3722 1.2519
5.6916 0.8211 2.2995
5.6678 0.9581 2.2995
5.6407 1.0944 2.2995
5.6103 1.2299 2.2995
5.5767 1.3646 2.2995
5.5399 1.4985 2.2995
5.4999 1.6314 2.2995
5.4567 1.7632 2.2995
5.4104 1.8939 2.2995
5.3610 2.0234 2.2995
5.3084 2.1516 2.2995
5.2529 2.2785 2.2995
5.1943 2.4040 2.2995
5.1327 2.5280 2.2995
5.0682 2.6505 2.2995
5.0008 2.7713 2.2995
4.9306 2.8904 2.2995
4.8575 3.0078 2.2995
4.7817 3.1234 2.2995
4.7031 3.2371 2.2995
4.6219 3.3488 2.2995
4.5380 3.4586 2.2995
4.4516 3.5662 2.2995
4.3626 3.6717 2.2995
4.2711 3.7751 2.2995
4.1773 3.8762 2.2995
4.0810 3.9750 2.2995
3.9825 4.0714 2.2995
3.8817 4.1655 2.2995
3.7787 4.2570 2.2995
3.6736 4.3461 2.2995
3.5663 4.4326 2.2995
3.4571 4.5165 2.2995
3.3460 4.5978 2.2995
3.2329 4.6763 2.2995
3.1181 4.7522 2.2995
3.0014 4.8252 2.2995
2.8831 4.8955 2.2995
2.7798 4.9926 2.3133
2.7601 5.2527 2.4026
2.6316 5.3170 2.4026
2.5017 5.3782 2.4026
2.3703 5.4363 2.4026
2.2376 5.4913 2.4026
2.1037 5.5430 2.4026
1.9686 5.5916 2.4026
1.8323 5.6369 2.4026
1.6951 5.6789 2.4026
1.5569 5.7177 2.4026
1.4178 5.7531 2.4026
1.2779 5.7853 2.4026
1.1373 5.8140 2.4026
0.9961 5.8395 2.4026
0.8543 5.8615 2.4026
0.7121 5.8802 2.4026
0.5694 5.8954 2.4026
0.4265 5.9073 2.4026
0.2833 5.9158 2.4026
0.1399 5.9208 2.4026
-0.0036 5.9224 2.4026
-0.1470 5.9207 2.4026
-0.2904 5.9155 2.4026
-0.4336 5.9068 2.4026
-0.5765 5.8948 2.4026
-0.7192 5.8794 2.4026
-0.8614 5.8606 2.4026
-1.0032 5.8384 2.4026
-1.1444 5.8128 2.4026
-1.2849 5.7839 2.4026
-1.4248 5.7516 2.4026
-1.5638 5.7160 2.4026
-1.7020 5.6771 2.4026
-1.8392 5.6349 2.4026
-1.9753 5.5894 2.4026
-2.1104 5.5407 2.4026
-2.2443 5.4888 2.4026
-2.3770 5.4337 2.4026
-2.5083 5.3755 2.4026
-2.6382 5.3141 2.4026
-2.7666 5.2496 2.4026
-2.8934 5.1821 2.4026
-3.0187 5.1116 2.4026
-3.1422 5.0381 2.4026
-3.2640 4.9616 2.4026
-3.3839 4.8822 2.4026
-3.5020 4.8000 2.4026
-3.6180 4.7150 2.4026
-3.7321 4.6272 2.4026
-3.8440 4.5367 2.4026
-3.9537 4.4435 2.4026
-4.0612 4.3477 2.4026
-4.1665 4.2493 2.4026
-4.2693 4.1484 2.4026
-4.3698 4.0451 2.4026
-4.4677 3.9393 2.4026
-4.5632 3.8312 2.4026
-4.6560 3.7209 2.4026
-4.7462 3.6083 2.4026
-4.8337 3.4935 2.4026
-4.9185 3.3767 2.4026
-5.0004 3.2578 2.4026
-5.0795 3.1369 2.4026
-5.1557 3.0142 2.4026
-5.2290 2.8896 2.4026
-5.2993 2.7633 2.4026
-5.3138 2.6093 2.3789
-5.3163 2.4528 2.3519
-5.3239 2.3018 2.3291
-5.3316 2.1536 2.3082
-5.3636 2.0171 2.2993
-5.4129 1.8875 2.2993
-5.4590 1.7567 2.2993
-5.5021 1.6249 2.2993
-5.5450 1.4928 2.3006
-5.5786 1.3581 2.2993
-5.6120 1.2233 2.2993
-5.6422 1.0877 2.2993
-5.6692 0.9514 2.2993
-5.6928 0.8144 2.2993
-5.7131 0.6768 2.2993
-5.7302 0.5388 2.2993
-5.7439 0.4003 2.2993
-5.7542 0.2615 2.2993
-5.7612 0.1224 2.2993
-5.7649 -0.0169 2.2993
-5.7651 -0.1562 2.2993
-5.7620 -0.2956 2.2993
-5.7556 -0.4349 2.2993
-5.7457 -0.5740 2.2993
-5.7325 -0.7130 2.2993
-5.7160 -0.8516 2.2993
-5.6960 -0.9898 2.2993
-5.6728 -1.1275 2.2993
-5.6462 -1.2647 2.2993
-5.6162 -1.4013 2.2993
-5.5928 -1.5398 2.3034
-5.5464 -1.6721 2.2993
-5.5066 -1.8063 2.2993
-5.4635 -1.9395 2.2993
-5.4172 -2.0716 2.2993
-5.4004 -2.2160 2.3133
-5.3973 -2.3686 2.3349
-5.3961 -2.5251 2.3592
-5.3987 -2.6871 2.3872
-5.3686 -2.8358 2.4026
-5.3005 -2.9656 2.4026
-5.2293 -3.0938 2.4026
-5.1549 -3.2203 2.4026
-5.0775 -3.3449 2.4026
-4.9970 -3.4676 2.4026
-4.9135 -3.5884 2.4026
-4.8271 -3.7071 2.4026
-4.7378 -3.8238 2.4026
-4.4987 -3.8141 2.4026
-4.4067 -3.9227 2.4026
-4.3121 -4.0291 2.4026
-4.2148 -4.1332 2.4026
-4.1151 -4.2348 2.4026
-4.0129 -4.3341 2.4026
-3.9082 -4.4308 2.4026
-3.8012 -4.5250 2.4026
-3.6919 -4.6165 2.4026
-3.5804 -4.7054 2.4026
-3.4667 -4.7915 2.4026
-3.3509 -4.8748 2.4026
-3.2331 -4.9554 2.4026
-3.1133 -5.0330 2.4026
-2.9917 -5.1076 2.4026
-2.8682 -5.1793 2.4026
-2.7430 -5.2480 2.4026
-2.6162 -5.3136 2.4026
-2.4877 -5.3760 2.4026
-2.3578 -5.4354 2.4026
-2.2264 -5.4915 2.4026
-2.0936 -5.5444 2.4026
-1.9596 -5.5940 2.4026
-1.8244 -5.6403 2.4026
-1.6881 -5.6834 2.4026
-1.5508 -5.7230 2.4026
-1.4125 -5.7593 2.4026
-1.2734 -5.7922 2.4026
-1.1334 -5.8217 2.4026
-0.9928 -5.8478 2.4026
-0.8516 -5.8704 2.4026
-0.7099 -5.8895 2.4026
-0.5677 -5.9052 2.4026
-0.4252 -5.9173 2.4026
-0.2825 -5.9260 2.4026
-0.1395 -5.9312 2.4026
0.0035 -5.9328 2.4026
0.1465 -5.9310 2.4026
0.2894 -5.9256 2.4026
0.4322 -5.9168 2.4026
0.5746 -5.9044 2.4026
0.7168 -5.8886 2.4026
0.8585 -5.8693 2.4026
0.9997 -5.8465 2.4026
1.1402 -5.8203 2.4026
1.2801 -5.7906 2.4026
1.4192 -5.7575 2.4026
1.5574 -5.7211 2.4026
1.6947 -5.6812 2.4026
1.8310 -5.6380 2.4026
1.9661 -5.5915 2.4026
2.1000 -5.5417 2.4026
2.2327 -5.4886 2.4026
2.3640 -5.4324 2.4026
2.4939 -5.3729 2.4026
2.6067 -5.2788 2.3883
2.6311 -5.0195 2.2995
2.7508 -4.9536 2.2995
2.8689 -4.8848 2.2995
2.9852 -4.8132 2.2995
3.0997 -4.7388 2.2995
3.2124 -4.6616 2.2995
3.3231 -4.5817 2.2995
3.4318 -4.4991 2.2995
3.5384 -4.4140 2.2995
3.6429 -4.3262 2.2995
3.7452 -4.2360 2.2995
3.8452 -4.1433 2.2995
3.9430 -4.0482 2.2995
4.0383 -3.9507 2.2995
4.1312 -3.8511 2.2995
4.2217 -3.7491 2.2995
4.3096 -3.6451 2.2995
4.3949 -3.5389 2.2995
4.4776 -3.4308 2.2995
4.5576 -3.3207 2.2995
4.6348 -3.2087 2.2995
4.7093 -3.0948 2.2995
4.7810 -2.9793 2.2995
4.8498 -2.8620 2.2995
4.9158 -2.7432 2.2995
4.9788 -2.6228 2.2995
5.0388 -2.5010 2.2995
5.0959 -2.3777 2.2995
5.1499 -2.2532 2.2995
5.2009 -2.1274 2.2995
5.2487 -2.0005 2.2995
5.2935 -1.8725 2.2995
5.3351 -1.7435 2.2995
5.3736 -1.6135 2.2995
5.4089 -1.4827 2.2995
5.4410 -1.3511 2.2995
5.4699 -1.2189 2.2995
5.4956 -1.0860 2.2995
5.5180 -0.9526 2.2995
5.5372 -0.8187 2.2995
5.5532 -0.6844 2.2995
5.5659 -0.5498 2.2995
5.5753 -0.4150 2.2995
5.5815 -0.2801 2.2995
5.5844 -0.1451 2.2995
5.5840 -0.0101 2.2995
5.5804 0.1248 2.2995
5.5735 0.2595 2.2995
5.5634 0.3939 2.2995
3.1579 0.3005 1.3084
3.1096 0.3719 1.2922
5.5136 0.7950 2.2995
5.4906 0.9277 2.2995
5.4644 1.0598 2.2995
5.4351 1.1911 2.2995
5.4026 1.3216 2.2995
5.3670 1.4513 2.2995
5.3283 1.5800 2.2995
5.2865 1.7078 2.2995
5.2417 1.8344 2.2995
5.1938 1.9599 2.2995
5.1430 2.0842 2.2995
5.0892 2.2071 2.2995
5.0325 2.3287 2.2995
4.9729 2.4489 2.2995
4.9105 2.5676 2.2995
4.8452 2.6847 2.2995
4.7772 2.8001 2.2995
4.7065 2.9139 2.2995
4.6330 3.0259 2.2995
4.5569 3.1361 2.2995
4.4783 3.2444 2.2995
4.3970 3.3507 2.2995
4.3133 3.4550 2.2995
4.2271 3.5573 2.2995
4.1386 3.6575 2.2995
4.0476 3.7555 2.2995
3.9544 3.8512 2.2995
3.8590 3.9447 2.2995
3.7613 4.0359 2.2995
3.6615 4.1246 2.2995
3.5597 4.2110 2.2995
3.4558 4.2948 2.2995
3.3500 4.3762 2.2995
3.2423 4.4549 2.2995
3.1328 4.5311 2.2995
3.0215 4.6046 2.2995
2.9085 4.6754 2.2995
2.7939 4.7435 2.2995
2.7711 4.9767 2.3797
2.6747 5.0897 2.4026
2.5502 5.1521 2.4026
2.4243 5.2114 2.4026
2.2970 5.2678 2.4026
2.1684 5.3210 2.4026
2.0386 5.3712 2.4026
1.9077 5.4183 2.4026
1.7757 5.4622 2.4026
1.6427 5.5030 2.4026
1.5087 5.5405 2.4026
1.3740 5.5749 2.4026
1.2384 5.6060 2.4026
1.1022 5.6339 2.4026
0.9653 5.6586 2.4026
0.8279 5.6800 2.4026
0.6901 5.6981 2.4026
0.5518 5.7129 2.4026
0.4133 5.7244 2.4026
0.2745 5.7326 2.4026
0.1356 5.7375 2.4026
-0.0035 5.7390 2.4026
-0.1425 5.7373 2.4026
-0.2814 5.7323 2.4026
-0.4202 5.7239 2.4026
-0.5587 5.7123 2.4026
-0.6970 5.6973 2.4026
-0.8348 5.6791 2.4026
-0.9722 5.6575 2.4026
-1.1090 5.6327 2.4026
-1.2452 5.6047 2.4026
-1.3807 5.5734 2.4026
-1.5155 5.5389 2.4026
-1.6493 5.5012 2.4026
-1.7823 5.4602 2.4026
-1.9143 5.4162 2.4026
-2.0452 5.3690 2.4026
-2.1749 5.3186 2.4026
-2.3034 5.2652 2.4026
-2.4307 5.2088 2.4026
-2.5565 5.1493 2.4026
-2.6810 5.0868 2.4026
-2.8039 5.0213 2.4026
-2.9252 4.9529 2.4026
-3.0449 4.8817 2.4026
-3.1629 4.8075 2.4026
-3.2791 4.7306 2.4026
-3.3935 4.6509 2.4026
-3.5059 4.5685 2.4026
-3.6164 4.4834 2.4026
-3.7248 4.3956 2.4026
-3.8311 4.3053 2.4026
-3.9353 4.2124 2.4026
-4.0372 4.1171 2.4026
-4.1369 4.0193 2.4026
-4.2342 3.9191 2.4026
-4.3290 3.8166 2.4026
-4.4215 3.7118 2.4026
-4.5114 3.6049 2.4026
-4.5988 3.4957 2.4026
-4.6835 3.3845 2.4026
-4.7656 3.2713 2.4026
-4.8450 3.1561 2.4026
-4.9216 3.0389 2.4026
-4.9954 2.9200 2.4026
-5.0663 2.7992 2.4026
-5.1343 2.6768 2.4026
-5.1994 2.5527 2.4026
-5.2616 2.4271 2.4026
-5.3188 2.2991 2.4017
-5.3212 2.1490 2.3777
-5.3235 2.0016 2.3556
-5.3291 1.8579 2.3366
-5.3357 1.7166 2.3197
-5.3419 1.5771 2.3043
-5.3689 1.4450 2.2993
-5.4044 1.3152 2.2993
-5.4367 1.1847 2.2993
-5.4659 1.0533 2.2993
-5.4919 0.9212 2.2993
-5.5148 0.7885 2.2993
-5.5563 0.6578 2.3084
-5.5599 0.5223 2.3030
-5.5641 0.3873 2.2993
-5.5740 0.2529 2.2993
-5.5808 0.1181 2.2993
-5.5842 -0.0168 2.2993
-5.5844 -0.1517 2.2993
-5.5814 -0.2867 2.2993
-5.5759 -0.4217 2.2997
-5.5769 -0.5576 2.3040
-5.5526 -0.6910 2.2993
-5.5365 -0.8252 2.2993
-5.5171 -0.9591 2.2993
-5.4945 -1.0925 2.2993
-5.4687 -1.2254 2.2993
-5.4396 -1.3576 2.2993
-5.4074 -1.4892 2.2993
-5.3923 -1.6261 2.3080
-5.3905 -1.7686 2.3240
-5.3883 -1.9132 2.3414
-5.3887 -2.0611 2.3616
-5.3911 -2.2127 2.3845
-5.3786 -2.3608 2.4026
-5.3220 -2.4909 2.4026
