ply
format ascii 1.0
element vertex 2176
property float32 x
property float32 y
property float32 z
end_header
-1.9477 -6.0204 2.4026
-1.8022 -6.0663 2.4026
-1.6556 -6.1087 2.4026
-1.5080 -6.1475 2.4026
-1.3595 -6.1826 2.4026
-1.2101 -6.2141 2.4026
-1.0600 -6.2419 2.4026
-0.9092 -6.2661 2.4026
-0.7580 -6.2865 2.4026
-0.6062 -6.3032 2.4026
-0.4541 -6.3162 2.4026
-0.3016 -6.3255 2.4026
-0.1491 -6.3310 2.4026
0.0036 -6.3327 2.4026
0.1563 -6.3307 2.4026
0.3089 -6.3250 2.4026
0.4613 -6.3155 2.4026
0.6134 -6.3023 2.4026
0.7651 -6.2854 2.4026
0.9164 -6.2648 2.4026
1.0671 -6.2404 2.4026
1.2171 -6.2124 2.4026
1.3665 -6.1806 2.4026
1.5149 -6.1453 2.4026
1.6625 -6.1063 2.4026
1.8090 -6.0637 2.4026
1.9544 -6.0175 2.4026
2.0987 -5.9678 2.4026
2.2416 -5.9146 2.4026
2.3832 -5.8579 2.4026
2.4972 -5.7377 2.3777
2.5477 -5.4881 2.2995
2.6917 -5.4500 2.3105
2.8083 -5.3569 2.2995
2.9361 -5.2865 2.2995
3.0621 -5.2130 2.2995
3.1862 -5.1365 2.2995
3.3084 -5.0570 2.2995
3.4286 -4.9746 2.2995
3.5467 -4.8892 2.2995
3.6626 -4.8010 2.2995
3.7764 -4.7100 2.2995
3.8878 -4.6163 2.2995
3.9970 -4.5199 2.2995
4.1036 -4.4209 2.2995
4.2079 -4.3193 2.2995
4.3095 -4.2153 2.2995
4.4086 -4.1088 2.2995
4.5051 -4.0000 2.2995
4.5988 -3.8888 2.2995
4.6897 -3.7755 2.2995
4.7779 -3.6600 2.2995
4.8631 -3.5424 2.2995
4.9455 -3.4229 2.2995
5.0249 -3.3014 2.2995
5.1013 -3.1780 2.2995
5.1746 -3.0528 2.2995
5.2448 -2.9259 2.2995
5.3119 -2.7975 2.2995
5.3759 -2.6674 2.2995
5.4366 -2.5359 2.2995
5.4941 -2.4030 2.2995
5.5484 -2.2687 2.2995
5.5993 -2.1333 2.2995
5.6470 -1.9967 2.2995
5.6913 -1.8590 2.2995
5.7322 -1.7203 2.2995
5.7697 -1.5808 2.2995
5.8038 -1.4404 2.2995
5.8345 -1.2992 2.2995
5.8618 -1.1575 2.2995
5.8856 -1.0151 2.2995
5.9059 -0.8723 2.2995
5.9228 -0.7291 2.2995
5.9362 -0.5855 2.2995
5.9461 -0.4418 2.2995
5.9525 -0.2978 2.2995
5.9555 -0.1539 2.2995
5.9550 -0.0099 2.2995
5.9510 0.1339 2.2995
5.9435 0.2776 2.2995
5.9326 0.4210 2.2995
5.9182 0.5640 2.2995
5.9004 0.7066 2.2995
5.8791 0.8486 2.2995
5.8545 0.9901 2.2995
5.8264 1.1309 2.2995
5.7950 1.2709 2.2995
5.7602 1.4100 2.2995
5.7221 1.5482 2.2995
5.6807 1.6855 2.2995
5.6361 1.8216 2.2995
5.5882 1.9566 2.2995
5.5371 2.0903 2.2995
5.4828 2.2228 2.2995
5.4253 2.3538 2.2995
5.3648 2.4834 2.2995
5.3011 2.6114 2.2995
5.2345 2.7379 2.2995
5.1648 2.8627 2.2995
5.0922 2.9857 2.2995
5.0167 3.1069 2.2995
4.9383 3.2262 2.2995
4.8572 3.3436 2.2995
4.7732 3.4590 2.2995
4.6866 3.5723 2.2995
4.5973 3.6834 2.2995
4.5053 3.7924 2.2995
4.4109 3.8991 2.2995
4.3139 4.0035 2.2995
4.2145 4.1055 2.2995
4.1127 4.2050 2.2995
4.0085 4.3021 2.2995
3.9021 4.3966 2.2995
3.7936 4.4886 2.2995
3.6828 4.5779 2.2995
3.5700 4.6645 2.2995
3.4552 4.7484 2.2995
3.3385 4.8295 2.2995
3.2198 4.9078 2.2995
3.0994 4.9832 2.2995
2.9772 5.0557 2.2995
2.8533 5.1253 2.2995
2.7279 5.1919 2.2995
2.6558 5.3664 2.3481
2.5832 5.5542 2.4026
2.4476 5.6142 2.4026
2.3106 5.6709 2.4026
2.1722 5.7244 2.4026
2.0327 5.7745 2.4026
1.8920 5.8213 2.4026
1.7503 5.8647 2.4026
1.6076 5.9047 2.4026
1.4640 5.9413 2.4026
1.3195 5.9745 2.4026
1.1744 6.0042 2.4026
1.0285 6.0304 2.4026
0.8821 6.0532 2.4026
0.7352 6.0725 2.4026
0.5879 6.0882 2.4026
0.4403 6.1005 2.4026
0.2924 6.1092 2.4026
0.1444 6.1145 2.4026
-0.0038 6.1162 2.4026
-0.1519 6.1143 2.4026
-0.2999 6.1090 2.4026
-0.4478 6.1001 2.4026
-0.5954 6.0877 2.4026
-0.7427 6.0718 2.4026
-0.8896 6.0524 2.4026
-1.0360 6.0295 2.4026
-1.1818 6.0031 2.4026
-1.3270 5.9732 2.4026
-1.4714 5.9399 2.4026
-1.6150 5.9032 2.4026
-1.7576 5.8630 2.4026
-1.8993 5.8195 2.4026
-2.0400 5.7726 2.4026
-2.1795 5.7223 2.4026
-2.3178 5.6688 2.4026
-2.4548 5.6119 2.4026
-2.5904 5.5518 2.4026
-2.7245 5.4885 2.4026
-2.8572 5.4219 2.4026
-2.9882 5.3522 2.4026
-3.1176 5.2794 2.4026
-3.2452 5.2035 2.4026
-3.3710 5.1246 2.4026
-3.4949 5.0427 2.4026
-3.6168 4.9578 2.4026
-3.7367 4.8700 2.4026
-3.8545 4.7794 2.4026
-3.9701 4.6859 2.4026
-4.0835 4.5897 2.4026
-4.1946 4.4908 2.4026
-4.3033 4.3893 2.4026
-4.4096 4.2851 2.4026
-4.5134 4.1784 2.4026
-4.6146 4.0692 2.4026
-4.7132 3.9576 2.4026
-4.8092 3.8437 2.4026
-4.9024 3.7274 2.4026
-4.9928 3.6089 2.4026
-5.0804 3.4883 2.4026
-5.1651 3.3655 2.4026
-5.2469 3.2407 2.4026
-5.3257 3.1139 2.4026
-5.4014 2.9853 2.4026
-5.4274 2.8305 2.3821
-5.4297 2.6667 2.3532
-5.4373 2.5090 2.3286
-5.4453 2.3547 2.3061
-5.4866 2.2167 2.2993
-5.5408 2.0841 2.2993
-5.5918 1.9503 2.2993
-5.6539 1.8199 2.3052
-5.6841 1.6790 2.2993
-5.7253 1.5417 2.2993
-5.7633 1.4034 2.2993
-5.7979 1.2642 2.2993
-5.8291 1.1242 2.2993
-5.8570 0.9833 2.2993
-5.8815 0.8418 2.2993
-5.9026 0.6997 2.2993
-5.9203 0.5571 2.2993
-5.9345 0.4140 2.2993
-5.9453 0.2706 2.2993
-5.9526 0.1269 2.2993
-5.9564 -0.0170 2.2993
-5.9568 -0.1610 2.2993
-5.9536 -0.3050 2.2993
-5.9470 -0.4489 2.2993
-5.9369 -0.5927 2.2993
-5.9234 -0.7362 2.2993
-5.9063 -0.8795 2.2993
-5.8858 -1.0223 2.2993
-5.8618 -1.1646 2.2993
-5.8344 -1.3064 2.2993
-5.8035 -1.4475 2.2993
-5.7692 -1.5879 2.2993
-5.7315 -1.7274 2.2993
-5.7063 -1.8713 2.3058
-5.6459 -2.0037 2.2993
-5.5981 -2.1403 2.2993
-5.5470 -2.2757 2.2993
-5.5129 -2.4188 2.3078
-5.5092 -2.5776 2.3308
-5.5068 -2.7404 2.3562
-5.5092 -2.9096 2.3857
-5.4779 -3.0644 2.4026
-5.4043 -3.1969 2.4026
-5.3275 -3.3276 2.4026
-5.2475 -3.4564 2.4026
-5.1644 -3.5833 2.4026
-5.0781 -3.7081 2.4026
-4.9889 -3.8309 2.4026
-4.8966 -3.9514 2.4026
-4.6460 -3.9385 2.4026
-4.5510 -4.0507 2.4026
-4.4533 -4.1605 2.4026
-4.3529 -4.2680 2.4026
-4.2499 -4.3731 2.4026
-4.1444 -4.4756 2.4026
-4.0363 -4.5755 2.4026
-3.9258 -4.6728 2.4026
-3.8130 -4.7674 2.4026
-3.6978 -4.8592 2.4026
-3.5804 -4.9481 2.4026
-3.4609 -5.0342 2.4026
-3.3392 -5.1174 2.4026
-3.2155 -5.1976 2.4026
-3.0899 -5.2747 2.4026
-2.9624 -5.3488 2.4026
-2.8331 -5.4197 2.4026
-2.7021 -5.4875 2.4026
-2.5694 -5.5520 2.4026
-2.4352 -5.6133 2.4026
-2.2995 -5.6713 2.4026
-2.1624 -5.7259 2.4026
-2.0240 -5.7772 2.4026
-1.8844 -5.8251 2.4026
-1.7436 -5.8695 2.4026
-1.6018 -5.9105 2.4026
-1.4590 -5.9480 2.4026
-1.3152 -5.9820 2.4026
-1.1707 -6.0124 2.4026
-1.0255 -6.0393 2.4026
-0.8797 -6.0627 2.4026
-0.7333 -6.0824 2.4026
-0.5865 -6.0986 2.4026
-0.4393 -6.1112 2.4026
-0.2918 -6.1201 2.4026
-0.1442 -6.1254 2.4026
0.0035 -6.1271 2.4026
0.1512 -6.1252 2.4026
0.2988 -6.1197 2.4026
0.4463 -6.1105 2.4026
0.5934 -6.0977 2.4026
0.7402 -6.0814 2.4026
0.8866 -6.0614 2.4026
1.0324 -6.0378 2.4026
1.1776 -6.0107 2.4026
1.3220 -5.9801 2.4026
1.4657 -5.9459 2.4026
1.6084 -5.9082 2.4026
1.7502 -5.8670 2.4026
1.8909 -5.8223 2.4026
2.0304 -5.7743 2.4026
2.1688 -5.7228 2.4026
2.3058 -5.6680 2.4026
2.4414 -5.6098 2.4026
2.5050 -5.3965 2.3368
2.5918 -5.2483 2.2995
2.7171 -5.1833 2.2995
2.8407 -5.1153 2.2995
2.9627 -5.0442 2.2995
3.0828 -4.9702 2.2995
3.2010 -4.8933 2.2995
3.3173 -4.8136 2.2995
3.4316 -4.7310 2.2995
3.5438 -4.6457 2.2995
3.6539 -4.5577 2.2995
3.7618 -4.4671 2.2995
3.8674 -4.3738 2.2995
3.9707 -4.2781 2.2995
4.0715 -4.1798 2.2995
4.1700 -4.0792 2.2995
4.2659 -3.9762 2.2995
4.3592 -3.8709 2.2995
4.4499 -3.7634 2.2995
4.5380 -3.6538 2.2995
4.6233 -3.5421 2.2995
4.7059 -3.4283 2.2995
4.7856 -3.3127 2.2995
4.8625 -3.1951 2.2995
4.9364 -3.0757 2.2995
5.0075 -2.9547 2.2995
5.0755 -2.8319 2.2995
5.1405 -2.7076 2.2995
5.2024 -2.5818 2.2995
5.2613 -2.4545 2.2995
5.3170 -2.3259 2.2995
5.3695 -2.1960 2.2995
5.4189 -2.0650 2.2995
5.4651 -1.9328 2.2995
5.5080 -1.7996 2.2995
5.5476 -1.6654 2.2995
5.5840 -1.5303 2.2995
5.6171 -1.3945 2.2995
5.6469 -1.2579 2.2995
5.6733 -1.1207 2.2995
5.6964 -0.9829 2.2995
5.7162 -0.8447 2.2995
5.7326 -0.7061 2.2995
5.7456 -0.5672 2.2995
5.7553 -0.4280 2.2995
5.7616 -0.2887 2.2995
5.7645 -0.1494 2.2995
5.7641 -0.0100 2.2995
5.7603 0.1292 2.2995
5.7531 0.2683 2.2995
5.7426 0.4071 2.2995
5.7287 0.5455 2.2995
5.7115 0.6835 2.2995
5.6910 0.8211 2.2995
5.6672 0.9580 2.2995
5.6402 1.0943 2.2995
5.6098 1.2298 2.2995
5.5762 1.3645 2.2995
5.5394 1.4984 2.2995
5.4994 1.6312 2.2995
5.4562 1.7630 2.2995
5.4099 1.8937 2.2995
5.3605 2.0232 2.2995
5.3080 2.1515 2.2995
5.2524 2.2784 2.2995
5.1938 2.4038 2.2995
5.1323 2.5278 2.2995
5.0678 2.6503 2.2995
5.0004 2.7711 2.2995
4.9302 2.8903 2.2995
4.8571 3.0076 2.2995
4.7813 3.1232 2.2995
4.7027 3.2369 2.2995
4.6215 3.3486 2.2995
4.5376 3.4583 2.2995
4.4512 3.5660 2.2995
4.3622 3.6715 2.2995
4.2708 3.7749 2.2995
4.1769 3.8760 2.2995
4.0807 3.9748 2.2995
3.9822 4.0712 2.2995
3.8814 4.1652 2.2995
3.7784 4.2568 2.2995
3.6733 4.3459 2.2995
3.5661 4.4324 2.2995
3.4569 4.5163 2.2995
3.3457 4.5976 2.2995
3.2327 4.6761 2.2995
3.1178 4.7520 2.2995
3.0012 4.8250 2.2995
2.8829 4.8952 2.2995
2.7630 4.9626 2.2995
2.6591 5.0607 2.3148
2.6315 5.3168 2.4026
2.5015 5.3780 2.4026
2.3702 5.4362 2.4026
2.2375 5.4911 2.4026
2.1035 5.5429 2.4026
1.9684 5.5914 2.4026
1.8322 5.6368 2.4026
1.6950 5.6788 2.4026
1.5568 5.7176 2.4026
1.4177 5.7530 2.4026
1.2778 5.7852 2.4026
1.1372 5.8140 2.4026
0.9960 5.8394 2.4026
0.8543 5.8614 2.4026
0.7120 5.8801 2.4026
0.5694 5.8954 2.4026
0.4264 5.9073 2.4026
0.2832 5.9158 2.4026
0.1398 5.9208 2.4026
-0.0036 5.9225 2.4026
-0.1471 5.9207 2.4026
-0.2904 5.9155 2.4026
-0.4337 5.9069 2.4026
-0.5766 5.8949 2.4026
-0.7193 5.8795 2.4026
-0.8615 5.8606 2.4026
-1.0033 5.8385 2.4026
-1.1445 5.8129 2.4026
-1.2850 5.7840 2.4026
-1.4249 5.7517 2.4026
-1.5639 5.7161 2.4026
-1.7021 5.6772 2.4026
-1.8393 5.6350 2.4026
-1.9755 5.5896 2.4026
-2.1106 5.5409 2.4026
-2.2445 5.4890 2.4026
-2.3771 5.4339 2.4026
-2.5084 5.3757 2.4026
-2.6383 5.3143 2.4026
-2.7668 5.2498 2.4026
-2.8936 5.1823 2.4026
-3.0189 5.1118 2.4026
-3.1424 5.0383 2.4026
-3.2642 4.9618 2.4026
-3.3842 4.8825 2.4026
-3.5022 4.8003 2.4026
-3.6183 4.7152 2.4026
-3.7323 4.6274 2.4026
-3.8443 4.5369 2.4026
-3.9540 4.4437 2.4026
-4.0615 4.3479 2.4026
-4.1668 4.2495 2.4026
-4.2696 4.1487 2.4026
-4.3701 4.0453 2.4026
-4.4681 3.9396 2.4026
-4.5635 3.8315 2.4026
-4.6564 3.7211 2.4026
-4.7466 3.6085 2.4026
-4.8341 3.4937 2.4026
-4.9189 3.3769 2.4026
-5.0009 3.2580 2.4026
-5.0800 3.1371 2.4026
-5.1562 3.0144 2.4026
-5.2295 2.8898 2.4026
-5.2998 2.7635 2.4026
-5.3670 2.6354 2.4026
-5.4312 2.5058 2.4026
-5.4343 2.3495 2.3772
-5.4364 2.1959 2.3533
-5.4427 2.0468 2.3330
-5.4495 1.9003 2.3147
-5.4595 1.7569 2.2993
-5.5026 1.6250 2.2993
-5.5424 1.4921 2.2993
-5.5791 1.3582 2.2993
-5.6126 1.2234 2.2993
-5.6635 1.0918 2.3078
-5.6697 0.9514 2.2993
-5.6933 0.8145 2.2993
-5.7137 0.6769 2.2993
-5.7307 0.5388 2.2993
-5.7444 0.4003 2.2993
-5.7548 0.2615 2.2993
-5.7618 0.1224 2.2993
-5.7654 -0.0169 2.2993
-5.7657 -0.1562 2.2993
-5.7626 -0.2956 2.2993
-5.7561 -0.4349 2.2993
-5.7463 -0.5741 2.2993
-5.7331 -0.7130 2.2993
-5.7165 -0.8516 2.2993
-5.6966 -0.9899 2.2993
-5.6951 -1.1320 2.3082
-5.6467 -1.2648 2.2993
-5.6167 -1.4014 2.2993
-5.5835 -1.5372 2.2993
-5.5469 -1.6723 2.2993
-5.5071 -1.8064 2.2993
-5.5041 -1.9538 2.3162
-5.5014 -2.1038 2.3349
-5.4999 -2.2569 2.3558
-5.5022 -2.4146 2.3801
-5.4957 -2.5717 2.4026
-5.4340 -2.7046 2.4026
-5.3691 -2.8360 2.4026
-5.3010 -2.9659 2.4026
-5.2297 -3.0940 2.4026
-5.1554 -3.2205 2.4026
-5.0779 -3.3451 2.4026
-4.9974 -3.4679 2.4026
-4.9139 -3.5886 2.4026
-4.8275 -3.7074 2.4026
-4.7381 -3.8240 2.4026
-4.4990 -3.8144 2.4026
-4.4070 -3.9230 2.4026
-4.3124 -4.0293 2.4026
-4.2152 -4.1334 2.4026
-4.1154 -4.2351 2.4026
-4.0132 -4.3343 2.4026
-3.9085 -4.4310 2.4026
-3.8015 -4.5252 2.4026
-3.6922 -4.6167 2.4026
-3.5806 -4.7056 2.4026
-3.4669 -4.7917 2.4026
-3.3511 -4.8751 2.4026
-3.2333 -4.9556 2.4026
-3.1135 -5.0332 2.4026
-2.9919 -5.1078 2.4026
-2.8684 -5.1795 2.4026
-2.7432 -5.2482 2.4026
-2.6163 -5.3138 2.4026
-2.4879 -5.3762 2.4026
-2.3579 -5.4355 2.4026
-2.2265 -5.4916 2.4026
-2.0938 -5.5445 2.4026
-1.9598 -5.5942 2.4026
-1.8245 -5.6405 2.4026
-1.6882 -5.6835 2.4026
-1.5509 -5.7232 2.4026
-1.4126 -5.7595 2.4026
-1.2735 -5.7924 2.4026
-1.1335 -5.8218 2.4026
-0.9929 -5.8479 2.4026
-0.8517 -5.8705 2.4026
-0.7100 -5.8896 2.4026
-0.5678 -5.9052 2.4026
-0.4253 -5.9174 2.4026
-0.2826 -5.9260 2.4026
-0.1396 -5.9312 2.4026
0.0034 -5.9328 2.4026
0.1464 -5.9310 2.4026
0.2893 -5.9256 2.4026
0.4321 -5.9167 2.4026
0.5746 -5.9044 2.4026
0.7167 -5.8885 2.4026
0.8584 -5.8692 2.4026
0.9996 -5.8464 2.4026
1.1401 -5.8202 2.4026
1.2800 -5.7905 2.4026
1.4191 -5.7574 2.4026
1.5573 -5.7209 2.4026
1.6946 -5.6811 2.4026
1.8308 -5.6379 2.4026
1.9660 -5.5914 2.4026
2.0999 -5.5415 2.4026
2.2326 -5.4885 2.4026
2.3639 -5.4322 2.4026
2.4937 -5.3727 2.4026
2.5165 -5.0962 2.3058
2.6309 -5.0193 2.2995
2.7506 -4.9534 2.2995
2.8687 -4.8846 2.2995
2.9850 -4.8130 2.2995
3.0995 -4.7386 2.2995
3.2122 -4.6614 2.2995
3.3229 -4.5815 2.2995
3.4315 -4.4989 2.2995
3.5382 -4.4137 2.2995
3.6426 -4.3260 2.2995
3.7449 -4.2357 2.2995
3.8450 -4.1430 2.2995
3.9427 -4.0480 2.2995
4.0380 -3.9505 2.2995
4.1309 -3.8508 2.2995
4.2213 -3.7489 2.2995
4.3092 -3.6449 2.2995
4.3945 -3.5387 2.2995
4.4772 -3.4306 2.2995
4.5572 -3.3204 2.2995
4.6344 -3.2084 2.2995
4.7089 -3.0946 2.2995
4.7806 -2.9791 2.2995
4.8494 -2.8618 2.2995
4.9154 -2.7430 2.2995
4.9784 -2.6226 2.2995
5.0384 -2.5008 2.2995
5.0954 -2.3776 2.2995
5.1495 -2.2531 2.2995
5.2004 -2.1273 2.2995
5.2483 -2.0004 2.2995
5.2930 -1.8724 2.2995
5.3347 -1.7433 2.2995
5.3731 -1.6134 2.2995
5.4084 -1.4826 2.2995
5.4405 -1.3510 2.2995
5.4694 -1.2188 2.2995
5.4951 -1.0859 2.2995
5.5175 -0.9525 2.2995
5.5367 -0.8186 2.2995
5.5527 -0.6843 2.2995
5.5654 -0.5498 2.2995
5.5748 -0.4150 2.2995
5.5809 -0.2801 2.2995
5.5838 -0.1451 2.2995
5.5835 -0.0101 2.2995
5.5799 0.1247 2.2995
5.5730 0.2594 2.2995
5.5629 0.3939 2.2995
5.5495 0.5280 2.2995
5.5329 0.6617 2.2995
5.5131 0.7950 2.2995
5.4901 0.9276 2.2995
5.4639 1.0597 2.2995
5.4346 1.1910 2.2995
5.4021 1.3215 2.2995
5.3665 1.4512 2.2995
5.3278 1.5799 2.2995
5.2860 1.7076 2.2995
5.2412 1.8343 2.2995
5.1934 1.9597 2.2995
5.1425 2.0840 2.2995
5.0888 2.2070 2.2995
5.0321 2.3286 2.2995
4.9725 2.4487 2.2995
4.9101 2.5674 2.2995
4.8448 2.6845 2.2995
4.7768 2.7999 2.2995
4.7061 2.9137 2.2995
4.6326 3.0257 2.2995
4.5566 3.1359 2.2995
4.4779 3.2441 2.2995
4.3967 3.3505 2.2995
4.3130 3.4548 2.2995
4.2268 3.5571 2.2995
4.1383 3.6573 2.2995
4.0473 3.7553 2.2995
3.9541 3.8510 2.2995
3.8587 3.9445 2.2995
3.7610 4.0357 2.2995
3.6613 4.1244 2.2995
3.5594 4.2108 2.2995
3.4556 4.2946 2.2995
3.3498 4.3760 2.2995
3.2421 4.4547 2.2995
3.1326 4.5309 2.2995
3.0213 4.6044 2.2995
2.9083 4.6752 2.2995
2.7937 4.7433 2.2995
2.6775 4.8086 2.2995
2.6509 5.0445 2.3813
2.5501 5.1519 2.4026
2.4241 5.2113 2.4026
2.2969 5.2676 2.4026
2.1683 5.3209 2.4026
2.0385 5.3711 2.4026
1.9076 5.4181 2.4026
1.7756 5.4621 2.4026
1.6426 5.5028 2.4026
1.5086 5.5404 2.4026
1.3739 5.5748 2.4026
1.2383 5.6059 2.4026
1.1021 5.6339 2.4026
0.9652 5.6585 2.4026
0.8279 5.6799 2.4026
0.6900 5.6980 2.4026
0.5518 5.7128 2.4026
0.4132 5.7243 2.4026
0.2744 5.7326 2.4026
0.1355 5.7375 2.4026
-0.0035 5.7391 2.4026
-0.1425 5.7373 2.4026
-0.2815 5.7323 2.4026
-0.4203 5.7240 2.4026
-0.5588 5.7123 2.4026
-0.6970 5.6974 2.4026
-0.8349 5.6791 2.4026
-0.9723 5.6576 2.4026
-1.1091 5.6328 2.4026
-1.2453 5.6048 2.4026
-1.3808 5.5735 2.4026
-1.5156 5.5390 2.4026
-1.6495 5.5013 2.4026
-1.7824 5.4604 2.4026
-1.9144 5.4163 2.4026
-2.0453 5.3691 2.4026
-2.1751 5.3188 2.4026
-2.3036 5.2654 2.4026
-2.4308 5.2089 2.4026
-2.5567 5.1494 2.4026
-2.6811 5.0870 2.4026
-2.8041 5.0215 2.4026
-2.9254 4.9531 2.4026
-3.0452 4.8819 2.4026
-3.1631 4.8077 2.4026
-3.2794 4.7308 2.4026
-3.3937 4.6511 2.4026
-3.5062 4.5687 2.4026
-3.6167 4.4836 2.4026
-3.7251 4.3958 2.4026
-3.8314 4.3055 2.4026
-3.9356 4.2126 2.4026
-4.0375 4.1173 2.4026
-4.1372 4.0195 2.4026
-4.2345 3.9193 2.4026
-4.3294 3.8168 2.4026
-4.4218 3.7121 2.4026
-4.5118 3.6051 2.4026
-4.5991 3.4960 2.4026
-4.6839 3.3847 2.4026
-4.7660 3.2715 2.4026
-4.8454 3.1563 2.4026
-4.9220 3.0391 2.4026
-4.9958 2.9202 2.4026
-5.0667 2.7994 2.4026
-5.1348 2.6770 2.4026
-5.1999 2.5529 2.4026
-5.2620 2.4273 2.4026
-5.3211 2.3001 2.4026
-5.3772 2.1716 2.4026
-5.4302 2.0417 2.4026
-5.4407 1.8967 2.3853
-5.4428 1.7511 2.3661
-5.4450 1.6076 2.3486
-5.4507 1.4670 2.3341
-5.4560 1.3278 2.3211
-5.4610 1.1899 2.3094
-5.4664 1.0534 2.2993
-5.4924 0.9213 2.2993
-5.5153 0.7886 2.2993
-5.5350 0.6553 2.2993
-5.5514 0.5215 2.2993
-5.5646 0.3874 2.2993
-5.5746 0.2529 2.2993
-5.5813 0.1181 2.2993
-5.5847 -0.0168 2.2993
-5.5850 -0.1518 2.2993
-5.5819 -0.2868 2.2993
-5.5756 -0.4217 2.2993
-5.5660 -0.5565 2.2993
-5.5531 -0.6911 2.2993
-5.5370 -0.8253 2.2993
-5.5177 -0.9592 2.2993
-5.4960 -1.0928 2.2997
-5.4953 -1.2313 2.3103
-5.4942 -1.3712 2.3222
-5.4929 -1.5127 2.3355
-5.4914 -1.6559 2.3502
-5.4934 -1.8024 2.3682
-5.4956 -1.9512 2.3878
-5.4827 -2.0971 2.4026
-5.4325 -2.2296 2.4026
-5.3790 -2.3610 2.4026
-5.3224 -2.4911 2.4026
-5.2626 -2.6198 2.4026
-5.1997 -2.7470 2.4026
-5.1337 -2.8727 2.4026
-5.0647 -2.9968 2.4026
-4.9926 -3.1192 2.4026
-4.9175 -3.2399 2.4026
-4.8395 -3.3587 2.4026
-4.7586 -3.4757 2.4026
-4.6749 -3.5906 2.4026
-4.5883 -3.7035 2.4026
-4.3599 -3.6968 2.4026
-4.2707 -3.8020 2.4026
-4.1790 -3.9051 2.4026
-4.0847 -4.0059 2.4026
-3.9880 -4.1044 2.4026
-3.8889 -4.2005 2.4026
-3.7874 -4.2942 2.4026
-3.6837 -4.3855 2.4026
-3.5778 -4.4741 2.4026
-3.4697 -4.5602 2.4026
-3.3595 -4.6436 2.4026
-3.2472 -4.7244 2.4026
-3.1331 -4.8023 2.4026
-3.0170 -4.8775 2.4026
-2.8991 -4.9498 2.4026
-2.7794 -5.0193 2.4026
-2.6581 -5.0858 2.4026
-2.5351 -5.1493 2.4026
-2.4107 -5.2098 2.4026
-2.2847 -5.2672 2.4026
-2.1574 -5.3216 2.4026
-2.0288 -5.3728 2.4026
-1.8989 -5.4209 2.4026
-1.7679 -5.4657 2.4026
-1.6358 -5.5074 2.4026
-1.5027 -5.5458 2.4026
-1.3687 -5.5810 2.4026
-1.2339 -5.6128 2.4026
-1.0983 -5.6414 2.4026
-0.9621 -5.6666 2.4026
-0.8253 -5.6885 2.4026
-0.6879 -5.7070 2.4026
-0.5502 -5.7221 2.4026
-0.4121 -5.7339 2.4026
-0.2738 -5.7423 2.4026
-0.1353 -5.7473 2.4026
0.0033 -5.7489 2.4026
0.1419 -5.7471 2.4026
0.2803 -5.7419 2.4026
0.4186 -5.7333 2.4026
0.5567 -5.7213 2.4026
0.6944 -5.7060 2.4026
0.8317 -5.6873 2.4026
0.9685 -5.6652 2.4026
1.1047 -5.6398 2.4026
1.2402 -5.6111 2.4026
1.3750 -5.5790 2.4026
1.5089 -5.5437 2.4026
1.6420 -5.5051 2.4026
1.7740 -5.4632 2.4026
1.9049 -5.4182 2.4026
2.0347 -5.3699 2.4026
2.1632 -5.3185 2.4026
2.2905 -5.2640 2.4026
2.4163 -5.2064 2.4026
2.5066 -5.0767 2.3703
2.5493 -4.8640 2.2995
2.6653 -4.8002 2.2995
2.7797 -4.7336 2.2995
2.8924 -4.6642 2.2995
3.0034 -4.5921 2.2995
3.1126 -4.5173 2.2995
3.2199 -4.4399 2.2995
3.3252 -4.3599 2.2995
3.4285 -4.2774 2.2995
3.5298 -4.1924 2.2995
3.6290 -4.1050 2.2995
3.7259 -4.0152 2.2995
3.8206 -3.9231 2.2995
3.9130 -3.8287 2.2995
4.0031 -3.7321 2.2995
4.0908 -3.6334 2.2995
4.1760 -3.5326 2.2995
4.2587 -3.4297 2.2995
4.3388 -3.3249 2.2995
4.4164 -3.2183 2.2995
4.4913 -3.1098 2.2995
4.5635 -2.9995 2.2995
4.6330 -2.8875 2.2995
4.6998 -2.7739 2.2995
4.7637 -2.6588 2.2995
4.8248 -2.5421 2.2995
4.8830 -2.4241 2.2995
4.9384 -2.3047 2.2995
4.9908 -2.1840 2.2995
5.0402 -2.0622 2.2995
5.0866 -1.9392 2.2995
5.1301 -1.8151 2.2995
5.1705 -1.6901 2.2995
5.2078 -1.5642 2.2995
5.2421 -1.4374 2.2995
5.2732 -1.3099 2.2995
5.3013 -1.1817 2.2995
5.3262 -1.0529 2.2995
5.3480 -0.9236 2.2995
5.3667 -0.7939 2.2995
5.3822 -0.6637 2.2995
5.3946 -0.5333 2.2995
5.4038 -0.4027 2.2995
5.4098 -0.2719 2.2995
5.4127 -0.1411 2.2995
5.4124 -0.0102 2.2995
5.4089 0.1205 2.2995
5.4023 0.2511 2.2995
5.3925 0.3814 2.2995
5.3796 0.5114 2.2995
5.3636 0.6411 2.2995
5.3445 0.7702 2.2995
5.3222 0.8989 2.2995
5.2969 1.0269 2.2995
5.2685 1.1542 2.2995
5.2371 1.2807 2.2995
5.2026 1.4065 2.2995
5.1652 1.5313 2.2995
5.1247 1.6551 2.2995
5.0813 1.7779 2.2995
5.0350 1.8996 2.2995
4.9857 2.0201 2.2995
4.9337 2.1393 2.2995
4.8787 2.2572 2.2995
4.8210 2.3737 2.2995
4.7605 2.4888 2.2995
4.6973 2.6023 2.2995
4.6314 2.7143 2.2995
4.5629 2.8246 2.2995
4.4917 2.9332 2.2995
4.4180 3.0401 2.2995
4.3418 3.1451 2.2995
4.2631 3.2483 2.2995
4.1819 3.3494 2.2995
4.0984 3.4486 2.2995
4.0126 3.5458 2.2995
3.9244 3.6408 2.2995
3.8341 3.7337 2.2995
3.7416 3.8244 2.2995
3.6469 3.9128 2.2995
3.5502 3.9989 2.2995
3.4515 4.0826 2.2995
3.3508 4.1640 2.2995
3.2482 4.2429 2.2995
3.1438 4.3193 2.2995
3.0376 4.3932 2.2995
2.9298 4.4645 2.2995
2.8342 4.5557 2.3109
2.7091 4.5992 2.2995
2.6478 4.7549 2.3450
2.5936 4.9350 2.4026
2.4728 4.9955 2.4026
2.3507 5.0531 2.4026
2.2273 5.1077 2.4026
2.1027 5.1594 2.4026
1.9768 5.2081 2.4026
1.8498 5.2538 2.4026
1.7218 5.2964 2.4026
1.5929 5.3359 2.4026
1.4630 5.3724 2.4026
1.3323 5.4058 2.4026
1.2009 5.4360 2.4026
1.0688 5.4631 2.4026
0.9361 5.4870 2.4026
0.8028 5.5077 2.4026
0.6691 5.5253 2.4026
0.5351 5.5397 2.4026
0.4007 5.5508 2.4026
0.2661 5.5588 2.4026
0.1314 5.5636 2.4026
-0.0034 5.5651 2.4026
-0.1382 5.5634 2.4026
-0.2730 5.5586 2.4026
-0.4076 5.5505 2.4026
-0.5419 5.5392 2.4026
-0.6760 5.5247 2.4026
-0.8096 5.5070 2.4026
-0.9429 5.4861 2.4026
-1.0756 5.4620 2.4026
-1.2076 5.4348 2.4026
-1.3391 5.4045 2.4026
-1.4697 5.3710 2.4026
-1.5996 5.3344 2.4026
-1.7285 5.2948 2.4026
-1.8565 5.2520 2.4026
-1.9834 5.2062 2.4026
-2.1092 5.1574 2.4026
-2.2339 5.1056 2.4026
-2.3572 5.0508 2.4026
-2.4793 4.9931 2.4026
-2.6000 4.9325 2.4026
-2.7192 4.8690 2.4026
-2.8368 4.8027 2.4026
-2.9529 4.7335 2.4026
-3.0673 4.6616 2.4026
-3.1800 4.5870 2.4026
-3.2909 4.5097 2.4026
-3.3999 4.4297 2.4026
-3.5070 4.3472 2.4026
-3.6121 4.2621 2.4026
-3.7152 4.1744 2.4026
-3.8162 4.0844 2.4026
-3.9150 3.9919 2.4026
-4.0116 3.8970 2.4026
-4.1059 3.7999 2.4026
-4.1979 3.7005 2.4026
-4.2875 3.5989 2.4026
-4.3747 3.4951 2.4026
-4.4593 3.3893 2.4026
-4.5415 3.2814 2.4026
-4.6210 3.1716 2.4026
-4.6979 3.0598 2.4026
-4.7722 2.9462 2.4026
-4.8437 2.8308 2.4026
-4.9124 2.7138 2.4026
-4.9784 2.5950 2.4026
-5.0415 2.4747 2.4026
-5.1017 2.3529 2.4026
-5.1589 2.2296 2.4026
-5.2132 2.1049 2.4026
-5.2645 1.9789 2.4026
-5.3128 1.8517 2.4026
-5.3580 1.7234 2.4026
-5.4001 1.5939 2.4026
-5.4392 1.4634 2.4026
-5.4489 1.3256 2.3911
-5.4508 1.1873 2.3777
-5.4528 1.0503 2.3659
-5.4547 0.9145 2.3556
-5.4572 0.7798 2.3469
-5.4609 0.6461 2.3402
-5.4642 0.5129 2.3347
-5.4672 0.3802 2.3304
-5.4698 0.2477 2.3274
-5.4722 0.1154 2.3256
-5.4742 -0.0168 2.3251
-5.4759 -0.1492 2.3257
-5.4773 -0.2818 2.3276
-5.4784 -0.4148 2.3308
-5.4792 -0.5482 2.3351
-5.4797 -0.6823 2.3408
-5.4798 -0.8172 2.3477
-5.4813 -0.9533 2.3566
-5.4833 -1.0907 2.3672
-5.4853 -1.2295 2.3792
-5.4873 -1.3699 2.3928
-5.4769 -1.5087 2.4026
-5.4409 -1.6411 2.4026
-5.4017 -1.7727 2.4026
-5.3593 -1.9033 2.4026
-5.3138 -2.0329 2.4026
-5.2651 -2.1614 2.4026
-5.2132 -2.2887 2.4026
-5.1583 -2.4147 2.4026
-5.1003 -2.5394 2.4026
-5.0393 -2.6627 2.4026
-4.9753 -2.7845 2.4026
-4.9083 -2.9047 2.4026
-4.8384 -3.0234 2.4026
-4.7656 -3.1403 2.4026
-4.6900 -3.2554 2.4026
-4.6116 -3.3687 2.4026
-4.5304 -3.4801 2.4026
-4.4465 -3.5895 2.4026
-4.2279 -3.5853 2.4026
-4.1414 -3.6873 2.4026
-4.0524 -3.7872 2.4026
-3.9610 -3.8850 2.4026
-3.8672 -3.9804 2.4026
-3.7710 -4.0736 2.4026
-3.6726 -4.1645 2.4026
-3.5720 -4.2529 2.4026
-3.4693 -4.3388 2.4026
-3.3644 -4.4223 2.4026
-3.2575 -4.5032 2.4026
-3.1487 -4.5814 2.4026
-3.0380 -4.6570 2.4026
-2.9254 -4.7299 2.4026
-2.8111 -4.8000 2.4026
-2.6950 -4.8673 2.4026
-2.5774 -4.9317 2.4026
-2.4581 -4.9933 2.4026
-2.3374 -5.0519 2.4026
-2.2153 -5.1076 2.4026
-2.0918 -5.1603 2.4026
-1.9671 -5.2099 2.4026
-1.8412 -5.2565 2.4026
-1.7141 -5.3000 2.4026
-1.5861 -5.3404 2.4026
-1.4570 -5.3776 2.4026
-1.3271 -5.4117 2.4026
-1.1964 -5.4426 2.4026
-1.0649 -5.4702 2.4026
-0.9328 -5.4947 2.4026
-0.8002 -5.5159 2.4026
-0.6670 -5.5338 2.4026
-0.5335 -5.5485 2.4026
-0.3996 -5.5599 2.4026
-0.2655 -5.5681 2.4026
-0.1312 -5.5729 2.4026
0.0032 -5.5744 2.4026
0.1375 -5.5727 2.4026
0.2718 -5.5677 2.4026
0.4059 -5.5594 2.4026
0.5398 -5.5478 2.4026
0.6733 -5.5329 2.4026
0.8064 -5.5147 2.4026
0.9391 -5.4933 2.4026
1.0711 -5.4687 2.4026
1.2025 -5.4409 2.4026
1.3332 -5.4098 2.4026
1.4631 -5.3756 2.4026
1.5920 -5.3381 2.4026
1.7200 -5.2976 2.4026
1.8470 -5.2539 2.4026
1.9729 -5.2072 2.4026
2.0975 -5.1573 2.4026
2.2209 -5.1045 2.4026
2.3429 -5.0486 2.4026
2.4635 -4.9898 2.4026
2.5133 -4.7957 2.3380
2.5844 -4.6548 2.2995
2.7045 -4.6058 2.3073
2.8046 -4.5230 2.2995
2.9123 -4.4531 2.2995
3.0181 -4.3807 2.2995
3.1222 -4.3056 2.2995
3.2243 -4.2281 2.2995
3.3246 -4.1481 2.2995
3.4228 -4.0657 2.2995
3.5189 -3.9810 2.2995
3.6130 -3.8939 2.2995
3.7049 -3.8046 2.2995
3.7945 -3.7131 2.2995
3.8819 -3.6195 2.2995
3.9669 -3.5238 2.2995
4.0496 -3.4260 2.2995
4.1298 -3.3264 2.2995
4.2076 -3.2248 2.2995
4.2828 -3.1213 2.2995
4.3555 -3.0161 2.2995
4.4256 -2.9092 2.2995
4.4930 -2.8007 2.2995
4.5578 -2.6905 2.2995
4.6198 -2.5789 2.2995
4.6791 -2.4658 2.2995
4.7356 -2.3513 2.2995
4.7893 -2.2356 2.2995
4.8402 -2.1186 2.2995
4.8882 -2.0004 2.2995
4.9333 -1.8811 2.2995
4.9754 -1.7608 2.2995
5.0147 -1.6396 2.2995
5.0509 -1.5175 2.2995
5.0842 -1.3945 2.2995
5.1145 -1.2709 2.2995
5.1418 -1.1466 2.2995
5.1660 -1.0217 2.2995
5.1872 -0.8963 2.2995
5.2053 -0.7704 2.2995
5.2204 -0.6442 2.2995
5.2325 -0.5177 2.2995
5.2414 -0.3910 2.2995
5.2473 -0.2641 2.2995
5.2502 -0.1372 2.2995
5.2499 -0.0103 2.2995
5.2466 0.1165 2.2995
5.2403 0.2432 2.2995
5.2309 0.3696 2.2995
5.2184 0.4957 2.2995
5.2029 0.6215 2.2995
5.1844 0.7468 2.2995
5.1629 0.8715 2.2995
5.1384 0.9957 2.2995
5.1109 1.1192 2.2995
5.0804 1.2420 2.2995
5.0470 1.3640 2.2995
5.0107 1.4851 2.2995
4.9715 1.6052 2.2995
4.9295 1.7244 2.2995
4.8846 1.8424 2.2995
4.8369 1.9593 2.2995
4.7864 2.0750 2.2995
4.7331 2.1894 2.2995
4.6772 2.3025 2.2995
4.6186 2.4142 2.2995
4.5573 2.5243 2.2995
4.4934 2.6330 2.2995
4.4269 2.7401 2.2995
4.3579 2.8455 2.2995
4.2864 2.9491 2.2995
4.2125 3.0511 2.2995
4.1362 3.1512 2.2995
4.0575 3.2494 2.2995
3.9765 3.3456 2.2995
3.8932 3.4399 2.2995
3.8077 3.5322 2.2995
3.7201 3.6223 2.2995
3.6303 3.7103 2.2995
3.5385 3.7961 2.2995
3.4447 3.8797 2.2995
3.3489 3.9610 2.2995
3.2513 4.0399 2.2995
3.1518 4.1165 2.2995
3.0505 4.1907 2.2995
2.9475 4.2624 2.2995
2.8428 4.3316 2.2995
2.7365 4.3983 2.2995
2.6503 4.4991 2.3184
2.6323 4.7267 2.4026
2.5166 4.7882 2.4026
2.3995 4.8469 2.4026
2.2810 4.9028 2.4026
2.1613 4.9559 2.4026
2.0403 5.0061 2.4026
1.9182 5.0533 2.4026
1.7950 5.0976 2.4026
1.6708 5.1390 2.4026
1.5457 5.1774 2.4026
1.4196 5.2128 2.4026
1.2928 5.2452 2.4026
1.1653 5.2745 2.4026
1.0371 5.3008 2.4026
0.9083 5.3240 2.4026
0.7790 5.3442 2.4026
0.6493 5.3612 2.4026
0.5192 5.3752 2.4026
0.3888 5.3860 2.4026
0.2582 5.3938 2.4026
0.1275 5.3984 2.4026
-0.0033 5.3999 2.4026
-0.1341 5.3983 2.4026
-0.2649 5.3935 2.4026
-0.3955 5.3857 2.4026
-0.5259 5.3747 2.4026
-0.6559 5.3606 2.4026
-0.7857 5.3434 2.4026
-0.9149 5.3232 2.4026
-1.0437 5.2998 2.4026
-1.1719 5.2734 2.4026
-1.2994 5.2439 2.4026
-1.4262 5.2114 2.4026
-1.5522 5.1759 2.4026
-1.6773 5.1374 2.4026
-1.8015 5.0959 2.4026
-1.9246 5.0515 2.4026
-2.0467 5.0041 2.4026
-2.1676 4.9538 2.4026
-2.2873 4.9006 2.4026
-2.4058 4.8446 2.4026
-2.5228 4.7858 2.4026
-2.6385 4.7241 2.4026
-2.7526 4.6597 2.4026
-2.8653 4.5926 2.4026
-2.9763 4.5228 2.4026
-3.0856 4.4504 2.4026
-3.1931 4.3754 2.4026
-3.2989 4.2978 2.4026
-3.4028 4.2176 2.4026
-3.5048 4.1350 2.4026
-3.6048 4.0500 2.4026
-3.7027 3.9625 2.4026
-3.7986 3.8728 2.4026
-3.8923 3.7807 2.4026
-3.9838 3.6864 2.4026
-4.0730 3.5900 2.4026
-4.1599 3.4913 2.4026
-4.2444 3.3906 2.4026
-4.3266 3.2879 2.4026
-4.4062 3.1832 2.4026
-4.4834 3.0767 2.4026
-4.5580 2.9682 2.4026
-4.6300 2.8580 2.4026
-4.6993 2.7460 2.4026
-4.7659 2.6324 2.4026
-4.8299 2.5172 2.4026
-4.8910 2.4004 2.4026
-4.9494 2.2822 2.4026
-5.0049 2.1626 2.4026
-5.0575 2.0416 2.4026
-5.1073 1.9194 2.4026
-5.1540 1.7960 2.4026
-5.1979 1.6714 2.4026
-5.2387 1.5458 2.4026
-5.2765 1.4192 2.4026
-5.3112 1.2917 2.4026
-5.3429 1.1634 2.4026
-5.3715 1.0342 2.4026
-5.3970 0.9044 2.4026
-5.4193 0.7740 2.4026
-5.4385 0.6430 2.4026
-5.4545 0.5116 2.4026
-5.4623 0.3794 2.4003
-5.4642 0.2470 2.3969
-5.4661 0.1149 2.3949
-5.4680 -0.0172 2.3943
-5.4699 -0.1495 2.3951
-5.4718 -0.2819 2.3973
-5.4737 -0.4148 2.4009
-5.4680 -0.5475 2.4026
-5.4552 -0.6797 2.4026
-5.4393 -0.8116 2.4026
-5.4202 -0.9431 2.4026
-5.3979 -1.0741 2.4026
-5.3724 -1.2046 2.4026
-5.3437 -1.3345 2.4026
-5.3119 -1.4637 2.4026
-5.2770 -1.5921 2.4026
-5.2389 -1.7197 2.4026
-5.1977 -1.8464 2.4026
-5.1535 -1.9720 2.4026
-5.1062 -2.0966 2.4026
-5.0559 -2.2200 2.4026
-5.0026 -2.3422 2.4026
-4.9463 -2.4631 2.4026
-4.8871 -2.5827 2.4026
-4.8250 -2.7008 2.4026
-4.7600 -2.8174 2.4026
-4.6922 -2.9324 2.4026
-4.6216 -3.0457 2.4026
-4.5482 -3.1574 2.4026
-4.4721 -3.2672 2.4026
-4.3933 -3.3752 2.4026
-4.3119 -3.4812 2.4026
-4.1025 -3.4794 2.4026
-4.0185 -3.5783 2.4026
-3.9321 -3.6752 2.4026
-3.8434 -3.7700 2.4026
-3.7523 -3.8627 2.4026
-3.6590 -3.9531 2.4026
-3.5635 -4.0412 2.4026
-3.4659 -4.1270 2.4026
-3.3662 -4.2103 2.4026
-3.2644 -4.2913 2.4026
-3.1607 -4.3697 2.4026
-3.0551 -4.4456 2.4026
-2.9476 -4.5189 2.4026
-2.8384 -4.5896 2.4026
-2.7274 -4.6576 2.4026
-2.6148 -4.7229 2.4026
-2.5007 -4.7854 2.4026
-2.3850 -4.8451 2.4026
-2.2679 -4.9020 2.4026
-2.1494 -4.9560 2.4026
-2.0296 -5.0071 2.4026
-1.9085 -5.0552 2.4026
-1.7864 -5.1004 2.4026
-1.6631 -5.1426 2.4026
-1.5388 -5.1817 2.4026
-1.4136 -5.2179 2.4026
-1.2876 -5.2509 2.4026
-1.1607 -5.2808 2.4026
-1.0332 -5.3077 2.4026
-0.9050 -5.3314 2.4026
-0.7763 -5.3520 2.4026
-0.6471 -5.3694 2.4026
-0.5176 -5.3836 2.4026
-0.3877 -5.3947 2.4026
-0.2576 -5.4026 2.4026
-0.1273 -5.4072 2.4026
0.0031 -5.4087 2.4026
0.1334 -5.4071 2.4026
0.2637 -5.4022 2.4026
0.3938 -5.3941 2.4026
0.5237 -5.3829 2.4026
0.6532 -5.3684 2.4026
0.7824 -5.3509 2.4026
0.9111 -5.3301 2.4026
1.0392 -5.3062 2.4026
1.1667 -5.2792 2.4026
1.2935 -5.2491 2.4026
1.4195 -5.2159 2.4026
1.5446 -5.1796 2.4026
1.6688 -5.1402 2.4026
1.7920 -5.0979 2.4026
1.9141 -5.0525 2.4026
2.0351 -5.0042 2.4026
2.1548 -4.9530 2.4026
2.2732 -4.8988 2.4026
2.3902 -4.8418 2.4026
2.5058 -4.7819 2.4026
2.5226 -4.5440 2.3133
2.6151 -4.4541 2.2995
2.7212 -4.3889 2.2995
2.8257 -4.3211 2.2995
2.9284 -4.2508 2.2995
3.0294 -4.1781 2.2995
3.1285 -4.1028 2.2995
3.2258 -4.0253 2.2995
3.3211 -3.9453 2.2995
3.4144 -3.8631 2.2995
3.5057 -3.7787 2.2995
3.5949 -3.6921 2.2995
3.6819 -3.6033 2.2995
3.7667 -3.5125 2.2995
3.8492 -3.4196 2.2995
3.9295 -3.3248 2.2995
4.0073 -3.2281 2.2995
4.0828 -3.1296 2.2995
4.1559 -3.0292 2.2995
4.2264 -2.9272 2.2995
4.2945 -2.8234 2.2995
4.3600 -2.7181 2.2995
4.4228 -2.6113 2.2995
4.4831 -2.5030 2.2995
4.5407 -2.3932 2.2995
4.5955 -2.2822 2.2995
4.6477 -2.1698 2.2995
4.6971 -2.0563 2.2995
4.7437 -1.9417 2.2995
4.7875 -1.8259 2.2995
4.8285 -1.7092 2.2995
4.8666 -1.5916 2.2995
4.9018 -1.4731 2.2995
4.9342 -1.3538 2.2995
4.9636 -1.2338 2.2995
4.9901 -1.1131 2.2995
5.0137 -0.9919 2.2995
5.0343 -0.8702 2.2995
5.0520 -0.7481 2.2995
5.0667 -0.6256 2.2995
5.0784 -0.5028 2.2995
5.0871 -0.3799 2.2995
5.0929 -0.2568 2.2995
5.0957 -0.1336 2.2995
5.0955 -0.0104 2.2995
5.0924 0.1127 2.2995
5.0863 0.2356 2.2995
5.0772 0.3583 2.2995
5.0651 0.4808 2.2995
5.0501 0.6028 2.2995
5.0322 0.7244 2.2995
5.0114 0.8456 2.2995
4.9876 0.9661 2.2995
4.9610 1.0860 2.2995
4.9315 1.2052 2.2995
4.8991 1.3236 2.2995
4.8639 1.4412 2.2995
4.8259 1.5578 2.2995
4.7851 1.6735 2.2995
4.7416 1.7881 2.2995
4.6953 1.9016 2.2995
4.6463 2.0139 2.2995
4.5947 2.1250 2.2995
4.5404 2.2348 2.2995
4.4835 2.3432 2.2995
4.4241 2.4502 2.2995
4.3621 2.5557 2.2995
4.2976 2.6596 2.2995
4.2306 2.7620 2.2995
4.1613 2.8627 2.2995
4.0895 2.9616 2.2995
4.0155 3.0588 2.2995
3.9391 3.1542 2.2995
3.8605 3.2477 2.2995
3.7797 3.3392 2.2995
3.6967 3.4288 2.2995
3.6117 3.5163 2.2995
3.5245 3.6018 2.2995
3.4354 3.6851 2.2995
3.3444 3.7663 2.2995
3.2514 3.8452 2.2995
3.1566 3.9219 2.2995
3.0600 3.9963 2.2995
2.9617 4.0683 2.2995
2.8617 4.1379 2.2995
2.7601 4.2052 2.2995
2.6569 4.2699 2.2995
2.6429 4.4862 2.3812
2.5558 4.5888 2.4026
2.4434 4.6486 2.4026
2.3297 4.7056 2.4026
2.2147 4.7599 2.4026
2.0985 4.8114 2.4026
1.9810 4.8602 2.4026
1.8625 4.9061 2.4026
1.7428 4.9491 2.4026
1.6223 4.9893 2.4026
1.5008 5.0266 2.4026
1.3784 5.0610 2.4026
1.2553 5.0924 2.4026
1.1314 5.1209 2.4026
1.0070 5.1465 2.4026
0.8819 5.1690 2.4026
0.7564 5.1886 2.4026
0.6304 5.2051 2.4026
0.5041 5.2187 2.4026
0.3775 5.2292 2.4026
0.2507 5.2367 2.4026
0.1238 5.2412 2.4026
-0.0032 5.2427 2.4026
-0.1303 5.2411 2.4026
-0.2572 5.2365 2.4026
-0.3840 5.2289 2.4026
-0.5106 5.2182 2.4026
-0.6369 5.2045 2.4026
-0.7628 5.1878 2.4026
-0.8884 5.1682 2.4026
-1.0134 5.1455 2.4026
-1.1378 5.1198 2.4026
-1.2616 5.0912 2.4026
-1.3847 5.0596 2.4026
-1.5071 5.0251 2.4026
-1.6285 4.9877 2.4026
-1.7491 4.9474 2.4026
-1.8687 4.9043 2.4026
-1.9872 4.8582 2.4026
-2.1046 4.8094 2.4026
-2.2208 4.7577 2.4026
-2.3358 4.7033 2.4026
-2.4495 4.6462 2.4026
-2.5618 4.5863 2.4026
-2.6726 4.5238 2.4026
-2.7819 4.4586 2.4026
-2.8896 4.3908 2.4026
-2.9958 4.3205 2.4026
-3.1002 4.2476 2.4026
-3.2029 4.1722 2.4026
-3.3037 4.0944 2.4026
-3.4027 4.0142 2.4026
-3.4998 3.9316 2.4026
-3.5948 3.8467 2.4026
-3.6879 3.7595 2.4026
-3.7788 3.6701 2.4026
-3.8676 3.5785 2.4026
-3.9542 3.4848 2.4026
-4.0385 3.3891 2.4026
-4.1206 3.2913 2.4026
-4.2003 3.1916 2.4026
-4.2776 3.0899 2.4026
-4.3525 2.9864 2.4026
-4.4248 2.8811 2.4026
-4.4947 2.7741 2.4026
-4.5620 2.6654 2.4026
-4.6266 2.5550 2.4026
-4.6886 2.4432 2.4026
-4.7480 2.3298 2.4026
-4.8046 2.2150 2.4026
-4.8584 2.0989 2.4026
-4.9095 1.9815 2.4026
-4.9577 1.8628 2.4026
-5.0031 1.7430 2.4026
-5.0456 1.6220 2.4026
-5.0851 1.5001 2.4026
-5.1218 1.3772 2.4026
-5.1555 1.2534 2.4026
-5.1862 1.1288 2.4026
-5.2139 1.0035 2.4026
-5.2385 0.8775 2.4026
-5.2602 0.7509 2.4026
-5.2788 0.6237 2.4026
-5.2943 0.4961 2.4026
-5.3067 0.3682 2.4026
-5.3161 0.2399 2.4026
-5.3223 0.1114 2.4026
-5.3255 -0.0172 2.4026
-5.3255 -0.1459 2.4026
-5.3224 -0.2747 2.4026
-5.3162 -0.4033 2.4026
-5.3069 -0.5318 2.4026
-5.2945 -0.6601 2.4026
-5.2790 -0.7881 2.4026
-5.2604 -0.9157 2.4026
-5.2387 -1.0429 2.4026
-5.2139 -1.1695 2.4026
-5.1860 -1.2955 2.4026
-5.1551 -1.4209 2.4026
-5.1212 -1.5455 2.4026
-5.0842 -1.6693 2.4026
-5.0442 -1.7922 2.4026
-5.0012 -1.9141 2.4026
-4.9553 -2.0350 2.4026
-4.9064 -2.1548 2.4026
-4.8547 -2.2734 2.4026
-4.8000 -2.3907 2.4026
-4.7425 -2.5067 2.4026
-4.6822 -2.6213 2.4026
-4.6191 -2.7344 2.4026
-4.5532 -2.8460 2.4026
-4.4846 -2.9559 2.4026
-4.4134 -3.0642 2.4026
-4.3395 -3.1708 2.4026
-4.2630 -3.2755 2.4026
-4.1840 -3.3784 2.4026
-3.9832 -3.3786 2.4026
-3.9016 -3.4746 2.4026
-3.8177 -3.5687 2.4026
-3.7315 -3.6607 2.4026
-3.6431 -3.7506 2.4026
-3.5525 -3.8384 2.4026
-3.4597 -3.9239 2.4026
-3.3649 -4.0071 2.4026
-3.2681 -4.0881 2.4026
-3.1693 -4.1666 2.4026
-3.0686 -4.2427 2.4026
-2.9660 -4.3164 2.4026
-2.8617 -4.3876 2.4026
-2.7556 -4.4562 2.4026
-2.6479 -4.5222 2.4026
-2.5386 -4.5855 2.4026
-2.4277 -4.6462 2.4026
-2.3154 -4.7041 2.4026
-2.2017 -4.7593 2.4026
-2.0866 -4.8117 2.4026
-1.9703 -4.8613 2.4026
-1.8528 -4.9080 2.4026
-1.7342 -4.9519 2.4026
-1.6145 -4.9928 2.4026
-1.4939 -5.0308 2.4026
-1.3723 -5.0659 2.4026
-1.2500 -5.0979 2.4026
-1.1268 -5.1270 2.4026
-1.0030 -5.1530 2.4026
-0.8786 -5.1761 2.4026
-0.7536 -5.1960 2.4026
-0.6282 -5.2129 2.4026
-0.5024 -5.2267 2.4026
-0.3764 -5.2375 2.4026
-0.2500 -5.2451 2.4026
-0.1236 -5.2497 2.4026
0.0030 -5.2511 2.4026
0.1295 -5.2495 2.4026
0.2560 -5.2447 2.4026
0.3823 -5.2369 2.4026
0.5084 -5.2260 2.4026
0.6341 -5.2120 2.4026
0.7595 -5.1949 2.4026
0.8845 -5.1748 2.4026
1.0088 -5.1516 2.4026
1.1326 -5.1254 2.4026
1.2557 -5.0962 2.4026
1.3780 -5.0639 2.4026
1.4995 -5.0287 2.4026
1.6201 -4.9906 2.4026
1.7397 -4.9495 2.4026
1.8582 -4.9054 2.4026
1.9757 -4.8586 2.4026
2.0919 -4.8088 2.4026
2.2068 -4.7563 2.4026
2.3205 -4.7009 2.4026
2.4327 -4.6428 2.4026
2.5144 -4.5297 2.3751
2.5389 -4.3246 2.2995
2.6419 -4.2613 2.2995
2.7433 -4.1955 2.2995
2.8430 -4.1273 2.2995
2.9411 -4.0567 2.2995
3.0374 -3.9837 2.2995
3.1318 -3.9084 2.2995
3.2244 -3.8308 2.2995
3.3150 -3.7510 2.2995
3.4036 -3.6691 2.2995
3.4902 -3.5850 2.2995
3.5747 -3.4988 2.2995
3.6571 -3.4107 2.2995
3.7372 -3.3205 2.2995
3.8152 -3.2285 2.2995
3.8908 -3.1346 2.2995
3.9641 -3.0390 2.2995
4.0351 -2.9416 2.2995
4.1036 -2.8425 2.2995
4.1697 -2.7418 2.2995
4.2333 -2.6396 2.2995
4.2944 -2.5358 2.2995
4.3530 -2.4307 2.2995
4.4089 -2.3242 2.2995
4.4622 -2.2164 2.2995
4.5129 -2.1073 2.2995
4.5609 -1.9971 2.2995
4.6062 -1.8858 2.2995
4.6488 -1.7734 2.2995
4.6886 -1.6601 2.2995
4.7256 -1.5459 2.2995
4.7599 -1.4308 2.2995
4.7913 -1.3150 2.2995
4.8200 -1.1985 2.2995
4.8458 -1.0813 2.2995
4.8687 -0.9636 2.2995
4.8888 -0.8455 2.2995
4.9060 -0.7269 2.2995
4.9203 -0.6079 2.2995
4.9317 -0.4887 2.2995
4.9403 -0.3693 2.2995
4.9459 -0.2497 2.2995
4.9487 -0.1301 2.2995
4.9485 -0.0105 2.2995
4.9455 0.1090 2.2995
4.9396 0.2284 2.2995
4.9308 0.3476 2.2995
4.9192 0.4665 2.2995
4.9047 0.5851 2.2995
4.8873 0.7032 2.2995
4.8671 0.8208 2.2995
4.8441 0.9379 2.2995
4.8183 1.0544 2.2995
4.7896 1.1702 2.2995
4.7582 1.2852 2.2995
4.7241 1.3994 2.2995
4.6872 1.5127 2.2995
4.6477 1.6250 2.2995
4.6054 1.7364 2.2995
4.5605 1.8466 2.2995
4.5130 1.9557 2.2995
4.4628 2.0636 2.2995
4.4102 2.1703 2.2995
4.3549 2.2756 2.2995
4.2972 2.3795 2.2995
4.2370 2.4820 2.2995
4.1744 2.5830 2.2995
4.1094 2.6824 2.2995
4.0421 2.7803 2.2995
3.9724 2.8764 2.2995
3.9005 2.9709 2.2995
3.8263 3.0635 2.2995
3.7500 3.1543 2.2995
3.6715 3.2433 2.2995
3.5910 3.3303 2.2995
3.5084 3.4154 2.2995
3.4238 3.4984 2.2995
3.3372 3.5794 2.2995
3.2488 3.6583 2.2995
3.1585 3.7350 2.2995
3.0664 3.8095 2.2995
2.9726 3.8817 2.2995
2.8771 3.9517 2.2995
2.7800 4.0194 2.2995
2.6813 4.0847 2.2995
2.6395 4.2415 2.3515
2.5905 4.3968 2.4026
2.4828 4.4575 2.4026
2.3737 4.5155 2.4026
2.2633 4.5710 2.4026
2.1515 4.6237 2.4026
2.0386 4.6738 2.4026
1.9245 4.7212 2.4026
1.8093 4.7658 2.4026
1.6932 4.8076 2.4026
1.5760 4.8467 2.4026
1.4580 4.8829 2.4026
1.3391 4.9163 2.4026
1.2195 4.9469 2.4026
1.0992 4.9746 2.4026
0.9783 4.9994 2.4026
0.8568 5.0213 2.4026
0.7348 5.0403 2.4026
0.6125 5.0564 2.4026
0.4898 5.0696 2.4026
0.3668 5.0798 2.4026
0.2436 5.0871 2.4026
0.1202 5.0915 2.4026
-0.0031 5.0929 2.4026
-0.1266 5.0914 2.4026
-0.2499 5.0869 2.4026
-0.3731 5.0795 2.4026
-0.4961 5.0691 2.4026
-0.6188 5.0558 2.4026
-0.7411 5.0396 2.4026
-0.8630 5.0205 2.4026
-0.9845 4.9984 2.4026
-1.1054 4.9735 2.4026
-1.2257 4.9457 2.4026
-1.3453 4.9150 2.4026
-1.4641 4.8815 2.4026
-1.5821 4.8451 2.4026
-1.6992 4.8059 2.4026
-1.8154 4.7640 2.4026
-1.9305 4.7193 2.4026
-2.0446 4.6718 2.4026
-2.1575 4.6216 2.4026
-2.2692 4.5687 2.4026
-2.3796 4.5132 2.4026
-2.4886 4.4550 2.4026
-2.5963 4.3942 2.4026
-2.7025 4.3309 2.4026
-2.8071 4.2650 2.4026
-2.9102 4.1967 2.4026
-3.0116 4.1259 2.4026
-3.1114 4.0526 2.4026
-3.2093 3.9770 2.4026
-3.3055 3.8990 2.4026
-3.3997 3.8188 2.4026
-3.4921 3.7363 2.4026
-3.5824 3.6516 2.4026
-3.6707 3.5647 2.4026
-3.7570 3.4758 2.4026
-3.8411 3.3847 2.4026
-3.9230 3.2917 2.4026
-4.0026 3.1967 2.4026
-4.0800 3.0998 2.4026
-4.1551 3.0010 2.4026
-4.2278 2.9004 2.4026
-4.2980 2.7981 2.4026
-4.3659 2.6942 2.4026
-4.4312 2.5885 2.4026
-4.4939 2.4814 2.4026
-4.5542 2.3727 2.4026
-4.6117 2.2626 2.4026
-4.6667 2.1511 2.4026
-4.7189 2.0382 2.4026
-4.7685 1.9241 2.4026
-4.8153 1.8089 2.4026
-4.8593 1.6925 2.4026
-4.9005 1.5750 2.4026
-4.9389 1.4566 2.4026
-4.9745 1.3372 2.4026
-5.0072 1.2170 2.4026
-5.0369 1.0959 2.4026
-5.0638 0.9742 2.4026
-5.0877 0.8518 2.4026
-5.1087 0.7288 2.4026
-5.1267 0.6054 2.4026
-5.1417 0.4814 2.4026
-5.1537 0.3572 2.4026
-5.1628 0.2326 2.4026
-5.1688 0.1078 2.4026
-5.1718 -0.0171 2.4026
-5.1718 -0.1421 2.4026
-5.1688 -0.2671 2.4026
-5.1627 -0.3921 2.4026
-5.1536 -0.5169 2.4026
-5.1415 -0.6414 2.4026
-5.1264 -0.7657 2.4026
-5.1083 -0.8896 2.4026
-5.0871 -1.0131 2.4026
-5.0630 -1.1361 2.4026
-5.0359 -1.2585 2.4026
-5.0059 -1.3802 2.4026
-4.9729 -1.5012 2.4026
-4.9369 -1.6214 2.4026
-4.8980 -1.7407 2.4026
-4.8563 -1.8591 2.4026
-4.8116 -1.9764 2.4026
-4.7641 -2.0927 2.4026
-4.7138 -2.2078 2.4026
-4.6607 -2.3217 2.4026
-4.6049 -2.4343 2.4026
-4.5462 -2.5456 2.4026
-4.4849 -2.6554 2.4026
-4.4209 -2.7637 2.4026
-4.3543 -2.8704 2.4026
-4.2851 -2.9756 2.4026
-4.2134 -3.0790 2.4026
-4.1391 -3.1807 2.4026
-4.0623 -3.2806 2.4026
-3.8694 -3.2825 2.4026
-3.7902 -3.3758 2.4026
-3.7086 -3.4672 2.4026
-3.6249 -3.5565 2.4026
-3.5390 -3.6438 2.4026
-3.4509 -3.7290 2.4026
-3.3608 -3.8121 2.4026
-3.2687 -3.8929 2.4026
-3.1746 -3.9715 2.4026
-3.0786 -4.0478 2.4026
-2.9808 -4.1218 2.4026
-2.8811 -4.1933 2.4026
-2.7798 -4.2624 2.4026
-2.6767 -4.3290 2.4026
-2.5721 -4.3931 2.4026
-2.4659 -4.4546 2.4026
-2.3582 -4.5135 2.4026
-2.2491 -4.5698 2.4026
-2.1386 -4.6234 2.4026
-2.0268 -4.6743 2.4026
-1.9139 -4.7224 2.4026
-1.7997 -4.7678 2.4026
-1.6845 -4.8104 2.4026
-1.5683 -4.8501 2.4026
-1.4511 -4.8870 2.4026
-1.3330 -4.9211 2.4026
-1.2141 -4.9522 2.4026
-1.0945 -4.9804 2.4026
-0.9743 -5.0057 2.4026
-0.8534 -5.0281 2.4026
-0.7320 -5.0474 2.4026
-0.6102 -5.0638 2.4026
-0.4880 -5.0773 2.4026
-0.3656 -5.0877 2.4026
-0.2429 -5.0951 2.4026
-0.1200 -5.0995 2.4026
0.0029 -5.1009 2.4026
0.1258 -5.0994 2.4026
0.2486 -5.0948 2.4026
0.3713 -5.0872 2.4026
0.4938 -5.0766 2.4026
0.6160 -5.0630 2.4026
0.7377 -5.0464 2.4026
0.8591 -5.0268 2.4026
0.9799 -5.0043 2.4026
1.1001 -4.9789 2.4026
1.2197 -4.9505 2.4026
1.3385 -4.9192 2.4026
1.4565 -4.8850 2.4026
1.5737 -4.8479 2.4026
1.6898 -4.8080 2.4026
1.8050 -4.7653 2.4026
1.9190 -4.7198 2.4026
2.0320 -4.6715 2.4026
2.1436 -4.6204 2.4026
2.2540 -4.5667 2.4026
2.3630 -4.5103 2.4026
2.4706 -4.4512 2.4026
2.5182 -4.2898 2.3480
2.5662 -4.1397 2.2995
2.6648 -4.0759 2.2995
2.7617 -4.0096 2.2995
2.8569 -3.9410 2.2995
2.9505 -3.8701 2.2995
3.0422 -3.7970 2.2995
3.1322 -3.7217 2.2995
3.2202 -3.6442 2.2995
3.3064 -3.5646 2.2995
3.3905 -3.4829 2.2995
3.4726 -3.3993 2.2995
3.5526 -3.3136 2.2995
3.6305 -3.2261 2.2995
3.7062 -3.1367 2.2995
3.7798 -3.0456 2.2995
3.8510 -2.9526 2.2995
3.9200 -2.8580 2.2995
3.9866 -2.7618 2.2995
4.0508 -2.6640 2.2995
4.1127 -2.5647 2.2995
4.1720 -2.4640 2.2995
4.2289 -2.3618 2.2995
4.2833 -2.2584 2.2995
4.3352 -2.1536 2.2995
4.3844 -2.0477 2.2995
4.4311 -1.9406 2.2995
4.4751 -1.8325 2.2995
4.5165 -1.7233 2.2995
4.5553 -1.6133 2.2995
4.5913 -1.5023 2.2995
4.6246 -1.3905 2.2995
4.6552 -1.2780 2.2995
4.6831 -1.1648 2.2995
4.7081 -1.0510 2.2995
4.7305 -0.9367 2.2995
4.7500 -0.8219 2.2995
4.7668 -0.7066 2.2995
4.7807 -0.5911 2.2995
4.7919 -0.4752 2.2995
4.8002 -0.3592 2.2995
4.8057 -0.2430 2.2995
4.8085 -0.1268 2.2995
4.8084 -0.0106 2.2995
4.8055 0.1056 2.2995
4.7998 0.2216 2.2995
4.7913 0.3374 2.2995
4.7800 0.4529 2.2995
4.7660 0.5681 2.2995
4.7491 0.6829 2.2995
4.7295 0.7973 2.2995
4.7072 0.9111 2.2995
4.6821 1.0242 2.2995
4.6544 1.1367 2.2995
4.6239 1.2485 2.2995
4.5908 1.3595 2.2995
4.5550 1.4696 2.2995
4.5166 1.5788 2.2995
4.4755 1.6870 2.2995
4.4319 1.7942 2.2995
4.3858 1.9002 2.2995
4.3371 2.0051 2.2995
4.2859 2.1088 2.2995
4.2323 2.2111 2.2995
4.1762 2.3122 2.2995
4.1178 2.4118 2.2995
4.0569 2.5100 2.2995
3.9938 2.6066 2.2995
3.9284 2.7017 2.2995
3.8607 2.7952 2.2995
3.7908 2.8870 2.2995
3.7188 2.9770 2.2995
3.6446 3.0653 2.2995
3.5684 3.1518 2.2995
3.4901 3.2364 2.2995
3.4098 3.3191 2.2995
3.3276 3.3998 2.2995
3.2435 3.4785 2.2995
3.1576 3.5552 2.2995
3.0699 3.6298 2.2995
2.9804 3.7022 2.2995
2.8892 3.7725 2.2995
2.7964 3.8405 2.2995
2.7020 3.9063 2.2995
2.6408 4.0227 2.3301
2.6212 4.2117 2.4026
2.5179 4.2732 2.4026
2.4132 4.3322 2.4026
2.3072 4.3886 2.4026
2.1999 4.4425 2.4026
2.0913 4.4938 2.4026
1.9815 4.5425 2.4026
1.8706 4.5885 2.4026
1.7587 4.6319 2.4026
1.6457 4.6726 2.4026
1.5319 4.7106 2.4026
1.4171 4.7458 2.4026
1.3016 4.7783 2.4026
1.1854 4.8080 2.4026
1.0684 4.8349 2.4026
0.9509 4.8591 2.4026
0.8328 4.8804 2.4026
0.7143 4.8989 2.4026
0.5953 4.9145 2.4026
0.4761 4.9273 2.4026
0.3565 4.9373 2.4026
0.2368 4.9444 2.4026
0.1169 4.9486 2.4026
-0.0031 4.9500 2.4026
-0.1230 4.9485 2.4026
-0.2429 4.9441 2.4026
-0.3626 4.9369 2.4026
-0.4822 4.9269 2.4026
-0.6014 4.9139 2.4026
-0.7204 4.8982 2.4026
-0.8389 4.8796 2.4026
-0.9570 4.8581 2.4026
-1.0745 4.8339 2.4026
-1.1914 4.8068 2.4026
-1.3076 4.7770 2.4026
-1.4231 4.7444 2.4026
-1.5378 4.7091 2.4026
-1.6517 4.6710 2.4026
-1.7646 4.6302 2.4026
-1.8765 4.5867 2.4026
-1.9873 4.5405 2.4026
-2.0971 4.4917 2.4026
-2.2056 4.4403 2.4026
-2.3129 4.3863 2.4026
-2.4189 4.3298 2.4026
-2.5235 4.2707 2.4026
-2.6267 4.2091 2.4026
-2.7284 4.1451 2.4026
-2.8286 4.0786 2.4026
-2.9272 4.0097 2.4026
-3.0241 3.9385 2.4026
-3.1193 3.8650 2.4026
-3.2127 3.7892 2.4026
-3.3043 3.7112 2.4026
-3.3940 3.6310 2.4026
-3.4818 3.5487 2.4026
-3.5676 3.4642 2.4026
-3.6514 3.3777 2.4026
-3.7331 3.2892 2.4026
-3.8127 3.1988 2.4026
-3.8901 3.1064 2.4026
-3.9653 3.0122 2.4026
-4.0382 2.9162 2.4026
-4.1088 2.8184 2.4026
-4.1771 2.7190 2.4026
-4.2430 2.6179 2.4026
-4.3064 2.5153 2.4026
-4.3674 2.4111 2.4026
-4.4259 2.3055 2.4026
-4.4818 2.1984 2.4026
-4.5352 2.0900 2.4026
-4.5859 1.9804 2.4026
-4.6340 1.8695 2.4026
-4.6795 1.7575 2.4026
-4.7222 1.6443 2.4026
-4.7623 1.5302 2.4026
-4.7995 1.4151 2.4026
-4.8340 1.2990 2.4026
-4.8657 1.1822 2.4026
-4.8946 1.0646 2.4026
-4.9207 0.9463 2.4026
-4.9439 0.8273 2.4026
-4.9642 0.7078 2.4026
-4.9817 0.5878 2.4026
-4.9962 0.4674 2.4026
-5.0079 0.3467 2.4026
-5.0166 0.2256 2.4026
-5.0224 0.1044 2.4026
-5.0253 -0.0170 2.4026
-5.0252 -0.1385 2.4026
-5.0223 -0.2600 2.4026
-5.0163 -0.3813 2.4026
-5.0075 -0.5026 2.4026
-4.9957 -0.6236 2.4026
-4.9809 -0.7444 2.4026
-4.9633 -0.8648 2.4026
-4.9427 -0.9847 2.4026
-4.9192 -1.1042 2.4026
-4.8929 -1.2231 2.4026
-4.8636 -1.3414 2.4026
-4.8315 -1.4589 2.4026
-4.7965 -1.5757 2.4026
-4.7587 -1.6916 2.4026
-4.7181 -1.8066 2.4026
-4.6747 -1.9206 2.4026
-4.6285 -2.0335 2.4026
-4.5796 -2.1454 2.4026
-4.5280 -2.2560 2.4026
-4.4737 -2.3654 2.4026
-4.4167 -2.4734 2.4026
-4.3571 -2.5801 2.4026
-4.2949 -2.6853 2.4026
-4.2302 -2.7890 2.4026
-4.1629 -2.8911 2.4026
-4.0931 -2.9916 2.4026
-4.0210 -3.0903 2.4026
-3.9464 -3.1873 2.4026
-3.7609 -3.1908 2.4026
-3.6838 -3.2815 2.4026
-3.6046 -3.3703 2.4026
-3.5232 -3.4571 2.4026
-3.4396 -3.5419 2.4026
-3.3541 -3.6247 2.4026
-3.2665 -3.7054 2.4026
-3.1769 -3.7840 2.4026
-3.0854 -3.8604 2.4026
-2.9921 -3.9345 2.4026
-2.8970 -4.0063 2.4026
-2.8002 -4.0758 2.4026
-2.7016 -4.1430 2.4026
-2.6015 -4.2077 2.4026
-2.4998 -4.2700 2.4026
-2.3965 -4.3297 2.4026
-2.2919 -4.3870 2.4026
-2.1858 -4.4416 2.4026
-2.0784 -4.4937 2.4026
-1.9698 -4.5432 2.4026
-1.8600 -4.5899 2.4026
-1.7491 -4.6340 2.4026
-1.6371 -4.6754 2.4026
-1.5241 -4.7140 2.4026
-1.4102 -4.7499 2.4026
-1.2955 -4.7829 2.4026
-1.1800 -4.8132 2.4026
-1.0637 -4.8406 2.4026
-0.9468 -4.8652 2.4026
-0.8294 -4.8868 2.4026
-0.7114 -4.9057 2.4026
-0.5930 -4.9216 2.4026
-0.4743 -4.9346 2.4026
-0.3553 -4.9448 2.4026
-0.2360 -4.9520 2.4026
-0.1166 -4.9563 2.4026
0.0028 -4.9577 2.4026
0.1223 -4.9561 2.4026
0.2416 -4.9517 2.4026
0.3609 -4.9443 2.4026
0.4799 -4.9340 2.4026
0.5986 -4.9208 2.4026
0.7170 -4.9047 2.4026
0.8349 -4.8857 2.4026
0.9523 -4.8638 2.4026
1.0692 -4.8391 2.4026
1.1854 -4.8115 2.4026
1.3008 -4.7811 2.4026
1.4155 -4.7479 2.4026
1.5294 -4.7119 2.4026
1.6423 -4.6731 2.4026
1.7542 -4.6316 2.4026
1.8650 -4.5873 2.4026
1.9748 -4.5404 2.4026
2.0833 -4.4908 2.4026
2.1906 -4.4386 2.4026
2.2966 -4.3838 2.4026
2.4012 -4.3264 2.4026
2.5043 -4.2665 2.4026
2.5257 -4.0748 2.3286
2.5899 -3.9617 2.2995
2.6841 -3.8973 2.2995
2.7767 -3.8307 2.2995
2.8676 -3.7618 2.2995
2.9568 -3.6907 2.2995
3.0442 -3.6175 2.2995
3.1298 -3.5422 2.2995
3.2135 -3.4649 2.2995
3.2953 -3.3856 2.2995
3.3751 -3.3043 2.2995
3.4529 -3.2211 2.2995
3.5287 -3.1360 2.2995
3.6023 -3.0492 2.2995
3.6738 -2.9606 2.2995
3.7431 -2.8703 2.2995
3.8101 -2.7783 2.2995
3.8749 -2.6848 2.2995
3.9374 -2.5898 2.2995
3.9975 -2.4933 2.2995
4.0552 -2.3954 2.2995
4.1106 -2.2961 2.2995
4.1635 -2.1955 2.2995
4.2139 -2.0938 2.2995
4.2618 -1.9908 2.2995
4.3072 -1.8867 2.2995
4.3500 -1.7816 2.2995
4.3903 -1.6756 2.2995
4.4280 -1.5686 2.2995
4.4631 -1.4607 2.2995
4.4955 -1.3521 2.2995
4.5253 -1.2427 2.2995
4.5524 -1.1327 2.2995
4.5768 -1.0221 2.2995
4.5985 -0.9109 2.2995
4.6176 -0.7993 2.2995
4.6339 -0.6873 2.2995
4.6475 -0.5750 2.2995
4.6584 -0.4624 2.2995
4.6665 -0.3496 2.2995
4.6719 -0.2367 2.2995
4.6746 -0.1237 2.2995
4.6746 -0.0107 2.2995
4.6718 0.1023 2.2995
4.6663 0.2150 2.2995
4.6581 0.3276 2.2995
4.6472 0.4400 2.2995
4.6335 0.5520 2.2995
4.6172 0.6636 2.2995
4.5982 0.7747 2.2995
4.5765 0.8854 2.2995
4.5522 0.9954 2.2995
4.5252 1.1048 2.2995
4.4956 1.2135 2.2995
4.4634 1.3214 2.2995
4.4287 1.4285 2.2995
4.3914 1.5347 2.2995
4.3515 1.6399 2.2995
4.3091 1.7441 2.2995
4.2643 1.8472 2.2995
