ply
format ascii 1.0
element vertex 2132
property float32 x
property float32 y
property float32 z
end_header
-5.5326 -14.6285 2.4026
-5.1795 -14.7625 2.4026
-4.8230 -14.8876 2.4026
-4.4634 -15.0038 2.4026
-4.1009 -15.1109 2.4026
-3.7357 -15.2090 2.4026
-3.3682 -15.2979 2.4026
-2.9984 -15.3776 2.4026
-2.6267 -15.4480 2.4026
-2.2533 -15.5091 2.4026
-1.8785 -15.5608 2.4026
-1.5024 -15.6031 2.4026
-1.1253 -15.6359 2.4026
-0.7476 -15.6593 2.4026
-0.3693 -15.6732 2.4026
0.0092 -15.6776 2.4026
0.3876 -15.6725 2.4026
0.7659 -15.6579 2.4026
1.1436 -15.6339 2.4026
1.5205 -15.6003 2.4026
1.8965 -15.5574 2.4026
2.2712 -15.5050 2.4026
2.5310 -14.7806 2.2995
2.8866 -14.7126 2.2995
3.2403 -14.6357 2.2995
3.5919 -14.5499 2.2995
3.9412 -14.4555 2.2995
4.2879 -14.3523 2.2995
4.6318 -14.2405 2.2995
4.9727 -14.1201 2.2995
5.3104 -13.9913 2.2995
5.6447 -13.8542 2.2995
5.9753 -13.7088 2.2995
6.3021 -13.5552 2.2995
6.7633 -13.6737 2.3476
7.0884 -13.5005 2.3476
7.4089 -13.3194 2.3476
7.7247 -13.1304 2.3476
8.0355 -12.9337 2.3476
8.3412 -12.7294 2.3476
8.6416 -12.5177 2.3476
8.9364 -12.2987 2.3476
9.0059 -11.7850 2.2917
9.0143 -11.2236 2.2255
9.0222 -10.6939 2.1643
9.0297 -10.1929 2.1078
9.0369 -9.7177 2.0553
9.0436 -9.2659 2.0067
9.0501 -8.8352 1.9615
9.0563 -8.4238 1.9195
9.0622 -8.0300 1.8804
9.0678 -7.6522 1.8440
5.3842 -4.3254 1.0741
5.3734 -4.1072 1.0526
5.4552 -3.9648 1.0504
5.6089 -3.8729 1.0624
9.0932 -5.9598 1.6960
9.0723 -5.6376 1.6675
9.0767 -5.3409 1.6454
9.0810 -5.0522 1.6249
9.0853 -4.7709 1.6059
9.0882 -4.4959 1.5881
9.1190 -4.2401 1.5764
9.1230 -3.9768 1.5614
9.1268 -3.7188 1.5475
9.1317 -3.4661 1.5350
9.1354 -3.2172 1.5234
9.1391 -2.9724 1.5130
9.1427 -2.7312 1.5035
9.1463 -2.4932 1.4951
9.1498 -2.2582 1.4876
9.1533 -2.0258 1.4811
9.1567 -1.7957 1.4756
9.1602 -1.5676 1.4709
9.1636 -1.3411 1.4671
9.1669 -1.1161 1.4643
9.1703 -0.8923 1.4622
9.1736 -0.6693 1.4611
9.1770 -0.4470 1.4608
9.1803 -0.2250 1.4614
9.1836 -0.0031 1.4628
9.1869 0.2189 1.4651
9.1903 0.4414 1.4682
9.1936 0.6646 1.4722
9.1970 0.8887 1.4771
9.2004 1.1140 1.4829
9.2038 1.3409 1.4895
9.2072 1.5695 1.4971
9.2106 1.8001 1.5057
9.2141 2.0332 1.5152
9.2177 2.2689 1.5257
9.2213 2.5076 1.5372
9.2249 2.7497 1.5498
9.2286 2.9955 1.5634
9.2323 3.2454 1.5782
9.2361 3.4998 1.5942
9.2400 3.7592 1.6114
9.2180 4.0126 1.6254
9.2221 4.2824 1.6452
9.2262 4.5586 1.6665
9.2304 4.8418 1.6893
9.2270 5.1281 1.7121
9.2653 5.4467 1.7445
9.2699 5.7554 1.7724
9.2747 6.0738 1.8023
9.2786 6.4021 1.8339
9.2837 6.7427 1.8680
9.2890 7.0958 1.9044
9.2945 7.4627 1.9433
9.3002 7.8445 1.9849
9.3062 8.2428 2.0295
9.3124 8.6591 2.0773
9.3190 9.0951 2.1285
9.3259 9.5528 2.1836
9.3331 10.0346 2.2428
9.3040 10.5015 2.2976
9.0422 10.7173 2.2976
8.7755 10.9267 2.2976
8.5041 11.1297 2.2976
8.2282 11.3262 2.2976
7.9479 11.5160 2.2976
7.6633 11.6991 2.2976
7.3747 11.8755 2.2976
7.0822 12.0449 2.2976
6.7859 12.2074 2.2976
6.4860 12.3628 2.2976
6.1878 12.5215 2.2995
5.8810 12.6628 2.2995
5.5710 12.7968 2.2995
5.2581 12.9234 2.2995
4.9425 13.0427 2.2995
4.6242 13.1545 2.2995
4.3036 13.2589 2.2995
3.9806 13.3557 2.2995
3.6556 13.4449 2.2995
3.3286 13.5265 2.2995
2.9999 13.6004 2.2995
2.7862 14.2634 2.3999
2.4428 14.3404 2.4026
2.0949 14.3935 2.4026
1.7460 14.4383 2.4026
1.3961 14.4751 2.4026
1.0456 14.5036 2.4026
0.6944 14.5240 2.4026
0.3429 14.5362 2.4026
-0.0087 14.5402 2.4026
-0.3604 14.5360 2.4026
-0.7119 14.5236 2.4026
-1.0631 14.5030 2.4026
-1.4137 14.4742 2.4026
-1.7635 14.4373 2.4026
-2.1124 14.3922 2.4026
-2.4603 14.3390 2.4026
-2.8068 14.2776 2.4026
-3.1519 14.2082 2.4026
-3.4954 14.1308 2.4026
-3.8370 14.0453 2.4026
-4.1766 13.9519 2.4026
-4.5140 13.8505 2.4026
-4.8491 13.7413 2.4026
-5.1816 13.6242 2.4026
-5.2780 12.9277 2.3008
-5.5878 12.7932 2.2995
-5.8977 12.6590 2.2995
-6.2045 12.5175 2.2995
-6.5081 12.3688 2.2995
-6.8082 12.2130 2.2995
-7.1047 12.0502 2.2995
-7.3975 11.8803 2.2995
-7.6863 11.7036 2.2995
-7.9711 11.5201 2.2995
-8.2516 11.3298 2.2995
-8.5271 11.1321 2.2993
-8.7987 10.9287 2.2993
-9.0655 10.7188 2.2993
-9.4219 10.6088 2.3226
-9.6814 10.3842 2.3226
-9.9358 10.1533 2.3226
-10.1849 9.9164 2.3226
-10.4284 9.6735 2.3226
-10.6664 9.4247 2.3226
-10.8985 9.1703 2.3226
-11.1247 8.9103 2.3226
-11.3449 8.6448 2.3226
-11.5589 8.3740 2.3226
-11.7666 8.0981 2.3226
-11.9678 7.8171 2.3226
-12.1625 7.5311 2.3226
-12.3505 7.2405 2.3226
-12.5317 6.9452 2.3226
-12.7060 6.6455 2.3226
-12.8733 6.3415 2.3226
-13.0333 6.0333 2.3226
-13.1862 5.7212 2.3226
-13.3317 5.4053 2.3226
-13.4698 5.0857 2.3226
-13.6003 4.7627 2.3226
-13.7231 4.4364 2.3226
-13.8383 4.1069 2.3226
-13.9456 3.7746 2.3226
-14.0451 3.4394 2.3226
-14.1365 3.1017 2.3226
-14.2200 2.7616 2.3226
-14.2953 2.4193 2.3226
-14.3624 2.0750 2.3226
-14.4213 1.7288 2.3226
-14.4719 1.3810 2.3226
-14.5142 1.0319 2.3226
-14.5481 0.6815 2.3226
-14.5735 0.3300 2.3226
-14.2995 -0.0217 2.2762
-14.3078 -0.3676 2.2762
-14.3078 -0.7138 2.2762
-14.2993 -1.0603 2.2762
-14.2825 -1.4068 2.2762
-14.2573 -1.7530 2.2762
-14.2236 -2.0988 2.2762
-14.4702 -2.4939 2.3226
-14.4187 -2.8453 2.3226
-14.3586 -3.1957 2.3226
-14.2899 -3.5448 2.3226
-14.2127 -3.8924 2.3226
-14.1270 -4.2383 2.3226
-14.0327 -4.5823 2.3226
-13.9301 -4.9243 2.3226
-13.6702 -5.2072 2.2976
-13.5520 -5.5406 2.2976
-13.4256 -5.8713 2.2976
-9.3666 -4.3687 1.6192
-13.1483 -6.5237 2.2976
-12.9976 -6.8450 2.2976
-12.8388 -7.1627 2.2976
-12.6722 -7.4767 2.2976
-12.4978 -7.7867 2.2976
-12.3157 -8.0926 2.2976
-12.1259 -8.3941 2.2976
-11.9287 -8.6910 2.2976
-11.7240 -8.9832 2.2976
-11.5120 -9.2704 2.2976
-10.5222 -8.9016 2.2976
-10.3109 -9.1591 2.2976
-10.0932 -9.4114 2.2976
-9.8692 -9.6585 2.2976
-9.0193 -9.2636 2.1499
-9.4099 -10.1436 2.2993
-9.1675 -10.3739 2.2993
-8.3115 -9.8758 2.1426
-8.6657 -10.8164 2.2993
-8.4065 -11.0284 2.2993
-8.1420 -11.2340 2.2993
-7.8723 -11.4330 2.2993
-7.5977 -11.6253 2.2993
-7.3182 -11.8109 2.2993
-7.0340 -11.9895 2.2993
-6.7454 -12.1610 2.2993
-6.4525 -12.3254 2.2993
-6.1555 -12.4824 2.2993
-5.8545 -12.6321 2.2993
-5.6394 -12.9805 2.3364
-5.4769 -13.4885 2.4026
-5.1513 -13.6211 2.4026
-4.8224 -13.7455 2.4026
-4.4904 -13.8618 2.4026
-4.1555 -13.9697 2.4026
-3.8179 -14.0692 2.4026
-3.4779 -14.1603 2.4026
-3.1357 -14.2429 2.4026
-2.7914 -14.3169 2.4026
-2.4453 -14.3823 2.4026
-2.0977 -14.4390 2.4026
-1.7487 -14.4870 2.4026
-1.3986 -14.5263 2.4026
-1.0476 -14.5568 2.4026
-0.6959 -14.5785 2.4026
-0.3438 -14.5914 2.4026
0.0085 -14.5955 2.4026
0.3609 -14.5908 2.4026
0.7129 -14.5773 2.4026
1.0646 -14.5549 2.4026
1.4155 -14.5238 2.4026
1.7655 -14.4839 2.4026
2.1144 -14.4353 2.4026
2.3977 -14.0028 2.3399
2.6873 -13.6978 2.2995
3.0167 -13.6264 2.2995
3.3440 -13.5468 2.2995
3.6693 -13.4591 2.2995
3.9921 -13.3633 2.2995
4.3124 -13.2594 2.2995
4.6299 -13.1477 2.2995
4.9444 -13.0280 2.2995
5.2558 -12.9006 2.2995
5.5637 -12.7656 2.2995
5.8682 -12.6229 2.2995
6.1688 -12.4727 2.2995
6.6007 -12.5727 2.3476
6.8994 -12.4044 2.3476
7.1937 -12.2288 2.3476
7.4834 -12.0461 2.3476
7.7684 -11.8562 2.3476
8.0484 -11.6594 2.3476
8.3233 -11.4558 2.3476
8.5929 -11.2456 2.3476
8.8571 -11.0288 2.3476
9.0222 -10.6948 2.3235
9.0297 -10.1938 2.2627
9.0369 -9.7186 2.2063
9.0436 -9.2667 2.1540
9.0501 -8.8361 2.1054
9.0563 -8.4247 2.0602
9.0622 -8.0308 2.0181
9.0678 -7.6530 1.9789
5.3844 -4.3260 1.1527
5.3733 -4.1076 1.1295
5.4550 -3.9650 1.1270
5.6084 -3.8731 1.1399
9.0932 -5.9605 1.8197
9.0723 -5.6383 1.7890
9.0767 -5.3416 1.7653
9.0810 -5.0529 1.7432
9.0853 -4.7716 1.7227
9.0878 -4.4963 1.7034
9.1190 -4.2408 1.6909
9.1230 -3.9775 1.6746
9.1268 -3.7195 1.6597
9.1317 -3.4667 1.6462
9.1354 -3.2179 1.6337
9.1391 -2.9730 1.6223
9.1427 -2.7318 1.6121
9.1463 -2.4939 1.6030
9.1498 -2.2588 1.5949
9.1533 -2.0264 1.5878
9.1567 -1.7963 1.5818
9.1602 -1.5682 1.5767
9.1636 -1.3418 1.5725
9.1669 -1.1168 1.5694
9.1703 -0.8929 1.5671
9.1736 -0.6699 1.5658
9.1770 -0.4476 1.5654
9.1803 -0.2256 1.5659
9.1836 -0.0037 1.5673
9.1869 0.2183 1.5697
9.1903 0.4408 1.5730
9.1936 0.6640 1.5772
9.1970 0.8881 1.5823
9.2004 1.1134 1.5884
9.2038 1.3402 1.5954
9.2072 1.5688 1.6035
9.2106 1.7995 1.6125
9.2141 2.0325 1.6226
9.2177 2.2683 1.6337
9.2212 2.5070 1.6460
9.2249 2.7491 1.6594
9.2286 2.9949 1.6739
9.2323 3.2448 1.6897
9.2361 3.4992 1.7067
9.2400 3.7585 1.7250
9.2180 4.0119 1.7399
9.2221 4.2817 1.7610
9.2262 4.5579 1.7837
9.2304 4.8411 1.8079
9.2257 5.1267 1.8321
9.2653 5.4459 1.8669
9.2699 5.7546 1.8967
9.2747 6.0731 1.9285
9.2786 6.4014 1.9623
9.2837 6.7419 1.9986
9.2890 7.0950 2.0375
9.2945 7.4619 2.0790
9.3002 7.8437 2.1235
9.3062 8.2420 2.1711
9.3124 8.6582 2.2221
9.3190 9.0942 2.2769
9.1737 9.3962 2.2976
8.9388 9.6098 2.2976
8.6989 9.8177 2.2976
8.4544 10.0198 2.2976
8.2053 10.2159 2.2976
7.9519 10.4061 2.2976
7.6941 10.5902 2.2976
7.4322 10.7680 2.2976
7.1664 10.9396 2.2976
6.8967 11.1048 2.2976
6.6233 11.2636 2.2976
6.3464 11.4159 2.2976
6.0711 11.5712 2.2995
5.7873 11.7103 2.2995
5.5005 11.8427 2.2995
5.2107 11.9682 2.2995
4.9181 12.0870 2.2995
4.6230 12.1988 2.2995
4.3254 12.3036 2.2995
4.0255 12.4014 2.2995
3.7235 12.4922 2.2995
3.4195 12.5758 2.2995
3.1137 12.6523 2.2995
2.8062 12.7216 2.2995
2.6093 13.3568 2.4026
2.2851 13.4141 2.4026
1.9597 13.4638 2.4026
1.6333 13.5059 2.4026
1.3061 13.5403 2.4026
0.9781 13.5671 2.4026
0.6496 13.5862 2.4026
0.3208 13.5976 2.4026
-0.0082 13.6014 2.4026
-0.3372 13.5974 2.4026
-0.6660 13.5858 2.4026
-0.9945 13.5665 2.4026
-1.3225 13.5395 2.4026
-1.6497 13.5049 2.4026
-1.9761 13.4626 2.4026
-2.3015 13.4126 2.4026
-2.6257 13.3551 2.4026
-2.9484 13.2900 2.4026
-3.2697 13.2174 2.4026
-3.5892 13.1373 2.4026
-3.9068 13.0497 2.4026
-4.2223 12.9546 2.4026
-4.5357 12.8522 2.4026
-4.8466 12.7424 2.4026
-5.1550 12.6254 2.4026
-5.2866 12.1029 2.3260
-5.5160 11.8389 2.2995
-5.8029 11.7063 2.2995
-6.0866 11.5670 2.2995
-6.3672 11.4210 2.2995
-6.6438 11.2675 2.2993
-6.9174 11.1084 2.2993
-7.1872 10.9428 2.2993
-7.4533 10.7708 2.2993
-7.7153 10.5926 2.2993
-7.9732 10.4081 2.2993
-8.2268 10.2176 2.2993
-8.4760 10.0210 2.2993
-8.7207 9.8185 2.2993
-8.9606 9.6102 2.2993
-9.1957 9.3961 2.2993
-9.5211 9.2692 2.3226
-9.7484 9.0418 2.3226
-9.9704 8.8089 2.3226
-10.1870 8.5707 2.3226
-10.3980 8.3273 2.3226
-10.6033 8.0788 2.3226
-10.8028 7.8254 2.3226
-10.9964 7.5671 2.3226
-11.1839 7.3041 2.3226
-11.3653 7.0366 2.3226
-11.5404 6.7646 2.3226
-11.7091 6.4884 2.3226
-11.8714 6.2081 2.3226
-12.0270 5.9237 2.3226
-12.1760 5.6355 2.3226
-12.3181 5.3437 2.3226
-12.4534 5.0483 2.3226
-12.5817 4.7495 2.3226
-12.7029 4.4475 2.3226
-12.8170 4.1425 2.3226
-12.9238 3.8346 2.3226
-13.0233 3.5240 2.3226
-13.1154 3.2108 2.3226
-13.2001 2.8953 2.3226
-13.2772 2.5776 2.3226
-13.3468 2.2579 2.3226
-13.4087 1.9363 2.3226
-13.4629 1.6130 2.3226
-13.5093 1.2883 2.3226
-13.5480 0.9623 2.3226
-13.5788 0.6352 2.3226
-13.6018 0.3071 2.3226
-13.3452 -0.0212 2.2762
-13.3522 -0.3439 2.2762
-13.3514 -0.6670 2.2762
-13.3427 -0.9902 2.2762
-13.3262 -1.3135 2.2762
-13.3019 -1.6364 2.2762
-13.2697 -1.9590 2.2762
-13.4989 -2.3274 2.3226
-13.4501 -2.6551 2.3226
-13.3932 -2.9817 2.3226
-13.3284 -3.3072 2.3226
-13.2556 -3.6312 2.3226
-13.1749 -3.9536 2.3226
-13.0863 -4.2742 2.3226
-12.9898 -4.5928 2.3226
-12.8854 -4.9092 2.3226
-12.6358 -5.1669 2.2976
-12.5173 -5.4750 2.2976
-9.3500 -4.3616 1.7337
-12.2574 -6.0826 2.2976
-12.1162 -6.3817 2.2976
-11.9676 -6.6776 2.2976
-11.8116 -6.9699 2.2976
-11.6485 -7.2584 2.2976
-11.4781 -7.5431 2.2976
-11.3007 -7.8237 2.2976
-11.1163 -8.1000 2.2976
-10.9250 -8.3719 2.2976
-10.7269 -8.6391 2.2976
-9.8477 -8.3318 2.2976
-9.6496 -8.5725 2.2976
-9.4454 -8.8083 2.2976
-9.2425 -9.0460 2.2993
-9.0189 -9.2639 2.2974
-8.8050 -9.4924 2.2993
-8.5779 -9.7075 2.2993
-8.3111 -9.8762 2.2898
-8.1077 -10.1209 2.2993
-7.8650 -10.3188 2.2993
-7.6173 -10.5108 2.2993
-7.3647 -10.6967 2.2993
-7.1076 -10.8763 2.2993
-6.8459 -11.0495 2.2993
-6.5799 -11.2163 2.2993
-6.3098 -11.3764 2.2993
-6.0356 -11.5299 2.2993
-5.7576 -11.6765 2.2993
-5.6234 -12.1343 2.3612
-5.4239 -12.4856 2.4026
-5.1226 -12.6168 2.4026
-4.8179 -12.7405 2.4026
-4.5102 -12.8567 2.4026
-4.1996 -12.9652 2.4026
-3.8864 -13.0659 2.4026
-3.5706 -13.1588 2.4026
-3.2526 -13.2438 2.4026
-2.9325 -13.3209 2.4026
-2.6105 -13.3899 2.4026
-2.2868 -13.4510 2.4026
-1.9617 -13.5039 2.4026
-1.6354 -13.5487 2.4026
-1.3079 -13.5854 2.4026
-0.9797 -13.6138 2.4026
-0.6508 -13.6341 2.4026
-0.3215 -13.6461 2.4026
0.0080 -13.6500 2.4026
0.3375 -13.6456 2.4026
0.6667 -13.6329 2.4026
0.9955 -13.6121 2.4026
1.3237 -13.5831 2.4026
1.6511 -13.5458 2.4026
1.9773 -13.5005 2.4026
2.3023 -13.4470 2.4026
2.5132 -12.8110 2.2995
2.8212 -12.7444 2.2995
3.1274 -12.6701 2.2995
3.4316 -12.5882 2.2995
3.7336 -12.4988 2.2995
4.0332 -12.4019 2.2995
4.3302 -12.2976 2.2995
4.6245 -12.1860 2.2995
4.9158 -12.0671 2.2995
5.2040 -11.9410 2.2995
5.4888 -11.8078 2.2995
5.7702 -11.6676 2.2995
6.0479 -11.5205 2.2995
6.3217 -11.3667 2.2995
6.7294 -11.4405 2.3476
7.0006 -11.2698 2.3476
7.2674 -11.0925 2.3476
7.5296 -10.9088 2.3476
7.7870 -10.7186 2.3476
8.0396 -10.5223 2.3476
8.2870 -10.3198 2.3476
8.5293 -10.1114 2.3476
8.7662 -9.8972 2.3476
8.9976 -9.6772 2.3476
9.0436 -9.2676 2.3018
9.0501 -8.8369 2.2498
9.0562 -8.4255 2.2014
9.0622 -8.0316 2.1564
9.0678 -7.6538 2.1144
5.3847 -4.3267 1.2317
5.3732 -4.1079 1.2068
5.4547 -3.9653 1.2040
5.6079 -3.8732 1.2176
9.0932 -5.9612 1.9439
9.0722 -5.6390 1.9110
9.0767 -5.3423 1.8855
9.0810 -5.0536 1.8619
9.0852 -4.7723 1.8399
9.0873 -4.4968 1.8191
9.1190 -4.2414 1.8057
9.1229 -3.9782 1.7883
9.1268 -3.7202 1.7722
9.1317 -3.4674 1.7577
9.1354 -3.2185 1.7443
9.1391 -2.9737 1.7321
9.1427 -2.7325 1.7211
9.1463 -2.4945 1.7113
9.1498 -2.2595 1.7025
9.1533 -2.0271 1.6949
9.1567 -1.7969 1.6884
9.1601 -1.5688 1.6828
9.1635 -1.3424 1.6783
9.1669 -1.1174 1.6749
9.1703 -0.8935 1.6724
9.1736 -0.6706 1.6709
9.1769 -0.4482 1.6704
9.1803 -0.2262 1.6708
9.1836 -0.0043 1.6723
9.1869 0.2177 1.6747
9.1903 0.4402 1.6781
9.1936 0.6634 1.6825
9.1970 0.8875 1.6879
9.2003 1.1128 1.6943
9.2037 1.3396 1.7017
9.2072 1.5682 1.7102
9.2106 1.7989 1.7198
9.2141 2.0319 1.7304
9.2177 2.2676 1.7422
9.2212 2.5064 1.7552
9.2249 2.7485 1.7694
9.2285 2.9942 1.7848
9.2323 3.2441 1.8015
9.2361 3.4985 1.8196
9.2400 3.7578 1.8391
9.2180 4.0112 1.8548
9.2220 4.2810 1.8772
9.2262 4.5572 1.9013
9.2304 4.8404 1.9271
9.2244 5.1253 1.9525
9.2653 5.4452 1.9898
9.2699 5.7539 2.0214
9.2747 6.0723 2.0553
9.2786 6.4006 2.0912
9.2837 6.7411 2.1298
9.2890 7.0942 2.1711
9.2945 7.4611 2.2153
9.3002 7.8429 2.2626
9.2432 8.1854 2.2976
9.0374 8.4016 2.2976
8.8266 8.6129 2.2976
8.6110 8.8189 2.2976
8.3907 9.0197 2.2976
8.1659 9.2152 2.2976
7.9366 9.4052 2.2976
7.7030 9.5897 2.2976
7.4653 9.7685 2.2976
7.2235 9.9416 2.2976
6.9778 10.1089 2.2976
6.7284 10.2702 2.2976
6.4753 10.4256 2.2976
6.2188 10.5750 2.2976
5.9639 10.7271 2.2995
5.7006 10.8642 2.2995
5.4343 10.9951 2.2995
5.1649 11.1194 2.2994
4.8929 11.2375 2.2994
4.6183 11.3492 2.2994
4.3412 11.4544 2.2994
4.0618 11.5530 2.2994
3.7803 11.6450 2.2994
3.4967 11.7304 2.2994
3.2112 11.8090 2.2994
2.9241 11.8810 2.2994
2.7536 12.4822 2.4026
2.4505 12.5433 2.4026
2.1461 12.5972 2.4026
1.8405 12.6440 2.4026
1.5340 12.6836 2.4026
1.2266 12.7159 2.4026
0.9186 12.7411 2.4026
0.6101 12.7591 2.4026
0.3013 12.7699 2.4026
-0.0077 12.7734 2.4026
-0.3167 12.7697 2.4026
-0.6255 12.7587 2.4026
-0.9340 12.7405 2.4026
-1.2420 12.7151 2.4026
-1.5494 12.6825 2.4026
-1.8559 12.6427 2.4026
-2.1615 12.5957 2.4026
-2.4659 12.5416 2.4026
-2.7690 12.4803 2.4026
-3.0706 12.4120 2.4026
-3.3706 12.3366 2.4026
-3.6689 12.2541 2.4026
-3.9651 12.1647 2.4026
-4.2593 12.0683 2.4026
-4.5512 11.9651 2.4026
-4.8407 11.8549 2.4026
-5.1276 11.7380 2.4026
-5.2942 11.3620 2.3504
-5.4484 10.9905 2.2993
-5.7147 10.8594 2.2993
-5.9780 10.7220 2.2993
-6.2380 10.5785 2.2993
-6.4947 10.4288 2.2993
-6.7479 10.2730 2.2993
-6.9975 10.1113 2.2993
-7.2433 9.9436 2.2993
-7.4852 9.7702 2.2993
-7.7230 9.5910 2.2993
-7.9567 9.4061 2.2993
-8.1861 9.2157 2.2993
-8.4110 9.0199 2.2993
-8.6314 8.8187 2.2993
-8.8471 8.6122 2.2993
-9.0580 8.4006 2.2993
-9.2639 8.1839 2.2993
-9.5604 8.0427 2.3226
-9.7581 7.8140 2.3226
-9.9504 7.5805 2.3226
-10.1372 7.3424 2.3226
-10.3184 7.0997 2.3226
-10.4940 6.8527 2.3226
-10.6637 6.6014 2.3226
-10.8275 6.3459 2.3226
-10.9853 6.0865 2.3226
-11.1371 5.8232 2.3226
-11.2826 5.5562 2.3226
-11.4218 5.2856 2.3226
-11.5546 5.0116 2.3226
-11.6809 4.7343 2.3226
-11.8007 4.4539 2.3226
-11.9138 4.1704 2.3226
-12.0202 3.8842 2.3226
-12.1198 3.5952 2.3226
-12.2125 3.3038 2.3226
-12.2983 3.0100 2.3226
-12.3771 2.7140 2.3226
-12.4488 2.4159 2.3226
-12.5133 2.1160 2.3226
-12.5707 1.8144 2.3226
-12.6209 1.5113 2.3226
-12.6638 1.2068 2.3226
-12.6994 0.9011 2.3226
-12.7277 0.5945 2.3226
-12.7485 0.2870 2.3226
-12.5074 -0.0207 2.2762
-12.5133 -0.3231 2.2762
-12.5118 -0.6259 2.2762
-12.5031 -0.9288 2.2762
-12.4870 -1.2316 2.2762
-12.4635 -1.5341 2.2762
-12.4327 -1.8362 2.2762
-12.3946 -2.1378 2.2762
-12.6004 -2.4882 2.3226
-12.5465 -2.7941 2.3226
-12.4851 -3.0988 2.3226
-12.4163 -3.4021 2.3226
-12.3401 -3.7039 2.3226
-12.2565 -4.0040 2.3226
-12.1655 -4.3022 2.3226
-12.0672 -4.5983 2.3226
-11.9616 -4.8921 2.3226
-11.7212 -5.1276 2.2976
-9.3612 -4.3675 1.8537
-11.4767 -5.6960 2.2976
-11.3440 -5.9758 2.2976
-11.2044 -6.2525 2.2976
-11.0578 -6.5259 2.2976
-10.9046 -6.7957 2.2976
-10.7446 -7.0619 2.2976
-10.5781 -7.3243 2.2976
-10.4050 -7.5826 2.2976
-10.2255 -7.8367 2.2976
-10.0397 -8.0865 2.2976
-9.2592 -7.8348 2.2993
-9.0726 -8.0607 2.2993
-8.8804 -8.2821 2.2993
-8.6826 -8.4988 2.2993
-8.4795 -8.7107 2.2993
-8.2711 -8.9176 2.2993
-8.0575 -9.1194 2.2993
-7.8389 -9.3159 2.2993
-7.6154 -9.5071 2.2993
-7.3872 -9.6928 2.2993
-7.1543 -9.8728 2.2993
-6.9169 -10.0471 2.2993
-6.6752 -10.2155 2.2993
-6.4293 -10.3779 2.2993
-6.1794 -10.5343 2.2993
-5.9255 -10.6845 2.2993
-5.6679 -10.8283 2.2993
-5.6121 -11.3823 2.3866
-5.3731 -11.5951 2.4026
-5.0932 -11.7251 2.4026
-4.8101 -11.8481 2.4026
-4.5240 -11.9641 2.4026
-4.2350 -12.0729 2.4026
-3.9433 -12.1746 2.4026
-3.6491 -12.2690 2.4026
-3.3526 -12.3561 2.4026
-3.0539 -12.4357 2.4026
-2.7533 -12.5080 2.4026
-2.4510 -12.5727 2.4026
-2.1471 -12.6299 2.4026
-1.8418 -12.6795 2.4026
-1.5354 -12.7215 2.4026
-1.2280 -12.7558 2.4026
-0.9198 -12.7825 2.4026
-0.6110 -12.8015 2.4026
-0.3019 -12.8128 2.4026
0.0075 -12.8164 2.4026
0.3168 -12.8123 2.4026
0.6260 -12.8005 2.4026
0.9347 -12.7809 2.4026
1.2428 -12.7537 2.4026
1.5502 -12.7189 2.4026
1.8565 -12.6763 2.4026
2.1617 -12.6262 2.4026
2.4204 -12.3389 2.3587
2.6489 -11.9668 2.2995
2.9364 -11.8972 2.2995
3.2221 -11.8205 2.2995
3.5057 -11.7367 2.2995
3.7871 -11.6458 2.2995
4.0660 -11.5481 2.2995
4.3424 -11.4434 2.2995
4.6160 -11.3320 2.2995
4.8867 -11.2138 2.2995
5.1543 -11.0890 2.2995
5.4186 -10.9576 2.2995
5.6795 -10.8197 2.2995
5.9369 -10.6754 2.2995
6.1904 -10.5249 2.2995
6.4401 -10.3682 2.2995
6.8255 -10.4188 2.3476
7.0719 -10.2465 2.3476
7.3139 -10.0682 2.3476
7.5513 -9.8841 2.3476
7.7840 -9.6942 2.3476
8.0118 -9.4987 2.3476
8.2346 -9.2978 2.3476
8.4522 -9.0915 2.3476
8.6646 -8.8800 2.3476
8.8716 -8.6634 2.3476
9.0562 -8.4263 2.3432
9.0621 -8.0324 2.2952
9.0678 -7.6545 2.2505
5.3850 -4.3274 1.3109
5.3731 -4.1083 1.2843
5.4545 -3.9656 1.2813
5.6074 -3.8733 1.2957
9.0932 -5.9620 2.0685
9.0722 -5.6397 2.0335
9.0767 -5.3430 2.0063
9.0810 -5.0543 1.9810
9.0852 -4.7730 1.9575
9.0869 -4.4973 1.9353
9.1190 -4.2421 1.9210
9.1229 -3.9788 1.9024
9.1268 -3.7208 1.8852
9.1317 -3.4680 1.8697
9.1354 -3.2192 1.8554
9.1391 -2.9743 1.8423
9.1427 -2.7331 1.8305
9.1463 -2.4951 1.8200
9.1498 -2.2601 1.8106
9.1533 -2.0277 1.8024
9.1567 -1.7976 1.7954
9.1601 -1.5694 1.7894
9.1635 -1.3430 1.7846
9.1669 -1.1180 1.7808
9.1703 -0.8941 1.7781
9.1736 -0.6712 1.7764
9.1769 -0.4488 1.7758
9.1803 -0.2268 1.7762
9.1836 -0.0049 1.7776
9.1869 0.2171 1.7801
9.1903 0.4396 1.7836
9.1936 0.6627 1.7882
9.1970 0.8868 1.7939
9.2003 1.1122 1.8006
9.2037 1.3390 1.8084
9.2072 1.5676 1.8174
9.2106 1.7982 1.8275
9.2141 2.0313 1.8387
9.2176 2.2670 1.8512
9.2212 2.5057 1.8649
9.2249 2.7478 1.8798
9.2285 2.9936 1.8961
9.2323 3.2435 1.9138
9.2361 3.4978 1.9329
9.2400 3.7572 1.9535
9.2180 4.0106 1.9702
9.2220 4.2804 1.9939
9.2262 4.5565 2.0194
9.2304 4.8397 2.0467
9.2231 5.1239 2.0733
9.2653 5.4445 2.1132
9.2699 5.7532 2.1467
9.2747 6.0716 2.1825
9.2786 6.3999 2.2206
9.2837 6.7404 2.2615
9.2578 7.0697 2.2976
9.0789 7.2872 2.2976
8.8949 7.5004 2.2976
8.7061 7.7090 2.2976
8.5125 7.9129 2.2976
8.3142 8.1121 2.2976
8.1114 8.3065 2.2976
7.9041 8.4959 2.2976
7.6925 8.6803 2.2976
7.4768 8.8595 2.2976
7.2569 9.0336 2.2976
7.0331 9.2023 2.2976
6.8055 9.3656 2.2976
6.5742 9.5234 2.2976
6.3394 9.6757 2.2976
6.1062 9.8305 2.2995
5.8644 9.9716 2.2995
5.6195 10.1068 2.2995
5.3715 10.2363 2.2995
5.1206 10.3598 2.2995
4.8670 10.4773 2.2995
4.6108 10.5888 2.2995
4.3521 10.6943 2.2995
4.0910 10.7936 2.2995
3.8278 10.8866 2.2995
3.5625 10.9735 2.2995
3.2953 11.0541 2.2995
3.0262 11.1277 2.2993
2.7628 11.2248 2.3053
2.5951 11.7627 2.4026
2.3094 11.8203 2.4026
2.0225 11.8712 2.4026
1.7346 11.9154 2.4026
1.4457 11.9527 2.4026
1.1560 11.9833 2.4026
0.8657 12.0071 2.4026
0.5750 12.0241 2.4026
0.2839 12.0342 2.4026
-0.0073 12.0375 2.4026
-0.2985 12.0340 2.4026
-0.5895 12.0237 2.4026
-0.8803 12.0065 2.4026
-1.1705 11.9825 2.4026
-1.4602 11.9517 2.4026
-1.7491 11.9141 2.4026
-2.0370 11.8698 2.4026
-2.3239 11.8187 2.4026
-2.6095 11.7608 2.4026
-2.8938 11.6963 2.4026
-3.1765 11.6251 2.4026
-3.4575 11.5473 2.4026
-3.7366 11.4628 2.4026
-4.0138 11.3719 2.4026
-4.2888 11.2743 2.4026
-4.5615 11.1704 2.4026
-4.8318 11.0600 2.4026
-5.0995 10.9433 2.4026
-5.2816 10.6532 2.3655
-5.3847 10.2315 2.2993
-5.6326 10.1019 2.2993
-5.8775 9.9664 2.2993
-6.1192 9.8251 2.2993
-6.3577 9.6782 2.2993
-6.5926 9.5255 2.2993
-6.8241 9.3674 2.2993
-7.0518 9.2037 2.2993
-7.2756 9.0346 2.2993
-7.4956 8.8602 2.2993
-7.7115 8.6806 2.2993
-7.9231 8.4959 2.2993
-8.1305 8.3061 2.2993
-8.3334 8.1113 2.2993
-8.5317 7.9117 2.2993
-8.7254 7.7074 2.2993
-8.9142 7.4984 2.2993
-9.0982 7.2848 2.2993
-9.2772 7.0669 2.2993
-9.5466 6.9138 2.3226
-9.7169 6.6850 2.3226
-9.8818 6.4522 2.3226
-10.0413 6.2153 2.3226
-10.1952 5.9745 2.3226
-10.3434 5.7300 2.3226
-10.4858 5.4819 2.3226
-10.6224 5.2303 2.3226
-10.7530 4.9753 2.3226
-10.8776 4.7172 2.3226
-10.9961 4.4559 2.3226
-11.1084 4.1918 2.3226
-11.2144 3.9248 2.3226
-11.3140 3.6552 2.3226
-11.4073 3.3831 2.3226
-11.4941 3.1086 2.3226
-11.5743 2.8320 2.3226
-11.6479 2.5533 2.3226
-11.7149 2.2727 2.3226
-11.7751 1.9904 2.3226
-11.8286 1.7065 2.3226
-11.8753 1.4212 2.3226
-11.9151 1.1346 2.3226
-11.9480 0.8470 2.3226
-11.9740 0.5585 2.3226
-11.9931 0.2692 2.3226
-11.7657 -0.0202 2.2762
-11.7707 -0.3047 2.2762
-11.7688 -0.5895 2.2762
-11.7600 -0.8744 2.2762
-11.7444 -1.1591 2.2762
-11.7218 -1.4436 2.2762
-11.6923 -1.7277 2.2762
-11.6559 -2.0112 2.2762
-11.8489 -2.3406 2.3226
-11.7977 -2.6281 2.3226
-11.7394 -2.9145 2.3226
-11.6742 -3.1996 2.3226
-11.6020 -3.4832 2.3226
-11.5229 -3.7652 2.3226
-11.4368 -4.0453 2.3226
-11.3439 -4.3235 2.3226
-11.2441 -4.5995 2.3226
-11.1376 -4.8731 2.3226
-9.3724 -4.3735 1.9746
-10.7870 -5.3545 2.2976
-10.6618 -5.6173 2.2976
-10.5301 -5.8771 2.2976
-10.3920 -6.1337 2.2976
-10.2475 -6.3871 2.2976
-10.0968 -6.6370 2.2976
-9.9399 -6.8832 2.2976
-9.7769 -7.1257 2.2976
-9.6079 -7.3642 2.2976
-9.4329 -7.5986 2.2976
-8.7291 -7.3869 2.2993
-8.5529 -7.5997 2.2993
-8.3714 -7.8082 2.2993
-8.1847 -8.0122 2.2993
-7.9930 -8.2117 2.2993
-7.7963 -8.4065 2.2993
-7.5948 -8.5965 2.2993
-7.3886 -8.7815 2.2993
-7.1777 -8.9614 2.2993
-6.9624 -9.1362 2.2993
-6.7427 -9.3056 2.2993
-6.5189 -9.4696 2.2993
-6.2909 -9.6281 2.2993
-6.0590 -9.7810 2.2993
-5.8233 -9.9281 2.2993
-5.6037 -10.1049 2.3074
-5.5810 -10.6631 2.4026
-5.3237 -10.7982 2.4026
-5.0631 -10.9270 2.4026
-4.7993 -11.0493 2.4026
-4.5325 -11.1650 2.4026
-4.2628 -11.2741 2.4026
-3.9904 -11.3765 2.4026
-3.7155 -11.4722 2.4026
-3.4383 -11.5610 2.4026
-3.1588 -11.6429 2.4026
-2.8774 -11.7178 2.4026
-2.5942 -11.7858 2.4026
-2.3093 -11.8467 2.4026
-2.0230 -11.9004 2.4026
-1.7353 -11.9471 2.4026
-1.4466 -11.9866 2.4026
-1.1570 -12.0189 2.4026
-0.8666 -12.0440 2.4026
-0.5757 -12.0619 2.4026
-0.2844 -12.0725 2.4026
0.0070 -12.0759 2.4026
0.2985 -12.0720 2.4026
0.5897 -12.0609 2.4026
0.8806 -12.0426 2.4026
1.1709 -12.0170 2.4026
1.4605 -11.9842 2.4026
1.7491 -11.9442 2.4026
2.0367 -11.8970 2.4026
2.3229 -11.8428 2.4026
2.4958 -11.2759 2.2995
2.7667 -11.2104 2.2995
3.0359 -11.1383 2.2995
3.3032 -11.0594 2.2995
3.5683 -10.9740 2.2995
3.8312 -10.8821 2.2995
4.0917 -10.7836 2.2995
4.3496 -10.6788 2.2995
4.6048 -10.5676 2.2995
4.8570 -10.4502 2.2995
5.1062 -10.3266 2.2995
5.3522 -10.1968 2.2995
5.5948 -10.0611 2.2995
5.8338 -9.9194 2.2995
6.0692 -9.7720 2.2995
6.3008 -9.6187 2.2995
6.6650 -9.6578 2.3476
6.8933 -9.4900 2.3476
7.1172 -9.3167 2.3476
7.3367 -9.1380 2.3476
7.5516 -8.9540 2.3476
7.7618 -8.7648 2.3476
7.9672 -8.5706 2.3476
8.1676 -8.3715 2.3476
8.3630 -8.1676 2.3476
8.5532 -7.9590 2.3476
8.7381 -7.7460 2.3476
8.9176 -7.5286 2.3476
5.3853 -4.3281 1.3905
5.3644 -4.1022 1.3600
5.4542 -3.9658 1.3588
5.6070 -3.8735 1.3740
9.0932 -5.9627 2.1937
9.0722 -5.6404 2.1565
9.0767 -5.3437 2.1276
9.0810 -5.0550 2.1007
9.0852 -4.7737 2.0757
9.0865 -4.4978 2.0519
9.1190 -4.2428 2.0369
9.1229 -3.9795 2.0170
9.1268 -3.7215 1.9988
9.1317 -3.4687 1.9822
9.1354 -3.2198 1.9669
9.1391 -2.9750 1.9530
9.1427 -2.7337 1.9404
9.1463 -2.4958 1.9292
9.1498 -2.2607 1.9192
9.1533 -2.0283 1.9104
9.1567 -1.7982 1.9029
9.1601 -1.5700 1.8965
9.1635 -1.3436 1.8913
9.1669 -1.1186 1.8872
9.1703 -0.8948 1.8842
9.1736 -0.6718 1.8824
9.1769 -0.4494 1.8816
9.1803 -0.2275 1.8820
9.1836 -0.0056 1.8834
9.1869 0.2165 1.8860
9.1902 0.4390 1.8897
9.1936 0.6621 1.8944
9.1969 0.8862 1.9003
9.2003 1.1115 1.9074
9.2037 1.3384 1.9156
9.2072 1.5670 1.9250
9.2106 1.7976 1.9356
9.2141 2.0306 1.9474
9.2176 2.2664 1.9606
9.2212 2.5051 1.9750
9.2248 2.7472 1.9908
9.2285 2.9929 2.0080
9.2323 3.2428 2.0266
9.2361 3.4972 2.0468
9.2400 3.7565 2.0685
9.2180 4.0099 2.0860
9.2220 4.2797 2.1111
9.2262 4.5558 2.1380
9.2304 4.8390 2.1669
9.2219 5.1224 2.1947
9.2653 5.4438 2.2370
9.2699 5.7524 2.2725
9.2235 6.0373 2.2976
9.0695 6.2549 2.2976
8.9105 6.4687 2.2976
8.7465 6.6785 2.2976
8.5778 6.8843 2.2976
8.4042 7.0858 2.2976
8.2260 7.2831 2.2976
8.0433 7.4761 2.2976
7.8562 7.6645 2.2976
7.6648 7.8484 2.2976
7.4691 8.0276 2.2976
7.2694 8.2021 2.2976
7.0656 8.3717 2.2976
6.8580 8.5363 2.2976
6.6467 8.6960 2.2976
6.4318 8.8505 2.2976
6.2133 8.9999 2.2976
5.9965 9.1516 2.2995
5.7712 9.2905 2.2995
5.5428 9.4240 2.2995
5.3114 9.5520 2.2995
5.0771 9.6745 2.2995
4.8401 9.7915 2.2995
4.6004 9.9027 2.2995
4.3583 10.0083 2.2995
4.1138 10.1081 2.2995
3.8671 10.2021 2.2995
3.6183 10.2902 2.2995
3.3676 10.3725 2.2995
3.1151 10.4488 2.2995
2.8609 10.5191 2.2995
2.7219 11.0580 2.4026
2.4532 11.1189 2.4026
2.1832 11.1734 2.4026
1.9120 11.2216 2.4026
1.6398 11.2634 2.4026
1.3667 11.2988 2.4026
1.0929 11.3278 2.4026
0.8184 11.3503 2.4026
0.5436 11.3664 2.4026
0.2684 11.3760 2.4026
-0.0069 11.3791 2.4026
-0.2822 11.3758 2.4026
-0.5573 11.3660 2.4026
-0.8322 11.3497 2.4026
-1.1066 11.3270 2.4026
-1.3804 11.2978 2.4026
-1.6535 11.2622 2.4026
-1.9257 11.2202 2.4026
-2.1969 11.1718 2.4026
-2.4669 11.1171 2.4026
-2.7355 11.0560 2.4026
-3.0028 10.9885 2.4026
-3.2684 10.9148 2.4026
-3.5322 10.8349 2.4026
-3.7941 10.7487 2.4026
-4.0541 10.6564 2.4026
-4.3118 10.5580 2.4026
-4.5672 10.4535 2.4026
-4.8202 10.3430 2.4026
-5.0705 10.2266 2.4026
-5.2907 10.0520 2.3902
-5.3238 9.5472 2.2993
-5.5552 9.4190 2.2993
-5.7835 9.2853 2.2993
-6.0087 9.1462 2.2993
-6.2306 9.0017 2.2993
-6.4492 8.8520 2.2993
-6.6642 8.6972 2.2993
-6.8757 8.5372 2.2993
-7.0833 8.3722 2.2993
-7.2871 8.2022 2.2993
-7.4869 8.0274 2.2993
-7.6827 7.8478 2.2993
-7.8742 7.6636 2.2993
-8.0613 7.4748 2.2993
-8.2441 7.2815 2.2993
-8.4223 7.0838 2.2993
-8.5958 6.8818 2.2993
-8.7647 6.6757 2.2993
-8.9286 6.4655 2.2993
-9.0876 6.2514 2.2993
-9.2416 6.0334 2.2993
-9.4853 5.8704 2.3226
-9.6304 5.6428 2.3226
-9.7700 5.4116 2.3226
-9.9042 5.1771 2.3226
-10.0328 4.9392 2.3226
-10.1558 4.6983 2.3226
-10.2731 4.4543 2.3226
-10.3846 4.2074 2.3226
-10.4903 3.9578 2.3226
-10.5900 3.7055 2.3226
-10.6837 3.4508 2.3226
-10.7713 3.1937 2.3226
-10.8528 2.9344 2.3226
-10.9282 2.6731 2.3226
-10.9972 2.4099 2.3226
-11.0600 2.1449 2.3226
-11.1164 1.8783 2.3226
-11.1665 1.6102 2.3226
-11.2101 1.3408 2.3226
-11.2472 1.0703 2.3226
-11.2779 0.7987 2.3226
-11.3020 0.5264 2.3226
-11.3195 0.2533 2.3226
-11.1044 -0.0198 2.2762
-11.1087 -0.2884 2.2762
-11.1064 -0.5571 2.2762
-11.0977 -0.8259 2.2762
-11.0824 -1.0945 2.2762
-11.0607 -1.3629 2.2762
-11.0324 -1.6309 2.2762
-10.9976 -1.8983 2.2762
-10.9563 -2.1650 2.2762
-11.1305 -2.4803 2.3226
-11.0751 -2.7503 2.3226
-11.0131 -3.0192 2.3226
-10.9445 -3.2866 2.3226
-10.8695 -3.5524 2.3226
-10.7878 -3.8165 2.3226
-10.6998 -4.0788 2.3226
-10.6053 -4.3389 2.3226
-10.5044 -4.5968 2.3226
-9.3852 -4.3801 2.0965
-10.1730 -5.0505 2.2976
-10.0545 -5.2981 2.2976
-9.9299 -5.5429 2.2976
-9.7993 -5.7847 2.2976
-9.6628 -6.0234 2.2976
-9.5203 -6.2588 2.2976
-9.3792 -6.4957 2.2993
-9.2251 -6.7242 2.2993
-9.0653 -6.9491 2.2993
-8.8999 -7.1700 2.2993
-8.2543 -6.9859 2.2993
-8.0875 -7.1869 2.2993
-7.9157 -7.3838 2.2993
-7.7389 -7.5766 2.2993
-7.5574 -7.7650 2.2993
-7.3713 -7.9489 2.2993
-7.1806 -8.1283 2.2993
-6.9854 -8.3031 2.2993
-6.7859 -8.4730 2.2993
-6.5822 -8.6380 2.2993
-6.3744 -8.7980 2.2993
-6.1626 -8.9528 2.2993
-5.9470 -9.1025 2.2993
-5.7277 -9.2468 2.2993
-5.5882 -9.5279 2.3342
-5.5154 -9.9465 2.4026
-5.2755 -10.0800 2.4026
-5.0322 -10.2076 2.4026
-4.7858 -10.3292 2.4026
-4.5363 -10.4446 2.4026
-4.2841 -10.5539 2.4026
-4.0291 -10.6569 2.4026
-3.7716 -10.7535 2.4026
-3.5118 -10.8438 2.4026
-3.2497 -10.9276 2.4026
-2.9855 -11.0049 2.4026
-2.7195 -11.0756 2.4026
-2.4518 -11.1397 2.4026
-2.1826 -11.1972 2.4026
-1.9119 -11.2480 2.4026
-1.6401 -11.2920 2.4026
-1.3672 -11.3293 2.4026
-1.0935 -11.3598 2.4026
-0.8190 -11.3834 2.4026
-0.5441 -11.4003 2.4026
-0.2688 -11.4103 2.4026
0.0066 -11.4135 2.4026
0.2821 -11.4099 2.4026
0.5574 -11.3994 2.4026
0.8323 -11.3821 2.4026
1.1066 -11.3579 2.4026
1.3803 -11.3270 2.4026
1.6531 -11.2893 2.4026
1.9249 -11.2448 2.4026
2.1954 -11.1936 2.4026
2.4401 -11.0252 2.3787
2.6149 -10.5961 2.2995
2.8693 -10.5280 2.2995
3.1220 -10.4536 2.2995
3.3727 -10.3730 2.2995
3.6212 -10.2862 2.2995
3.8675 -10.1933 2.2995
4.1113 -10.0944 2.2995
4.3525 -9.9894 2.2995
4.5910 -9.8786 2.2995
4.8266 -9.7619 2.2995
5.0592 -9.6395 2.2995
5.2886 -9.5113 2.2995
5.5147 -9.3776 2.2995
5.7374 -9.2384 2.2995
5.9564 -9.0937 2.2995
6.1718 -8.9438 2.2995
6.3833 -8.7886 2.2995
6.7286 -8.8088 2.3476
6.9363 -8.6400 2.3476
7.1397 -8.4663 2.3476
7.3386 -8.2877 2.3476
7.5330 -8.1042 2.3476
7.7227 -7.9162 2.3476
7.9076 -7.7236 2.3476
8.0877 -7.5266 2.3476
8.2628 -7.3254 2.3476
8.4328 -7.1200 2.3476
5.3855 -4.3288 1.4705
5.3461 -4.0886 1.4331
5.4540 -3.9661 1.4368
5.6065 -3.8736 1.4527
9.0932 -5.9634 2.3195
9.0722 -5.6412 2.2801
9.0767 -5.3444 2.2494
9.0810 -5.0557 2.2209
9.0852 -4.7744 2.1944
9.0861 -4.4982 2.1691
9.1190 -4.2435 2.1532
9.1229 -3.9802 2.1322
9.1268 -3.7221 2.1128
9.1317 -3.4693 2.0952
9.1354 -3.2205 2.0790
9.1391 -2.9756 2.0642
9.1427 -2.7344 2.0508
9.1462 -2.4964 2.0389
9.1498 -2.2614 2.0282
9.1533 -2.0290 2.0189
9.1567 -1.7988 2.0108
9.1601 -1.5707 2.0040
9.1635 -1.3442 1.9984
9.1669 -1.1192 1.9940
9.1702 -0.8954 1.9908
9.1736 -0.6724 1.9888
9.1769 -0.4501 1.9880
9.1802 -0.2281 1.9883
9.1836 -0.0062 1.9897
9.1869 0.2159 1.9924
9.1902 0.4383 1.9962
9.1936 0.6615 2.0011
9.1969 0.8856 2.0073
9.2003 1.1109 2.0147
9.2037 1.3377 2.0233
9.2071 1.5663 2.0331
9.2106 1.7970 2.0442
9.2141 2.0300 2.0567
9.2176 2.2657 2.0704
9.2212 2.5044 2.0856
9.2248 2.7465 2.1022
9.2285 2.9923 2.1203
9.2323 3.2422 2.1399
9.2361 3.4965 2.1611
9.2400 3.7558 2.1840
9.2180 4.0092 2.2024
9.2220 4.2790 2.2289
9.2262 4.5551 2.2572
9.2304 4.8383 2.2876
9.1452 5.0791 2.2976
9.0144 5.2957 2.2976
8.8787 5.5090 2.2976
8.7379 5.7188 2.2976
8.5923 5.9251 2.2976
8.4419 6.1278 2.2976
8.2868 6.3268 2.2976
8.1271 6.5219 2.2976
7.9629 6.7131 2.2976
7.7943 6.9002 2.2976
7.6214 7.0832 2.2976
7.4443 7.2619 2.2976
7.2630 7.4364 2.2976
7.0778 7.6063 2.2976
6.8887 7.7718 2.2976
6.6958 7.9327 2.2976
6.4992 8.0890 2.2976
6.2991 8.2404 2.2976
6.1006 8.3940 2.2995
5.8935 8.5359 2.2995
5.6832 8.6728 2.2995
5.4698 8.8046 2.2995
5.2534 8.9313 2.2995
5.0342 9.0528 2.2995
4.8122 9.1690 2.2995
4.5876 9.2800 2.2995
4.3605 9.3856 2.2995
4.1311 9.4858 2.2995
3.8994 9.5805 2.2995
3.6656 9.6697 2.2995
3.4298 9.7534 2.2995
3.1922 9.8315 2.2995
2.9528 9.9039 2.2995
2.7598 10.1467 2.3401
2.5802 10.4815 2.4026
2.3255 10.5393 2.4026
2.0695 10.5911 2.4026
1.8125 10.6369 2.4026
1.5544 10.6765 2.4026
1.2956 10.7101 2.4026
1.0360 10.7376 2.4026
0.7758 10.7590 2.4026
0.5153 10.7743 2.4026
0.2545 10.7834 2.4026
-0.0065 10.7863 2.4026
-0.2675 10.7832 2.4026
-0.5283 10.7739 2.4026
-0.7889 10.7584 2.4026
-1.0490 10.7369 2.4026
-1.3086 10.7092 2.4026
-1.5674 10.6754 2.4026
-1.8255 10.6355 2.4026
-2.0825 10.5895 2.4026
-2.3384 10.5375 2.4026
-2.5931 10.4795 2.4026
-2.8464 10.4155 2.4026
-3.0981 10.3456 2.4026
-3.3482 10.2697 2.4026
-3.5965 10.1879 2.4026
-3.8428 10.1003 2.4026
-4.0870 10.0069 2.4026
-4.3291 9.9077 2.4026
-4.5687 9.8028 2.4026
-4.8060 9.6923 2.4026
-5.0406 9.5761 2.4026
-5.2725 9.4544 2.4026
-5.3137 9.0088 2.3205
-5.4814 8.7995 2.2993
-5.6947 8.6675 2.2993
-5.9049 8.5305 2.2993
-6.1119 8.3884 2.2993
-6.3156 8.2414 2.2993
-6.5158 8.0897 2.2993
-6.7125 7.9331 2.2993
-6.9054 7.7719 2.2993
-7.0946 7.6060 2.2993
-7.2799 7.4357 2.2993
-7.4612 7.2609 2.2993
-7.6383 7.0818 2.2993
-7.8113 6.8985 2.2993
-7.9799 6.7110 2.2993
-8.1441 6.5195 2.2993
-8.3038 6.3240 2.2993
-8.4589 6.1247 2.2993
-8.6093 5.9216 2.2993
-8.7549 5.7149 2.2993
-8.8956 5.5047 2.2993
-9.0313 5.2911 2.2993
-9.1620 5.0741 2.2993
-9.2875 4.8540 2.2993
-9.5030 4.6777 2.3226
-9.6192 4.4493 2.3226
-9.7300 4.2180 2.3226
-9.8353 3.9841 2.3226
-9.9350 3.7475 2.3226
-10.0291 3.5085 2.3226
-10.1174 3.2672 2.3226
-10.2001 3.0236 2.3226
-10.2769 2.7780 2.3226
-10.3479 2.5304 2.3226
-10.4129 2.2811 2.3226
-10.4720 2.0301 2.3226
-10.5250 1.7776 2.3226
-10.5720 1.5238 2.3226
-10.6129 1.2687 2.3226
-10.6477 1.0125 2.3226
-10.6763 0.7554 2.3226
-10.6987 0.4976 2.3226
-10.7149 0.2390 2.3226
-10.5110 -0.0195 2.2762
-10.5146 -0.2736 2.2762
-10.5121 -0.5280 2.2762
-10.5034 -0.7823 2.2762
-10.4886 -1.0366 2.2762
-10.4676 -1.2906 2.2762
-10.4405 -1.5441 2.2762
-10.4072 -1.7971 2.2762
-10.3677 -2.0494 2.2762
-10.5321 -2.3477 2.3226
-10.4794 -2.6031 2.3226
-10.4203 -2.8574 2.3226
-10.3551 -3.1103 2.3226
-10.2837 -3.3617 2.3226
-10.2061 -3.6115 2.3226
-10.1224 -3.8594 2.3226
-10.0327 -4.1054 2.3226
-9.9369 -4.3492 2.3226
-9.4043 -4.3897 2.2208
-9.7274 -4.8300 2.3226
-9.5103 -5.0121 2.2976
-9.3922 -5.2434 2.2976
-9.2754 -5.4762 2.2993
-9.1459 -5.7019 2.2993
-9.0108 -5.9245 2.2993
-8.8701 -6.1439 2.2993
-8.7241 -6.3598 2.2993
-8.5727 -6.5722 2.2993
-8.4161 -6.7810 2.2993
-7.8266 -6.6246 2.2993
-7.6682 -6.8150 2.2993
-7.5051 -7.0016 2.2993
-7.3374 -7.1841 2.2993
-7.1651 -7.3626 2.2993
-6.9885 -7.5368 2.2993
-6.8075 -7.7067 2.2993
-6.6223 -7.8722 2.2993
-6.4330 -8.0331 2.2993
-6.2398 -8.1893 2.2993
-6.0427 -8.3408 2.2993
-5.8418 -8.4875 2.2993
-5.6373 -8.6292 2.2993
-5.5764 -9.0034 2.3616
-5.4522 -9.2968 2.4026
-5.2279 -9.4288 2.4026
-5.0004 -9.5552 2.4026
-4.7697 -9.6760 2.4026
-4.5361 -9.7910 2.4026
-4.2996 -9.9003 2.4026
-4.0605 -10.0037 2.4026
-3.8188 -10.1012 2.4026
-3.5747 -10.1927 2.4026
-3.3283 -10.2782 2.4026
-3.0799 -10.3575 2.4026
-2.8296 -10.4306 2.4026
-2.5774 -10.4976 2.4026
-2.3237 -10.5583 2.4026
-2.0685 -10.6127 2.4026
-1.8120 -10.6607 2.4026
-1.5543 -10.7024 2.4026
-1.2957 -10.7377 2.4026
-1.0363 -10.7665 2.4026
-0.7762 -10.7889 2.4026
-0.5156 -10.8049 2.4026
-0.2548 -10.8144 2.4026
0.0063 -10.8174 2.4026
0.2673 -10.8140 2.4026
0.5282 -10.8041 2.4026
0.7887 -10.7877 2.4026
1.0488 -10.7648 2.4026
1.3081 -10.7355 2.4026
1.5667 -10.6998 2.4026
1.8243 -10.6578 2.4026
2.0807 -10.6093 2.4026
2.3358 -10.5545 2.4026
2.4783 -10.0432 2.2995
2.7194 -9.9787 2.2995
2.9589 -9.9083 2.2995
3.1965 -9.8320 2.2995
3.4321 -9.7499 2.2995
3.6656 -9.6619 2.2995
3.8967 -9.5683 2.2995
4.1254 -9.4690 2.2995
4.3515 -9.3640 2.2995
4.5749 -9.2536 2.2995
4.7955 -9.1376 2.2995
5.0130 -9.0163 2.2995
5.2274 -8.8897 2.2995
5.4386 -8.7579 2.2995
5.6463 -8.6210 2.2995
5.8506 -8.4790 2.2995
6.0512 -8.3321 2.2995
6.2480 -8.1803 2.2995
6.4410 -8.0238 2.2995
6.7687 -8.0271 2.3476
6.9574 -7.8579 2.3476
7.1419 -7.6842 2.3476
7.3219 -7.5061 2.3476
7.4974 -7.3237 2.3476
7.6684 -7.1371 2.3476
7.8346 -6.9465 2.3476
7.9960 -6.7519 2.3476
5.3858 -4.3295 1.5509
5.3727 -4.1094 1.5189
5.4537 -3.9664 1.5151
5.6060 -3.8737 1.5318
8.7277 -5.7244 2.3476
8.8584 -5.5089 2.3476
8.9838 -5.2904 2.3476
9.0810 -5.0564 2.3417
9.0217 -4.7417 2.2976
9.0856 -4.4987 2.2868
9.1190 -4.2441 2.2701
9.1229 -3.9808 2.2479
9.1268 -3.7228 2.2274
9.1316 -3.4700 2.2088
9.1354 -3.2211 2.1916
9.1391 -2.9763 2.1759
9.1427 -2.7350 2.1618
9.1462 -2.4971 2.1491
9.1498 -2.2620 2.1378
9.1532 -2.0296 2.1279
9.1567 -1.7994 2.1193
9.1601 -1.5713 2.1121
9.1635 -1.3449 2.1061
9.1669 -1.1199 2.1014
9.1702 -0.8960 2.0980
9.1736 -0.6730 2.0958
9.1769 -0.4507 2.0948
9.1802 -0.2287 2.0951
9.1836 -0.0068 2.0965
9.1869 0.2152 2.0992
9.1902 0.4377 2.1032
9.1936 0.6609 2.1083
9.1969 0.8850 2.1148
9.2003 1.1103 2.1225
9.2037 1.3371 2.1314
9.2071 1.5657 2.1417
9.2106 1.7963 2.1534
9.2141 2.0294 2.1664
9.2176 2.2651 2.1809
9.2212 2.5038 2.1968
9.2248 2.7458 2.2142
9.2285 2.9916 2.2331
9.2323 3.2415 2.2537
9.2361 3.4958 2.2760
9.2300 3.7511 2.2976
9.1312 3.9708 2.2976
9.0272 4.1879 2.2976
8.9181 4.4024 2.2976
8.8041 4.6141 2.2976
8.6850 4.8229 2.2976
8.5611 5.0287 2.2976
8.4324 5.2314 2.2976
8.2989 5.4308 2.2976
8.1609 5.6269 2.2976
8.0182 5.8196 2.2976
7.8711 6.0087 2.2976
7.7196 6.1942 2.2976
7.5638 6.3760 2.2976
7.4038 6.5539 2.2976
7.2398 6.7278 2.2976
7.0717 6.8978 2.2976
6.8997 7.0637 2.2976
6.7239 7.2253 2.2976
6.5443 7.3827 2.2976
6.3612 7.5357 2.2976
6.1746 7.6843 2.2976
5.9895 7.8348 2.2995
5.7961 7.9744 2.2995
5.5994 8.1093 2.2995
5.3997 8.2395 2.2995
5.1970 8.3649 2.2995
4.9915 8.4854 2.2995
4.7833 8.6010 2.2995
4.5725 8.7116 2.2995
4.3591 8.8171 2.2995
4.1434 8.9176 2.2995
3.9254 9.0129 2.2995
3.7053 9.1030 2.2995
3.4832 9.1879 2.2995
3.2592 9.2675 2.2995
3.0334 9.3418 2.2995
2.8060 9.4107 2.2995
2.6926 9.8990 2.4026
2.4519 9.9597 2.4026
2.2099 10.0147 2.4026
1.9667 10.0640 2.4026
1.7224 10.1075 2.4026
1.4772 10.1453 2.4026
1.2312 10.1773 2.4026
0.9845 10.2034 2.4026
0.7373 10.2238 2.4026
0.4897 10.2383 2.4026
0.2418 10.2469 2.4026
-0.0062 10.2498 2.4026
-0.2542 10.2468 2.4026
-0.5021 10.2379 2.4026
-0.7497 10.2232 2.4026
-0.9969 10.2027 2.4026
-1.2436 10.1763 2.4026
-1.4896 10.1442 2.4026
-1.7348 10.1062 2.4026
-1.9790 10.0625 2.4026
-2.2222 10.0130 2.4026
-2.4642 9.9578 2.4026
-2.7048 9.8969 2.4026
-2.9440 9.8303 2.4026
-3.1816 9.7581 2.4026
-3.4175 9.6803 2.4026
-3.6515 9.5969 2.4026
-3.8836 9.5081 2.4026
-4.1135 9.4137 2.4026
-4.3412 9.3139 2.4026
-4.5666 9.2087 2.4026
-4.7894 9.0982 2.4026
-5.0097 8.9825 2.4026
-5.2272 8.8615 2.4026
-5.3143 8.5306 2.3462
-5.4106 8.2344 2.2993
-5.6102 8.1040 2.2993
-5.8068 7.9689 2.2993
-6.0002 7.8292 2.2993
-6.1903 7.6848 2.2993
-6.3770 7.5359 2.2993
-6.5602 7.3826 2.2993
-6.7397 7.2249 2.2993
-6.9156 7.0629 2.2993
-7.0876 6.8967 2.2993
-7.2557 6.7264 2.2993
-7.4198 6.5521 2.2993
-7.5798 6.3739 2.2993
-7.7356 6.1918 2.2993
-7.8871 6.0060 2.2993
-8.0342 5.8165 2.2993
-8.1768 5.6235 2.2993
-8.3149 5.4270 2.2993
-8.4483 5.2272 2.2993
-8.5770 5.0242 2.2993
-8.7008 4.8181 2.2993
-8.8198 4.6089 2.2993
-8.9338 4.3968 2.2993
-9.0428 4.1820 2.2993
-9.1466 3.9645 2.2993
-9.2453 3.7444 2.2993
-9.3388 3.5220 2.2993
-9.5223 3.3305 2.3226
-9.6059 3.1013 2.3226
-9.6840 2.8699 2.3226
-9.7567 2.6367 2.3226
-9.8237 2.4016 2.3226
-9.8851 2.1648 2.3226
-9.9409 1.9265 2.3226
-9.9909 1.6867 2.3226
-10.0352 1.4457 2.3226
-10.0737 1.2035 2.3226
-10.1064 0.9603 2.3226
-10.1332 0.7163 2.3226
-10.1541 0.4715 2.3226
-10.1692 0.2262 2.3226
-9.9753 -0.0192 2.2762
-9.9784 -0.2604 2.2762
-9.9757 -0.5017 2.2762
-9.9672 -0.7431 2.2762
-9.9527 -0.9843 2.2762
-9.9325 -1.2253 2.2762
-9.9064 -1.4658 2.2762
-9.8745 -1.7058 2.2762
-9.8367 -1.9451 2.2762
-9.7931 -2.1836 2.2762
-9.9420 -2.4704 2.3226
-9.8857 -2.7115 2.3226
-9.8235 -2.9513 2.3226
-9.7554 -3.1897 2.3226
-9.6815 -3.4265 2.3226
-9.5057 -3.6250 2.2993
-9.4211 -3.8558 2.2993
-9.3309 -4.0847 2.2993
-9.2350 -4.3114 2.2993
-9.1336 -4.5359 2.2993
-9.0267 -4.7579 2.2993
-8.9143 -4.9773 2.2993
-8.7965 -5.1941 2.2993
-8.6734 -5.4080 2.2993
-8.5450 -5.6190 2.2993
-8.4114 -5.8268 2.2993
-8.2727 -6.0315 2.2993
-8.1290 -6.2327 2.2993
-7.9802 -6.4305 2.2993
-7.4392 -6.2974 2.2993
-7.2884 -6.4782 2.2993
-7.1332 -6.6553 2.2993
-6.9737 -6.8287 2.2993
-6.8098 -6.9981 2.2993
-6.6418 -7.1636 2.2993
-6.4697 -7.3249 2.2993
-6.2935 -7.4820 2.2993
-6.1135 -7.6348 2.2993
-5.9298 -7.7831 2.2993
-5.7423 -7.9269 2.2993
-5.5733 -8.0981 2.3084
-5.5693 -8.5257 2.3905
-5.3908 -8.7044 2.4026
-5.1809 -8.8349 2.4026
-4.9677 -8.9601 2.4026
-4.7514 -9.0801 2.4026
-4.5322 -9.1947 2.4026
-4.3101 -9.3039 2.4026
-4.0854 -9.4076 2.4026
-3.8581 -9.5058 2.4026
-3.6284 -9.5983 2.4026
-3.3964 -9.6851 2.4026
-3.1623 -9.7662 2.4026
-2.9263 -9.8415 2.4026
-2.6884 -9.9109 2.4026
-2.4488 -9.9745 2.4026
-2.2077 -10.0320 2.4026
-1.9652 -10.0836 2.4026
-1.7215 -10.1292 2.4026
-1.4767 -10.1688 2.4026
-1.2310 -10.2023 2.4026
-0.9846 -10.2297 2.4026
-0.7375 -10.2509 2.4026
-0.4899 -10.2661 2.4026
-0.2420 -10.2751 2.4026
0.0060 -10.2780 2.4026
0.2540 -10.2747 2.4026
0.5018 -10.2653 2.4026
0.7494 -10.2497 2.4026
0.9964 -10.2281 2.4026
1.2428 -10.2003 2.4026
1.4885 -10.1664 2.4026
1.7332 -10.1265 2.4026
1.9768 -10.0805 2.4026
2.2192 -10.0285 2.4026
2.4561 -9.9542 2.3986
2.5838 -9.4816 2.2995
2.8113 -9.4148 2.2995
3.0371 -9.3424 2.2995
3.2610 -9.2644 2.2995
3.4828 -9.1810 2.2995
3.7025 -9.0921 2.2995
3.9199 -8.9978 2.2995
4.1348 -8.8982 2.2995
4.3471 -8.7934 2.2995
4.5567 -8.6834 2.2995
4.7635 -8.5683 2.2995
4.9673 -8.4481 2.2995
5.1680 -8.3230 2.2995
5.3656 -8.1930 2.2995
5.5598 -8.0582 2.2995
5.7505 -7.9187 2.2995
5.9377 -7.7747 2.2995
6.1212 -7.6261 2.2995
6.3009 -7.4730 2.2995
6.4768 -7.3157 2.2995
6.7877 -7.3038 2.3476
6.9589 -7.1347 2.3476
7.1259 -6.9615 2.3476
7.2885 -6.7843 2.3476
7.4467 -6.6032 2.3476
7.6003 -6.4184 2.3476
5.3861 -4.3302 1.6317
5.3726 -4.1098 1.5979
5.4534 -3.9667 1.5938
5.6056 -3.8739 1.6112
8.2968 -5.4425 2.3476
8.4213 -5.2378 2.3476
8.5407 -5.0302 2.3476
8.4706 -4.7172 2.2976
8.5773 -4.5088 2.2976
8.6788 -4.2979 2.2976
8.7750 -4.0847 2.2976
8.8660 -3.8694 2.2976
8.9517 -3.6520 2.2976
9.0320 -3.4328 2.2976
9.1069 -3.2117 2.2976
9.1390 -2.9769 2.2882
9.1427 -2.7357 2.2733
9.1462 -2.4977 2.2599
9.1497 -2.2627 2.2479
9.1532 -2.0302 2.2375
9.1567 -1.8001 2.2284
9.1601 -1.5719 2.2207
9.1635 -1.3455 2.2144
9.1669 -1.1205 2.2094
9.1702 -0.8966 2.2057
9.1736 -0.6737 2.2033
9.1769 -0.4513 2.2022
9.1802 -0.2293 2.2024
9.1836 -0.0074 2.2039
9.1869 0.2146 2.2066
9.1902 0.4371 2.2107
9.1936 0.6602 2.2161
9.1969 0.8843 2.2228
9.2003 1.1097 2.2308
9.2037 1.3365 2.2402
9.2071 1.5650 2.2509
9.2106 1.7957 2.2631
9.2141 2.0287 2.2767
9.2176 2.2644 2.2918
9.1775 2.4913 2.2976
9.1092 2.7108 2.2976
9.0357 2.9285 2.2976
8.9570 3.1442 2.2976
8.8733 3.3579 2.2976
8.7845 3.5694 2.2976
8.6907 3.7786 2.2976
8.5920 3.9854 2.2976
8.4884 4.1896 2.2976
8.3800 4.3912 2.2976
8.2669 4.5901 2.2976
8.1492 4.7861 2.2976
8.0269 4.9792 2.2976
7.9000 5.1691 2.2976
7.7688 5.3559 2.2976
7.6332 5.5395 2.2976
7.4933 5.7197 2.2976
7.3492 5.8964 2.2976
7.2011 6.0695 2.2976
7.0489 6.2391 2.2976
6.8929 6.4048 2.2976
6.7330 6.5668 2.2976
6.5693 6.7248 2.2976
6.4021 6.8789 2.2976
6.2313 7.0289 2.2976
6.0620 7.1806 2.2995
5.8843 7.3224 2.2995
5.7033 7.4598 2.2995
5.5192 7.5928 2.2995
5.3320 7.7214 2.2995
5.1419 7.8455 2.2995
4.9490 7.9650 2.2995
4.7534 8.0799 2.2995
3.2123 5.7757 1.6216
3.0708 5.8501 1.6216
4.1513 8.3962 2.2995
3.9459 8.4919 2.2995
3.7384 8.5828 2.2995
3.5288 8.6687 2.2995
3.3173 8.7497 2.2995
3.1040 8.8256 2.2995
2.8890 8.8964 2.2995
2.7434 9.2002 2.3606
2.5644 9.4272 2.4026
2.3352 9.4851 2.4026
2.1047 9.5375 2.4026
1.8731 9.5845 2.4026
1.6405 9.6260 2.4026
1.4069 9.6620 2.4026
1.1726 9.6925 2.4026
0.9377 9.7175 2.4026
0.7022 9.7368 2.4026
0.4664 9.7507 2.4026
0.2303 9.7589 2.4026
-0.0059 9.7616 2.4026
-0.2421 9.7588 2.4026
-0.4782 9.7503 2.4026
-0.7140 9.7363 2.4026
-0.9495 9.7167 2.4026
-1.1844 9.6916 2.4026
-1.4187 9.6609 2.4026
-1.6522 9.6247 2.4026
-1.8849 9.5830 2.4026
-2.1165 9.5358 2.4026
-2.3469 9.4832 2.4026
-2.5761 9.4251 2.4026
-2.8039 9.3617 2.4026
-3.0301 9.2928 2.4026
-3.2548 9.2186 2.4026
-3.4776 9.1391 2.4026
-3.6985 9.0544 2.4026
-3.9175 8.9644 2.4026
-4.1343 8.8693 2.4026
-4.3488 8.7690 2.4026
-4.5610 8.6636 2.4026
-4.7707 8.5533 2.4026
-4.9778 8.4380 2.4026
-5.1821 8.3177 2.4026
-5.3200 8.0959 2.3742
-5.3423 7.7163 2.2993
-5.5399 7.6020 2.3037
-5.7134 7.4543 2.2993
-5.8943 7.3167 2.2993
-6.0719 7.1748 2.2993
-6.2462 7.0287 2.2993
-6.4171 6.8784 2.2993
-6.5844 6.7240 2.2993
-6.7481 6.5657 2.2993
-6.9080 6.4034 2.2993
-7.0641 6.2373 2.2993
-7.2162 6.0675 2.2993
-7.3644 5.8940 2.2993
-7.5084 5.7169 2.2993
-7.6483 5.5364 2.2993
-7.7839 5.3526 2.2993
-7.9151 5.1654 2.2993
-8.0419 4.9751 2.2993
-8.1642 4.7817 2.2993
-8.2818 4.5854 2.2993
-8.3949 4.3862 2.2993
-8.5031 4.1842 2.2993
-8.6066 3.9796 2.2993
-8.7052 3.7725 2.2993
-8.7989 3.5630 2.2993
-8.8876 3.3512 2.2993
-8.9713 3.1372 2.2993
-9.0498 2.9211 2.2993
-9.1232 2.7031 2.2993
-9.1913 2.4833 2.2993
-9.2542 2.2617 2.2993
-9.3118 2.0386 2.2993
-9.3641 1.8140 2.2993
-9.4109 1.5882 2.2993
-9.5480 1.3748 2.3226
-9.5843 1.1444 2.3226
-9.6151 0.9130 2.3226
-9.6403 0.6808 2.3226
-9.6600 0.4479 2.3226
-9.6740 0.2145 2.3226
-9.4892 -0.0189 2.2762
-9.4919 -0.2483 2.2762
-9.4890 -0.4779 2.2762
-9.4806 -0.7075 2.2762
-9.4666 -0.9369 2.2762
-9.4471 -1.1660 2.2762
-9.4220 -1.3948 2.2762
-9.3913 -1.6230 2.2762
-9.3551 -1.8505 2.2762
-9.3157 -2.0778 2.2768
-9.3601 -2.3264 2.2993
-9.3068 -2.5534 2.2993
-9.2479 -2.7791 2.2993
-9.1836 -3.0034 2.2993
-9.1138 -3.2263 2.2993
-9.0385 -3.4474 2.2993
-8.9578 -3.6669 2.2993
-8.8718 -3.8844 2.2993
-8.7804 -4.0998 2.2993
-8.6837 -4.3131 2.2993
-8.5818 -4.5240 2.2993
-8.4747 -4.7326 2.2993
-8.3625 -4.9385 2.2993
-8.2453 -5.1417 2.2993
-8.1230 -5.3421 2.2993
-7.9958 -5.5396 2.2993
-7.8638 -5.7340 2.2993
-7.7269 -5.9251 2.2993
-7.5854 -6.1130 2.2993
-7.0865 -5.9994 2.2993
-6.9428 -6.1716 2.2993
-6.7948 -6.3402 2.2993
-6.6427 -6.5052 2.2993
-6.4865 -6.6665 2.2993
-6.3263 -6.8239 2.2993
-6.1622 -6.9774 2.2993
-5.9943 -7.1270 2.2993
-5.8228 -7.2723 2.2993
-5.6477 -7.4135 2.2993
-5.5596 -7.6753 2.3374
-5.5245 -8.0278 2.4026
-5.3309 -8.1615 2.4026
-5.1341 -8.2905 2.4026
-4.9340 -8.4146 2.4026
-4.7309 -8.5337 2.4026
-4.5249 -8.6479 2.4026
-4.3160 -8.7569 2.4026
-4.1045 -8.8608 2.4026
-3.8905 -8.9595 2.4026
-3.6740 -9.0528 2.4026
-3.4552 -9.1409 2.4026
-3.2343 -9.2234 2.4026
-3.0114 -9.3006 2.4026
-2.7865 -9.3722 2.4026
-2.5600 -9.4382 2.4026
-2.3319 -9.4987 2.4026
-2.1023 -9.5534 2.4026
-1.8714 -9.6025 2.4026
-1.6393 -9.6459 2.4026
-1.4062 -9.6835 2.4026
-1.1722 -9.7154 2.4026
-0.9375 -9.7414 2.4026
-0.7022 -9.7616 2.4026
-0.4665 -9.7760 2.4026
-0.2305 -9.7846 2.4026
0.0057 -9.7873 2.4026
0.2418 -9.7842 2.4026
0.4778 -9.7753 2.4026
0.7135 -9.7605 2.4026
0.9488 -9.7399 2.4026
1.1834 -9.7135 2.4026
1.4173 -9.6813 2.4026
1.6504 -9.6433 2.4026
1.8824 -9.5995 2.4026
2.1132 -9.5501 2.4026
2.3427 -9.4950 2.4026
2.4771 -9.0906 2.3151
2.6771 -8.9658 2.2995
2.8921 -8.8970 2.2995
3.1053 -8.8228 2.2995
3.3166 -8.7435 2.2995
3.5258 -8.6589 2.2995
3.7329 -8.5692 2.2995
3.9376 -8.4745 2.2995
4.1398 -8.3748 2.2995
4.3395 -8.2701 2.2995
4.5365 -8.1606 2.2995
4.7307 -8.0463 2.2995
4.9219 -7.9272 2.2995
5.1101 -7.8036 2.2995
5.2951 -7.6753 2.2995
5.4769 -7.5426 2.2995
5.6553 -7.4055 2.2995
5.8301 -7.2641 2.2995
6.0014 -7.1185 2.2995
6.1690 -6.9688 2.2995
6.3329 -6.8150 2.2995
6.4928 -6.6574 2.2995
6.7878 -6.6318 2.3476
6.9428 -6.4631 2.3476
7.0936 -6.2908 2.3476
7.2401 -6.1149 2.3476
