ply
format ascii 1.0
element vertex 2085
property float32 x
property float32 y
property float32 z
end_header
8.4076 -10.4575 0.2738
8.4139 -9.9625 0.2673
8.4198 -9.4943 0.2613
8.4254 -9.0504 0.2558
8.4307 -8.6284 0.2507
8.4358 -8.2262 0.2461
8.4407 -7.8421 0.2418
8.4453 -7.4745 0.2379
8.4498 -7.1219 0.2343
8.4541 -6.7830 0.2310
8.4582 -6.4567 0.2279
8.4622 -6.1419 0.2252
8.5937 -5.9257 0.2260
8.7178 -5.7055 0.2268
8.7215 -5.4115 0.2247
8.7251 -5.1260 0.2227
8.7286 -4.8483 0.2210
8.7320 -4.5777 0.2194
8.7354 -4.3136 0.2181
8.7386 -4.0557 0.2169
8.7418 -3.8032 0.2158
8.7450 -3.5558 0.2150
8.7480 -3.3131 0.2142
8.7511 -3.0746 0.2137
8.7540 -2.8399 0.2132
8.7570 -2.6088 0.2129
8.7598 -2.3808 0.2128
8.7627 -2.1556 0.2128
8.7655 -1.9329 0.2129
8.7683 -1.7125 0.2131
8.7711 -1.4940 0.2135
8.7738 -1.2771 0.2140
8.7765 -1.0617 0.2146
8.7793 -0.8473 0.2153
8.7820 -0.6338 0.2162
8.7847 -0.4210 0.2172
8.7873 -0.2085 0.2183
8.7900 0.0039 0.2196
8.7927 0.2165 0.2209
8.7954 0.4294 0.2225
8.7981 0.6429 0.2241
8.8008 0.8574 0.2259
8.8036 1.0729 0.2278
8.8063 1.2899 0.2298
8.8091 1.5086 0.2320
8.8119 1.7292 0.2344
8.8147 1.9521 0.2369
8.8176 2.1775 0.2396
8.8204 2.4058 0.2424
8.8234 2.6373 0.2454
8.8263 2.8722 0.2486
8.8294 3.1111 0.2520
8.8324 3.3543 0.2556
8.8356 3.6021 0.2594
8.8388 3.8550 0.2634
8.8431 4.1141 0.2676
8.8465 4.3787 0.2721
8.8499 4.6500 0.2769
8.8534 4.9284 0.2819
8.8571 5.2147 0.2872
8.8608 5.5095 0.2928
9.1601 6.0073 0.3087
9.1642 6.3319 0.3152
9.1685 6.6678 0.3221
9.1729 7.0161 0.3294
9.1774 7.3779 0.3372
9.1822 7.7544 0.3454
9.1872 8.1470 0.3542
9.1924 8.5572 0.3636
9.1978 8.9868 0.3736
9.2035 9.4378 0.3843
9.2095 9.9123 0.3958
9.2158 10.4128 0.4080
9.2225 10.9422 0.4212
9.2296 11.5037 0.4355
9.2372 12.1010 0.4508
9.2453 12.7384 0.4674
9.2539 13.4210 0.4854
9.2621 14.1531 0.5050
9.2721 14.9446 0.5264
9.2830 15.8022 0.5499
9.2948 16.7357 0.5757
9.3077 17.7569 0.6042
9.3220 18.8801 0.6359
9.3377 20.1229 0.6713
9.3287 21.4462 0.7091
9.3749 23.0608 0.7561
9.8551 26.0279 0.8467
9.1454 26.0369 0.8409
8.4471 26.0457 0.8355
8.3807 28.1413 0.8972
8.4166 30.9801 0.9822
8.4328 34.2951 1.0817
8.7787 39.8301 1.2505
8.8483 45.3321 1.4174
8.0932 47.5479 1.4813
6.9619 47.8687 1.4866
5.5408 45.8537 1.4203
4.5247 46.9453 1.4510
3.3807 46.9294 1.4480
2.2245 46.5554 1.4348
1.0988 46.6013 1.4351
-0.0287 48.2090 1.4843
-1.1739 47.3942 1.4595
-2.3930 48.8635 1.5058
-3.4836 47.5673 1.4676
-4.6953 48.1155 1.4870
-5.9265 48.5595 1.5038
-7.0528 48.0919 1.4933
-8.2023 47.8450 1.4902
-9.4609 48.1657 1.5055
-10.5132 47.4311 1.4886
-11.6256 47.0386 1.4831
-12.7592 46.7445 1.4813
-13.9925 46.7814 1.4909
-15.6652 48.1069 1.5425
-16.9098 47.9599 1.5482
-18.3378 48.2580 1.5691
-18.0411 44.2274 1.4493
-21.2486 48.6912 1.6089
-11.7824 25.3124 0.8439
-5.6136 11.3354 0.3816
-5.9613 11.3398 0.3856
-26.0980 46.8590 1.6107
-11.3899 19.3359 0.6723
-29.8547 47.9914 1.6891
-31.4073 47.8680 1.7066
-32.3816 46.8442 1.6930
-33.7437 46.3771 1.7003
-22.0922 28.8701 1.0746
-23.5707 29.3067 1.1085
-29.4824 34.8953 1.3423
-38.8515 43.7925 1.7147
-40.8115 43.8213 1.7482
-42.8510 43.8375 1.7836
-20.7776 20.2527 0.8413
-47.2911 43.9186 1.8646
-21.1126 18.6773 0.8114
-41.9005 35.2997 1.5712
-44.0949 35.3623 1.6148
-31.5919 24.1044 1.1308
-19.9152 14.4473 0.6973
-51.4568 35.4633 1.7640
-54.0434 35.3506 1.8152
-70.9775 44.0158 2.3376
-74.3449 43.6525 2.4026
-75.7125 42.0289 2.4026
-15.8557 8.3070 0.4944
-43.5448 21.4889 1.3350
-46.7626 21.6877 1.4106
-30.9637 13.4611 0.9196
-43.8218 17.8046 1.2821
-71.8226 27.1783 2.0714
-8.3997 2.9485 0.2389
-8.5501 2.7711 0.2400
-9.3798 2.7914 0.2600
-10.3265 2.8034 0.2829
-43.2300 10.6213 1.1707
-55.6886 12.2635 1.4917
-14.8694 2.8996 0.3942
-14.8746 2.5292 0.3905
-14.8798 2.1615 0.3871
-14.8849 1.7962 0.3838
-14.8901 1.4327 0.3809
-14.8952 1.0707 0.3781
-15.2943 0.7284 0.3855
-15.2995 0.3585 0.3832
-15.3047 -0.0113 0.3810
-15.3099 -0.3814 0.3791
-15.3152 -0.7521 0.3774
-14.9258 -1.0951 0.3663
-14.9309 -1.4589 0.3650
-14.9361 -1.8247 0.3640
-14.9413 -2.1930 0.3632
-14.9465 -2.5641 0.3626
-14.9518 -2.9386 0.3623
-14.9571 -3.3169 0.3621
-15.3581 -3.7974 0.3717
-15.3638 -4.1951 0.3721
-15.3695 -4.5985 0.3726
-15.3752 -5.0081 0.3734
-15.0118 -5.2942 0.3654
-14.9907 -5.6976 0.3660
-14.9967 -6.1186 0.3676
-15.0027 -6.5482 0.3694
-15.0089 -6.9874 0.3714
-15.0153 -7.4369 0.3738
-15.0218 -7.8977 0.3765
-15.0285 -8.3708 0.3795
-15.4329 -9.0915 0.3929
-15.4401 -9.6057 0.3967
-15.4476 -10.1361 0.4009
-15.0572 -10.4089 0.3950
-15.0650 -10.9616 0.3999
-15.0731 -11.5346 0.4053
-15.0815 -12.1298 0.4111
-56.9500 -48.1206 2.4026
-55.9552 -49.6461 2.4026
-54.9174 -51.1492 2.4026
-53.8365 -52.6282 2.4026
-52.7133 -54.0818 2.4026
-51.5481 -55.5084 2.4026
-50.3416 -56.9068 2.4026
-42.4389 -50.3754 2.0769
-40.3863 -50.3595 2.0296
-38.4588 -50.4044 1.9879
-34.0784 -46.9747 1.8148
-34.7913 -50.4798 1.9122
-10.1383 -15.4985 0.5762
-24.4578 -39.4367 1.4403
-15.4213 -26.2619 0.9430
-15.4487 -27.8272 0.9833
-15.4788 -29.5414 1.0282
-15.5078 -31.4208 1.0780
-15.5438 -33.5100 1.1342
-22.0873 -50.7972 1.6976
-20.6544 -50.8256 1.6785
-19.2477 -50.8535 1.6608
-17.8651 -50.8808 1.6445
-16.5043 -50.9078 1.6297
-15.1632 -50.9343 1.6161
-13.8399 -50.9606 1.6039
-12.5133 -50.9081 1.5904
-11.2419 -51.0237 1.5835
-9.9404 -50.9447 1.5717
-9.8540 -57.9129 1.7773
-10.0229 -68.9383 2.1062
-4.4155 -36.5528 1.1125
-3.5229 -36.5635 1.1094
-2.9177 -40.5145 1.2263
-3.7979 -79.5091 2.4026
-1.8762 -79.5887 2.4026
0.0471 -79.6124 2.4026
1.8857 -76.1664 2.2995
3.7246 -76.0833 2.2995
5.5598 -75.9471 2.2995
5.5725 -57.1279 1.7340
5.9814 -49.0285 1.4929
6.3209 -43.1173 1.3180
6.1653 -35.9765 1.1048
6.6066 -33.6469 1.0388
6.9687 -31.4519 0.9769
7.3470 -29.7379 0.9299
7.6613 -28.0785 0.8846
7.2189 -24.1444 0.7670
7.6997 -23.6543 0.7582
7.2704 -20.6284 0.6676
7.8056 -20.5492 0.6720
7.7440 -18.9917 0.6281
7.2068 -16.5210 0.5530
7.4628 -16.0389 0.5438
7.7484 -15.6526 0.5380
8.1155 -15.4439 0.5385
8.5665 -15.3876 0.5448
8.6471 -14.6859 0.5284
8.6568 -13.9217 0.5095
8.6657 -13.2132 0.4923
8.6741 -12.5537 0.4767
8.6819 -11.9376 0.4623
8.6892 -11.3602 0.4492
8.6960 -10.8172 0.4371
8.7025 -10.3052 0.4260
8.7087 -9.8209 0.4158
8.7145 -9.3617 0.4064
8.7200 -8.9252 0.3977
8.7252 -8.5092 0.3897
8.7303 -8.1120 0.3822
8.7351 -7.7317 0.3754
8.7397 -7.3670 0.3691
8.7441 -7.0164 0.3632
8.7484 -6.6789 0.3578
8.7525 -6.3533 0.3528
8.7565 -6.0387 0.3482
8.7177 -5.7062 0.3423
8.7215 -5.4122 0.3385
8.7251 -5.1267 0.3349
8.7286 -4.8489 0.3317
8.7320 -4.5783 0.3288
8.7354 -4.3143 0.3261
8.7386 -4.0563 0.3237
8.7418 -3.8038 0.3216
8.7450 -3.5564 0.3197
8.7480 -3.3137 0.3180
8.7511 -3.0752 0.3165
8.7540 -2.8405 0.3153
8.7570 -2.6094 0.3143
8.7598 -2.3813 0.3135
8.7627 -2.1562 0.3129
8.7655 -1.9335 0.3124
8.7683 -1.7131 0.3122
8.7711 -1.4946 0.3122
8.7738 -1.2777 0.3123
8.7765 -1.0622 0.3127
8.7793 -0.8479 0.3132
8.7820 -0.6344 0.3139
8.7846 -0.4215 0.3148
8.7873 -0.2090 0.3158
8.7900 0.0034 0.3171
8.7927 0.2159 0.3185
8.7954 0.4288 0.3201
8.7981 0.6423 0.3219
8.8008 0.8568 0.3240
8.8036 1.0724 0.3262
8.8063 1.2894 0.3286
8.8091 1.5080 0.3312
8.8119 1.7286 0.3340
8.8147 1.9515 0.3371
8.8175 2.1769 0.3403
9.1145 2.4854 0.3553
9.1175 2.7246 0.3592
9.1206 2.9674 0.3633
9.1237 3.2142 0.3677
9.1269 3.4654 0.3724
9.1301 3.7215 0.3774
9.1345 3.9834 0.3827
9.1379 4.2505 0.3884
9.1413 4.5240 0.3943
9.1449 4.8043 0.4007
9.1485 5.0920 0.4074
9.1523 5.3878 0.4145
9.1561 5.6924 0.4221
9.1601 6.0066 0.4302
9.1642 6.3312 0.4387
9.1684 6.6671 0.4478
9.1729 7.0154 0.4575
9.1774 7.3771 0.4678
9.1822 7.7536 0.4788
9.1872 8.1462 0.4904
9.1923 8.5564 0.5029
9.1978 8.9860 0.5163
9.2035 9.4369 0.5305
9.2095 9.9114 0.5459
9.2158 10.4119 0.5623
9.2225 10.9412 0.5800
9.1532 11.4074 0.5941
9.2110 12.0656 0.6179
9.2452 12.7374 0.6420
9.2539 13.4200 0.6663
9.2621 14.1520 0.6926
9.2721 14.9434 0.7215
9.2830 15.8010 0.7532
9.2948 16.7344 0.7880
9.3077 17.7555 0.8266
9.3219 18.8787 0.8695
9.3377 20.1215 0.9174
9.3286 21.4447 0.9685
9.3749 23.0591 1.0322
9.8558 26.0279 1.1555
9.1460 26.0369 1.1471
8.4477 26.0457 1.1394
8.3807 28.1394 1.2229
8.4166 30.9780 1.3383
8.4327 34.2927 1.4735
8.7786 39.8273 1.7029
8.8483 45.3290 1.9298
8.0304 47.1760 2.0007
7.0008 48.1330 2.0346
5.5739 46.1239 1.9442
4.6134 47.8631 2.0129
3.3468 46.4550 1.9502
2.2248 46.5587 1.9521
1.0956 46.4635 1.9466
-0.0284 47.8085 2.0024
-1.1795 47.6126 1.9947
-2.3673 48.3351 2.0265
-3.4855 47.5901 1.9978
-4.6703 47.8564 2.0125
-5.8633 48.0390 2.0247
-7.0014 47.7382 2.0176
-8.1355 47.4520 2.0122
-9.4704 48.2107 2.0521
-10.5021 47.3778 2.0254
-11.5217 46.6150 2.0026
-12.7644 46.7606 2.0197
-13.9563 46.6572 2.0273
-15.7372 48.3248 2.1135
-17.1476 48.6308 2.1420
-18.4639 48.5863 2.1565
-18.0405 44.2227 1.9791
-20.8829 47.8498 2.1604
-11.7817 25.3090 1.1536
-5.6140 11.3354 0.5219
-5.9617 11.3398 0.5278
-26.0453 46.7610 2.2013
-11.3888 19.3326 0.9212
-29.6892 47.7217 2.3033
-30.8388 46.9977 2.2993
-32.0282 46.3291 2.2993
-33.2057 45.6339 2.2993
-22.0862 28.8598 1.4775
-23.5695 29.3027 1.5256
-29.4852 34.8957 1.8492
-38.6878 43.6040 2.3541
-40.6358 43.6287 2.4021
-41.7892 42.7473 2.4026
-20.7758 20.2491 1.1630
-44.0292 40.8854 2.4026
-21.1059 18.6696 1.1238
-46.1998 38.9177 2.4026
-47.2573 37.8945 2.4026
-31.5899 24.1004 1.5715
-19.9140 14.4448 0.9702
-48.1535 33.1828 2.2995
-49.0887 32.1059 2.2995
-50.5052 31.3163 2.3226
-51.4071 30.1804 2.3226
-52.2870 29.0213 2.3226
-15.8545 8.3052 0.6929
-30.1760 14.8893 1.2984
-30.4678 14.1283 1.2916
-30.8575 13.4127 1.2896
-38.3174 15.5655 1.5798
-38.0082 14.3800 1.5469
-8.4013 2.9485 0.3377
-8.5520 2.7712 0.3398
-9.3476 2.7812 0.3673
-10.2913 2.7932 0.4002
-42.9211 10.5426 1.6525
-45.4408 10.0037 1.7333
-14.8694 2.8986 0.5622
-14.8746 2.5282 0.5579
-14.8798 2.1606 0.5538
-14.8850 1.7952 0.5501
-14.8901 1.4317 0.5468
-14.8952 1.0697 0.5438
-15.2943 0.7275 0.5554
-15.2995 0.3575 0.5529
-15.3047 -0.0123 0.5508
-15.3099 -0.3824 0.5490
-15.3152 -0.7531 0.5475
-14.9258 -1.0960 0.5323
-14.9309 -1.4599 0.5314
-14.9361 -1.8257 0.5309
-14.9413 -2.1939 0.5307
-14.9465 -2.5651 0.5308
-14.9518 -2.9396 0.5313
-14.9571 -3.3179 0.5320
-15.3582 -3.7984 0.5472
-15.3638 -4.1962 0.5487
-15.3695 -4.5996 0.5505
-15.3753 -5.0091 0.5527
-15.0090 -5.2942 0.5419
-14.9907 -5.6987 0.5439
-14.9967 -6.1196 0.5472
-15.0027 -6.5493 0.5509
-15.0089 -6.9885 0.5551
-15.0153 -7.4380 0.5596
-15.0218 -7.8988 0.5647
-15.0285 -8.3720 0.5703
-15.4329 -9.0927 0.5916
-15.4402 -9.6069 0.5984
-15.4476 -10.1373 0.6058
-15.0573 -10.4101 0.5981
-15.0651 -10.9628 0.6066
-15.0731 -11.5358 0.6158
-15.0816 -12.1311 0.6258
-40.9492 -34.6040 2.3226
-39.8005 -35.3163 2.2995
-39.0295 -36.3549 2.2995
-15.3212 -14.9787 0.9215
-15.2405 -15.6375 0.9370
-15.2532 -16.4265 0.9597
-15.2666 -17.2591 0.9843
-15.2850 -18.1450 1.0113
-15.3021 -19.0825 1.0405
-15.3149 -20.0735 1.0718
-15.3345 -21.1393 1.1065
-15.3556 -22.2816 1.1443
-10.1092 -15.4552 0.7795
-15.3966 -24.8279 1.2309
-15.4213 -26.2640 1.2810
-15.4484 -27.8287 1.3366
-15.4785 -29.5430 1.3983
-15.5085 -31.4244 1.4670
-15.5440 -33.5128 1.5442
-21.9623 -50.5132 2.2993
-20.6530 -50.8256 2.2872
-19.2464 -50.8535 2.2641
-17.8639 -50.8809 2.2429
-16.5032 -50.9078 2.2235
-15.1622 -50.9344 2.2058
-13.8390 -50.9606 2.1898
-12.5125 -50.9081 2.1721
-11.2193 -50.9244 2.1590
-9.9398 -50.9447 2.1476
-9.3269 -54.8186 2.2994
-8.0042 -55.0575 2.2994
-4.4153 -36.5528 1.5210
-3.5227 -36.5635 1.5170
-2.9178 -40.5177 1.6772
-2.7769 -58.1371 2.4026
-0.4914 -20.8461 0.8607
0.0123 -20.8461 0.8604
0.5161 -20.8460 0.8607
1.0204 -20.8460 0.8616
4.0655 -55.5390 2.2995
5.4043 -55.4073 2.2995
5.9812 -49.0298 2.0410
6.3204 -43.1173 1.8016
6.1651 -35.9776 1.5099
6.6064 -33.6480 1.4193
6.9685 -31.4531 1.3344
7.3467 -29.7391 1.2699
7.6611 -28.0796 1.2076
7.2186 -24.1450 1.0466
7.2476 -22.2672 0.9735
7.2256 -20.5028 0.9048
7.2418 -19.0663 0.8499
7.7592 -19.0303 0.8574
7.3341 -16.8141 0.7664
7.4625 -16.0394 0.7401
7.8240 -15.8063 0.7390
8.1749 -15.5581 0.7375
8.5660 -15.3877 0.7402
8.6471 -14.6870 0.7176
8.6568 -13.9227 0.6915
8.6657 -13.2142 0.6677
8.6741 -12.5547 0.6460
8.6819 -11.9386 0.6261
8.6892 -11.3611 0.6079
8.6960 -10.8181 0.5911
8.7025 -10.3060 0.5757
8.7086 -9.8218 0.5615
8.7144 -9.3625 0.5483
8.7200 -8.9260 0.5362
8.7252 -8.5100 0.5249
8.7303 -8.1127 0.5145
8.7351 -7.7325 0.5049
8.7397 -7.3677 0.4959
8.7441 -7.0172 0.4876
8.7484 -6.6796 0.4800
8.7525 -6.3540 0.4729
8.7565 -6.0393 0.4663
9.0612 -5.9316 0.4760
9.0122 -5.5933 0.4675
9.0159 -5.2982 0.4622
9.0196 -5.0112 0.4573
9.0231 -4.7316 0.4528
9.0265 -4.4587 0.4487
9.0299 -4.1921 0.4450
9.0332 -3.9312 0.4416
9.0365 -3.6756 0.4386
9.0396 -3.4248 0.4359
9.0428 -3.1783 0.4335
9.0458 -2.9358 0.4314
9.0488 -2.6969 0.4296
9.0518 -2.4613 0.4280
9.0548 -2.2286 0.4268
9.0577 -1.9986 0.4258
9.0606 -1.7708 0.4251
9.0634 -1.5450 0.4246
9.0663 -1.3209 0.4244
9.0691 -1.0982 0.4245
9.0719 -0.8767 0.4248
9.0747 -0.6561 0.4253
9.0775 -0.4362 0.4261
9.0802 -0.2166 0.4272
9.0830 0.0029 0.4285
9.0858 0.2225 0.4300
9.0886 0.4425 0.4318
9.0914 0.6632 0.4339
9.0942 0.8847 0.4362
9.0970 1.1075 0.4388
9.0998 1.3317 0.4416
9.1027 1.5577 0.4447
9.1056 1.7857 0.4481
9.1085 2.0160 0.4518
9.1115 2.2489 0.4559
9.1144 2.4848 0.4602
9.1175 2.7239 0.4648
9.1205 2.9667 0.4698
9.1237 3.2136 0.4751
9.1269 3.4648 0.4808
9.1301 3.7209 0.4868
9.1345 3.9827 0.4934
9.1379 4.2499 0.5002
9.1413 4.5233 0.5076
9.1449 4.8036 0.5154
9.1485 5.0913 0.5236
9.1523 5.3871 0.5325
9.1561 5.6917 0.5418
9.1601 6.0059 0.5518
9.1642 6.3305 0.5624
9.1684 6.6664 0.5737
9.1728 7.0146 0.5857
9.1774 7.3763 0.5985
9.1822 7.7528 0.6122
9.1871 8.1454 0.6268
9.1923 8.5556 0.6423
9.1978 8.9851 0.6590
9.2035 9.4361 0.6769
9.2095 9.9105 0.6961
9.2158 10.4110 0.7167
9.2225 10.9403 0.7389
9.2034 11.4691 0.7606
9.2109 12.0646 0.7864
9.2452 12.7364 0.8167
9.2539 13.4189 0.8472
9.2621 14.1509 0.8804
9.2721 14.9423 0.9167
9.2830 15.7998 0.9566
9.2948 16.7332 1.0006
9.3077 17.7542 1.0492
9.3219 18.8773 1.1033
9.3377 20.1200 1.1637
9.3286 21.4431 1.2282
9.3748 23.0575 1.3086
9.8564 26.0279 1.4646
9.1466 26.0369 1.4536
8.4482 26.0457 1.4435
8.3807 28.1374 1.5489
8.4166 30.9758 1.6947
8.4327 34.2904 1.8656
8.7786 39.8247 2.1558
8.3231 42.6356 2.2976
7.2867 42.8045 2.2976
6.2882 43.2312 2.3126
5.2397 43.3561 2.3126
4.1891 43.4582 2.3126
3.1368 43.5378 2.3126
2.0833 43.5947 2.3126
1.0239 43.4209 2.3015
-0.0258 43.3986 2.2997
-1.0748 43.3824 2.2995
-2.1233 43.3487 2.2995
-3.1710 43.2925 2.2995
-4.2176 43.2139 2.2995
-5.2624 43.1127 2.2995
-6.3053 42.9889 2.2995
-7.3929 43.1175 2.3142
-8.4838 43.1850 2.3270
-9.5856 43.2403 2.3405
-10.6946 43.2657 2.3537
-11.8124 43.2700 2.3671
-12.9434 43.2679 2.3816
-14.0958 43.2815 2.3985
-15.1771 43.0395 2.4026
-16.2282 42.7004 2.4026
-17.2729 42.3382 2.4026
-18.3107 41.9529 2.4026
-11.7810 25.3057 1.4634
-5.6127 11.3319 0.6622
-5.9603 11.3363 0.6698
-22.3839 40.1843 2.4026
-11.3877 19.3293 1.1702
-24.3674 39.1646 2.4026
-25.3444 38.6214 2.4026
-26.3109 38.0560 2.4026
-27.2663 37.4685 2.4026
-22.0801 28.8496 1.8805
-23.5683 29.2987 1.9430
-28.7727 34.0496 2.2995
-29.6411 33.4048 2.2995
-30.4965 32.7397 2.2995
-31.3388 32.0544 2.2995
-20.7740 20.2455 1.4850
-33.3135 30.9319 2.3226
-21.0993 18.6619 1.4362
-34.9152 29.4088 2.3226
-35.6929 28.6183 2.3226
-31.5880 24.0963 2.0125
-19.9128 14.4423 1.2432
-37.9283 26.1336 2.3226
-29.6200 19.3703 1.7804
-28.8289 17.8734 1.7023
-28.4555 16.7037 1.6519
-28.4241 15.7743 1.6235
-15.8535 8.3035 0.8915
-28.8072 14.2118 1.5961
-29.2413 13.5574 1.5974
-29.8728 12.9825 1.6101
-30.6997 12.4688 1.6336
-31.9893 12.1006 1.6817
-8.4118 2.9516 0.4371
-8.5539 2.7712 0.4397
-9.3498 2.7813 0.4757
-39.7733 10.7922 2.0041
-40.8451 10.0300 2.0395
-42.2143 9.2906 2.0901
-14.8694 2.8977 0.7304
-14.8746 2.5272 0.7254
-14.8798 2.1596 0.7207
-14.8850 1.7942 0.7166
-14.8901 1.4308 0.7128
-14.8952 1.0688 0.7095
-15.2943 0.7265 0.7253
-15.2995 0.3565 0.7228
-15.3047 -0.0133 0.7207
-15.3099 -0.3833 0.7190
-15.3152 -0.7541 0.7177
-14.9258 -1.0970 0.6984
-14.9309 -1.4608 0.6980
-14.9361 -1.8267 0.6979
-14.9413 -2.1949 0.6983
-14.9465 -2.5660 0.6992
-14.9518 -2.9405 0.7004
-14.9572 -3.3189 0.7021
-15.3582 -3.7994 0.7228
-15.3638 -4.1972 0.7255
-15.3695 -4.6006 0.7286
-15.3753 -5.0102 0.7322
-15.0061 -5.2943 0.7184
-14.9908 -5.6997 0.7219
-14.9967 -6.1207 0.7270
-15.0028 -6.5503 0.7326
-15.0090 -6.9895 0.7388
-15.0153 -7.4391 0.7456
-15.0218 -7.8999 0.7531
-15.0285 -8.3731 0.7612
-15.4329 -9.0938 0.7904
-15.4402 -9.6081 0.8002
-15.4477 -10.1385 0.8109
-15.0573 -10.4113 0.8012
-15.0651 -10.9640 0.8134
-15.0732 -11.5371 0.8265
-15.0816 -12.1324 0.8406
-15.1963 -12.8429 1.0829
-15.2066 -13.4946 1.1044
-15.2173 -14.1759 1.1276
-15.2285 -14.8895 1.1526
-15.2406 -15.6391 1.1796
-15.2534 -16.4281 1.2088
-15.2668 -17.2607 1.2403
-15.2850 -18.1465 1.2749
-15.3021 -19.0840 1.3122
-15.3154 -20.0757 1.3524
-15.3350 -21.1416 1.3966
-15.3560 -22.2841 1.4450
-10.1088 -15.4556 0.9846
-15.3966 -24.8299 1.5555
-15.4214 -26.2660 1.6194
-15.4481 -27.8302 1.6901
-15.4782 -29.5445 1.7688
-15.5092 -31.4280 1.8563
-15.5442 -33.5156 1.9547
-13.6037 -31.2907 1.8033
-12.9427 -31.8533 1.8153
-16.1222 -42.6013 2.4026
-15.1020 -43.0172 2.4026
-14.0703 -43.4060 2.4026
-13.0279 -43.7675 2.4026
-11.9755 -44.1012 2.4026
-10.9138 -44.4068 2.4026
-9.8438 -44.6840 2.4026
-8.7662 -44.9326 2.4026
-7.6818 -45.1524 2.4026
-6.5915 -45.3430 2.4026
-4.4150 -36.5528 1.9299
-3.5225 -36.5635 1.9249
-2.6904 -37.3619 1.9625
-2.1881 -45.8117 2.4026
-0.3759 -15.9459 0.8355
0.0094 -15.9416 0.8350
0.3942 -15.9239 0.8344
0.7779 -15.8929 0.8336
3.2036 -43.7676 2.2995
4.2589 -43.6666 2.2995
5.3108 -43.5374 2.2995
6.3125 -43.0658 2.2828
6.2127 -36.2581 1.9302
6.3746 -32.4700 1.7371
6.8574 -30.9537 1.6653
7.4036 -29.9711 1.6226
7.6608 -28.0808 1.5309
7.2183 -24.1456 1.3265
7.2472 -22.2673 1.2336
7.2388 -20.5416 1.1484
7.2252 -19.0241 1.0740
7.7586 -19.0301 1.0857
7.2065 -16.5227 0.9533
7.4622 -16.0399 0.9366
7.7477 -15.6533 0.9258
8.1145 -15.4444 0.9259
8.5654 -15.3878 0.9358
8.6471 -14.6881 0.9069
8.6567 -13.9238 0.8736
8.6657 -13.2152 0.8433
8.6741 -12.5556 0.8155
8.6819 -11.9395 0.7901
8.6892 -11.3620 0.7668
8.6960 -10.8190 0.7453
8.7025 -10.3069 0.7256
8.7086 -9.8226 0.7073
8.7144 -9.3634 0.6904
8.7200 -8.9268 0.6748
8.7252 -8.5108 0.6603
8.7048 -8.0898 0.6450
8.7096 -7.7106 0.6326
8.7142 -7.3469 0.6211
8.6787 -6.9654 0.6076
8.7484 -6.6804 0.6023
8.7525 -6.3547 0.5930
8.7565 -6.0400 0.5845
9.0600 -5.9316 0.5963
9.0122 -5.5940 0.5853
9.0159 -5.2989 0.5784
9.0195 -5.0119 0.5719
9.0231 -4.7322 0.5660
9.0265 -4.4594 0.5606
9.0299 -4.1928 0.5556
9.0332 -3.9319 0.5511
9.0365 -3.6762 0.5470
9.0396 -3.4254 0.5433
9.0427 -3.1789 0.5400
9.0458 -2.9364 0.5371
9.0488 -2.6976 0.5345
9.0518 -2.4619 0.5323
9.0548 -2.2292 0.5304
9.0577 -1.9992 0.5289
9.0606 -1.7714 0.5277
9.0634 -1.5456 0.5268
9.0663 -1.3215 0.5262
9.0691 -1.0988 0.5260
9.0719 -0.8773 0.5261
9.0747 -0.6567 0.5264
9.0775 -0.4368 0.5271
9.0802 -0.2172 0.5281
9.0830 0.0023 0.5294
9.0858 0.2219 0.5310
9.0886 0.4419 0.5329
9.0914 0.6626 0.5352
9.0942 0.8842 0.5377
9.0970 1.1069 0.5406
9.0998 1.3311 0.5438
9.1027 1.5571 0.5474
9.1056 1.7851 0.5513
9.1085 2.0154 0.5555
9.1115 2.2483 0.5601
9.1144 2.4842 0.5651
9.1175 2.7233 0.5705
9.1205 2.9661 0.5764
9.1237 3.2129 0.5826
9.1268 3.4642 0.5893
9.1301 3.7202 0.5964
9.1345 3.9821 0.6041
9.1379 4.2492 0.6122
9.1413 4.5227 0.6209
9.1449 4.8029 0.6302
9.1485 5.0906 0.6400
9.1522 5.3864 0.6505
9.1561 5.6910 0.6616
9.1601 6.0052 0.6735
9.1642 6.3297 0.6862
9.1684 6.6656 0.6997
9.1728 7.0139 0.7140
9.1774 7.3756 0.7294
9.1822 7.7520 0.7457
5.8428 5.1797 0.4854
5.7628 5.3631 0.4902
9.1978 8.9843 0.8019
9.2035 9.4352 0.8234
9.2095 9.9096 0.8464
9.2158 10.4101 0.8712
9.2225 10.9394 0.8979
9.2034 11.4681 0.9241
9.2109 12.0636 0.9552
9.2452 12.7353 0.9917
9.2539 13.4178 1.0284
9.2621 14.1497 1.0684
9.2721 14.9411 1.1122
9.2830 15.7986 1.1603
9.2948 16.7319 1.2133
9.3077 17.7529 1.2720
9.3219 18.8759 1.3373
9.3376 20.1185 1.4102
9.3286 21.4416 1.4881
9.3748 23.0558 1.5853
9.8571 26.0279 1.7741
9.1472 26.0369 1.7605
8.4488 26.0457 1.7480
8.3806 28.1355 1.8753
8.4165 30.9737 2.0515
8.4327 34.2880 2.2581
7.7306 35.0678 2.2976
6.8776 35.2290 2.2976
6.0268 35.4008 2.2995
5.1676 35.5245 2.2995
4.3061 35.6291 2.2995
3.4429 35.7147 2.2995
2.5781 35.7813 2.2995
1.7284 36.1666 2.3211
0.8835 37.4651 2.4026
-0.0223 37.4838 2.4031
-0.9287 37.4825 2.4037
-1.8350 37.4614 2.4042
-2.7411 37.4207 2.4048
-3.6464 37.3587 2.4053
-4.5499 37.2726 2.4055
-5.4502 37.1566 2.4051
-6.3481 37.0213 2.4047
-7.2432 36.8675 2.4044
-8.1349 36.6938 2.4041
-9.0230 36.5007 2.4037
-9.4786 34.7185 2.2995
-10.3214 34.5007 2.2995
-11.1599 34.2644 2.2995
-11.9936 34.0093 2.2995
-12.8221 33.7357 2.2995
-13.6452 33.4437 2.2995
-14.4623 33.1333 2.2995
-11.7803 25.3023 1.7736
-16.0773 32.4576 2.2995
-14.3486 27.2885 1.9553
-17.6645 31.7094 2.2995
-11.3866 19.3260 1.4194
-19.4133 31.1997 2.3226
-20.1864 30.7589 2.3226
-20.9505 30.3003 2.3226
-21.7054 29.8244 2.3226
-22.0741 28.8393 2.2836
-23.1853 28.8202 2.3226
-23.9098 28.2924 2.3226
-24.6234 27.7476 2.3226
-25.3257 27.1861 2.3226
-26.0164 26.6080 2.3226
-20.7722 20.2419 1.8073
-27.3614 25.4029 2.3226
-21.0927 18.6542 1.7487
-27.8930 23.4917 2.2608
-26.7149 21.4175 2.1189
-26.3599 20.1059 2.0479
-19.9115 14.4398 1.5165
-26.2629 18.0938 1.9627
-26.3599 17.2363 1.9345
-26.5484 16.4576 1.9148
-26.7816 15.7191 1.8999
-27.0326 15.0001 1.8876
-15.8524 8.3018 1.0904
-27.7901 13.7080 1.8842
-28.2554 13.0983 1.8897
-28.8474 12.5349 1.9044
-29.5589 12.0034 1.9275
-30.4590 11.5196 1.9631
-31.3783 11.0081 2.0002
-32.2630 10.4500 2.0353
-9.8769 2.9374 0.6170
-35.3192 9.5813 2.1863
-37.4969 9.2053 2.3014
-38.1438 8.3922 2.3226
-14.8694 2.8967 0.8988
-14.8746 2.5263 0.8930
-14.8798 2.1586 0.8878
-14.8850 1.7933 0.8832
-14.8901 1.4298 0.8791
-14.8952 1.0678 0.8755
-15.2943 0.7255 0.8955
-15.2995 0.3555 0.8929
-15.3047 -0.0143 0.8907
-15.3100 -0.3843 0.8892
-15.3152 -0.7551 0.8881
-14.9258 -1.0980 0.8647
-14.9309 -1.4618 0.8647
-14.9361 -1.8276 0.8651
-14.9413 -2.1959 0.8661
-14.9465 -2.5670 0.8677
-14.9518 -2.9415 0.8697
-14.9572 -3.3199 0.8723
-15.3582 -3.8004 0.8986
-15.3638 -4.1982 0.9024
-15.3695 -4.6016 0.9069
-15.3753 -5.0112 0.9119
-15.0033 -5.2943 0.8950
-14.9908 -5.7008 0.9001
-14.9967 -6.1217 0.9070
-15.0028 -6.5514 0.9145
-15.0090 -6.9906 0.9228
-15.0153 -7.4402 0.9318
-15.0218 -7.9010 0.9417
-15.0285 -8.3742 0.9524
-15.4329 -9.0950 0.9894
-15.4402 -9.6093 1.0023
-15.4477 -10.1397 1.0162
-15.0573 -10.4125 1.0046
-15.0651 -10.9652 1.0204
-15.0732 -11.5383 1.0374
-15.0816 -12.1336 1.0557
-15.1959 -12.8438 1.3043
-15.2062 -13.4956 1.3306
-15.2169 -14.1768 1.3589
-15.2282 -14.8905 1.3895
-15.2408 -15.6407 1.4225
-15.2535 -16.4297 1.4581
-15.2669 -17.2624 1.4967
-15.2850 -18.1480 1.5388
-15.3021 -19.0856 1.5843
-15.3158 -20.0779 1.6333
-15.3355 -21.1440 1.6872
-15.3565 -22.2865 1.7461
-10.1083 -15.4561 1.1900
-15.3967 -24.8318 1.8804
-15.4214 -26.2680 1.9582
-15.4479 -27.8317 2.0442
-13.6661 -26.0875 1.8893
-13.0971 -26.5420 1.8968
-12.5339 -27.0269 1.9075
-13.7186 -31.5571 2.2012
-13.5307 -33.3028 2.2976
-12.7325 -33.6468 2.2976
-9.2901 -26.4642 1.7899
-8.6932 -26.8198 1.7980
-9.3769 -31.5040 2.0948
-8.7288 -32.1470 2.1217
-8.6199 -35.0756 2.2993
-7.7740 -35.2908 2.2993
-6.9223 -35.4839 2.2993
-6.3380 -37.2556 2.4026
-5.4380 -37.4103 2.4026
-4.5230 -37.4498 2.3967
-3.6268 -37.6483 2.4026
-2.7168 -37.7315 2.4026
-0.7341 -15.3711 0.9772
-0.3622 -15.3646 0.9759
0.0091 -15.3581 0.9752
0.3800 -15.3516 0.9751
0.7510 -15.3451 0.9757
2.6426 -36.1060 2.2995
3.5132 -36.0242 2.2995
4.3812 -35.9196 2.2995
5.2459 -35.7921 2.2995
6.1732 -36.0296 2.3245
6.2002 -31.5837 2.0476
6.8569 -30.9536 2.0178
7.4033 -29.9723 1.9660
7.7201 -28.2999 1.8690
6.6422 -22.2201 1.4786
6.6698 -20.4949 1.3750
6.7548 -19.1696 1.2976
7.2247 -19.0241 1.3002
7.7580 -19.0301 1.3142
7.2441 -16.6101 1.1598
7.4619 -16.0405 1.1333
7.7714 -15.7025 1.1235
8.1381 -15.4905 1.1232
8.5648 -15.3879 1.1316
8.6471 -14.6892 1.0965
8.6567 -13.9248 1.0560
8.6657 -13.2162 1.0190
8.6740 -12.5566 0.9853
8.6818 -11.9405 0.9543
8.6891 -11.3630 0.9259
8.6960 -10.8199 0.8998
8.7025 -10.3078 0.8756
8.7086 -9.8234 0.8533
8.7144 -9.3642 0.8327
8.7200 -8.9276 0.8136
8.7252 -8.5116 0.7959
8.7047 -8.0906 0.7772
8.7095 -7.7114 0.7620
8.7141 -7.3477 0.7479
8.6783 -6.9658 0.7314
8.7484 -6.6811 0.7247
8.7525 -6.3554 0.7134
8.7565 -6.0407 0.7028
9.0590 -5.9316 0.7167
9.0122 -5.5947 0.7033
9.0159 -5.2996 0.6947
9.0195 -5.0126 0.6867
9.0231 -4.7329 0.6794
9.0265 -4.4601 0.6726
9.0299 -4.1934 0.6664
9.0332 -3.9325 0.6607
9.0364 -3.6769 0.6555
9.0396 -3.4260 0.6508
9.0427 -3.1795 0.6466
9.0458 -2.9370 0.6429
9.0488 -2.6982 0.6395
9.0518 -2.4626 0.6366
9.0548 -2.2298 0.6342
9.0577 -1.9998 0.6321
9.0606 -1.7720 0.6304
9.0634 -1.5462 0.6291
9.0663 -1.3221 0.6282
9.0691 -1.0994 0.6276
9.0719 -0.8779 0.6275
9.0747 -0.6573 0.6277
9.0775 -0.4374 0.6282
9.0802 -0.2178 0.6292
9.0830 0.0017 0.6305
9.0858 0.2213 0.6321
9.0886 0.4413 0.6342
9.0914 0.6620 0.6366
9.0942 0.8836 0.6394
9.0970 1.1063 0.6426
9.0998 1.3305 0.6461
9.0944 1.5551 0.6495
9.0301 1.7697 0.6491
9.0826 2.0090 0.6575
9.0856 2.2413 0.6627
9.0885 2.4765 0.6684
9.0916 2.7150 0.6745
9.1205 2.9655 0.6831
9.1237 3.2123 0.6902
9.1268 3.4635 0.6979
9.1301 3.7196 0.7061
9.1345 3.9814 0.7150
9.1379 4.2486 0.7244
9.1413 4.5220 0.7344
9.1449 4.8023 0.7451
9.1485 5.0900 0.7565
9.1522 5.3857 0.7687
9.1561 5.6903 0.7816
9.1601 6.0045 0.7954
9.1642 6.3290 0.8101
9.1684 6.6649 0.8258
9.1728 7.0131 0.8426
9.1774 7.3748 0.8604
5.9851 5.0524 0.5733
5.7848 5.1278 0.5666
5.6910 5.2957 0.5706
9.1978 8.9835 0.9450
9.2035 9.4343 0.9701
9.2095 9.9087 0.9970
9.2158 10.4092 1.0259
9.2225 10.9384 1.0571
9.2034 11.4671 1.0877
9.2109 12.0626 1.1241
9.2452 12.7343 1.1668
9.2538 13.4168 1.2098
9.2621 14.1486 1.2566
9.2721 14.9400 1.3079
9.2829 15.7974 1.3642
9.2948 16.7307 1.4264
9.3077 17.7516 1.4951
9.3219 18.8745 1.5716
9.3376 20.1171 1.6571
9.3286 21.4400 1.7483
9.3748 23.0542 1.8623
9.8578 26.0279 2.0840
9.1478 26.0369 2.0678
8.4493 26.0457 2.0529
8.3806 28.1335 2.2020
8.0281 29.5421 2.2976
7.3082 29.7138 2.2976
6.5850 29.8694 2.2976
5.8637 30.0336 2.2995
5.1343 30.1566 2.2995
4.4025 30.2634 2.2995
3.6688 30.3538 2.2995
2.9334 30.4278 2.2995
2.2954 31.8559 2.4029
1.5249 31.9067 2.4034
0.7533 31.9404 2.4040
-0.0190 31.9568 2.4046
-0.7918 31.9559 2.4052
-1.5644 31.9341 2.4055
-2.3357 31.8836 2.4050
-3.1056 31.8159 2.4044
-3.8737 31.7310 2.4038
-4.6397 31.6290 2.4033
-5.4034 31.5099 2.4027
-5.9008 30.0330 2.2995
-6.6278 29.8935 2.2995
-7.3517 29.7377 2.2995
-8.0724 29.5658 2.2995
-8.7894 29.3776 2.2995
-9.5978 29.4663 2.3226
-10.3137 29.2438 2.3226
-11.0249 29.0052 2.3226
-11.7312 28.7505 2.3226
-12.4321 28.4799 2.3226
-11.7796 25.2989 2.0841
-13.8165 27.8912 2.3226
-14.3479 27.2851 2.2983
-15.1756 27.2396 2.3226
-11.3855 19.3227 1.6689
-16.5067 26.5263 2.3226
-17.1609 26.1467 2.3226
-17.8071 25.7520 2.3226
-18.4450 25.3424 2.3226
-19.0742 24.9180 2.3226
-19.6945 24.4789 2.3226
-20.3055 24.0253 2.3226
-20.9068 23.5574 2.3226
-21.4981 23.0753 2.3226
-22.0792 22.5792 2.3226
-20.7705 20.2382 2.1299
-23.1674 21.5070 2.3184
-21.0861 18.6466 2.0614
-23.8286 20.0666 2.2780
-23.9698 19.2148 2.2431
-24.0713 18.3584 2.2070
-19.9103 14.4373 1.7902
-24.4058 16.8123 2.1537
-24.6742 16.1321 2.1389
-24.9536 15.4670 2.1265
-25.2935 14.8437 2.1207
-25.7075 14.2629 2.1222
-15.8514 8.3001 1.2894
-26.5990 13.1185 2.1335
-27.1589 12.5881 2.1495
-27.7474 12.0549 2.1684
-28.4502 11.5512 2.1969
-29.0535 10.9860 2.2182
-29.8799 10.4804 2.2570
-30.3770 9.8370 2.2716
-9.8817 2.9381 0.7320
-31.6288 8.5780 2.3226
-31.2527 7.6703 2.2762
-31.4906 6.9264 2.2762
-14.8694 2.8957 1.0673
-14.8746 2.5253 1.0609
-14.8798 2.1576 1.0551
-14.8850 1.7923 1.0500
-14.8901 1.4288 1.0455
-14.8952 1.0668 1.0416
-15.2943 0.7245 1.0658
-15.2995 0.3545 1.0631
-15.3048 -0.0153 1.0610
-15.3100 -0.3853 1.0596
-15.3152 -0.7561 1.0587
-14.9258 -1.0989 1.0312
-14.9310 -1.4628 1.0316
-14.9361 -1.8286 1.0326
-14.9413 -2.1969 1.0342
-14.9466 -2.5680 1.0364
-14.9518 -2.9425 1.0393
-14.9572 -3.3209 1.0428
-15.3582 -3.8015 1.0747
-15.3638 -4.1993 1.0796
-15.3695 -4.6027 1.0854
-15.3753 -5.0123 1.0918
-15.0009 -5.2945 1.0719
-14.9908 -5.7018 1.0785
-14.9967 -6.1228 1.0872
-15.0028 -6.5525 1.0966
-15.0090 -6.9917 1.1070
-15.0153 -7.4413 1.1182
-15.0218 -7.9022 1.1305
-15.0285 -8.3753 1.1437
-15.4329 -9.0962 1.1887
-15.4402 -9.6104 1.2046
-15.4477 -10.1409 1.2218
-15.0573 -10.4137 1.2083
-15.0651 -10.9664 1.2277
-15.0732 -11.5396 1.2485
-15.0816 -12.1349 1.2710
-15.1956 -12.8448 1.5259
-15.2058 -13.4966 1.5570
-15.2165 -14.1778 1.5906
-15.2278 -14.8915 1.6267
-15.2409 -15.6423 1.6658
-15.2537 -16.4313 1.7079
-15.2671 -17.2641 1.7534
-15.2851 -18.1496 1.8032
-15.3021 -19.0872 1.8568
-15.3163 -20.0801 1.9147
-15.3359 -21.1463 1.9782
-15.3570 -22.2889 2.0476
-10.1078 -15.4566 1.3957
-13.3175 -21.4801 1.9080
-12.8473 -21.8849 1.9140
-14.7963 -26.6598 2.2976
-14.1605 -27.0333 2.2976
-13.5149 -27.3906 2.2976
-12.8597 -27.7314 2.2976
-9.5008 -21.8564 1.7899
-8.9766 -22.0954 1.7899
-8.4461 -22.3210 1.7899
-10.1528 -28.9236 2.2976
-8.8179 -27.2061 2.1423
-8.7609 -29.4362 2.2993
-8.0514 -29.6543 2.2993
-7.3362 -29.8539 2.2993
-6.6158 -30.0350 2.2993
-5.9201 -30.3484 2.3108
-5.3930 -31.7032 2.4026
-4.6270 -31.8332 2.4026
-3.8578 -31.9433 2.4026
-3.0857 -32.0334 2.4026
-2.3114 -32.1033 2.4026
-0.7340 -15.3690 1.1484
-0.3621 -15.3626 1.1469
0.0091 -15.3561 1.1461
0.3799 -15.3496 1.1460
0.7509 -15.3431 1.1466
2.2483 -30.7206 2.2995
2.9891 -30.6521 2.2995
3.7278 -30.5642 2.2995
4.4637 -30.4572 2.2995
5.1964 -30.3310 2.2995
5.9254 -30.1859 2.2995
6.7892 -30.6498 2.3476
7.3544 -29.7761 2.2946
6.0694 -22.2504 1.7263
6.1238 -20.4872 1.6014
6.6820 -20.5337 1.6181
6.7010 -19.0182 1.5119
7.2242 -19.0241 1.5268
7.7574 -19.0301 1.5430
7.3341 -16.8176 1.3786
7.4616 -16.0410 1.3304
7.8227 -15.8072 1.3274
8.1735 -15.5591 1.3239
8.5642 -15.3880 1.3277
8.6471 -14.6902 1.2864
8.6567 -13.9259 1.2386
8.6657 -13.2172 1.1951
8.6740 -12.5576 1.1553
8.6818 -11.9414 1.1188
8.6891 -11.3639 1.0853
8.6960 -10.8208 1.0544
8.7025 -10.3087 1.0259
8.7086 -9.8243 0.9996
8.7144 -9.3650 0.9752
8.7199 -8.9284 0.9527
8.7252 -8.5124 0.9317
8.7047 -8.0913 0.9096
8.7095 -7.7121 0.8916
8.7141 -7.3484 0.8749
8.6779 -6.9663 0.8553
8.7484 -6.6818 0.8474
8.7525 -6.3561 0.8339
8.7565 -6.0414 0.8213
9.0578 -5.9316 0.8372
9.0122 -5.5953 0.8215
9.0159 -5.3003 0.8112
9.0195 -5.0132 0.8017
9.0231 -4.7336 0.7929
9.0265 -4.4607 0.7848
9.0299 -4.1941 0.7773
9.0332 -3.9332 0.7705
9.0364 -3.6775 0.7642
9.0396 -3.4266 0.7586
9.0427 -3.1802 0.7534
9.0458 -2.9377 0.7488
9.0488 -2.6988 0.7448
9.0518 -2.4632 0.7412
9.0548 -2.2305 0.7381
9.0577 -2.0004 0.7354
9.0606 -1.7726 0.7333
9.0634 -1.5468 0.7315
9.0662 -1.3227 0.7303
9.0691 -1.1000 0.7294
9.0719 -0.8785 0.7290
9.0747 -0.6579 0.7290
9.0774 -0.4380 0.7295
9.0802 -0.2184 0.7304
9.0830 0.0011 0.7317
9.0858 0.2207 0.7334
9.0886 0.4407 0.7356
9.0914 0.6614 0.7382
9.0942 0.8830 0.7412
9.0970 1.1057 0.7447
9.0998 1.3299 0.7486
9.0948 1.5545 0.7524
9.0797 1.7788 0.7558
9.0826 2.0084 0.7611
9.0856 2.2407 0.7670
9.0885 2.4759 0.7734
9.0916 2.7143 0.7803
9.1205 2.9649 0.7900
9.1236 3.2117 0.7980
9.1268 3.4629 0.8067
9.1301 3.7190 0.8160
9.1345 3.9808 0.8260
9.1378 4.2479 0.8367
9.1413 4.5213 0.8481
9.1448 4.8016 0.8602
9.1485 5.0893 0.8732
9.1522 5.3850 0.8870
9.1561 5.6896 0.9018
9.1601 6.0037 0.9175
9.1642 6.3283 0.9343
9.1684 6.6641 0.9522
9.1728 7.0124 0.9713
9.1774 7.3740 0.9916
5.9415 5.0151 0.6558
5.7544 5.1004 0.6493
5.6571 5.2637 0.6533
9.1977 8.9826 1.0883
9.2034 9.4335 1.1170
9.2094 9.9078 1.1478
9.2158 10.4082 1.1809
9.2225 10.9375 1.2166
9.2034 11.4662 1.2516
9.2109 12.0617 1.2933
9.2452 12.7332 1.3422
9.2538 13.4157 1.3915
9.2621 14.1475 1.4451
9.2721 14.9388 1.5039
9.2829 15.7962 1.5685
9.2947 16.7294 1.6397
9.3077 17.7502 1.7185
9.3219 18.8731 1.8063
9.3376 20.1156 1.9043
9.3286 21.4385 2.0090
9.3748 23.0525 2.1397
9.4594 24.9744 2.2976
8.8480 25.1818 2.2976
8.2324 25.3752 2.2976
7.6129 25.5545 2.2976
6.9898 25.7197 2.2976
6.3634 25.8708 2.2976
5.7388 26.0291 2.2995
5.1062 26.1518 2.2995
4.4712 26.2601 2.2995
3.8341 26.3540 2.2995
3.1952 26.4335 2.2995
2.6693 27.6866 2.4026
1.9989 27.7395 2.4026
1.3276 27.7773 2.4026
0.6556 27.7999 2.4026
-0.0166 27.8074 2.4026
-0.6889 27.7998 2.4026
-1.3608 27.7769 2.4026
-2.0322 27.7390 2.4026
-2.7027 27.6860 2.4026
-3.3718 27.6178 2.4026
-4.0394 27.5346 2.4026
-4.7052 27.4362 2.4026
-5.2340 26.6370 2.3423
-5.7711 26.0277 2.2995
-6.4011 25.8906 2.2995
-7.0281 25.7393 2.2995
-7.6518 25.5737 2.2995
-8.2720 25.3941 2.2995
-8.8883 25.2003 2.2995
-9.5957 25.2434 2.3226
-10.2095 25.0194 2.3226
-10.8184 24.7815 2.3226
-11.4222 24.5297 2.3226
-12.0206 24.2641 2.3226
-12.6133 23.9847 2.3226
-13.2000 23.6917 2.3226
-11.3845 19.3194 1.9187
-14.3542 23.0654 2.3226
-14.9210 22.7323 2.3226
-15.4808 22.3860 2.3226
-16.0330 22.0267 2.3226
-16.5775 21.6545 2.3226
-17.1139 21.2696 2.3226
-17.6419 20.8721 2.3226
-18.1614 20.4621 2.3226
-18.6718 20.0399 2.3226
-19.1732 19.6056 2.3226
-19.6650 19.1593 2.3226
-20.1471 18.7013 2.3226
-20.6191 18.2318 2.3226
-21.0808 17.7508 2.3226
-21.5319 17.2587 2.3226
-21.9167 16.7134 2.3167
-19.9090 14.4348 2.0642
-22.6510 15.6017 2.3055
-22.9460 15.0004 2.2946
-23.2710 14.4223 2.2883
-23.6476 13.8761 2.2883
-24.0018 13.3147 2.2874
-15.8503 8.2984 1.4887
-24.7932 12.2261 2.2967
-25.2043 11.6803 2.3044
-25.6142 11.1263 2.3130
-26.0040 10.5562 2.3208
-25.6370 9.6923 2.2628
-25.9756 9.1091 2.2689
-26.8515 8.6935 2.3226
-9.8865 2.9389 0.8474
-26.7858 7.2628 2.2762
-26.9988 6.6245 2.2762
-27.1971 5.9802 2.2762
-14.8694 2.8947 1.2362
-14.8747 2.5243 1.2290
-14.8799 2.1566 1.2227
-14.8850 1.7913 1.2171
-14.8901 1.4279 1.2122
-14.8952 1.0658 1.2081
-15.2943 0.7235 1.2365
-15.2996 0.3535 1.2337
-15.3048 -0.0163 1.2316
-15.3100 -0.3863 1.2302
-15.3152 -0.7571 1.2296
-14.9258 -1.0999 1.1980
-14.9310 -1.4638 1.1987
-14.9361 -1.8296 1.2002
-14.9413 -2.1979 1.2024
-14.9466 -2.5690 1.2054
-14.9519 -2.9435 1.2091
-14.9572 -3.3219 1.2135
-15.3582 -3.8025 1.2509
-15.3638 -4.2003 1.2571
-15.3695 -4.6037 1.2641
-15.3753 -5.0134 1.2720
-15.0001 -5.2952 1.2491
-14.9908 -5.7029 1.2573
-14.9967 -6.1238 1.2677
-15.0028 -6.5536 1.2790
-15.0090 -6.9928 1.2915
-15.0154 -7.4424 1.3050
-15.0219 -7.9033 1.3196
-15.0285 -8.3765 1.3354
-15.0354 -8.8630 1.3525
-15.0425 -9.3640 1.3710
-15.0498 -9.8809 1.3909
-15.0573 -10.4149 1.4123
-15.0651 -10.9677 1.4353
-15.0732 -11.5408 1.4600
-15.0816 -12.1362 1.4867
-15.1952 -12.8458 1.7479
-15.2055 -13.4976 1.7839
-15.2162 -14.1788 1.8226
-15.2274 -14.8925 1.8643
-15.2411 -15.6438 1.9096
-15.2538 -16.4330 1.9581
-15.2673 -17.2657 2.0106
-13.4485 -15.9702 1.8195
-13.0663 -16.2997 1.8186
-12.6832 -16.6294 1.8189
-15.3364 -21.1486 2.2698
-15.0165 -21.7964 2.2976
-10.1073 -15.4570 1.6017
-13.9712 -22.5362 2.2976
-13.4341 -22.8862 2.2976
-12.8878 -23.2228 2.2976
-12.3326 -23.5454 2.2976
-11.7690 -23.8540 2.2976
-11.1973 -24.1482 2.2976
-9.4053 -21.6382 2.0352
-10.0311 -24.6927 2.2976
-9.4446 -24.9616 2.2993
-8.8439 -25.1964 2.2993
-8.2370 -25.4158 2.2993
-7.6245 -25.6196 2.2993
-7.0066 -25.8077 2.2993
-6.3838 -25.9799 2.2993
-5.8633 -26.6207 2.3419
-5.3555 -27.4559 2.4026
-4.6922 -27.5852 2.4026
-4.0256 -27.6973 2.4026
-3.3562 -27.7923 2.4026
-2.6845 -27.8699 2.4026
-2.0108 -27.9302 2.4026
-0.7338 -15.3670 1.3198
-0.3620 -15.3605 1.3181
0.0090 -15.3541 1.3172
0.3798 -15.3476 1.3171
0.7507 -15.3411 1.3178
2.0436 -27.9258 2.4026
2.6005 -26.6685 2.2995
3.2432 -26.5928 2.2995
3.8836 -26.5006 2.2995
4.5213 -26.3919 2.2995
5.1557 -26.2669 2.2995
5.7866 -26.1256 2.2995
6.5475 -26.5112 2.3476
6.0689 -22.2500 1.9835
6.1348 -20.5256 1.8433
6.1865 -19.0124 1.7212
6.7006 -19.0182 1.7368
7.2237 -19.0241 1.7538
7.7569 -19.0301 1.7722
7.3082 -16.7595 1.5777
7.4613 -16.0416 1.5277
7.8223 -15.8075 1.5241
8.1731 -15.5594 1.5199
8.5636 -15.3881 1.5241
8.6470 -14.6914 1.4766
8.6567 -13.9270 1.4216
8.6657 -13.2182 1.3715
8.6740 -12.5586 1.3256
8.6818 -11.9424 1.2836
8.6891 -11.3648 1.2449
8.6960 -10.8217 1.2093
8.7025 -10.3095 1.1765
8.7086 -9.8251 1.1461
8.7144 -9.3658 1.1180
8.7199 -8.9292 1.0919
8.7252 -8.5132 1.0678
8.7047 -8.0921 1.0423
8.7095 -7.7129 1.0215
8.7141 -7.3492 1.0021
8.6776 -6.9667 0.9795
8.7484 -6.6825 0.9702
8.7525 -6.3568 0.9546
8.7565 -6.0421 0.9401
9.0567 -5.9316 0.9579
9.0121 -5.5960 0.9399
9.0159 -5.3010 0.9280
9.0195 -5.0139 0.9169
9.0231 -4.7342 0.9066
9.0265 -4.4614 0.8972
9.0299 -4.1947 0.8884
9.0332 -3.9338 0.8804
9.0364 -3.6781 0.8731
9.0396 -3.4273 0.8665
9.0427 -3.1808 0.8604
9.0458 -2.9383 0.8550
9.0488 -2.6994 0.8502
9.0518 -2.4638 0.8459
9.0547 -2.2311 0.8422
9.0577 -2.0010 0.8390
9.0605 -1.7732 0.8363
9.0634 -1.5474 0.8342
9.0662 -1.3233 0.8325
9.0691 -1.1006 0.8314
9.0719 -0.8791 0.8308
9.0747 -0.6585 0.8306
9.0774 -0.4385 0.8309
9.0802 -0.2190 0.8318
9.0830 0.0005 0.8331
9.0858 0.2201 0.8349
9.0886 0.4401 0.8372
9.0914 0.6608 0.8399
9.0942 0.8824 0.8432
9.0970 1.1051 0.8470
9.0998 1.3293 0.8513
9.0953 1.5540 0.8554
9.0797 1.7782 0.8591
9.0826 2.0078 0.8650
9.0856 2.2401 0.8715
9.0885 2.4753 0.8785
9.0915 2.7137 0.8862
9.1205 2.9642 0.8970
9.1236 3.2111 0.9060
9.1268 3.4623 0.9157
9.1301 3.7183 0.9261
9.1345 3.9801 0.9373
9.1378 4.2473 0.9492
9.1413 4.5207 0.9619
9.1448 4.8009 0.9756
9.1485 5.0886 0.9901
9.1522 5.3844 1.0056
9.1561 5.6889 1.0221
9.1600 6.0030 1.0398
9.1642 6.3275 1.0586
9.1684 6.6634 1.0787
9.1728 7.0116 1.1002
9.1774 7.3733 1.1231
5.9263 5.0017 0.7407
5.7421 5.0890 0.7336
5.6441 5.2511 0.7379
9.1977 8.9818 1.2319
9.2034 9.4326 1.2642
9.2094 9.9069 1.2988
9.2158 10.4073 1.3362
9.2225 10.9366 1.3764
9.2034 11.4652 1.4158
9.2109 12.0606 1.4628
9.2452 12.7322 1.5180
9.2538 13.4146 1.5735
9.2620 14.1464 1.6339
9.2721 14.9376 1.7003
9.2829 15.7950 1.7731
9.2947 16.7281 1.8534
9.3076 17.7489 1.9424
9.3219 18.8717 2.0413
9.3376 20.1142 2.1520
9.3285 21.4369 2.2701
8.9091 21.9059 2.2976
8.3725 22.1033 2.2976
7.8318 22.2882 2.2976
7.2873 22.4607 2.2976
6.7393 22.6207 2.2976
6.1932 22.7870 2.2995
5.6384 22.9219 2.2995
5.0809 23.0441 2.2995
4.5210 23.1535 2.2995
3.9589 23.2501 2.2995
3.3949 23.3340 2.2995
2.8292 23.4049 2.2995
2.3637 24.5149 2.4026
1.7701 24.5621 2.4026
1.1756 24.5958 2.4026
0.5806 24.6159 2.4026
-0.0147 24.6226 2.4026
-0.6100 24.6158 2.4026
-1.2051 24.5954 2.4026
-1.7995 24.5615 2.4026
-2.3932 24.5140 2.4026
-2.9856 24.4532 2.4026
-3.5767 24.3788 2.4026
-4.1661 24.2910 2.4026
-4.7534 24.1898 2.4026
-5.2644 23.7413 2.3692
-5.6670 22.9198 2.2995
-6.2218 22.7848 2.2995
-6.7736 22.6370 2.2995
-7.3222 22.4767 2.2995
-7.8672 22.3038 2.2995
-8.4085 22.1184 2.2995
-8.9456 21.9207 2.2995
-9.5736 21.9284 2.3226
-10.1071 21.7039 2.3226
-10.6357 21.4671 2.3226
-11.1592 21.2180 2.3226
-11.6771 20.9569 2.3226
-11.3834 19.3161 2.1690
-12.6957 20.3988 2.3226
-13.1957 20.1021 2.3226
-13.6892 19.7937 2.3226
-14.1759 19.4738 2.3226
-14.6556 19.1425 2.3226
-15.1280 18.7999 2.3226
-15.5929 18.4463 2.3226
-16.0500 18.0816 2.3226
-16.4989 17.7062 2.3226
-16.9396 17.3201 2.3226
-17.3718 16.9234 2.3226
-17.7951 16.5165 2.3226
-18.2093 16.0994 2.3226
-18.6143 15.6723 2.3226
-19.0098 15.2355 2.3226
-19.3955 14.7891 2.3226
-19.7711 14.3332 2.3226
-20.1365 13.8682 2.3226
-20.4915 13.3942 2.3226
-20.8358 12.9114 2.3226
-21.1692 12.4201 2.3226
-16.1125 8.9371 1.7413
-15.8493 8.2967 1.6884
-22.1017 10.8972 2.3226
-22.3892 10.3741 2.3226
-22.1833 9.6344 2.2732
-22.3295 9.0630 2.2619
-23.1793 8.7616 2.3226
-23.4178 8.2106 2.3226
-23.1720 7.5007 2.2762
-9.8896 2.9391 0.9628
-23.5764 6.3910 2.2762
-23.7592 5.8280 2.2762
-23.9863 5.2726 2.2817
-14.8694 2.8937 1.4053
-14.8747 2.5233 1.3975
-14.8799 2.1557 1.3906
-14.8850 1.7903 1.3845
-14.8902 1.4269 1.3792
-14.8953 1.0649 1.3748
-14.9004 0.7039 1.3712
-14.9054 0.3434 1.3683
-14.9105 -0.0168 1.3663
-14.9156 -0.3774 1.3651
-14.9207 -0.7386 1.3647
-14.9258 -1.1009 1.3650
-14.9310 -1.4648 1.3662
-14.9361 -1.8306 1.3682
-14.9413 -2.1988 1.3710
-14.9466 -2.5700 1.3747
-14.9519 -2.9445 1.3792
-14.9572 -3.3229 1.3845
-14.9626 -3.7056 1.3908
-14.9681 -4.0931 1.3979
-14.9736 -4.4862 1.4060
-14.9793 -4.8852 1.4151
-14.9850 -5.2909 1.4252
-14.9908 -5.7039 1.4363
-14.9968 -6.1249 1.4485
-15.0028 -6.5546 1.4618
-15.0090 -6.9939 1.4763
-15.0154 -7.4435 1.4920
-15.0219 -7.9044 1.5090
-15.0286 -8.3776 1.5275
-15.0354 -8.8641 1.5473
-15.0425 -9.3652 1.5687
-15.0498 -9.8821 1.5918
-15.0573 -10.4161 1.6166
-15.0651 -10.9689 1.6432
-15.0732 -11.5420 1.6719
-15.0816 -12.1374 1.7027
-15.1949 -12.8468 1.9703
-15.2051 -13.4986 2.0112
-15.2158 -14.1798 2.0551
-15.2270 -14.8935 2.1025
-15.2412 -15.6454 2.1538
-15.2540 -16.4346 2.2089
-15.2674 -17.2674 2.2684
-15.0511 -17.8748 2.2976
-14.6283 -18.2497 2.2976
-14.1958 -18.6142 2.2976
-13.7540 -18.9680 2.2976
-13.3029 -19.3107 2.2976
-10.1069 -15.4575 1.8081
-12.3744 -19.9620 2.2976
-9.3888 -15.9959 1.8131
-9.0206 -16.2557 1.8160
-8.6704 -16.5547 1.8242
-8.3171 -16.8588 1.8339
-9.9132 -21.3804 2.2976
-9.4040 -21.6367 2.2987
-8.8862 -21.8759 2.2993
-8.3597 -22.0958 2.2993
-7.8275 -22.3022 2.2993
-7.2900 -22.4951 2.2993
-6.7475 -22.6743 2.2993
-6.2003 -22.8395 2.2993
-5.8263 -23.7126 2.3715
-5.3225 -24.1666 2.4026
-4.7387 -24.2951 2.4026
-4.1516 -24.4087 2.4026
-3.5617 -24.5072 2.4026
-2.9694 -24.5906 2.4026
-2.3750 -24.6588 2.4026
-1.7790 -24.7118 2.4026
-0.7337 -15.3650 1.4916
-0.3620 -15.3585 1.4896
0.0090 -15.3521 1.4885
0.3797 -15.3456 1.4884
0.7506 -15.3391 1.4892
1.8080 -24.7081 2.4026
2.3007 -23.5961 2.2995
2.8694 -23.5297 2.2995
3.4361 -23.4487 2.2995
4.0004 -23.3533 2.2995
4.5620 -23.2435 2.2995
5.1204 -23.1193 2.2995
5.6753 -22.9810 2.2995
6.0783 -22.2862 2.2448
6.1343 -20.5252 2.0826
6.1861 -19.0126 1.9446
6.7000 -19.0181 1.9621
7.2232 -19.0241 1.9812
7.7563 -19.0301 2.0018
7.3330 -16.8176 1.7882
7.4611 -16.0422 1.7255
7.8218 -15.8078 1.7212
8.1726 -15.5597 1.7163
8.5630 -15.3881 1.7209
8.6470 -14.6925 1.6672
8.6567 -13.9280 1.6050
8.6657 -13.2193 1.5482
8.6740 -12.5596 1.4963
8.6818 -11.9433 1.4486
8.6891 -11.3657 1.4049
8.6960 -10.8226 1.3645
8.7025 -10.3104 1.3273
8.7086 -9.8260 1.2929
8.7144 -9.3667 1.2610
8.7199 -8.9301 1.2315
8.7252 -8.5140 1.2041
8.7047 -8.0929 1.1752
8.7095 -7.7137 1.1515
8.7141 -7.3499 1.1296
8.6772 -6.9671 1.1039
8.7483 -6.6832 1.0933
8.7525 -6.3575 1.0756
8.7564 -6.0428 1.0590
9.0556 -5.9316 1.0789
9.0121 -5.5967 1.0585
9.0159 -5.3016 1.0449
9.0195 -5.0146 1.0323
9.0230 -4.7349 1.0206
9.0265 -4.4620 1.0098
9.0299 -4.1954 0.9998
9.0332 -3.9344 0.9906
9.0364 -3.6788 0.9822
9.0396 -3.4279 0.9746
9.0427 -3.1814 0.9676
9.0458 -2.9389 0.9614
9.0488 -2.7000 0.9558
9.0518 -2.4644 0.9508
9.0547 -2.2317 0.9465
9.0577 -2.0016 0.9427
9.0605 -1.7738 0.9396
9.0634 -1.5480 0.9370
9.0662 -1.3239 0.9350
9.0690 -1.1012 0.9336
9.0719 -0.8797 0.9327
9.0746 -0.6591 0.9324
9.0774 -0.4391 0.9326
9.0802 -0.2196 0.9334
9.0830 -0.0001 0.9347
9.0858 0.2195 0.9365
9.0886 0.4395 0.9389
9.0913 0.6602 0.9419
9.0942 0.8818 0.9454
9.0970 1.1045 0.9495
9.0998 1.3287 0.9542
9.0957 1.5535 0.9587
9.0797 1.7776 0.9626
9.0826 2.0072 0.9690
9.0855 2.2395 0.9761
9.0885 2.4746 0.9839
9.0915 2.7131 0.9923
9.1205 2.9636 1.0043
9.1236 3.2104 1.0142
9.1268 3.4616 1.0249
9.1301 3.7177 1.0364
9.1344 3.9795 1.0488
9.1378 4.2466 1.0620
9.1413 4.5200 1.0761
9.1448 4.8002 1.0911
9.1485 5.0879 1.1072
9.1522 5.3837 1.1244
9.1561 5.6882 1.1428
9.1600 6.0023 1.1623
9.1641 6.3268 1.1832
9.1684 6.6626 1.2056
9.1728 7.0108 1.2294
9.1774 7.3725 1.2548
5.9264 5.0013 0.8275
5.7418 5.0882 0.8195
5.6438 5.2503 0.8242
9.1977 8.9809 1.3758
9.2034 9.4318 1.4117
9.2094 9.9061 1.4502
9.2158 10.4064 1.4917
9.2224 10.9356 1.5365
9.2033 11.4642 1.5804
9.2109 12.0596 1.6326
9.2452 12.7312 1.6941
9.2538 13.4135 1.7559
9.2620 14.1453 1.8232
9.2720 14.9365 1.8970
9.2829 15.7938 1.9782
9.2947 16.7269 2.0676
9.3076 17.7476 2.1667
9.3218 18.8703 2.2769
8.9382 19.2525 2.2976
8.4657 19.4527 2.2976
7.9888 19.6418 2.2976
7.5081 19.8198 2.2976
7.0235 19.9866 2.2976
6.5356 20.1423 2.2976
6.0494 20.3035 2.2995
5.5547 20.4366 2.2995
5.0574 20.5583 2.2995
4.5575 20.6686 2.2995
4.0554 20.7673 2.2995
3.5513 20.8546 2.2995
3.0454 20.9302 2.2995
2.6518 21.9355 2.4026
2.1204 21.9903 2.4026
1.5879 22.0329 2.4026
1.0546 22.0633 2.4026
0.5208 22.0815 2.4026
-0.0132 22.0875 2.4026
-0.5473 22.0812 2.4026
-1.0810 22.0628 2.4026
-1.6143 22.0322 2.4026
-2.1469 21.9893 2.4026
-2.6783 21.9344 2.4026
-3.2084 21.8672 2.4026
-3.7370 21.7879 2.4026
-4.2638 21.6966 2.4026
-4.7884 21.5931 2.4026
-5.2903 21.3948 2.3933
-5.5803 20.4341 2.2995
-6.0750 20.3007 2.2995
-6.5667 20.1560 2.2995
-7.0551 20.0000 2.2995
-7.5401 19.8327 2.2995
-8.0213 19.6543 2.2995
-8.4986 19.4647 2.2995
-8.9717 19.2642 2.2995
-9.5350 19.2439 2.3226
-10.0036 19.0193 2.3226
-10.4672 18.7839 2.3226
-10.9255 18.5377 2.3226
-11.3784 18.2808 2.3226
-11.8255 18.0133 2.3226
-12.2667 17.7355 2.3226
-12.7017 17.4472 2.3226
-13.1304 17.1488 2.3226
-13.5523 16.8403 2.3226
-13.9674 16.5219 2.3226
-14.3753 16.1936 2.3226
-14.7759 15.8556 2.3226
-15.1689 15.5082 2.3226
-15.5542 15.1514 2.3226
-15.9315 14.7854 2.3226
-16.3005 14.4103 2.3226
-16.6610 14.0263 2.3226
-17.0129 13.6337 2.3226
-17.3559 13.2325 2.3226
-17.6899 12.8230 2.3226
-18.0145 12.4053 2.3226
-18.3297 11.9797 2.3226
-18.6351 11.5463 2.3226
-18.9308 11.1054 2.3226
-16.0913 8.9241 1.9449
-15.8482 8.2950 1.8884
-19.5033 9.6147 2.2928
-19.4850 9.0270 2.2616
-20.2538 8.7950 2.3226
-20.4862 8.3134 2.3226
-20.7074 7.8257 2.3226
-20.5002 7.1862 2.2762
-20.6946 6.6973 2.2762
-9.8799 2.9356 1.0772
-21.0492 5.7045 2.2762
-21.3236 5.2291 2.2885
-21.7917 4.7887 2.3226
-14.8695 2.8927 1.5747
-14.8747 2.5223 1.5663
-14.8799 2.1547 1.5587
-14.8850 1.7894 1.5522
-14.8902 1.4259 1.5465
-14.8953 1.0639 1.5418
-14.9004 0.7029 1.5380
-14.9055 0.3425 1.5351
-14.9105 -0.0178 1.5331
-14.9156 -0.3783 1.5320
-14.9207 -0.7395 1.5318
-14.9259 -1.1019 1.5325
-14.9310 -1.4657 1.5340
-14.9362 -1.8316 1.5365
-14.9414 -2.1998 1.5400
-14.9466 -2.5710 1.5443
-14.9519 -2.9455 1.5496
-14.9572 -3.3239 1.5559
-14.9626 -3.7066 1.5632
-14.9681 -4.0942 1.5715
-14.9736 -4.4872 1.5809
-14.9793 -4.8863 1.5913
-14.9850 -5.2920 1.6029
-14.9908 -5.7050 1.6157
-14.9968 -6.1260 1.6296
-15.0028 -6.5557 1.6449
-15.0090 -6.9949 1.6615
-15.0154 -7.4446 1.6794
-15.0219 -7.9055 1.6989
-15.0286 -8.3787 1.7199
-15.0354 -8.8653 1.7425
-15.0425 -9.3664 1.7669
-15.0498 -9.8832 1.7931
-15.0574 -10.4173 1.8213
-15.0652 -10.9701 1.8516
-15.0733 -11.5433 1.8842
-15.0817 -12.1387 1.9192
-15.1945 -12.8478 2.1933
-15.2047 -13.4996 2.2390
-15.2154 -14.1808 2.2882
-14.9434 -14.6175 2.2976
-14.5993 -14.9878 2.2976
-14.2458 -15.3497 2.2976
-13.8830 -15.7029 2.2976
-13.5111 -16.0473 2.2976
-13.1304 -16.3824 2.2976
-12.7410 -16.7080 2.2976
-12.3434 -17.0240 2.2976
-11.9376 -17.3301 2.2976
-10.1117 -15.4662 2.0160
-11.1026 -17.9117 2.2976
-10.6739 -18.1868 2.2976
-10.2382 -18.4511 2.2976
-9.7956 -18.7046 2.2976
-9.3537 -18.9612 2.2993
-8.8980 -19.1923 2.2993
-8.4364 -19.4119 2.2993
-7.9692 -19.6198 2.2993
-7.4966 -19.8159 2.2993
-7.0190 -20.0000 2.2993
-6.5367 -20.1720 2.2993
-6.0500 -20.3318 2.2993
-5.8088 -21.3988 2.4026
-5.2921 -21.5397 2.4026
-4.7718 -21.6675 2.4026
-4.2483 -21.7821 2.4026
-3.7219 -21.8834 2.4026
-3.1929 -21.9712 2.4026
-2.6619 -22.0455 2.4026
-2.1290 -22.1063 2.4026
-1.5948 -22.1536 2.4026
-0.7336 -15.3630 1.6636
-0.3619 -15.3565 1.6614
0.0090 -15.3500 1.6602
0.3797 -15.3436 1.6601
0.7504 -15.3371 1.6610
1.6207 -22.1504 2.4026
2.1549 -22.1022 2.4026
2.5723 -21.0946 2.2995
3.0804 -21.0225 2.2995
3.5863 -20.9374 2.2995
4.0899 -20.8396 2.2995
4.5907 -20.7290 2.2995
5.0883 -20.6057 2.2995
5.5825 -20.4698 2.2995
6.0730 -20.3215 2.2995
6.1858 -19.0129 2.1685
6.6995 -19.0179 2.1879
7.2226 -19.0239 2.2090
7.7557 -19.0300 2.2319
7.3325 -16.8175 1.9937
7.4608 -16.0427 1.9237
7.8033 -15.7716 1.9143
8.1514 -15.5204 1.9083
8.5624 -15.3882 1.9181
8.6470 -14.6936 1.8583
8.6567 -13.9291 1.7887
8.6656 -13.2203 1.7253
8.6740 -12.5606 1.6673
8.6818 -11.9443 1.6141
8.6891 -11.3667 1.5652
8.6960 -10.8235 1.5201
8.7024 -10.3113 1.4785
8.7086 -9.8269 1.4400
8.7144 -9.3675 1.4044
8.7199 -8.9309 1.3714
