ply
format ascii 1.0
element vertex 2069
property float32 x
property float32 y
property float32 z
end_header
-14.8626 -0.0071 -0.2889
-14.8672 -0.3665 -0.2911
-14.8718 -0.7265 -0.2936
-14.8764 -1.0876 -0.2962
-14.8811 -1.4502 -0.2990
-14.8857 -1.8147 -0.3020
-14.8903 -2.1816 -0.3052
-14.8950 -2.5513 -0.3086
-14.8997 -2.9244 -0.3121
-14.9044 -3.3013 -0.3159
-14.9092 -3.6824 -0.3199
-14.9141 -4.0684 -0.3242
-14.9190 -4.4597 -0.3286
-14.9239 -4.8570 -0.3333
-14.9290 -5.2609 -0.3383
-14.9341 -5.6720 -0.3436
-14.9393 -6.0910 -0.3491
-14.9446 -6.5186 -0.3549
-14.9500 -6.9557 -0.3610
-14.9555 -7.4030 -0.3675
-14.9611 -7.8615 -0.3743
-14.9669 -8.3321 -0.3815
-14.9729 -8.8160 -0.3891
-14.9790 -9.3142 -0.3971
-14.9853 -9.8281 -0.4056
-14.9917 -10.3590 -0.4146
-14.9984 -10.9083 -0.4240
-15.0054 -11.4778 -0.4341
-15.0125 -12.0694 -0.4447
-15.0322 -12.6965 -0.2383
-15.0402 -13.3392 -0.2456
-15.0486 -14.0107 -0.2534
-58.8347 -57.4930 -1.0220
-58.8726 -60.3793 -1.0560
-58.9125 -63.4163 -1.0923
-64.0628 -76.0175 -1.2730
-37.7510 -86.7970 -1.2955
-33.7737 -83.0862 -1.2324
-27.0169 -83.3118 -1.2160
-24.9972 -92.0190 -1.3314
-13.8077 -70.7468 -1.0132
-14.4530 -84.9201 -1.2130
-14.3810 -98.8898 -1.4092
2.4071 -32.8725 -0.4660
6.0041 -61.5351 -0.8734
6.0698 -49.7391 -0.7070
5.8162 -39.6635 -0.5649
6.3238 -36.8912 -0.5265
6.7497 -34.3665 -0.4918
7.1292 -32.1673 -0.4616
7.4784 -30.2617 -0.4357
7.1163 -26.0738 -0.3768
7.6256 -25.4973 -0.3700
8.1741 -25.1049 -0.3659
8.5998 -24.3935 -0.3573
7.2337 -19.0384 -0.2803
7.3644 -18.0555 -0.2674
7.7292 -17.7134 -0.2639
8.1168 -17.4395 -0.2615
8.4092 -16.9824 -0.2565
8.6404 -16.4380 -0.2501
8.6522 -15.5369 -0.2383
8.6631 -14.7086 -0.2276
8.6732 -13.9437 -0.2177
8.6825 -13.2345 -0.2086
8.4036 -12.1583 -0.1936
8.4114 -11.5620 -0.1861
8.4188 -11.0030 -0.1792
8.4257 -10.4774 -0.1727
8.4322 -9.9816 -0.1666
8.4383 -9.5128 -0.1610
8.4442 -9.0681 -0.1557
8.4497 -8.6454 -0.1507
8.4550 -8.2426 -0.1460
8.4601 -7.8579 -0.1416
8.7872 -7.7748 -0.1426
8.7169 -7.3448 -0.1374
8.7215 -6.9954 -0.1335
8.7259 -6.6589 -0.1298
8.7301 -6.3343 -0.1264
8.7343 -6.0206 -0.1230
8.7383 -5.7169 -0.1199
8.7421 -5.4223 -0.1169
8.7459 -5.1363 -0.1140
8.7495 -4.8580 -0.1113
8.7531 -4.5868 -0.1086
8.7566 -4.3222 -0.1061
8.7600 -4.0637 -0.1037
8.7633 -3.8107 -0.1014
8.7666 -3.5628 -0.0992
8.7698 -3.3195 -0.0970
8.7729 -3.0804 -0.0950
8.7760 -2.8453 -0.0930
8.7790 -2.6136 -0.0911
8.7820 -2.3850 -0.0893
8.7850 -2.1593 -0.0875
8.7879 -1.9361 -0.0858
8.7908 -1.7151 -0.0841
8.7937 -1.4961 -0.0826
8.7966 -1.2787 -0.0810
8.7994 -1.0627 -0.0796
8.8022 -0.8478 -0.0781
8.8051 -0.6338 -0.0768
8.8079 -0.4204 -0.0754
8.8107 -0.2073 -0.0741
8.8135 0.0057 -0.0729
8.8163 0.2188 -0.0717
8.8191 0.4322 -0.0705
8.8219 0.6464 -0.0694
8.8247 0.8614 -0.0683
8.8275 1.0776 -0.0673
8.8304 1.2952 -0.0663
8.8333 1.5145 -0.0653
8.8362 1.7358 -0.0644
8.8391 1.9593 -0.0635
8.8432 2.1856 -0.0626
8.8462 2.4146 -0.0618
8.8492 2.6468 -0.0610
8.8523 2.8825 -0.0602
8.8555 3.1221 -0.0595
8.8587 3.3661 -0.0588
8.8620 3.6147 -0.0581
8.8653 3.8685 -0.0575
8.8687 4.1279 -0.0568
8.8722 4.3933 -0.0563
8.8758 4.6655 -0.0557
8.8794 4.9449 -0.0552
8.8832 5.2321 -0.0548
8.8871 5.5279 -0.0543
8.8911 5.8330 -0.0540
8.8952 6.1482 -0.0536
8.8995 6.4744 -0.0533
8.9040 6.8126 -0.0530
8.9086 7.1639 -0.0528
8.9134 7.5296 -0.0526
8.9184 7.9109 -0.0525
8.9236 8.3094 -0.0524
8.9291 8.7267 -0.0524
8.9349 9.1648 -0.0525
8.9409 9.6257 -0.0526
8.9473 10.1120 -0.0528
8.9541 10.6263 -0.0530
8.9612 11.1719 -0.0534
8.9678 11.7509 -0.0538
8.9759 12.3703 -0.0544
8.9846 13.0336 -0.0551
8.9940 13.7465 -0.0558
9.0041 14.5159 -0.0568
9.0151 15.3495 -0.0579
9.0270 16.2570 -0.0592
9.0401 17.2499 -0.0607
9.0544 18.3421 -0.0625
9.0703 19.5508 -0.0645
9.0880 20.8973 -0.0669
9.8284 24.1813 -0.0752
9.1574 24.1901 -0.0732
8.4980 24.1988 -0.0714
8.0824 24.9264 -0.0718
8.1129 27.2475 -0.0767
3.0996 11.4112 -0.0315
8.1927 33.3254 -0.0901
8.5125 38.6299 -0.1026
7.7970 39.9536 -0.1045
6.9274 40.7064 -0.1050
6.0319 41.4820 -0.1057
5.1046 42.2514 -0.1065
4.3044 44.6678 -0.1117
3.2375 44.9488 -0.1117
2.0547 43.0087 -0.1064
1.0088 42.7891 -0.1056
-0.0252 42.5397 -0.1049
-1.0473 42.2937 -0.1044
-2.0516 41.9015 -0.1038
-3.4031 46.4771 -0.1157
-5.4772 56.1401 -0.1408
-6.6958 54.8745 -0.1389
-7.8951 53.8463 -0.1378
-9.0742 52.9416 -0.1373
-10.2401 52.1432 -0.1372
-11.4007 51.4457 -0.1376
-12.5598 50.8289 -0.1385
-12.6095 46.2057 -0.1284
-5.2392 17.5199 -0.0498
-5.6434 17.3342 -0.0504
-17.4017 49.3654 -0.1471
-18.7284 49.2963 -0.1508
-19.0920 46.8136 -0.1472
-19.6180 44.9643 -0.1456
-20.4374 43.9157 -0.1466
-21.6888 43.8055 -0.1510
-23.6106 44.9233 -0.1600
-7.4416 13.3645 -0.0493
-24.7339 41.9990 -0.1605
-30.2095 48.5731 -0.1926
-11.4294 17.4237 -0.0717
-31.7889 45.9976 -0.1970
-14.7289 20.2481 -0.0903
-15.3063 20.0072 -0.0930
-15.8010 19.6511 -0.0953
-16.2971 19.2942 -0.0977
-16.7953 18.9362 -0.1003
-17.2928 18.5731 -0.1030
-17.7098 18.1225 -0.1053
-17.9213 17.4735 -0.1065
-49.8626 46.3200 -0.2967
-20.7907 18.3980 -0.1239
-18.8309 15.8691 -0.1126
-19.0610 15.2909 -0.1144
-19.1007 14.5784 -0.1152
-19.0958 13.8575 -0.1158
-19.0912 13.1619 -0.1165
-19.0713 12.4793 -0.1172
-20.1014 12.4702 -0.1244
-39.4223 23.1562 -0.2461
-39.9274 22.1731 -0.2514
-40.3368 21.1418 -0.2564
-59.1805 29.2177 -0.3799
-40.2660 18.6834 -0.2612
-15.8628 6.8996 -0.1040
-15.8933 6.4608 -0.1054
-58.7808 22.2554 -0.3944
-51.5168 18.0944 -0.3499
-69.5026 22.5403 -0.4781
-29.9173 8.9095 -0.2085
-30.0954 8.1763 -0.2125
-40.7891 10.0298 -0.2920
-77.5118 17.0847 -0.5627
-76.9884 15.0284 -0.5669
-41.4543 7.0568 -0.3098
-41.4742 6.0329 -0.3146
-8.3953 1.0147 -0.0647
-9.9717 0.9614 -0.0780
-14.8687 1.0717 -0.1182
-14.8740 0.7113 -0.1202
-14.8792 0.3515 -0.1222
-14.8845 -0.0081 -0.1243
-14.8897 -0.3680 -0.1265
-14.8950 -0.7286 -0.1288
-14.9003 -1.0903 -0.1311
-14.9056 -1.4535 -0.1335
-14.9109 -1.8187 -0.1360
-14.9163 -2.1864 -0.1386
-14.9217 -2.5569 -0.1413
-14.9272 -2.9308 -0.1441
-14.9327 -3.3085 -0.1470
-14.9382 -3.6905 -0.1500
-14.9439 -4.0775 -0.1531
-14.9496 -4.4699 -0.1564
-14.9554 -4.8683 -0.1597
-14.9614 -5.2733 -0.1632
-14.9674 -5.6857 -0.1669
-14.9735 -6.1060 -0.1706
-14.9798 -6.5350 -0.1746
-14.9862 -6.9736 -0.1787
-14.9927 -7.4225 -0.1830
-14.9994 -7.8827 -0.1875
-15.0063 -8.3552 -0.1921
-15.0134 -8.8410 -0.1970
-15.0207 -9.3414 -0.2022
-15.0283 -9.8575 -0.2076
-15.0361 -10.3908 -0.2132
-15.0099 -10.9179 -0.2186
-15.0170 -11.4880 -0.2249
-15.0245 -12.0802 -0.2314
-15.0702 -12.7299 -0.0203
-15.0796 -13.3755 -0.0229
-15.0895 -14.0501 -0.0256
-58.9116 -57.5735 -0.1105
-58.8727 -60.3848 -0.1215
-58.9126 -63.4220 -0.1331
-64.0574 -76.0176 -0.1713
-25.7827 -94.9166 -0.2833
2.4062 -32.8612 -0.1007
5.9978 -61.4750 -0.1880
6.1141 -50.1060 -0.1528
5.8160 -39.6649 -0.1206
6.3236 -36.8925 -0.1117
6.7495 -34.3677 -0.1036
7.1287 -32.1672 -0.0965
7.4787 -30.2650 -0.0903
7.1161 -26.0749 -0.0773
7.6366 -25.5362 -0.0752
8.1736 -25.1050 -0.0733
8.5998 -24.3951 -0.0706
7.2333 -19.0385 -0.0546
7.3641 -18.0561 -0.0513
7.7288 -17.7137 -0.0497
8.1164 -17.4398 -0.0484
8.3420 -16.8480 -0.0461
8.3545 -15.8953 -0.0429
8.3660 -15.0240 -0.0399
8.3765 -14.2230 -0.0371
8.3862 -13.4834 -0.0345
8.3952 -12.7976 -0.0321
8.4036 -12.1593 -0.0298
8.4114 -11.5629 -0.0277
8.4188 -11.0039 -0.0256
8.4257 -10.4783 -0.0237
8.4322 -9.9825 -0.0218
8.4383 -9.5136 -0.0201
8.4442 -9.0689 -0.0184
8.4497 -8.6462 -0.0167
8.4550 -8.2434 -0.0152
8.4601 -7.8586 -0.0136
8.7863 -7.7748 -0.0126
8.7169 -7.3455 -0.0110
8.7214 -6.9961 -0.0096
8.7259 -6.6596 -0.0082
8.7301 -6.3350 -0.0068
8.7343 -6.0213 -0.0055
8.7382 -5.7175 -0.0042
8.7421 -5.4230 -0.0029
8.7459 -5.1369 -0.0016
8.7495 -4.8586 -0.0004
8.7531 -4.5874 0.0009
8.7566 -4.3228 0.0021
8.7600 -4.0643 0.0033
8.7633 -3.8113 0.0045
8.7666 -3.5634 0.0057
8.7698 -3.3201 0.0069
8.7729 -3.0810 0.0081
8.7760 -2.8458 0.0092
8.7790 -2.6141 0.0104
8.7820 -2.3856 0.0116
8.7850 -2.1599 0.0128
8.7879 -1.9367 0.0139
8.7908 -1.7157 0.0151
8.7937 -1.4967 0.0163
8.7966 -1.2793 0.0175
8.7994 -1.0633 0.0187
8.8022 -0.8484 0.0199
8.8051 -0.6344 0.0211
8.8079 -0.4209 0.0223
8.8107 -0.2079 0.0235
8.8135 0.0051 0.0248
8.8163 0.2182 0.0260
8.8191 0.4317 0.0273
8.8219 0.6458 0.0286
8.8247 0.8608 0.0299
8.8275 1.0770 0.0313
8.8304 1.2946 0.0326
8.8333 1.5139 0.0340
8.8362 1.7352 0.0354
8.8391 1.9587 0.0369
8.8432 2.1850 0.0383
8.8462 2.4140 0.0398
8.8492 2.6462 0.0414
8.8523 2.8819 0.0430
8.8555 3.1215 0.0446
8.8587 3.3655 0.0463
8.8620 3.6141 0.0480
8.8653 3.8678 0.0497
8.8687 4.1272 0.0515
8.8722 4.3927 0.0534
8.8758 4.6648 0.0554
8.8794 4.9442 0.0574
8.8832 5.2314 0.0595
8.8871 5.5272 0.0616
8.8911 5.8323 0.0639
8.8952 6.1475 0.0662
8.8995 6.4737 0.0687
8.9040 6.8119 0.0712
8.9086 7.1632 0.0739
8.9134 7.5288 0.0767
8.9184 7.9101 0.0796
8.9236 8.3086 0.0827
8.9291 8.7259 0.0859
8.9348 9.1639 0.0894
8.9409 9.6249 0.0930
8.9473 10.1111 0.0968
8.9540 10.6254 0.1009
8.9612 11.1709 0.1053
8.9678 11.7499 0.1100
8.9759 12.3693 0.1150
8.9846 13.0325 0.1204
8.9940 13.7454 0.1262
9.0041 14.5147 0.1325
9.0151 15.3484 0.1394
9.0270 16.2558 0.1469
9.0400 17.2486 0.1551
9.0544 18.3407 0.1642
9.0703 19.5494 0.1743
9.0880 20.8958 0.1856
9.8291 24.1813 0.2140
9.1580 24.1901 0.2134
8.4986 24.1988 0.2128
8.0824 24.9246 0.2186
8.1129 27.2456 0.2383
3.0994 11.4099 0.0996
8.1927 33.3231 0.2902
8.5125 38.6272 0.3357
11.6236 59.5579 0.5167
7.6767 45.1068 0.3907
6.2098 42.7023 0.3694
5.2712 43.6275 0.3770
4.2834 44.4479 0.3837
3.2402 44.9839 0.3880
2.1519 45.0415 0.3883
1.0667 45.2452 0.3899
-0.0266 44.8528 0.3865
-1.1177 45.1312 0.3889
-2.2440 45.8273 0.3949
-3.3981 46.4062 0.4001
-5.3571 54.9052 0.4736
-6.5556 53.7221 0.4637
-7.7318 52.7288 0.4556
-8.8831 51.8232 0.4483
-10.0234 51.0362 0.4421
-11.1627 50.3683 0.4370
-11.4988 46.5318 0.4044
-12.4391 45.5781 0.3969
-13.5206 45.2098 0.3945
-15.8038 48.5393 0.4246
-16.2567 46.1139 0.4044
-17.9263 47.1817 0.4150
-19.0202 46.6343 0.4115
-19.9249 45.6645 0.4042
-20.3865 43.8031 0.3892
-21.7543 43.9345 0.3919
-23.8551 45.3850 0.4065
-14.1981 25.4966 0.2294
-24.7342 41.9964 0.3796
-5.9065 9.4962 0.0863
-11.4284 17.4207 0.1591
-31.7221 45.8974 0.4217
-14.4722 19.8937 0.1839
-14.9916 19.5942 0.1823
-15.4758 19.2450 0.1804
-15.9612 18.8949 0.1784
-16.4483 18.5433 0.1765
-16.9378 18.1901 0.1746
-17.4301 17.8346 0.1727
-48.7232 47.5014 0.4644
-49.8312 46.2864 0.4572
-20.7890 18.3946 0.1837
-18.5722 15.6496 0.1581
-18.5986 14.9184 0.1526
-18.6028 14.1969 0.1471
-18.6067 13.5011 0.1419
-18.6105 12.8290 0.1369
-18.5870 12.1609 0.1319
-20.1001 12.4678 0.1377
-77.5144 45.5252 0.5123
-82.1974 45.6410 0.5243
-84.1216 44.0845 0.5177
-86.3353 42.6179 0.5127
-43.8348 20.3361 0.2511
-15.8511 6.8934 0.0876
-15.8921 6.4592 0.0847
-60.4652 22.8890 0.3107
-51.5120 18.0892 0.2551
-82.7651 26.8358 0.3949
-43.6129 12.9852 0.2004
-94.6111 25.6976 0.4184
-55.3847 13.6151 0.2356
-91.7082 20.2077 0.3749
-91.6707 17.8885 0.3600
-72.1091 12.2705 0.2717
-8.3969 1.0143 0.0291
-9.9796 0.9615 0.0330
-14.8687 1.0707 0.0470
-14.8740 0.7104 0.0449
-14.8793 0.3506 0.0427
-14.8845 -0.0091 0.0406
-14.8898 -0.3690 0.0386
-14.8950 -0.7295 0.0365
-14.9003 -1.0913 0.0345
-14.9056 -1.4545 0.0324
-14.9109 -1.8197 0.0304
-14.9163 -2.1873 0.0284
-14.9217 -2.5579 0.0264
-14.9272 -2.9318 0.0245
-14.9327 -3.3095 0.0225
-14.9383 -3.6915 0.0205
-14.9439 -4.0785 0.0185
-14.9496 -4.4709 0.0165
-14.9555 -4.8693 0.0146
-14.9614 -5.2744 0.0126
-14.9674 -5.6867 0.0106
-14.9735 -6.1070 0.0086
-14.9798 -6.5361 0.0065
-14.9862 -6.9747 0.0045
-14.9927 -7.4236 0.0024
-14.9995 -7.8838 0.0003
-15.0064 -8.3563 -0.0018
-15.0135 -8.8422 -0.0040
-15.0208 -9.3425 -0.0062
-15.0283 -9.8586 -0.0084
-15.0361 -10.3920 -0.0107
-15.0441 -10.9440 -0.0130
-15.0525 -11.5164 -0.0154
-15.0612 -12.1110 -0.0178
-15.0702 -12.7312 0.1983
-15.0797 -13.3768 0.2005
-15.0895 -14.0515 0.2029
-58.9117 -57.5788 0.8024
-58.8728 -60.3903 0.8131
-58.9296 -63.4458 0.8264
-64.0521 -76.0176 0.9303
-37.9015 -52.2363 0.5872
-25.5884 -41.2535 0.4304
-24.2379 -41.2701 0.4208
-22.9242 -41.2863 0.4120
-21.6442 -41.3021 0.4037
-20.3953 -41.3175 0.3960
-19.8561 -42.8008 0.4026
-22.8648 -52.5779 0.4860
-25.7520 -94.8100 0.8057
-10.2093 -59.9933 0.4919
-10.1219 -69.6108 0.5671
-10.4519 -86.5131 0.7010
3.9922 -81.5381 0.6543
2.4068 -32.8725 0.2645
5.9974 -61.4749 0.4965
6.1139 -50.1073 0.4065
5.8158 -39.6663 0.3237
6.3234 -36.8936 0.3031
6.7493 -34.3688 0.2845
7.1282 -32.1671 0.2686
7.4790 -30.2682 0.2552
7.1159 -26.0760 0.2222
7.6362 -25.5365 0.2202
7.8822 -24.2118 0.2115
8.5376 -24.2204 0.2145
7.2328 -19.0386 0.1711
7.3638 -18.0566 0.1648
7.7283 -17.7140 0.1644
8.1160 -17.4401 0.1648
8.3420 -16.8491 0.1622
8.3545 -15.8965 0.1561
8.3659 -15.0251 0.1507
8.3765 -14.2241 0.1458
8.3862 -13.4844 0.1414
8.3952 -12.7986 0.1375
8.4036 -12.1602 0.1340
8.4114 -11.5639 0.1308
8.4187 -11.0048 0.1279
8.4256 -10.4791 0.1253
8.4322 -9.9833 0.1230
8.4383 -9.5144 0.1209
8.4442 -9.0697 0.1189
8.4497 -8.6470 0.1172
8.4550 -8.2441 0.1157
8.4601 -7.8594 0.1143
8.7854 -7.7748 0.1174
8.7168 -7.3462 0.1153
8.7214 -6.9968 0.1143
8.7259 -6.6603 0.1134
8.7301 -6.3357 0.1127
8.7343 -6.0219 0.1121
8.7382 -5.7182 0.1116
8.7421 -5.4237 0.1111
8.7459 -5.1376 0.1108
8.7495 -4.8592 0.1106
8.7531 -4.5881 0.1104
8.7566 -4.3235 0.1103
8.7600 -4.0649 0.1103
8.7633 -3.8119 0.1104
8.7666 -3.5640 0.1106
8.7697 -3.3207 0.1108
8.7729 -3.0816 0.1111
8.7760 -2.8464 0.1115
8.7790 -2.6147 0.1119
8.7820 -2.3862 0.1124
8.7850 -2.1605 0.1130
8.7879 -1.9373 0.1137
8.7908 -1.7163 0.1144
8.7937 -1.4973 0.1151
8.7966 -1.2799 0.1160
8.7994 -1.0638 0.1169
8.8022 -0.8490 0.1179
8.8050 -0.6349 0.1189
8.8078 -0.4215 0.1200
8.8106 -0.2084 0.1212
8.8134 0.0045 0.1224
8.8162 0.2176 0.1238
8.8191 0.4311 0.1252
8.8219 0.6452 0.1266
8.8247 0.8602 0.1282
8.8275 1.0764 0.1298
8.8304 1.2940 0.1315
8.8333 1.5133 0.1333
8.8362 1.7346 0.1352
8.8391 1.9581 0.1372
8.8432 2.1844 0.1393
8.8462 2.4134 0.1415
8.8492 2.6456 0.1437
8.8523 2.8813 0.1461
8.8555 3.1209 0.1486
8.8587 3.3648 0.1513
8.8619 3.6135 0.1540
8.8653 3.8672 0.1569
8.8687 4.1266 0.1600
8.8722 4.3921 0.1631
8.8757 4.6642 0.1665
8.8794 4.9435 0.1700
8.8832 5.2307 0.1737
8.8871 5.5265 0.1776
8.8911 5.8316 0.1817
8.8952 6.1468 0.1860
8.8995 6.4729 0.1906
8.9039 6.8111 0.1954
8.9086 7.1624 0.2006
8.9134 7.5281 0.2060
8.9184 7.9093 0.2117
8.9236 8.3078 0.2178
8.9291 8.7251 0.2243
8.9348 9.1631 0.2312
8.9409 9.6240 0.2386
8.9473 10.1102 0.2465
8.9540 10.6245 0.2549
8.9612 11.1700 0.2640
8.9678 11.7489 0.2738
8.9759 12.3682 0.2843
8.9846 13.0315 0.2958
8.9940 13.7444 0.3082
9.0041 14.5136 0.3218
9.0150 15.3472 0.3366
9.3271 16.7950 0.3647
9.3406 17.8207 0.3833
9.3554 18.9491 0.4039
9.3718 20.1978 0.4269
10.5138 24.1723 0.5069
9.8298 24.1813 0.5034
9.1586 24.1901 0.5001
8.4992 24.1988 0.4971
8.3878 25.8645 0.5282
8.4194 28.2731 0.5743
3.0993 11.4086 0.2306
8.7664 35.6542 0.7174
8.8240 40.0384 0.8024
8.9870 46.0455 0.9195
7.8385 46.0543 0.9167
6.3493 43.6589 0.8667
5.3555 44.3226 0.8778
4.2780 44.3890 0.8775
3.2430 45.0191 0.8886
2.1407 44.8050 0.8834
1.0650 45.1708 0.8901
-0.0266 44.8856 0.8842
-1.1169 45.0967 0.8886
-2.2437 45.8179 0.9033
-3.4008 46.4393 0.9165
-4.5826 46.9636 0.9281
-5.8033 47.5534 0.9415
-6.8954 47.0219 0.9331
-7.9261 46.2370 0.9199
-9.1376 46.5231 0.9285
-10.2759 46.3640 0.9286
-11.3395 45.8839 0.9226
-12.3137 45.1156 0.9112
-13.4768 45.0603 0.9145
-15.2450 46.8200 0.9553
-16.1528 45.8161 0.9403
-17.4786 46.0003 0.9500
-18.9096 46.3598 0.9640
-20.1244 46.1184 0.9660
-20.3149 43.6461 0.9214
-21.6721 43.7652 0.9316
-24.0512 45.7547 0.9827
-14.1974 25.4934 0.5528
-5.5929 9.4955 0.2080
-5.9091 9.4997 0.2103
-11.4273 17.4177 0.3900
-31.7050 45.8690 1.0395
-32.5032 44.6758 1.0254
-33.9851 44.4154 1.0332
-36.7251 45.6660 1.0775
-23.3291 27.6147 0.6614
-40.5588 45.7208 1.1125
-42.9996 46.1748 1.1425
-44.4795 45.5076 1.1459
-47.2434 46.0544 1.1815
-49.6885 46.1494 1.2074
-20.7872 18.3913 0.4913
-55.0618 46.3922 1.2666
-21.1613 16.9723 0.4742
-21.5544 16.4476 0.4710
-62.2708 45.1789 1.3276
-18.1534 12.5124 0.3779
-36.1965 23.6795 0.7363
-20.0988 12.4655 0.3998
-79.1739 46.4939 1.5409
-81.8797 45.4585 1.5602
-87.4369 45.8155 1.6321
-43.8278 20.3297 0.7865
-15.8393 6.8871 0.2790
-15.8910 6.4576 0.2748
-31.0993 11.7704 0.5283
-51.5072 18.0839 0.8601
-65.5130 19.5012 1.0585
-55.3687 13.6075 0.8674
-72.1029 12.2647 1.0823
-96.7919 14.0669 1.4336
-8.3985 1.0140 0.1228
-9.9874 0.9616 0.1443
-14.8687 1.0698 0.2122
-14.8740 0.7094 0.2099
-14.8793 0.3496 0.2077
-14.8845 -0.0100 0.2056
-14.8898 -0.3699 0.2036
-14.8950 -0.7305 0.2018
-14.9003 -1.0922 0.2000
-14.9056 -1.4555 0.1984
-14.9109 -1.8207 0.1969
-14.9163 -2.1883 0.1955
-14.9217 -2.5589 0.1942
-14.9272 -2.9327 0.1930
-14.9327 -3.3105 0.1920
-14.9383 -3.6925 0.1910
-14.9439 -4.0795 0.1902
-14.9497 -4.4719 0.1895
-14.9555 -4.8703 0.1889
-14.9614 -5.2754 0.1884
-14.9674 -5.6877 0.1880
-14.9735 -6.1081 0.1878
-14.9798 -6.5372 0.1876
-14.9862 -6.9757 0.1877
-14.9928 -7.4247 0.1878
-14.9995 -7.8849 0.1881
-15.0064 -8.3574 0.1885
-15.0135 -8.8433 0.1891
-15.0208 -9.3437 0.1899
-15.0283 -9.8598 0.1908
-15.0361 -10.3931 0.1919
-15.0442 -10.9452 0.1932
-15.0525 -11.5176 0.1947
-15.0612 -12.1122 0.1964
-15.0703 -12.7325 0.4170
-15.0797 -13.3781 0.4239
-15.0895 -14.0528 0.4315
-58.8349 -57.5091 1.7133
-58.8728 -60.3958 1.7480
-58.9292 -63.4509 1.7863
-63.6508 -71.9455 1.9725
-64.0474 -76.0184 2.0320
-43.2362 -53.9088 1.4065
-37.8990 -52.2370 1.3026
-36.1120 -52.3919 1.2791
-25.5865 -41.2535 0.9684
-24.2361 -41.2702 0.9513
-22.9225 -41.2864 0.9354
-21.6426 -41.3021 0.9205
-20.3939 -41.3175 0.9067
-19.8562 -42.8039 0.9257
-22.8786 -52.6133 1.1222
-14.3644 -52.8884 1.0569
-13.0104 -52.9273 1.0492
-10.2979 -52.7738 1.0319
-9.8571 -57.9272 1.1262
-10.1265 -69.6468 1.3474
-10.2928 -85.2014 1.6416
-7.0750 -98.2354 1.8814
-4.7572 -99.5859 1.9037
2.2654 -91.4953 1.7474
3.9919 -81.5381 1.5591
5.5329 -75.5742 1.4480
6.0102 -61.6098 1.1836
6.1091 -50.0720 0.9654
5.7436 -39.1771 0.7585
6.3137 -36.8398 0.7169
6.7490 -34.3701 0.6727
7.1277 -32.1670 0.6338
7.4793 -30.2714 0.6009
7.1157 -26.0771 0.5218
7.5879 -25.3767 0.5124
7.8524 -24.1218 0.4918
7.8943 -22.3969 0.4615
7.1710 -18.8772 0.3934
7.3635 -18.0572 0.3810
7.6655 -17.5712 0.3756
8.0571 -17.3149 0.3753
8.5337 -17.2376 0.3792
8.6404 -16.4416 0.3674
8.6522 -15.5403 0.3530
8.6631 -14.7119 0.3401
8.6731 -13.9469 0.3283
8.6824 -13.2376 0.3177
8.6911 -12.5773 0.3080
8.4114 -11.5648 0.2893
8.4187 -11.0057 0.2815
8.4256 -10.4800 0.2744
8.4321 -9.9842 0.2678
8.4383 -9.5152 0.2618
8.4441 -9.0705 0.2563
8.4497 -8.6478 0.2513
8.4550 -8.2449 0.2466
8.4600 -7.8601 0.2423
8.7846 -7.7748 0.2474
8.7168 -7.3470 0.2417
8.7214 -6.9975 0.2382
8.7259 -6.6610 0.2351
8.7301 -6.3364 0.2323
8.7342 -6.0226 0.2297
8.7382 -5.7189 0.2273
8.7421 -5.4243 0.2252
8.7459 -5.1382 0.2232
8.7495 -4.8599 0.2215
8.7531 -4.5887 0.2199
8.7566 -4.3241 0.2186
8.7600 -4.0656 0.2174
8.7633 -3.8125 0.2164
8.7665 -3.5646 0.2155
8.7697 -3.3213 0.2148
8.7729 -3.0822 0.2142
8.7760 -2.8470 0.2138
8.7790 -2.6153 0.2135
8.7820 -2.3868 0.2133
8.7850 -2.1611 0.2133
8.7879 -1.9379 0.2134
8.7908 -1.7169 0.2137
8.7937 -1.4978 0.2140
8.7966 -1.2804 0.2145
8.7994 -1.0644 0.2151
8.8022 -0.8495 0.2159
8.8050 -0.6355 0.2168
8.8078 -0.4221 0.2178
8.8106 -0.2090 0.2189
8.8134 0.0039 0.2201
8.8162 0.2170 0.2215
8.8190 0.4305 0.2230
8.8219 0.6447 0.2247
8.8247 0.8597 0.2265
8.8275 1.0759 0.2284
8.8304 1.2935 0.2305
8.8333 1.5127 0.2327
8.8362 1.7340 0.2350
8.8391 1.9575 0.2376
8.8432 2.1839 0.2403
8.8462 2.4128 0.2431
8.8492 2.6450 0.2461
8.8523 2.8807 0.2493
8.8555 3.1203 0.2527
8.8587 3.3642 0.2563
8.8619 3.6128 0.2601
8.8653 3.8666 0.2641
8.8687 4.1259 0.2684
8.8722 4.3914 0.2729
8.8757 4.6635 0.2776
8.8794 4.9429 0.2827
8.8832 5.2301 0.2880
8.8871 5.5258 0.2936
9.1866 6.0247 0.3096
9.1909 6.3503 0.3161
9.1953 6.6874 0.3230
9.1999 7.0368 0.3304
9.2047 7.3998 0.3382
9.2096 7.7775 0.3465
9.2148 8.1715 0.3553
9.2202 8.5831 0.3647
9.2259 9.0143 0.3747
9.2318 9.4668 0.3855
9.2381 9.9430 0.3970
9.2447 10.4454 0.4093
9.2517 10.9767 0.4226
9.2591 11.5403 0.4368
9.2659 12.1386 0.4522
9.2743 12.7784 0.4689
9.2833 13.4637 0.4869
9.2930 14.2002 0.5066
9.3034 14.9950 0.5281
9.3147 15.8562 0.5517
9.3271 16.7937 0.5777
9.3405 17.8194 0.6063
9.3554 18.9477 0.6382
9.3452 20.1392 0.6718
10.5145 24.1723 0.7992
9.8304 24.1813 0.7928
9.1592 24.1901 0.7869
8.4997 24.1988 0.7815
8.3877 25.8627 0.8297
8.4194 28.2711 0.9014
3.0991 11.4073 0.3616
8.7664 35.6518 1.1245
8.8240 40.0356 1.2569
8.8625 45.4048 1.4197
7.8478 46.1061 1.4364
6.3851 43.9029 1.3635
5.3531 44.2998 1.3722
4.3263 44.8874 1.3874
3.2428 45.0145 1.3889
2.1360 44.7033 1.3777
1.0562 44.7917 1.3794
-0.0276 46.4461 1.4300
-1.1123 44.9037 1.3828
-2.2827 46.6111 1.4364
-3.3494 45.7341 1.4111
-4.5135 46.2530 1.4294
-5.7137 46.8159 1.4498
-6.8116 46.4475 1.4422
-7.8883 46.0135 1.4331
-9.0877 46.2656 1.4462
-10.2948 46.4460 1.4577
-11.2619 45.5669 1.4367
-12.2667 44.9404 1.4242
-13.4332 44.9115 1.4313
-15.1727 46.5946 1.4941
-16.2549 46.1025 1.4882
-17.6632 46.4827 1.5114
-19.0016 46.5820 1.5264
-20.4747 46.9179 1.5503
-21.1730 45.4865 1.5166
-22.0099 44.4442 1.4960
-23.8506 45.3696 1.5428
-14.1967 25.4903 0.8762
-5.5934 9.4955 0.3302
-5.9096 9.4997 0.3344
-11.4263 17.4148 0.6209
-31.7199 45.8869 1.6584
-32.5131 44.6857 1.6384
-34.0616 44.5118 1.6569
-33.6679 41.8610 1.5834
-23.3264 27.6092 1.0620
-37.1823 41.9110 1.6411
-39.0769 41.9588 1.6739
-41.0618 42.0071 1.7092
-43.1290 42.0397 1.7464
-45.2865 42.0570 1.7857
-20.7855 18.3879 0.7989
-50.0413 42.1580 1.8766
-21.1552 16.9657 0.7748
-21.5524 16.4444 0.7715
-45.9749 33.3521 1.6099
-48.7579 33.6032 1.6716
-36.1924 23.6740 1.2157
-20.0975 12.4632 0.6619
-57.4929 33.7577 1.8581
-60.6142 33.6477 1.9235
-77.0493 40.3669 2.4026
-78.3607 38.6701 2.4026
-43.8207 20.3233 1.3219
-15.8275 6.8809 0.4701
-15.8899 6.4561 0.4649
-30.9822 11.7239 0.8936
-51.5024 18.0787 1.4651
-82.7269 26.8121 2.3226
-41.6752 12.4026 1.1554
-41.6440 11.3055 1.1408
-42.5482 10.4539 1.1523
-55.8668 12.3027 1.4966
-55.7097 10.8637 1.4770
-56.1551 9.5483 1.4743
-57.4020 8.3385 1.4932
-8.4000 1.0136 0.2166
-9.9952 0.9617 0.2557
-14.8688 1.0688 0.3775
-14.8740 0.7084 0.3750
-14.8793 0.3486 0.3727
-14.8845 -0.0110 0.3706
-14.8898 -0.3709 0.3687
-14.8950 -0.7315 0.3671
-15.2950 -1.1221 0.3753
-15.3004 -1.4950 0.3741
-15.3059 -1.8699 0.3731
-15.3114 -2.2473 0.3722
-15.3170 -2.6276 0.3716
-14.9272 -2.9337 0.3617
-14.9327 -3.3115 0.3615
-14.9383 -3.6935 0.3616
-14.9439 -4.0805 0.3619
-14.9497 -4.4729 0.3624
-14.9555 -4.8714 0.3632
-14.9614 -5.2764 0.3642
-15.3639 -5.8394 0.3752
-15.3702 -6.2709 0.3767
-15.3766 -6.7114 0.3786
-15.3046 -7.1250 0.3788
-14.9928 -7.4258 0.3733
-14.9995 -7.8860 0.3759
-15.0064 -8.3585 0.3789
-15.0135 -8.8444 0.3823
-15.0208 -9.3448 0.3860
-15.0283 -9.8610 0.3900
-15.4344 -10.6697 0.4050
-15.4427 -11.2363 0.4100
-15.4512 -11.8239 0.4155
-15.0640 -12.1157 0.4107
-15.0703 -12.7338 0.6358
-15.0797 -13.3794 0.6475
-15.0896 -14.0542 0.6602
-53.8347 -52.6264 2.4026
-52.7115 -54.0800 2.4026
-51.5466 -55.5067 2.4026
-50.3400 -56.9051 2.4026
-46.9862 -55.7731 2.2995
-41.8663 -52.2051 2.1041
-39.8260 -52.1963 2.0587
-37.8965 -52.2377 2.0182
-36.0308 -52.2783 1.9804
-34.2235 -52.3174 1.9451
-15.6243 -25.1932 0.9201
-10.4761 -17.8404 0.6406
-10.0447 -18.0932 0.6394
-15.4601 -29.5058 1.0270
-15.4942 -31.3931 1.0771
-15.5280 -33.4761 1.1331
-15.5693 -35.8068 1.1967
-21.3931 -52.6435 1.7385
-19.9364 -52.6730 1.7202
-18.5046 -52.7021 1.7034
-17.0953 -52.7307 1.6880
-15.7064 -52.7589 1.6740
-14.3358 -52.7867 1.6614
-12.9818 -52.8141 1.6500
-11.6316 -52.7925 1.6384
-10.2973 -52.7738 1.6281
-9.8567 -57.9284 1.7778
-10.0268 -68.9652 2.1070
-4.8255 -39.9468 1.2158
-3.8503 -39.9611 1.2125
-2.9091 -40.3954 1.2227
-3.7980 -79.5092 2.4026
-0.6205 -26.3205 0.7945
0.0156 -26.3283 0.7945
0.6516 -26.3180 0.7945
3.7246 -76.0833 2.2995
5.5360 -75.6221 2.2896
6.0441 -61.9618 1.8807
6.1089 -50.0734 1.5247
5.8154 -39.6690 1.2126
5.9392 -34.6569 1.0643
6.7488 -34.3712 1.0612
7.1777 -32.3950 1.0062
7.5366 -30.5054 0.9539
7.1155 -26.0782 0.8216
7.2709 -24.3182 0.7725
7.3471 -22.5713 0.7234
7.8937 -22.3968 0.7248
7.2318 -19.0387 0.6226
7.3632 -18.0577 0.5972
7.6651 -17.5716 0.5882
8.0566 -17.3151 0.5871
8.5331 -17.2377 0.5924
8.6403 -16.4428 0.5733
8.6522 -15.5414 0.5503
8.6631 -14.7129 0.5294
8.6731 -13.9479 0.5105
8.6824 -13.2386 0.4933
8.6911 -12.5783 0.4776
8.6992 -11.9614 0.4632
8.7068 -11.3832 0.4501
8.7139 -10.8395 0.4380
8.7207 -10.3266 0.4269
8.7270 -9.8416 0.4167
8.7331 -9.3817 0.4072
8.7388 -8.9445 0.3985
8.7443 -8.5278 0.3905
8.7495 -8.1298 0.3831
8.7837 -7.7747 0.3775
9.0066 -7.5920 0.3803
9.0114 -7.2309 0.3743
9.0159 -6.8832 0.3687
9.0203 -6.5477 0.3636
9.0246 -6.2236 0.3589
8.7382 -5.7196 0.3431
8.7421 -5.4250 0.3393
8.7459 -5.1389 0.3357
8.7495 -4.8605 0.3325
8.7531 -4.5894 0.3296
8.7566 -4.3248 0.3269
8.7599 -4.0662 0.3245
8.7633 -3.8131 0.3223
8.7665 -3.5652 0.3204
8.7697 -3.3219 0.3188
8.7729 -3.0828 0.3173
8.7760 -2.8476 0.3161
8.7790 -2.6159 0.3151
8.7820 -2.3874 0.3143
8.7850 -2.1616 0.3136
8.7879 -1.9385 0.3132
8.7908 -1.7175 0.3130
8.7937 -1.4984 0.3130
8.7966 -1.2810 0.3131
8.7994 -1.0650 0.3135
8.8022 -0.8501 0.3140
8.8050 -0.6361 0.3147
8.8078 -0.4226 0.3156
8.8106 -0.2096 0.3166
8.8134 0.0034 0.3179
8.8162 0.2165 0.3193
8.8190 0.4300 0.3210
8.8219 0.6441 0.3228
8.8247 0.8591 0.3248
8.8275 1.0753 0.3270
8.8304 1.2929 0.3294
8.8333 1.5122 0.3321
8.8362 1.7334 0.3349
8.8391 1.9569 0.3380
9.1371 2.2558 0.3526
9.1402 2.4924 0.3563
9.1434 2.7323 0.3602
9.1466 2.9758 0.3643
9.1498 3.2234 0.3687
9.1531 3.4754 0.3734
9.1565 3.7323 0.3785
9.1600 3.9945 0.3838
9.1635 4.2624 0.3894
9.1671 4.5367 0.3954
9.1708 4.8179 0.4018
9.1746 5.1065 0.4085
9.1785 5.4032 0.4157
9.1825 5.7088 0.4233
9.1866 6.0240 0.4314
9.1909 6.3496 0.4400
9.1953 6.6866 0.4491
9.1999 7.0360 0.4588
9.2047 7.3990 0.4692
9.2096 7.7767 0.4802
9.2148 8.1707 0.4919
9.2202 8.5823 0.5044
9.2259 9.0134 0.5178
9.2318 9.4660 0.5322
9.2381 9.9421 0.5475
9.2447 10.4445 0.5640
9.2516 10.9758 0.5818
9.2590 11.5394 0.6010
9.2659 12.1376 0.6216
9.2743 12.7774 0.6440
9.2833 13.4626 0.6684
9.2930 14.1991 0.6949
9.3034 14.9938 0.7239
9.3147 15.8550 0.7557
9.3270 16.7925 0.7908
9.3405 17.8181 0.8295
9.3554 18.9463 0.8726
9.3452 20.1377 0.9181
10.5152 24.1723 1.0917
9.8311 24.1813 1.0824
9.1599 24.1901 1.0739
8.5003 24.1988 1.0661
8.3877 25.8609 1.1313
8.4193 28.2692 1.2286
3.0990 11.4060 0.4928
8.7663 35.6493 1.5318
8.8239 40.0329 1.7117
8.7267 44.7062 1.9033
7.7718 45.6566 1.9363
7.6490 52.5895 2.2229
5.3671 44.4125 1.8720
4.4403 46.0668 1.9374
3.2162 44.6427 1.8741
2.1369 44.7198 1.8750
1.0525 44.6354 1.8700
-0.0274 46.0849 1.9302
-1.1348 45.8099 1.9192
-2.2779 46.5099 1.9500
-3.3480 45.7125 1.9190
-4.4880 45.9878 1.9339
-5.6374 46.1882 1.9468
-6.7654 46.1290 1.9496
-7.8382 45.7179 1.9386
-9.0928 46.2882 1.9703
-10.1643 45.8539 1.9603
-11.1393 45.0679 1.9361
-12.2324 44.8115 1.9355
-13.3958 44.7832 1.9459
-15.0457 46.2014 2.0206
-16.2736 46.1523 2.0328
-17.7449 46.6944 2.0725
-19.0228 46.6306 2.0868
-20.2567 46.4149 2.0957
-21.4622 46.1043 2.1015
-22.9563 46.3518 2.1342
-23.6312 44.9490 2.0920
-14.1960 25.4871 1.1998
-5.5938 9.4955 0.4525
-5.9101 9.4997 0.4585
-11.4252 17.4118 0.8519
-31.6820 45.8284 2.2745
-32.6052 44.8086 2.2578
-34.1249 44.5908 2.2829
-35.5223 44.1630 2.2993
-23.3237 27.6036 1.4628
-37.7863 42.5880 2.2993
-38.9290 41.7961 2.3012
-40.8723 41.8093 2.3499
-42.9165 41.8286 2.4026
-44.0279 40.8842 2.4026
-20.7837 18.3846 1.1066
-39.3746 33.1684 2.0477
-21.1492 16.9591 1.0753
-21.5504 16.4411 1.0721
-45.9749 33.3485 2.2399
-48.1521 33.1819 2.2995
-36.1882 23.6685 1.6952
-20.0962 12.4608 0.9242
-50.8944 29.8794 2.2995
-52.2851 29.0202 2.3226
-53.1422 27.8378 2.3226
-53.9759 26.6325 2.3226
-30.6368 14.2066 1.2988
-15.8158 6.8746 0.6610
-15.8887 6.4545 0.6551
-30.8950 11.6888 1.2575
-38.7436 13.5973 1.5576
-38.4764 12.4677 1.5289
-39.0603 11.6218 1.5349
-39.9062 10.8310 1.5518
-40.7325 10.0050 1.5683
-41.9323 9.2313 1.5995
-43.7236 8.5235 1.6533
-49.5476 8.4215 1.8583
-52.0158 7.5527 1.9361
-8.4016 1.0133 0.3105
-9.8848 0.9505 0.3630
-14.8688 1.0678 0.5428
-14.8740 0.7075 0.5401
-14.8793 0.3477 0.5377
-14.8845 -0.0120 0.5357
-14.8898 -0.3719 0.5339
-14.8951 -0.7325 0.5325
-15.2950 -1.1231 0.5454
-15.3005 -1.4960 0.5446
-15.3059 -1.8709 0.5441
-15.3114 -2.2483 0.5439
-15.3170 -2.6286 0.5440
-14.9272 -2.9347 0.5304
-14.9327 -3.3125 0.5312
-14.9383 -3.6945 0.5323
-14.9440 -4.0815 0.5337
-14.9497 -4.4739 0.5355
-14.9555 -4.8724 0.5377
-14.9614 -5.2774 0.5402
-15.3639 -5.8405 0.5575
-15.3702 -6.2720 0.5609
-15.3766 -6.7125 0.5647
-15.3024 -7.1251 0.5659
-14.9928 -7.4269 0.5588
-14.9995 -7.8871 0.5639
-15.0064 -8.3597 0.5695
-15.0135 -8.8456 0.5755
-15.0208 -9.3460 0.5822
-15.0283 -9.8622 0.5894
-15.4344 -10.6709 0.6131
-15.4427 -11.2376 0.6218
-15.4512 -11.8252 0.6313
-15.0633 -12.1164 0.6251
-15.0703 -12.7351 0.8548
-15.0797 -13.3807 0.8713
-15.0896 -14.0555 0.8890
-38.2292 -37.3747 2.2995
-15.2097 -15.6060 0.9351
-15.2317 -16.4033 0.9584
-15.2450 -17.2346 0.9830
-15.2596 -18.1148 1.0097
-15.2751 -19.0488 1.0387
-15.2959 -20.0485 1.0705
-15.3159 -21.1135 1.1051
-15.3320 -22.2474 1.1426
-15.3552 -23.4752 1.1840
-15.3783 -24.7984 1.2295
-10.4595 -17.8134 0.8689
-10.0288 -18.0659 0.8677
-15.4598 -29.5073 1.3966
-15.4939 -31.3947 1.4656
-15.5287 -33.4799 1.5428
-15.5695 -35.8098 1.6301
-20.7627 -51.0956 2.2994
-19.5459 -51.6448 2.2994
-18.3134 -52.1612 2.2993
-17.0660 -52.6441 2.2993
-15.7053 -52.7589 2.2848
-14.3349 -52.7867 2.2683
-12.9809 -52.8141 2.2535
-11.6229 -52.7564 2.2367
-10.2966 -52.7738 2.2247
-9.3269 -54.8185 2.2994
-8.0042 -55.0571 2.2994
-4.8252 -39.9468 1.6623
-3.8500 -39.9611 1.6579
-2.9092 -40.3986 1.6722
-2.7769 -58.1371 2.4026
-0.5348 -22.6882 0.9367
0.0134 -22.6884 0.9364
0.5617 -22.6886 0.9368
2.7233 -55.6341 2.2995
4.0655 -55.5392 2.2995
5.4044 -55.4077 2.2995
6.1480 -50.3978 2.0979
5.8152 -39.6703 1.6575
6.3227 -36.8972 1.5485
6.7212 -34.2327 1.4440
7.1775 -32.3962 1.3744
7.5363 -30.5065 1.3026
7.1476 -26.1975 1.1267
7.2089 -24.1127 1.0452
7.2870 -22.3882 0.9788
7.3556 -20.8715 0.9210
7.2313 -19.0388 0.8486
7.3629 -18.0583 0.8136
7.7271 -17.7149 0.8074
8.1146 -17.4410 0.8048
8.5325 -17.2378 0.8059
8.6403 -16.4439 0.7795
8.6522 -15.5426 0.7477
8.6630 -14.7140 0.7189
8.6731 -13.9490 0.6928
8.6824 -13.2396 0.6690
8.6911 -12.5793 0.6473
8.6992 -11.9624 0.6274
8.7068 -11.3841 0.6091
8.7139 -10.8404 0.5923
8.7206 -10.3275 0.5769
8.7270 -9.8425 0.5626
8.7331 -9.3825 0.5495
8.7388 -8.9453 0.5373
8.7443 -8.5286 0.5261
8.7495 -8.1306 0.5156
8.7828 -7.7747 0.5076
9.0066 -7.5927 0.5111
9.0114 -7.2316 0.5025
9.0159 -6.8839 0.4946
9.0203 -6.5485 0.4873
9.0246 -6.2243 0.4806
9.0287 -5.9104 0.4743
9.0327 -5.6060 0.4685
9.0366 -5.3104 0.4632
9.0404 -5.0228 0.4583
9.0441 -4.7426 0.4539
9.0477 -4.4692 0.4498
9.0512 -4.2020 0.4460
9.0546 -3.9406 0.4427
9.0580 -3.6844 0.4396
9.0613 -3.4330 0.4369
9.0645 -3.1859 0.4345
9.0677 -2.9429 0.4324
9.0709 -2.7035 0.4306
9.0740 -2.4674 0.4291
9.0770 -2.2341 0.4278
9.0801 -2.0035 0.4268
9.0831 -1.7752 0.4261
9.0860 -1.5488 0.4257
9.0890 -1.3242 0.4255
9.0919 -1.1010 0.4255
9.0948 -0.8790 0.4258
9.0977 -0.6578 0.4264
9.1006 -0.4373 0.4272
9.1035 -0.2171 0.4282
9.1064 0.0029 0.4296
9.1093 0.2231 0.4311
9.1122 0.4437 0.4329
9.1151 0.6649 0.4350
9.1181 0.8871 0.4373
9.1210 1.1104 0.4399
9.1239 1.3353 0.4428
9.1269 1.5618 0.4459
9.1299 1.7904 0.4493
9.1330 2.0214 0.4530
9.1371 2.2552 0.4571
9.1402 2.4918 0.4614
9.1434 2.7317 0.4661
9.1466 2.9752 0.4711
9.1498 3.2228 0.4764
9.1531 3.4748 0.4821
9.1565 3.7317 0.4882
9.1599 3.9938 0.4947
9.1635 4.2618 0.5016
9.1671 4.5361 0.5090
9.1708 4.8172 0.5168
9.1745 5.1058 0.5251
9.1784 5.4025 0.5340
9.1825 5.7081 0.5434
9.1866 6.0233 0.5534
9.1909 6.3489 0.5640
9.1953 6.6859 0.5754
9.1999 7.0353 0.5874
9.2047 7.3982 0.6003
9.2096 7.7760 0.6140
9.2148 8.1699 0.6286
9.2202 8.5815 0.6443
9.2259 9.0126 0.6610
9.1695 9.4012 0.6744
9.2119 9.9131 0.6962
9.2185 10.4140 0.7169
9.2516 10.9748 0.7412
9.2590 11.5384 0.7652
9.2659 12.1365 0.7911
9.2743 12.7763 0.8193
9.2833 13.4615 0.8499
9.2929 14.1980 0.8833
9.3034 14.9927 0.9198
9.3147 15.8538 0.9599
9.3270 16.7912 1.0040
9.3405 17.8168 1.0529
9.3553 18.9449 1.1072
9.3452 20.1362 1.1646
10.5159 24.1723 1.3844
9.8318 24.1813 1.3724
9.1605 24.1901 1.3612
8.5009 24.1988 1.3510
8.3877 25.8591 1.4331
8.4193 28.2672 1.5561
3.0988 11.4048 0.6240
8.7663 35.6468 1.9394
8.8239 40.0302 2.1669
8.3231 42.6358 2.2976
7.2868 42.8046 2.2976
6.2883 43.2314 2.3126
5.2397 43.3562 2.3126
4.1891 43.4583 2.3126
3.1368 43.5380 2.3126
2.0833 43.5948 2.3126
1.0289 43.6289 2.3126
-0.0259 43.6405 2.3126
-1.0808 43.6293 2.3126
-2.1232 43.3486 2.2995
-3.1710 43.2926 2.2995
-4.2175 43.2138 2.2995
-5.2624 43.1126 2.2995
-6.3053 42.9888 2.2995
-7.3457 42.8425 2.2995
-8.3833 42.6738 2.2995
-9.4176 42.4827 2.2995
-10.4483 42.2692 2.2995
-11.4748 42.0334 2.2995
-12.4969 41.7752 2.2995
-13.5139 41.4948 2.2995
-14.6268 41.4789 2.3155
-15.7669 41.4865 2.3343
-16.9284 41.4937 2.3547
-18.1132 41.5006 2.3767
-19.3272 41.5150 2.4009
-20.3634 41.1134 2.4026
-21.3778 40.6599 2.4026
-14.1953 25.4840 1.5237
-5.5942 9.4955 0.5749
-5.9105 9.4997 0.5828
-11.4241 17.4089 1.0830
-26.3104 38.0553 2.4026
-27.2660 37.4680 2.4026
-28.2100 36.8588 2.4026
-29.1422 36.2279 2.4026
-23.3210 27.5980 1.8638
-29.6404 33.4041 2.2995
-30.4959 32.7390 2.2995
-31.3382 32.0537 2.2995
-32.1670 31.3486 2.2995
-32.9818 30.6238 2.2995
-20.7820 18.3812 1.4146
-34.9145 29.4083 2.3226
-21.1432 16.9525 1.3758
-21.5484 16.4378 1.3729
-37.1990 26.9798 2.3226
-37.9275 26.1330 2.3226
-36.1841 23.6630 2.1750
-20.0950 12.4585 1.1866
-30.3578 17.8204 1.7624
-29.3852 16.3077 1.6784
-28.8161 15.0928 1.6205
-28.6387 14.1287 1.5868
-28.6864 13.3002 1.5672
-15.8059 6.8692 0.8519
-15.8876 6.4529 0.8454
-29.8920 11.3072 1.5714
-30.6890 10.7684 1.5949
-32.0425 10.3807 1.6471
-33.7127 10.0284 1.7153
-35.4030 9.6064 1.7839
-38.9941 9.5754 1.9471
-40.1427 8.8347 1.9876
-41.3216 8.0525 2.0299
-42.9321 7.2943 2.0936
-45.1318 6.5502 2.1861
-8.4032 1.0129 0.4046
-9.8926 0.9506 0.4736
-14.8688 1.0669 0.7083
-14.8741 0.7065 0.7054
-14.8793 0.3467 0.7030
-14.8846 -0.0129 0.7009
-14.8898 -0.3728 0.6993
-14.8951 -0.7334 0.6980
-15.2950 -1.1241 0.7157
-15.3005 -1.4970 0.7153
-15.3059 -1.8719 0.7152
-15.3114 -2.2493 0.7157
-15.3170 -2.6297 0.7165
-14.9272 -2.9357 0.6993
-14.9327 -3.3135 0.7010
-14.9383 -3.6955 0.7031
-14.9440 -4.0825 0.7057
-14.9497 -4.4749 0.7087
-14.9555 -4.8734 0.7123
-14.9614 -5.2785 0.7163
-15.3639 -5.8416 0.7399
-15.3702 -6.2731 0.7451
-15.3766 -6.7136 0.7509
-15.3001 -7.1251 0.7532
-14.9928 -7.4280 0.7445
-14.9995 -7.8882 0.7520
-15.0064 -8.3608 0.7601
-15.0135 -8.8467 0.7689
-15.0208 -9.3471 0.7785
-15.0284 -9.8633 0.7889
-15.4344 -10.6721 0.8213
-15.4427 -11.2388 0.8338
-15.4513 -11.8265 0.8472
-15.0626 -12.1171 0.8396
-15.0703 -12.7364 1.0740
-15.0797 -13.3820 1.0952
-15.0896 -14.0569 1.1182
-15.2063 -14.8678 1.1509
-15.2185 -15.6164 1.1779
-15.2313 -16.4043 1.2070
-15.2451 -17.2362 1.2386
-15.2597 -18.1165 1.2728
-15.2753 -19.0505 1.3099
-15.2959 -20.0502 1.3507
-15.3159 -21.1152 1.3949
-15.3325 -22.2498 1.4428
-15.3557 -23.4778 1.4957
-15.3783 -24.8002 1.5536
-10.4585 -17.8132 1.0983
-10.0286 -18.0668 1.0972
-15.4595 -29.5089 1.7667
-15.4935 -31.3963 1.8545
-15.5294 -33.4838 1.9529
-15.5697 -35.8127 2.0639
-13.4986 -33.2214 1.8933
-12.8001 -33.8232 1.9075
-15.1019 -43.0168 2.4026
-14.0702 -43.4056 2.4026
-13.0278 -43.7671 2.4026
-9.0934 -33.4876 1.8244
-10.9138 -44.4065 2.4026
-9.8437 -44.6837 2.4026
-8.7661 -44.9324 2.4026
-7.6818 -45.1522 2.4026
-6.5915 -45.3429 2.4026
-4.8249 -39.9468 2.1091
-3.8498 -39.9611 2.1038
-2.9093 -40.4017 2.1222
-2.1881 -45.8116 2.4026
-0.4061 -17.2265 0.9026
0.0102 -17.2194 0.9019
0.4261 -17.2123 0.9019
0.8421 -17.2053 0.9024
3.2036 -43.7676 2.2995
4.2589 -43.6667 2.2995
5.3108 -43.5376 2.2995
5.8150 -39.6717 2.1029
6.3225 -36.8984 1.9643
6.4389 -32.7973 1.7546
7.1772 -32.3974 1.7430
7.5361 -30.5077 1.6517
7.1151 -26.0804 1.4219
6.7789 -22.6760 1.2458
7.2865 -22.3883 1.2403
7.3551 -20.8715 1.1668
7.2565 -19.1065 1.0786
7.3626 -18.0589 1.0302
7.6865 -17.6231 1.0168
8.0775 -17.3626 1.0138
8.5320 -17.2379 1.0195
8.6403 -16.4451 0.9859
8.6521 -15.5437 0.9453
8.6630 -14.7151 0.9086
8.6731 -13.9501 0.8752
8.6824 -13.2406 0.8449
8.6911 -12.5802 0.8171
8.6992 -11.9633 0.7917
8.7068 -11.3850 0.7684
8.7139 -10.8413 0.7469
8.7206 -10.3284 0.7271
8.7016 -9.8147 0.7067
8.7076 -9.3560 0.6899
8.7133 -8.9200 0.6743
8.7443 -8.5294 0.6618
8.7495 -8.1314 0.6483
8.7819 -7.7747 0.6379
9.0066 -7.5935 0.6419
9.0113 -7.2324 0.6309
9.0159 -6.8847 0.6207
9.0203 -6.5492 0.6112
9.0246 -6.2250 0.6024
9.0287 -5.9111 0.5942
9.0327 -5.6067 0.5867
9.0366 -5.3111 0.5797
9.0404 -5.0235 0.5733
9.0441 -4.7433 0.5673
9.0477 -4.4698 0.5619
9.0512 -4.2026 0.5569
9.0546 -3.9412 0.5524
9.0580 -3.6850 0.5483
9.0613 -3.4336 0.5446
9.0645 -3.1866 0.5413
9.0677 -2.9435 0.5383
9.0709 -2.7041 0.5358
9.0740 -2.4680 0.5336
9.0770 -2.2347 0.5317
9.0801 -2.0041 0.5302
9.0831 -1.7758 0.5290
9.0860 -1.5494 0.5281
9.0890 -1.3248 0.5275
9.0919 -1.1016 0.5273
9.0948 -0.8795 0.5274
9.0977 -0.6584 0.5277
9.1006 -0.4379 0.5284
9.1035 -0.2177 0.5294
9.1064 0.0023 0.5307
9.1093 0.2225 0.5324
9.1122 0.4431 0.5343
9.1151 0.6643 0.5365
9.1180 0.8865 0.5391
9.1210 1.1098 0.5420
9.1239 1.3347 0.5452
9.1269 1.5612 0.5488
9.1299 1.7898 0.5527
9.1329 2.0208 0.5570
9.1371 2.2546 0.5617
9.1402 2.4912 0.5667
9.1434 2.7311 0.5722
9.1466 2.9746 0.5780
9.1498 3.2221 0.5842
9.1531 3.4741 0.5909
9.1565 3.7310 0.5981
9.1599 3.9932 0.6058
9.1635 4.2611 0.6139
9.1671 4.5354 0.6226
9.1708 4.8165 0.6319
9.1745 5.1051 0.6418
9.1784 5.4019 0.6523
9.1825 5.7074 0.6635
9.1866 6.0226 0.6755
9.1909 6.3482 0.6882
9.1953 6.6851 0.7017
9.1999 7.0345 0.7161
9.2046 7.3975 0.7315
9.2096 7.7752 0.7480
9.2148 8.1690 0.7655
9.2202 8.5807 0.7843
9.2258 9.0117 0.8044
9.1699 9.4008 0.8204
9.2119 9.9122 0.8466
9.2185 10.4131 0.8714
9.2516 10.9739 0.9007
9.2590 11.5374 0.9296
9.2658 12.1355 0.9608
9.2743 12.7753 0.9948
9.2833 13.4605 1.0317
9.2929 14.1969 1.0719
9.3034 14.9915 1.1159
9.3147 15.8526 1.1643
9.3270 16.7900 1.2175
9.3405 17.8154 1.2765
9.3553 18.9436 1.3421
9.3452 20.1348 1.4114
10.5167 24.1723 1.6776
9.8325 24.1813 1.6626
9.1611 24.1901 1.6488
8.5014 24.1988 1.6362
8.3877 25.8573 1.7353
8.4193 28.2653 1.8839
3.0987 11.4035 0.7553
8.5802 34.8880 2.2976
7.7306 35.0680 2.2976
6.8777 35.2292 2.2976
6.0611 35.6025 2.3126
5.1676 35.5245 2.2995
4.3062 35.6291 2.2995
3.4429 35.7148 2.2995
2.5781 35.7814 2.2995
1.7123 35.8290 2.2995
0.8477 35.9453 2.3051
-0.0221 37.0752 2.3769
-0.9283 37.4689 2.4028
-1.8343 37.4461 2.4033
-2.7399 37.4038 2.4037
-3.6447 37.3416 2.4042
-4.5482 37.2587 2.4046
-5.4501 37.1560 2.4051
-6.3499 37.0318 2.4054
-7.2469 36.8865 2.4056
-8.1394 36.7141 2.4054
-9.0264 36.5145 2.4047
-9.9079 36.2911 2.4037
-10.7857 36.0527 2.4029
-11.6602 35.8002 2.4026
-12.5312 35.5338 2.4026
-13.3969 35.2479 2.4026
-14.2568 34.9428 2.4026
-14.4622 33.1330 2.2995
-15.2730 32.8042 2.2995
-16.0772 32.4572 2.2995
-16.8744 32.0921 2.2995
-14.1946 25.4808 1.8478
-18.4462 31.3080 2.2995
-5.9088 9.4962 0.7069
-11.4231 17.4059 1.3143
-20.7421 29.9989 2.2995
-21.4893 29.5275 2.2995
-22.4500 29.3305 2.3226
-23.1850 28.8198 2.3226
-23.3183 27.5925 2.2651
-24.6230 27.7472 2.3226
-25.3253 27.1857 2.3226
-26.0160 26.6076 2.3226
-26.6946 26.0131 2.3226
-27.3610 25.4025 2.3226
-20.7802 18.3778 1.7228
-28.6550 24.1334 2.3226
-21.1372 16.9459 1.6766
-21.5464 16.4345 1.6740
-27.6265 20.0348 2.1042
-26.9524 18.5688 2.0143
-26.7941 17.5202 1.9664
-20.0937 12.4562 1.4493
-26.7500 15.7005 1.8977
-26.8866 14.9191 1.8774
-27.0407 14.1609 1.8599
-27.2175 13.4256 1.8454
-27.4572 12.7283 1.8364
-15.8042 6.8674 1.0434
-15.8864 6.4513 1.0359
-28.8395 10.9071 1.8588
-29.4990 10.3488 1.8804
-30.4251 9.8546 1.9194
-31.4169 9.3433 1.9627
-32.3407 8.7733 2.0020
-33.4773 8.2185 2.0547
-35.9274 7.9046 2.1877
-37.9809 7.3990 2.2958
-38.6850 6.5701 2.3226
-38.1482 5.5342 2.2762
-9.2196 1.1107 0.5470
-38.5549 3.7022 2.2762
-14.8688 1.0659 0.8740
-14.8741 0.7055 0.8709
-14.8793 0.3457 0.8684
-14.8846 -0.0139 0.8663
-14.8898 -0.3738 0.8648
-14.8951 -0.7344 0.8638
-15.2950 -1.1251 0.8861
-15.3005 -1.4980 0.8861
-15.3060 -1.8729 0.8866
-15.3115 -2.2503 0.8876
-15.3170 -2.6307 0.8892
-14.9272 -2.9367 0.8683
-14.9328 -3.3144 0.8709
-14.9383 -3.6965 0.8741
-14.9440 -4.0835 0.8778
-14.9497 -4.4760 0.8821
-14.9555 -4.8744 0.8870
-14.9614 -5.2795 0.8926
-15.3639 -5.8427 0.9225
-15.3702 -6.2742 0.9296
-15.3766 -6.7147 0.9373
-15.2978 -7.1251 0.9406
-14.9928 -7.4290 0.9304
-14.9995 -7.8893 0.9403
-15.0064 -8.3619 0.9510
-15.0135 -8.8478 0.9626
-15.0208 -9.3483 0.9751
-15.0284 -9.8645 0.9886
-15.4344 -10.6733 1.0298
-15.4427 -11.2401 1.0460
-15.4513 -11.8277 1.0634
-15.0620 -12.1178 1.0543
-15.0703 -12.7376 1.2935
-15.0798 -13.3834 1.3195
-15.0896 -14.0582 1.3476
-15.2060 -14.8688 1.3875
-15.2181 -15.6174 1.4204
-15.2309 -16.4054 1.4560
-15.2453 -17.2379 1.4946
-15.2599 -18.1182 1.5363
-15.2754 -19.0523 1.5816
-15.2959 -20.0518 1.6312
-15.3159 -21.1169 1.6851
-15.3329 -22.2523 1.7434
-15.3562 -23.4804 1.8078
-15.3782 -24.8020 1.8782
-10.4576 -17.8129 1.3279
-10.0284 -18.0678 1.3270
-15.4592 -29.5105 2.1372
-15.4932 -31.3979 2.2439
-15.0969 -32.5535 2.2976
-14.3189 -32.9381 2.2976
-13.5306 -33.3025 2.2976
-12.7324 -33.6465 2.2976
-11.9249 -33.9696 2.2976
-9.1582 -28.2542 1.8942
-8.5624 -28.7676 1.9129
-9.4595 -34.8380 2.2993
-8.6199 -35.0753 2.2993
-7.7740 -35.2907 2.2993
-6.9223 -35.4838 2.2993
-6.3379 -37.2555 2.4026
-5.4380 -37.4102 2.4026
-4.5341 -37.5411 2.4026
-3.6268 -37.6483 2.4026
-2.7168 -37.7314 2.4026
-1.8049 -37.7906 2.4026
-0.4059 -17.2210 1.0938
0.0102 -17.2140 1.0931
0.4259 -17.2069 1.0930
0.8418 -17.1998 1.0936
2.6426 -36.1061 2.2995
3.5133 -36.0243 2.2995
4.3813 -35.9197 2.2995
5.2460 -35.7922 2.2995
5.8629 -34.2188 2.2077
6.4232 -32.7199 2.1212
7.1770 -32.3986 2.1120
5.9986 -24.2854 1.5929
6.5753 -24.1033 1.5919
6.6898 -22.3794 1.4892
6.7903 -20.8649 1.3999
7.3545 -20.8715 1.4128
7.1722 -18.8858 1.2908
7.3623 -18.0594 1.2471
7.6639 -17.5727 1.2270
8.0552 -17.3158 1.2234
8.5314 -17.2380 1.2333
8.6403 -16.4463 1.1925
8.6521 -15.5449 1.1432
8.6630 -14.7162 1.0985
8.6731 -13.9511 1.0580
8.6824 -13.2416 1.0210
8.6910 -12.5812 0.9872
8.6992 -11.9643 0.9562
8.7067 -11.3860 0.9278
8.7139 -10.8422 0.9016
8.7206 -10.3293 0.8774
8.7016 -9.8155 0.8526
8.7076 -9.3568 0.8321
8.7133 -8.9208 0.8130
8.7442 -8.5302 0.7976
8.7495 -8.1321 0.7812
8.7811 -7.7747 0.7683
9.0066 -7.5943 0.7730
9.0113 -7.2331 0.7594
9.0159 -6.8854 0.7469
9.0203 -6.5499 0.7352
9.0246 -6.2257 0.7243
9.0287 -5.9118 0.7143
9.0327 -5.6074 0.7049
9.0366 -5.3118 0.6963
9.0404 -5.0241 0.6883
9.0441 -4.7439 0.6809
9.0476 -4.4705 0.6742
9.0512 -4.2033 0.6679
9.0546 -3.9418 0.6623
9.0580 -3.6856 0.6571
9.0613 -3.4342 0.6524
9.0645 -3.1872 0.6482
9.0677 -2.9442 0.6444
9.0708 -2.7047 0.6411
9.0740 -2.4686 0.6382
9.0770 -2.2353 0.6357
9.0800 -2.0047 0.6336
9.0830 -1.7764 0.6319
9.0860 -1.5500 0.6306
9.0890 -1.3254 0.6297
9.0919 -1.1022 0.6292
9.0948 -0.8801 0.6290
9.0977 -0.6590 0.6292
9.1006 -0.4385 0.6298
9.0301 -0.2166 0.6257
9.0312 0.0017 0.6268
9.0340 0.2201 0.6285
9.0369 0.4388 0.6305
9.0398 0.6582 0.6330
9.0427 0.8786 0.6357
9.1210 1.1092 0.6442
9.1239 1.3341 0.6478
9.1269 1.5606 0.6518
9.1299 1.7892 0.6562
9.1329 2.0202 0.6611
9.1371 2.2540 0.6664
9.1402 2.4906 0.6722
9.1434 2.7304 0.6783
9.1466 2.9740 0.6850
9.1498 3.2215 0.6922
9.1531 3.4735 0.6999
9.1565 3.7304 0.7081
9.1599 3.9925 0.7170
5.9714 2.7763 0.4734
5.8013 2.8698 0.4661
5.7820 3.0363 0.4711
9.1745 5.1044 0.7586
9.1784 5.4012 0.7708
9.1824 5.7067 0.7839
9.1866 6.0218 0.7977
9.1909 6.3474 0.8125
9.1953 6.6844 0.8282
9.1999 7.0338 0.8450
9.2046 7.3967 0.8629
9.2096 7.7744 0.8821
9.2148 8.1682 0.9026
9.2202 8.5798 0.9244
9.2258 9.0109 0.9479
9.1703 9.4003 0.9666
9.2119 9.9113 0.9972
9.2184 10.4122 1.0262
9.2516 10.9730 1.0605
9.2590 11.5365 1.0943
9.2658 12.1346 1.1308
9.2742 12.7743 1.1705
9.2832 13.4594 1.2137
9.2929 14.1957 1.2608
9.3034 14.9904 1.3123
9.3147 15.8514 1.3689
9.3270 16.7887 1.4313
9.3405 17.8141 1.5004
9.3553 18.9421 1.5772
9.3452 20.1333 1.6584
10.5174 24.1723 1.9711
9.8331 24.1813 1.9533
9.1617 24.1901 1.9369
8.5020 24.1988 1.9218
8.3877 25.8555 2.0379
8.4193 28.2633 2.2122
3.0985 11.4022 0.8868
7.3082 29.7140 2.2976
6.5850 29.8695 2.2976
5.8638 30.0337 2.2995
5.1343 30.1568 2.2995
4.4026 30.2635 2.2995
3.6688 30.3539 2.2995
2.9334 30.4279 2.2995
2.2952 31.8533 2.4027
1.5248 31.9039 2.4032
0.7532 31.9372 2.4038
-0.0190 31.9534 2.4044
-0.7917 31.9524 2.4049
-1.5644 31.9342 2.4055
-2.3359 31.8874 2.4052
-3.1060 31.8200 2.4047
-3.8743 31.7360 2.4042
-4.6406 31.6351 2.4037
-5.4047 31.5175 2.4033
-6.1660 31.3828 2.4028
-6.6277 29.8934 2.2995
-7.3517 29.7376 2.2995
-8.0723 29.5656 2.2995
-8.7893 29.3774 2.2995
-9.5024 29.1732 2.2995
-10.3137 29.2437 2.3226
-11.0249 29.0051 2.3226
-11.7311 28.7503 2.3226
-12.4320 28.4798 2.3226
-13.1272 28.1932 2.3226
-13.8164 27.8910 2.3226
-14.4992 27.5729 2.3226
-14.1939 25.4776 2.1723
-15.8446 26.8904 2.3226
-16.5065 26.5260 2.3226
-11.4220 17.4029 1.5459
-17.8069 25.7518 2.3226
-18.4448 25.3421 2.3226
-19.0740 24.9178 2.3226
-19.6942 24.4786 2.3226
-20.3052 24.0251 2.3226
-20.9065 23.5571 2.3226
-21.4978 23.0750 2.3226
-22.0789 22.5789 2.3226
-22.6494 22.0691 2.3226
-23.2089 21.5455 2.3226
-20.7785 18.3745 2.0314
-24.2202 20.3964 2.3155
-21.1312 16.9393 1.9775
-21.5444 16.4312 1.9754
-24.5649 17.8125 2.2087
-24.5755 16.9293 2.1687
-24.6511 16.1170 2.1369
-20.0924 12.4538 1.7123
-24.9428 14.6379 2.0913
-25.2014 13.9821 2.0805
-25.5034 13.3540 2.0746
-25.8695 12.7588 2.0750
-26.2178 12.1518 2.0750
-15.8025 6.8655 1.2350
-15.8853 6.4497 1.2267
-27.7960 10.5105 2.1222
-28.3642 9.9488 2.1426
-29.0886 9.4198 2.1753
-29.8950 8.8887 2.2147
-30.4160 8.2491 2.2336
-31.2088 7.6595 2.2731
-31.8009 6.9946 2.2987
-32.3560 6.3011 2.3226
-31.9139 5.4181 2.2762
-32.0996 4.6546 2.2762
-9.2170 1.1098 0.6502
-30.4772 2.9245 2.1400
-14.8688 1.0649 1.0398
-14.8741 0.7046 1.0366
-14.8793 0.3448 1.0340
-14.8846 -0.0149 1.0319
-14.8898 -0.3748 1.0305
-14.8951 -0.7354 1.0297
-15.2951 -1.1261 1.0567
-15.3005 -1.4990 1.0571
-15.3060 -1.8739 1.0582
-15.3115 -2.2513 1.0598
-15.3170 -2.6317 1.0621
-14.9273 -2.9377 1.0376
-14.9328 -3.3155 1.0411
-14.9384 -3.6976 1.0453
-14.9440 -4.0845 1.0502
-14.9497 -4.4770 1.0557
-14.9555 -4.8755 1.0620
-14.9615 -5.2805 1.0691
-15.3639 -5.8437 1.1054
-15.3702 -6.2753 1.1143
-15.3767 -6.7158 1.1240
-15.2956 -7.1252 1.1281
-14.9928 -7.4301 1.1166
-14.9996 -7.8904 1.1288
-15.0065 -8.3630 1.1421
-15.0136 -8.8490 1.1564
-15.0209 -9.3494 1.1719
-15.0284 -9.8657 1.1886
-15.4345 -10.6746 1.2386
-15.4427 -11.2413 1.2585
-15.4513 -11.8290 1.2799
-15.0613 -12.1185 1.2693
-15.0704 -12.7390 1.5133
-15.0798 -13.3847 1.5441
-15.0896 -14.0596 1.5773
-15.2056 -14.8698 1.6244
-15.2177 -15.6184 1.6633
-15.2305 -16.4064 1.7054
-15.2455 -17.2396 1.7510
-15.2601 -18.1199 1.8002
-15.2756 -19.0541 1.8536
-15.2959 -20.0535 1.9122
-15.3159 -21.1186 1.9757
-15.3334 -22.2547 2.0445
-15.3567 -23.4830 2.1204
-15.3782 -24.8039 2.2033
-10.4140 -17.7400 1.5515
-10.0282 -18.0688 1.5572
-14.1604 -27.0331 2.2976
-13.5147 -27.3903 2.2976
-12.8596 -27.7311 2.2976
-12.1953 -28.0550 2.2976
-9.4103 -23.1629 1.8764
-8.9234 -23.5824 1.8911
-8.4278 -24.0095 1.9072
-9.4640 -29.1997 2.2993
-8.5886 -28.8574 2.2541
-8.0514 -29.6541 2.2993
-7.3362 -29.8538 2.2993
-6.6158 -30.0348 2.2993
-5.9110 -30.3017 2.3073
-5.3930 -31.7031 2.4026
-4.6270 -31.8331 2.4026
-3.8577 -31.9432 2.4026
-3.0857 -32.0332 2.4026
-2.3114 -32.1032 2.4026
-1.5355 -32.1529 2.4026
-0.4058 -17.2155 1.2852
0.0102 -17.2085 1.2843
0.4257 -17.2014 1.2842
0.8415 -17.1944 1.2850
2.2483 -30.7207 2.2995
2.6034 -26.6962 2.0027
3.7278 -30.5643 2.2995
4.4637 -30.4573 2.2995
5.1965 -30.3312 2.2995
5.9254 -30.1860 2.2995
6.7892 -30.6500 2.3476
7.5242 -30.4635 2.3476
6.1022 -22.3707 1.7356
6.2232 -20.8198 1.6274
6.7898 -20.8649 1.6442
7.3540 -20.8716 1.6592
7.2299 -19.0390 1.5280
