ply
format ascii 1.0
element vertex 2084
property float32 x
property float32 y
property float32 z
end_header
8.4865 15.2781 0.9137
8.5017 16.2169 0.9585
8.5184 17.2502 1.0083
8.5369 18.3947 1.0640
8.5308 19.6092 1.1232
8.8412 21.7450 1.2342
8.8683 23.4185 1.3179
8.8992 25.3328 1.4144
8.9350 27.5466 1.5268
8.9770 30.1396 1.6593
8.7344 32.1457 1.7589
8.0376 32.6837 1.7783
7.3660 33.4163 1.8090
6.1407 31.4566 1.6952
5.3086 31.1846 1.6739
4.8141 33.0966 1.7705
3.8910 32.1968 1.7174
3.0653 31.7995 1.6922
2.2922 31.8156 1.6899
1.5169 31.7438 1.6839
0.7517 31.8790 1.6898
-0.0249 41.7898 2.2145
-0.8200 33.0970 1.7543
-1.6892 34.4875 1.8294
-2.4330 33.2170 1.7643
-3.1937 32.7236 1.7413
-4.0335 33.0449 1.7625
-4.8774 33.2537 1.7787
-5.7412 33.4845 1.7971
-6.5717 33.4517 1.8024
-7.3227 33.0325 1.7878
-8.2016 33.1798 1.8049
-9.1293 33.4417 1.8293
-9.9911 33.3987 1.8382
-10.6330 32.6488 1.8091
-11.3349 32.1436 1.7942
-12.1537 31.9793 1.7992
-13.0592 32.0097 1.8163
-13.9741 32.0170 1.8333
-15.5875 33.4820 1.9361
-16.4891 33.2912 1.9452
-17.7307 33.7230 1.9924
-18.8092 33.7668 2.0186
-20.0009 33.9492 2.0550
-20.8992 33.5902 2.0603
-22.2491 33.9045 2.1088
-23.1699 33.5129 2.1154
-23.4394 32.2096 2.0650
-24.6123 32.1581 2.0958
-25.8363 32.1181 2.1296
-24.5751 29.0821 1.9636
-29.4004 33.1336 2.2804
-30.5004 32.7438 2.2993
-31.3431 32.0587 2.2993
-32.1722 31.3537 2.2993
-13.9078 12.9135 0.9694
-11.8955 10.5213 0.8095
-34.5735 29.1210 2.2993
-36.1215 28.9619 2.3499
-37.7192 28.7733 2.4026
-38.4906 27.9165 2.4026
-29.4053 20.2610 1.8002
-39.9803 26.1455 2.4026
-22.2841 13.8158 1.3155
-41.3961 24.3000 2.4026
-42.0753 23.3502 2.4026
-42.7344 22.3827 2.4026
-41.5122 20.4798 2.2995
-42.1038 19.5210 2.2995
-11.4567 4.9790 0.6173
-11.3590 4.6135 0.6043
-11.7407 4.4412 0.6170
-27.5017 9.6500 1.4288
-45.1960 14.6420 2.3226
-31.6179 9.4053 1.6082
-20.7113 5.6199 1.0433
-46.5279 11.4254 2.3226
-46.9241 10.3271 2.3226
-21.1101 4.1138 1.0367
-21.2166 3.6048 1.0343
-46.8926 6.8057 2.2707
-27.6974 3.3386 1.3330
-30.9330 2.9723 1.4804
-30.2716 2.1720 1.4415
-29.8079 1.4158 1.4132
-29.5548 0.6887 1.3958
-19.9095 -0.0173 0.9372
-29.9655 -0.7503 1.4068
-30.9871 -1.5258 1.4517
-39.2801 -2.8869 1.8373
-40.8382 -3.9956 1.9084
-43.2172 -5.2854 2.0188
-48.7167 -7.1566 2.2762
-48.6765 -8.3568 2.2762
-49.5962 -9.7540 2.3226
-49.4949 -10.9825 2.3226
-45.1474 -11.1689 2.1242
-37.2190 -10.1678 1.7569
-34.1348 -10.2177 1.6177
-32.8285 -10.6975 1.5629
-30.8195 -10.8733 1.4750
-15.8068 -6.0100 0.7610
-27.5567 -11.2468 1.3355
-26.2666 -11.4682 1.2823
-24.6813 -11.4939 1.2146
-24.0170 -11.8989 1.1923
-22.6673 -11.9207 1.1360
-6.0559 -3.3740 0.3066
-5.7348 -3.3792 0.2936
-19.1122 -11.8931 0.9903
-18.2715 -11.9918 0.9589
-16.8071 -11.6212 0.8941
-15.9864 -11.6345 0.8629
-15.2168 -11.6470 0.8341
-14.8863 -11.9753 0.8295
-14.8972 -12.5900 1.0614
-14.9085 -13.2300 1.0826
-15.3211 -14.2725 1.1351
-15.3338 -14.9924 1.1603
-15.1072 -15.5021 1.1690
-14.9593 -16.1114 1.1852
-14.9737 -16.9294 1.2163
-9.9025 -11.7564 0.8258
-15.0181 -18.7298 1.2876
-15.0224 -19.6916 1.3263
-15.0408 -20.7360 1.3696
-15.0606 -21.8552 1.4169
-15.0818 -23.0591 1.4688
-15.1047 -24.3591 1.5257
-15.1296 -25.7690 1.5885
-15.2638 -27.4981 1.6697
-15.2965 -29.1976 1.7478
-15.3346 -31.0741 1.8352
-15.3799 -33.1612 1.9338
-13.5046 -31.0625 1.7899
-12.7632 -31.4116 1.7899
-15.4191 -40.7435 2.2976
-12.9854 -36.9882 2.0656
-13.4566 -41.5127 2.2976
-10.3748 -34.8541 1.9131
-6.2692 -23.0872 1.2577
-8.9730 -36.5096 1.9752
-9.4214 -42.7663 2.2993
-8.3900 -43.0040 2.2993
-7.3521 -43.2139 2.2993
-6.3085 -43.3962 2.2993
-5.4964 -45.5060 2.4026
-4.3967 -45.6377 2.4026
-3.2937 -45.7398 2.4026
-2.1881 -45.8124 2.4026
-0.5856 -24.8437 1.3017
0.0147 -24.8372 1.3010
0.6146 -24.8307 1.3011
2.1458 -43.8395 2.2995
3.2035 -43.7666 2.2995
4.2587 -43.6654 2.2995
5.3106 -43.5359 2.2995
6.4912 -44.2854 2.3476
6.0461 -35.2857 1.8785
6.6319 -33.7805 1.8073
7.4864 -33.7932 1.8182
7.5805 -30.6874 1.6615
8.2368 -30.1919 1.6461
8.5835 -28.7122 1.5775
8.6195 -26.4839 1.4673
8.6508 -24.5484 1.3725
8.6535 -22.7848 1.2864
5.5317 -13.5681 0.7741
5.8580 -13.4308 0.7750
8.9855 -19.3143 1.1279
9.0037 -18.1910 1.0760
9.0202 -17.1682 1.0294
9.0353 -16.2322 0.9873
9.0493 -15.3712 0.9492
9.0621 -14.5759 0.9147
9.0741 -13.8380 0.8831
9.0535 -13.1049 0.8513
9.0704 -12.4738 0.8256
9.0806 -11.8739 0.8015
9.1145 -11.3397 0.7814
9.1242 -10.8064 0.7609
9.1324 -10.3006 0.7419
9.1402 -9.8208 0.7243
9.1475 -9.3645 0.7080
9.1546 -8.9296 0.6930
9.1613 -8.5141 0.6790
9.1677 -8.1162 0.6660
9.1739 -7.7345 0.6540
9.1798 -7.3676 0.6429
9.1855 -7.0142 0.6325
9.1910 -6.6732 0.6229
9.1964 -6.3435 0.6140
9.2015 -6.0243 0.6057
9.2065 -5.7146 0.5981
9.2114 -5.4138 0.5911
9.2161 -5.1211 0.5845
9.2208 -4.8359 0.5786
9.2253 -4.5576 0.5731
3.1236 -1.4504 0.1922
9.2340 -4.0193 0.5635
9.2382 -3.7583 0.5593
9.2423 -3.5022 0.5556
9.2464 -3.2505 0.5523
9.2504 -3.0028 0.5493
9.2543 -2.7588 0.5468
9.2582 -2.5181 0.5446
9.2621 -2.2803 0.5427
9.2659 -2.0451 0.5412
9.2697 -1.8122 0.5400
9.2734 -1.5814 0.5391
9.2771 -1.3522 0.5386
9.2797 -1.1243 0.5383
9.2834 -0.8978 0.5385
9.2871 -0.6721 0.5389
9.2907 -0.4470 0.5396
9.2943 -0.2223 0.5407
9.2980 0.0024 0.5421
9.3016 0.2272 0.5438
9.3053 0.4524 0.5458
9.3089 0.6784 0.5481
9.3126 0.9054 0.5508
9.3163 1.1336 0.5538
9.3200 1.3633 0.5571
9.3237 1.5949 0.5608
9.3275 1.8286 0.5648
9.3313 2.0647 0.5693
9.3352 2.3035 0.5740
9.3391 2.5454 0.5792
9.3431 2.7907 0.5848
9.3471 3.0398 0.5908
9.3512 3.2931 0.5973
9.3554 3.5509 0.6042
9.3596 3.8138 0.6115
9.3640 4.0821 0.6194
9.3684 4.3564 0.6278
9.3730 4.6373 0.6368
9.3776 4.9252 0.6463
9.3824 5.2208 0.6565
9.3873 5.5248 0.6673
9.3924 5.8379 0.6789
9.3595 6.1359 0.6883
9.3769 6.4767 0.7023
9.3825 6.8213 0.7162
9.3883 7.1786 0.7310
9.4204 7.5709 0.7488
9.4267 7.9584 0.7657
9.4332 8.3627 0.7838
12.0563 11.2201 1.0257
11.4959 11.2291 1.0025
10.9617 11.2377 0.9809
10.4514 11.2460 0.9607
9.9628 11.2539 0.9420
9.4941 11.2615 0.9245
9.0434 11.2688 0.9082
8.6094 11.2758 0.8929
8.4272 11.6085 0.9041
8.4373 12.2339 0.9378
8.4482 12.9064 0.9746
8.4599 13.6324 1.0149
8.4727 14.4196 1.0592
8.4865 15.2770 1.1079
8.5017 16.2156 1.1620
8.5184 17.2489 1.2221
8.5369 18.3934 1.2894
8.5308 19.6078 1.3609
8.8412 21.7434 1.4951
8.8682 23.4168 1.5963
8.8992 25.3310 1.7129
8.9350 27.5447 1.8487
8.9770 30.1375 2.0089
8.6303 31.7604 2.1038
7.9988 32.5240 2.1421
7.3117 33.1678 2.1732
7.3233 37.5121 2.4466
6.4161 37.6879 2.4481
4.8138 33.0929 2.1422
3.8401 31.7731 2.0507
3.0515 31.6546 2.0381
2.2924 31.8160 2.0447
1.5139 31.6791 2.0332
0.7520 31.8901 2.0451
-0.0198 33.2447 2.1313
-0.8172 32.9841 2.1152
-1.8580 37.9290 2.4342
-2.4509 33.4590 2.1502
-3.2135 32.9237 2.1197
-4.0304 33.0168 2.1308
-4.8582 33.1201 2.1438
-5.6982 33.2314 2.1585
-6.4937 33.0526 2.1555
-7.2613 32.7531 2.1458
-8.0697 32.6439 2.1496
-9.1113 33.3730 2.2102
-9.8747 33.0074 2.1998
-10.5961 32.5333 2.1831
-11.2263 31.8334 2.1522
-12.1256 31.9030 2.1744
-13.0104 31.8878 2.1923
-13.9969 32.0668 2.2253
-15.6211 33.5518 2.3516
-16.0791 32.4610 2.2995
-16.8765 32.0960 2.2995
-17.6665 31.7130 2.2995
-18.4487 31.3122 2.2995
-19.2229 30.8935 2.2995
-19.9884 30.4571 2.2995
-20.7448 30.0027 2.2994
-21.4911 29.5300 2.2993
-22.2289 29.0415 2.2993
-23.1369 28.7601 2.3174
-24.3143 28.7709 2.3615
-25.4756 28.7079 2.4026
-26.2023 28.1271 2.4026
-26.9170 27.5291 2.4026
-27.6193 26.9141 2.4026
-13.9065 12.9110 1.1802
-11.8936 10.5186 0.9859
-29.6480 24.9697 2.4026
-30.2967 24.2891 2.4026
-30.9312 23.5927 2.4026
-31.5509 22.8807 2.4026
-32.1554 22.1534 2.4026
-31.3395 20.4923 2.2995
-22.2790 13.8109 1.6066
-32.4210 19.0290 2.2995
-32.9381 18.2770 2.2995
-33.4389 17.5116 2.2995
-34.2636 16.9012 2.3226
-34.7354 16.1022 2.3226
-11.4537 4.9769 0.7560
-11.3581 4.6124 0.7405
-11.7393 4.4398 0.7564
-27.4997 9.6474 1.7525
-36.8250 11.9276 2.3226
-31.6156 9.4024 1.9746
-20.7096 5.6180 1.2817
-37.8509 9.2922 2.3226
-38.0373 8.3688 2.3155
-21.1066 4.1117 1.2754
-21.2149 3.6031 1.2733
-29.3317 4.2551 1.7497
-27.6945 3.3365 1.6428
-28.5580 2.7422 1.6856
-28.3270 2.0307 1.6645
-28.2702 1.3410 1.6548
-28.2722 0.6569 1.6495
-19.9071 -0.0186 1.1583
-28.6477 -0.7192 1.6634
-29.1526 -1.4373 1.6901
-29.9779 -2.2052 1.7362
-32.0083 -3.1338 1.8531
-33.6906 -4.1225 1.9510
-39.9435 -5.8704 2.3149
-39.2207 -6.7360 2.2762
-39.1418 -7.7005 2.2762
-39.0390 -8.6650 2.2762
-39.7043 -9.8250 2.3226
-36.5097 -9.9765 2.1440
-34.1275 -10.2178 2.0132
-32.8219 -10.6976 1.9462
-30.8193 -10.8753 1.8381
-15.8050 -6.0103 0.9488
-27.5568 -11.2488 1.6662
-26.2625 -11.4683 1.6005
-24.6777 -11.4939 1.5169
-23.2431 -11.5171 1.4421
-21.9371 -11.5383 1.3748
-6.0552 -3.3741 0.3836
-5.7341 -3.3793 0.3675
-19.1123 -11.8946 1.2404
-18.2694 -11.9918 1.2015
-16.8053 -11.6213 1.1210
-15.9847 -11.6345 1.0824
-15.2152 -11.6470 1.0469
-14.8864 -11.9765 1.0418
-14.8972 -12.5913 1.2784
-14.9085 -13.2313 1.3043
-14.9203 -13.9004 1.3322
-14.9326 -14.6015 1.3623
-14.9456 -15.3377 1.3947
-14.9593 -16.1128 1.4298
-14.9737 -16.9308 1.4677
-9.9032 -11.7582 0.9969
-15.0052 -18.7153 1.5534
-15.0224 -19.6933 1.6018
-15.0409 -20.7377 1.6546
-15.0606 -21.8570 1.7122
-15.0818 -23.0609 1.7753
-15.1048 -24.3609 1.8446
-15.1296 -25.7709 1.9209
-15.2632 -27.4990 2.0195
-15.2959 -29.1986 2.1143
-15.3348 -31.0768 2.2207
-15.0986 -32.5570 2.2976
-13.4191 -30.8682 2.1530
-12.8232 -31.5614 2.1772
-12.7336 -33.6496 2.2976
-11.9260 -33.9726 2.2976
-11.1096 -34.2744 2.2976
-10.2850 -34.5549 2.2976
-6.2684 -23.0855 1.5235
-8.6204 -35.0775 2.2993
-7.7744 -35.2926 2.2993
-6.9227 -35.4856 2.2993
-6.0658 -35.6560 2.2993
-5.4382 -37.4115 2.4026
-4.5343 -37.5423 2.4026
-3.6269 -37.6492 2.4026
-2.7169 -37.7322 2.4026
-1.8049 -37.7910 2.4026
-0.5855 -24.8400 1.5778
0.0146 -24.8335 1.5769
0.6145 -24.8270 1.5770
1.8493 -37.7856 2.4026
2.6425 -36.1054 2.2995
3.5131 -36.0234 2.2995
4.3811 -35.9185 2.2995
5.2457 -35.7909 2.2995
6.0456 -35.2851 2.2765
6.6314 -33.7802 2.1901
7.4859 -33.7931 2.2030
7.5800 -30.6877 2.0130
8.2362 -30.1920 1.9941
8.5834 -28.7141 1.9109
8.6195 -26.4857 1.7771
8.6508 -24.5501 1.6620
8.6535 -22.7863 1.5575
5.5314 -13.5684 0.9371
5.8575 -13.4308 0.9379
8.9855 -19.3156 1.3649
9.0036 -18.1922 1.3018
9.0202 -17.1695 1.2451
9.0353 -16.2334 1.1940
9.0493 -15.3724 1.1477
9.0621 -14.5770 1.1056
9.0741 -13.8390 1.0672
9.0528 -13.1049 1.0284
9.0703 -12.4748 0.9972
9.0802 -11.8743 0.9677
9.1145 -11.3406 0.9432
9.1242 -10.8073 0.9182
9.1324 -10.3015 0.8950
9.1401 -9.8217 0.8735
9.1475 -9.3654 0.8537
9.1545 -8.9304 0.8352
9.1613 -8.5149 0.8181
9.1677 -8.1170 0.8022
9.1739 -7.7353 0.7875
9.1798 -7.3684 0.7738
9.1855 -7.0149 0.7611
9.1910 -6.6739 0.7492
9.1964 -6.3442 0.7383
9.2015 -6.0250 0.7281
9.2065 -5.7153 0.7186
9.2114 -5.4145 0.7099
9.2161 -5.1218 0.7018
9.2207 -4.8366 0.6944
9.2252 -4.5582 0.6875
3.1234 -1.4505 0.2305
9.2340 -4.0199 0.6755
9.2382 -3.7590 0.6703
9.1675 -3.4745 0.6602
9.2207 -3.2421 0.6595
9.2247 -2.9951 0.6557
9.2287 -2.7518 0.6524
9.2326 -2.5117 0.6495
9.2136 -2.2690 0.6454
9.2659 -2.0457 0.6467
9.2696 -1.8129 0.6451
9.2734 -1.5820 0.6438
9.2771 -1.3528 0.6429
9.2797 -1.1250 0.6423
9.2834 -0.8984 0.6422
9.2871 -0.6727 0.6425
9.2907 -0.4476 0.6431
9.2943 -0.2229 0.6441
9.2980 0.0017 0.6455
9.3016 0.2266 0.6473
9.3052 0.4518 0.6494
9.3089 0.6778 0.6520
9.3126 0.9048 0.6549
9.3163 1.1330 0.6582
9.3200 1.3627 0.6619
9.3237 1.5943 0.6660
9.3275 1.8280 0.6706
9.3313 2.0640 0.6756
9.3352 2.3029 0.6810
9.3391 2.5448 0.6869
9.3431 2.7901 0.6933
9.3471 3.0392 0.7002
9.3512 3.2924 0.7076
9.3554 3.5503 0.7155
9.3596 3.8131 0.7240
9.3640 4.0815 0.7331
9.3684 4.3558 0.7428
9.3729 4.6366 0.7532
9.3776 4.9245 0.7642
9.3824 5.2201 0.7760
9.3873 5.5241 0.7885
9.3924 5.8372 0.8019
9.3599 6.1355 0.8129
9.3769 6.4759 0.8291
9.3825 6.8205 0.8452
9.3883 7.1778 0.8625
9.4204 7.5701 0.8833
9.4267 7.9576 0.9030
9.4332 8.3619 0.9241
12.0574 11.2200 1.2091
11.4969 11.2291 1.1814
10.9627 11.2377 1.1557
10.4523 11.2460 1.1317
9.9637 11.2539 1.1093
9.4948 11.2615 1.0885
9.0441 11.2688 1.0690
8.6101 11.2758 1.0509
8.4272 11.6076 1.0637
8.4373 12.2329 1.1032
8.4482 12.9054 1.1463
8.4599 13.6314 1.1935
8.4726 14.4185 1.2453
8.4865 15.2758 1.3025
8.5017 16.2144 1.3658
8.5184 17.2477 1.4362
8.5369 18.3920 1.5151
8.5307 19.6064 1.5989
8.8411 21.7418 1.7564
8.8682 23.4151 1.8750
8.8992 25.3292 2.0117
8.9350 27.5428 2.1710
8.7437 29.3526 2.2976
8.0276 29.5406 2.2976
7.3078 29.7124 2.2976
6.6277 30.0630 2.3126
5.8968 30.2034 2.3126
5.1633 30.3273 2.3126
4.4274 30.4348 2.3126
3.6896 30.5259 2.3126
2.9500 30.6004 2.3126
2.2091 30.6585 2.3126
1.4672 30.6999 2.3126
0.7246 30.7249 2.3126
-0.0183 30.7333 2.3126
-0.7613 30.7251 2.3126
-1.4955 30.5266 2.2995
-2.2333 30.4856 2.2995
-2.9701 30.4281 2.2995
-3.7056 30.3542 2.2995
-4.4395 30.2639 2.2995
-5.1715 30.1572 2.2995
-5.9011 30.0342 2.2995
-6.6281 29.8948 2.2995
-7.3521 29.7391 2.2995
-8.0728 29.5673 2.2995
-8.7899 29.3793 2.2995
-9.5031 29.1752 2.2995
-10.2119 28.9550 2.2995
-10.9162 28.7190 2.2995
-11.6686 28.5971 2.3100
-12.4809 28.5918 2.3315
-13.3128 28.5917 2.3552
-14.1654 28.5955 2.3810
-15.0003 28.5256 2.4026
-15.6999 28.1808 2.4026
-16.3923 27.8198 2.4026
-17.0771 27.4430 2.4026
-17.7540 27.0504 2.4026
-18.4227 26.6422 2.4026
-19.0827 26.2185 2.4026
-19.7337 25.7795 2.4026
-20.3755 25.3254 2.4026
-21.0077 24.8562 2.4026
-21.6299 24.3722 2.4026
-22.2418 23.8735 2.4026
-22.8431 23.3603 2.4026
-23.4333 22.8328 2.4026
-13.9051 12.9085 1.3913
-11.8917 10.5159 1.1624
-24.0565 20.2585 2.2995
-24.5763 19.7009 2.2995
-25.0840 19.1307 2.2995
-25.5793 18.5481 2.2995
-26.0619 17.9532 2.2995
-26.5315 17.3464 2.2995
-22.2739 13.8060 1.8978
-27.7059 16.2595 2.3226
-28.1390 15.6119 2.3226
-28.5578 14.9533 2.3226
-28.9620 14.2840 2.3226
-29.3513 13.6042 2.3226
-11.4508 4.9748 0.8947
-11.3572 4.6112 0.8768
-11.7379 4.4385 0.8960
-27.4976 9.6448 2.0767
-30.1742 9.7713 2.2560
-29.8615 8.8788 2.2117
-20.7078 5.6162 1.5203
-28.0573 6.8860 2.0431
-27.5339 6.0560 1.9898
-21.1032 4.1097 1.5145
-21.2132 3.6014 1.5127
-27.0141 3.9171 1.9152
-26.9344 3.2431 1.8996
-26.8307 2.5746 1.8835
-26.8305 1.9216 1.8759
-26.9110 1.2747 1.8750
-26.9961 0.6255 1.8755
-19.9046 -0.0199 1.3796
-27.4890 -0.6919 1.9020
-27.9075 -1.3778 1.9288
-28.4771 -2.0967 1.9670
-29.3661 -2.8770 2.0285
-30.4595 -3.7292 2.1053
-31.4533 -4.6247 2.1766
-32.5184 -5.5871 2.2543
-33.4217 -6.5774 2.3226
-32.6562 -7.2504 2.2762
-32.5374 -8.0536 2.2762
-31.4273 -8.5898 2.2080
-30.3105 -9.0770 2.1400
-30.1426 -9.8264 2.1400
-29.9559 -10.5727 2.1400
-15.8031 -6.0107 1.1368
-27.5568 -11.2507 1.9973
-26.2584 -11.4683 1.9190
-24.6740 -11.4940 1.8194
-23.2399 -11.5172 1.7304
-21.9341 -11.5383 1.6503
-6.0544 -3.3741 0.4607
-5.7334 -3.3793 0.4415
-18.6236 -11.5919 1.4527
-17.6811 -11.6071 1.3981
-16.8034 -11.6213 1.3481
-15.9830 -11.6346 1.3022
-15.2136 -11.6470 1.2599
-14.8864 -11.9778 1.2543
-14.8972 -12.5926 1.4957
-14.9085 -13.2326 1.5264
-14.9203 -13.9018 1.5594
-14.9327 -14.6029 1.5949
-14.9457 -15.3391 1.6333
-14.9593 -16.1142 1.6747
-14.9738 -16.9323 1.7195
-9.8946 -11.7489 1.1671
-15.0052 -18.7168 1.8206
-15.0225 -19.6949 1.8777
-15.0409 -20.7394 1.9399
-15.0606 -21.8587 2.0079
-15.0819 -23.0627 2.0822
-15.1048 -24.3628 2.1639
-15.1297 -25.7729 2.2538
-14.7977 -26.6624 2.2976
-12.5310 -23.9225 2.0330
-13.5161 -27.3930 2.2976
-12.8608 -27.7336 2.2976
-12.1964 -28.0575 2.2976
-9.4095 -23.1610 1.8761
-8.8711 -23.4441 1.8798
-8.3791 -23.8706 1.8961
-9.4647 -29.2017 2.2993
-8.7614 -29.4379 2.2993
-6.2487 -23.0146 1.7844
-7.3366 -29.8553 2.2993
-6.6161 -30.0362 2.2993
-5.8909 -30.1984 2.2993
-5.3932 -31.7042 2.4026
-4.6272 -31.8342 2.4026
-3.8579 -31.9441 2.4026
-3.0858 -32.0339 2.4026
-2.3115 -32.1037 2.4026
-1.5356 -32.1534 2.4026
-0.5854 -24.8363 1.8541
0.0146 -24.8298 1.8531
0.6143 -24.8233 1.8533
1.5733 -32.1491 2.4026
2.2482 -30.7202 2.2995
2.9890 -30.6515 2.2995
3.7276 -30.5634 2.2995
4.4635 -30.4562 2.2995
5.1962 -30.3300 2.2995
5.9251 -30.1848 2.2995
6.7888 -30.6486 2.3476
7.5237 -30.4619 2.3476
8.2357 -30.1920 2.3426
8.5834 -28.7160 2.2447
8.6194 -26.4874 2.0874
8.6507 -24.5518 1.9519
8.6535 -22.7879 1.8290
5.5312 -13.5688 1.1003
5.8571 -13.4307 1.1010
8.9854 -19.3170 1.6022
9.0036 -18.1936 1.5279
9.0202 -17.1707 1.4611
9.0353 -16.2346 1.4009
9.0492 -15.3736 1.3464
9.0621 -14.5781 1.2968
9.0741 -13.8401 1.2516
9.0520 -13.1049 1.2058
9.0703 -12.4758 1.1690
9.0797 -11.8748 1.1342
9.1145 -11.3416 1.1053
9.1242 -10.8082 1.0758
9.1324 -10.3024 1.0484
9.1401 -9.8225 1.0230
9.1475 -9.3662 0.9995
9.1545 -8.9313 0.9777
9.1613 -8.5157 0.9575
9.1677 -8.1178 0.9387
9.1739 -7.7361 0.9212
9.1798 -7.3691 0.9049
9.1855 -7.0157 0.8898
9.1910 -6.6746 0.8758
9.1964 -6.3449 0.8627
9.2015 -6.0257 0.8506
9.2065 -5.7160 0.8394
9.2114 -5.4152 0.8290
9.2161 -5.1225 0.8193
9.2207 -4.8373 0.8104
9.2252 -4.5589 0.8022
3.1231 -1.4506 0.2689
9.2339 -4.0206 0.7877
9.2382 -3.7596 0.7814
9.1675 -3.4751 0.7694
9.2207 -3.2428 0.7684
9.2247 -2.9958 0.7638
9.2287 -2.7524 0.7597
9.2325 -2.5123 0.7561
9.2131 -2.2695 0.7511
9.2659 -2.0464 0.7525
9.2696 -1.8135 0.7503
9.2734 -1.5826 0.7486
9.2771 -1.3534 0.7474
9.2797 -1.1256 0.7465
9.2834 -0.8990 0.7462
9.2870 -0.6733 0.7462
9.2907 -0.4482 0.7468
9.2943 -0.2235 0.7477
9.2980 0.0011 0.7491
9.3016 0.2260 0.7510
9.3052 0.4512 0.7532
9.3089 0.6772 0.7560
9.3126 0.9042 0.7591
9.3163 1.1324 0.7628
9.3200 1.3621 0.7669
9.3237 1.5937 0.7715
9.3275 1.8273 0.7765
9.3313 2.0634 0.7821
9.3352 2.3022 0.7882
9.3391 2.5441 0.7948
9.3431 2.7894 0.8020
9.3471 3.0385 0.8097
9.3512 3.2918 0.8181
9.3554 3.5496 0.8270
9.3596 3.8125 0.8366
9.3640 4.0808 0.8469
9.3684 4.3551 0.8579
9.3729 4.6359 0.8697
9.3776 4.9238 0.8823
9.3824 5.2194 0.8957
9.3873 5.5234 0.9100
9.3924 5.8365 0.9252
9.3603 6.1350 0.9377
9.3769 6.4752 0.9561
9.3825 6.8197 0.9745
9.3883 7.1771 0.9942
9.4204 7.5693 1.0180
9.4267 7.9568 1.0405
9.4332 8.3611 1.0646
12.0585 11.2200 1.3928
11.4980 11.2291 1.3607
10.9637 11.2377 1.3308
10.4532 11.2460 1.3030
9.9645 11.2539 1.2770
9.4956 11.2615 1.2528
9.0449 11.2687 1.2302
8.6108 11.2758 1.2091
8.4272 11.6066 1.2236
8.4373 12.2320 1.2689
8.4482 12.9043 1.3182
8.4599 13.6303 1.3723
8.4726 14.4174 1.4317
8.4865 15.2747 1.4973
8.5017 16.2132 1.5699
8.5184 17.2464 1.6507
8.5369 18.3907 1.7412
8.5307 19.6050 1.8373
8.8411 21.7403 2.0180
8.8682 23.4134 2.1541
8.8475 25.1803 2.2976
8.2319 25.3738 2.2976
7.6124 25.5532 2.2976
6.9894 25.7185 2.2976
6.4046 26.0385 2.3126
5.7712 26.1763 2.3126
5.1350 26.2997 2.3126
4.4965 26.4088 2.3126
3.8558 26.5033 2.3126
3.1988 26.4638 2.3022
2.5589 26.5419 2.3033
1.9172 26.6054 2.3044
1.2737 26.6489 2.3050
0.6287 26.6589 2.3040
-0.0159 26.6544 2.3029
-0.6599 26.6312 2.3016
-1.3029 26.5938 2.3002
-1.9451 26.5491 2.2995
-2.5901 26.5325 2.3024
-3.2907 26.9538 2.3447
-4.0044 27.2955 2.3816
-4.7053 27.4370 2.4026
-5.3696 27.3270 2.4028
-6.0314 27.2016 2.4031
-6.6905 27.0611 2.4033
-7.3466 26.9057 2.4036
-7.9993 26.7348 2.4038
-8.6482 26.5489 2.4039
-9.2910 26.3419 2.4035
-9.9304 26.1236 2.4034
-10.5640 25.8881 2.4030
-11.1919 25.6370 2.4026
-11.8166 25.3766 2.4026
-12.4357 25.1019 2.4026
-13.0489 24.8130 2.4026
-13.6559 24.5100 2.4026
-14.2564 24.1931 2.4026
-14.8501 23.8622 2.4026
-15.4366 23.5176 2.4026
-16.0157 23.1594 2.4026
-16.5871 22.7878 2.4026
-17.1504 22.4029 2.4026
-17.7054 22.0047 2.4026
-18.2518 21.5935 2.4026
-17.9830 20.2611 2.2995
-18.4885 19.8431 2.2995
-18.9850 19.4131 2.2995
-19.4720 18.9713 2.2995
-13.9038 12.9060 1.6026
-11.8898 10.5131 1.3391
-20.8742 17.5768 2.2995
-21.3209 17.0896 2.2995
-21.9754 16.7580 2.3226
-22.4046 16.2442 2.3226
-22.8225 15.7199 2.3226
-23.2287 15.1852 2.3226
-22.2687 13.8011 2.1894
-24.0052 14.0858 2.3226
-24.3749 13.5217 2.3226
-24.7319 12.9482 2.3226
-25.0760 12.3656 2.3226
-25.4070 11.7742 2.3226
-11.4478 4.9727 1.0336
-11.3563 4.6100 1.0133
-11.7365 4.4371 1.0357
-26.4500 9.2755 2.3099
-26.4110 8.5509 2.2841
-26.2169 7.7933 2.2466
-20.7061 5.6143 1.7593
-25.7225 6.3112 2.1682
-25.5408 5.6159 2.1372
-21.0997 4.1076 1.7538
-21.2114 3.5997 1.7523
-25.2306 3.6569 2.0728
-25.1984 3.0325 2.0600
-25.2203 2.4184 2.0528
-25.2499 1.8068 2.0475
-25.3903 1.2010 2.0523
-25.5706 0.5908 2.0615
-19.9022 -0.0212 1.6012
-26.0495 -0.6574 2.0928
-26.4106 -1.3056 2.1200
-26.8792 -1.9808 2.1570
-27.3696 -2.6832 2.1970
-28.0037 -3.4303 2.2499
-28.8124 -4.2383 2.3183
-28.7812 -4.9469 2.3207
-28.7272 -5.6554 2.3226
-28.6322 -6.3590 2.3226
-28.0002 -6.9324 2.2802
-27.8241 -7.6068 2.2762
-27.6800 -8.2911 2.2762
-27.3213 -8.9085 2.2599
-27.3899 -9.6690 2.2803
-15.8013 -6.0111 1.3250
-26.9898 -11.0211 2.2810
-26.2543 -11.4684 2.2379
-24.6704 -11.4940 2.1224
-23.2366 -11.5172 2.0191
-21.9311 -11.5383 1.9262
-6.0536 -3.3741 0.5378
-5.7327 -3.3793 0.5156
-18.6213 -11.5919 1.6969
-17.6791 -11.6071 1.6336
-16.8015 -11.6213 1.5756
-15.9813 -11.6346 1.5223
-15.2120 -11.6470 1.4732
-14.8864 -11.9790 1.4672
-14.8972 -12.5939 1.7134
-14.9085 -13.2339 1.7488
-14.9203 -13.9031 1.7870
-14.9327 -14.6043 1.8280
-14.9457 -15.3406 1.8723
-14.9594 -16.1157 1.9201
-14.9738 -16.9338 1.9718
-9.8860 -11.7397 1.3373
-13.1860 -16.4489 1.8351
-12.8005 -16.7832 1.8355
-12.4138 -17.1184 1.8371
-15.0180 -21.7985 2.2976
-14.5002 -22.1749 2.2976
-13.9725 -22.5382 2.2976
-13.4353 -22.8882 2.2976
-12.8889 -23.2247 2.2976
-12.3336 -23.5473 2.2976
-11.7699 -23.8558 2.2976
-11.1982 -24.1500 2.2976
-10.6186 -24.4295 2.2976
-10.0318 -24.6943 2.2976
-9.4452 -24.9631 2.2993
-8.4090 -23.9573 2.1861
-8.2375 -25.4172 2.2993
-7.6249 -25.6209 2.2993
-6.2453 -23.0034 2.0494
-6.3841 -25.9810 2.2993
-5.7618 -26.1595 2.3013
-5.3558 -27.4569 2.4026
-4.6924 -27.5860 2.4026
-4.0257 -27.6981 2.4026
-3.3563 -27.7928 2.4026
-2.6845 -27.8704 2.4026
-2.0109 -27.9305 2.4026
-1.3359 -27.9733 2.4026
-0.5853 -24.8326 2.1309
0.0146 -24.8261 2.1297
0.6142 -24.8196 2.1299
1.3687 -27.9699 2.4026
2.0436 -27.9254 2.4026
2.6004 -26.6680 2.2995
3.2431 -26.5923 2.2995
3.8835 -26.4999 2.2995
4.5211 -26.3911 2.2995
5.1555 -26.2660 2.2995
5.7864 -26.1246 2.2995
6.5472 -26.5101 2.3476
7.1825 -26.3329 2.3476
7.8127 -26.1395 2.3476
8.4375 -25.9300 2.3476
8.6507 -24.5534 2.2424
8.6534 -22.7894 2.1010
5.5309 -13.5691 1.2637
5.8566 -13.4306 1.2644
8.9854 -19.3184 1.8399
9.0036 -18.1949 1.7544
9.0201 -17.1720 1.6776
9.0353 -16.2358 1.6082
9.0492 -15.3747 1.5454
9.0621 -14.5792 1.4883
9.0740 -13.8412 1.4362
9.0513 -13.1048 1.3834
9.0703 -12.4768 1.3411
9.0793 -11.8752 1.3010
9.1145 -11.3425 1.2676
9.1242 -10.8091 1.2336
9.1323 -10.3033 1.2020
9.1401 -9.8234 1.1727
9.1475 -9.3671 1.1456
9.1545 -8.9321 1.1204
9.1612 -8.5165 1.0971
9.1677 -8.1186 1.0753
9.1738 -7.7369 1.0551
9.1798 -7.3699 1.0363
9.1855 -7.0164 1.0188
9.1910 -6.6754 1.0026
9.1963 -6.3457 0.9874
9.2015 -6.0264 0.9734
9.2065 -5.7167 0.9603
9.2114 -5.4159 0.9482
9.2161 -5.1232 0.9370
9.2207 -4.8380 0.9266
9.2252 -4.5596 0.9170
3.1229 -1.4507 0.3073
9.2339 -4.0212 0.9001
9.2382 -3.7603 0.8927
9.1675 -3.4758 0.8789
9.2207 -3.2434 0.8775
9.2247 -2.9964 0.8720
9.2286 -2.7531 0.8672
9.2325 -2.5130 0.8629
9.2126 -2.2700 0.8570
9.2659 -2.0470 0.8584
9.2696 -1.8141 0.8558
9.2734 -1.5832 0.8536
9.2771 -1.3540 0.8520
9.2797 -1.1262 0.8509
9.2834 -0.8996 0.8503
9.2870 -0.6739 0.8502
9.2907 -0.4488 0.8506
9.2943 -0.2241 0.8515
9.2979 0.0005 0.8529
9.3016 0.2254 0.8548
9.3052 0.4506 0.8573
9.3089 0.6766 0.8602
9.3126 0.9036 0.8636
9.3162 1.1318 0.8676
9.3200 1.3615 0.8720
9.3237 1.5931 0.8771
9.3275 1.8267 0.8826
9.3313 2.0628 0.8888
9.3352 2.3016 0.8955
9.3391 2.5435 0.9029
9.3431 2.7888 0.9108
9.3471 3.0379 0.9195
9.3512 3.2911 0.9288
9.3554 3.5490 0.9388
9.3596 3.8118 0.9495
9.3639 4.0801 0.9610
9.3684 4.3544 0.9733
9.3729 4.6352 0.9865
9.3776 4.9231 1.0005
9.3824 5.2187 1.0155
9.3873 5.5227 1.0316
9.3923 5.8357 1.0487
9.3607 6.1345 1.0627
9.3769 6.4745 1.0834
9.3825 6.8190 1.1041
9.3882 7.1763 1.1262
9.4204 7.5685 1.1530
9.4267 7.9560 1.1783
9.4332 8.3602 1.2054
12.0597 11.2200 1.5769
11.4990 11.2291 1.5403
10.9647 11.2377 1.5063
10.4541 11.2460 1.4746
9.9654 11.2539 1.4450
9.4964 11.2614 1.4174
9.0456 11.2687 1.3917
8.6114 11.2758 1.3677
8.4272 11.6057 1.3838
8.4373 12.2310 1.4348
8.4481 12.9033 1.4905
8.4599 13.6292 1.5515
8.4726 14.4163 1.6185
8.4865 15.2735 1.6924
8.5016 16.2120 1.7743
8.5184 17.2451 1.8655
8.5369 18.3893 1.9676
8.5307 19.6036 2.0761
8.8411 21.7387 2.2802
8.3720 22.1021 2.2976
7.8314 22.2871 2.2976
7.2870 22.4597 2.2976
6.7390 22.6197 2.2976
6.2282 22.9158 2.3126
5.6703 23.0515 2.3126
5.0807 23.0433 2.2995
4.5209 23.1528 2.2995
3.9588 23.2495 2.2995
3.3948 23.3334 2.2995
2.8292 23.4044 2.2995
2.2622 23.4626 2.2995
1.6941 23.5079 2.2995
1.1252 23.5415 2.2996
0.5565 23.5976 2.3032
-0.0145 24.2931 2.3704
-0.6101 24.6167 2.4027
-1.2053 24.5996 2.4030
-1.8001 24.5690 2.4033
-2.3943 24.5249 2.4036
-2.9874 24.4675 2.4039
-3.5793 24.3965 2.4043
-4.1696 24.3118 2.4046
-4.7582 24.2137 2.4049
-5.3445 24.1023 2.4052
-5.9284 23.9769 2.4054
-6.5093 23.8377 2.4056
-7.0860 23.6810 2.4054
-7.6593 23.5112 2.4052
-8.2287 23.3284 2.4050
-8.7934 23.1309 2.4046
-9.3522 22.9167 2.4038
-9.9074 22.6930 2.4034
-10.4589 22.4592 2.4032
-11.0030 22.2084 2.4026
-11.5445 21.9506 2.4026
-12.0804 21.6805 2.4026
-12.0693 20.4799 2.2995
-12.5706 20.1978 2.2995
-13.0657 19.9040 2.2995
-13.5544 19.5987 2.2995
-14.0364 19.2820 2.2995
-14.5114 18.9541 2.2995
-14.9792 18.6149 2.2995
-15.4395 18.2648 2.2995
-15.8921 17.9038 2.2995
-16.3367 17.5321 2.2995
-16.7731 17.1498 2.2995
-17.2011 16.7572 2.2995
-13.9024 12.9035 1.8143
-11.8879 10.5104 1.5161
-18.6166 15.6742 2.3226
-19.0121 15.2374 2.3226
-19.3979 14.7909 2.3226
-19.7737 14.3351 2.3226
-20.1392 13.8700 2.3226
-20.4942 13.3960 2.3226
-20.8386 12.9132 2.3226
-21.1721 12.4218 2.3226
-21.4944 11.9221 2.3226
-21.8053 11.4144 2.3226
-22.1048 10.8988 2.3226
-22.3924 10.3756 2.3226
-11.4448 4.9706 1.1726
-11.3554 4.6088 1.1501
-11.7352 4.4358 1.1757
-23.4213 8.2118 2.3226
-23.6257 7.6475 2.3205
-23.7800 7.0673 2.3148
-20.7044 5.6124 1.9986
-23.8485 5.8498 2.2844
-23.8644 5.2457 2.2698
-21.0963 4.1055 1.9934
-21.2097 3.5980 1.9923
-23.8160 3.4502 2.2253
-23.8210 2.8651 2.2153
-23.8469 2.2852 2.2085
-23.8935 1.7081 2.2049
-23.9821 1.1329 2.2065
-24.1057 0.5554 2.2126
-19.8998 -0.0225 1.8232
-24.4402 -0.6183 2.2364
-24.6077 -1.2181 2.2503
-24.8142 -1.8302 2.2690
-24.9996 -2.4525 2.2872
-25.2368 -3.0931 2.3114
-25.2426 -3.7148 2.3159
-25.2569 -4.3428 2.3226
-24.5012 -4.8251 2.2596
-24.3730 -5.4147 2.2558
-24.9911 -6.1892 2.3226
-24.8722 -6.8015 2.3226
-24.2447 -7.2638 2.2762
-24.0984 -7.8592 2.2762
-23.9374 -8.4518 2.2762
-15.7994 -6.0115 1.5135
-24.0506 -9.8226 2.3226
-23.8411 -10.4160 2.3226
-22.7610 -10.6061 2.2384
-22.5736 -11.1903 2.2427
-21.9282 -11.5384 2.2025
-6.0485 -3.3717 0.6147
-5.7320 -3.3793 0.5898
-18.6191 -11.5919 1.9415
-17.6771 -11.6072 1.8694
-16.7996 -11.6214 1.8034
-15.9795 -11.6346 1.7427
-15.2104 -11.6471 1.6869
-14.8864 -11.9803 1.6804
-14.8973 -12.5951 1.9315
-14.9085 -13.2353 1.9717
-14.9203 -13.9044 2.0150
-14.9327 -14.6056 2.0616
-14.9457 -15.3420 2.1118
-14.9594 -16.1171 2.1660
-14.9738 -16.9353 2.2245
-9.8779 -11.7310 1.5077
-13.2432 -16.5217 2.0798
-14.1972 -18.6159 2.2976
-12.4634 -17.1880 2.0818
-13.3041 -19.3123 2.2976
-12.8441 -19.6437 2.2976
-12.3754 -19.9636 2.2976
-11.8985 -20.2717 2.2976
-9.1202 -16.4350 1.8359
-8.7678 -16.7406 1.8446
-8.4113 -17.0496 1.8545
-8.0503 -17.3626 1.8657
-9.4073 -21.6442 2.2993
-8.8867 -21.8772 2.2993
-8.3602 -22.0970 2.2993
-7.8279 -22.3033 2.2993
-7.2903 -22.4962 2.2993
-6.7478 -22.6752 2.2993
-6.2006 -22.8404 2.2993
-5.7088 -23.2341 2.3236
-5.3227 -24.1674 2.4026
-4.7389 -24.2959 2.4026
-4.1518 -24.4093 2.4026
-3.5618 -24.5077 2.4026
-2.9695 -24.5911 2.4026
-2.3751 -24.6592 2.4026
-1.7791 -24.7120 2.4026
-1.1819 -24.7497 2.4026
-0.5838 -24.7720 2.4026
0.0146 -24.7789 2.4026
0.6129 -24.7706 2.4026
1.2109 -24.7469 2.4026
1.8080 -24.7079 2.4026
2.3363 -23.9617 2.3351
2.8693 -23.5292 2.2995
3.4360 -23.4482 2.2995
4.0003 -23.3526 2.2995
4.5618 -23.2428 2.2995
5.1202 -23.1186 2.2995
5.6750 -22.9802 2.2995
6.2260 -22.8277 2.2995
6.9143 -23.1352 2.3476
7.4676 -22.9511 2.3476
8.0158 -22.7531 2.3476
8.5586 -22.5413 2.3476
5.5307 -13.5695 1.4275
5.8561 -13.4306 1.4282
8.9854 -19.3197 2.0781
9.0036 -18.1962 1.9814
9.0201 -17.1732 1.8944
9.0353 -16.2370 1.8160
9.0492 -15.3759 1.7449
9.0621 -14.5803 1.6803
9.0740 -13.8422 1.6213
9.0505 -13.1048 1.5614
9.0703 -12.4778 1.5136
9.0789 -11.8757 1.4680
9.1144 -11.3434 1.4303
9.1242 -10.8100 1.3918
9.1323 -10.3042 1.3560
9.1401 -9.8243 1.3228
9.1475 -9.3679 1.2920
9.1545 -8.9329 1.2635
9.1612 -8.5173 1.2369
9.1677 -8.1194 1.2123
9.1738 -7.7377 1.1893
9.1798 -7.3707 1.1680
9.1855 -7.0172 1.1481
9.1910 -6.6761 1.1296
9.1963 -6.3464 1.1124
9.2015 -6.0271 1.0964
9.2065 -5.7174 1.0815
9.2114 -5.4166 1.0677
9.2161 -5.1239 1.0549
9.2207 -4.8386 1.0431
9.2252 -4.5603 1.0321
3.1227 -1.4508 0.3458
9.2339 -4.0219 1.0128
9.2381 -3.7609 1.0043
9.1675 -3.4764 0.9885
9.2207 -3.2440 0.9868
9.2247 -2.9970 0.9805
9.2286 -2.7537 0.9749
9.2325 -2.5136 0.9699
9.2122 -2.2705 0.9631
9.2658 -2.0476 0.9645
9.2696 -1.8147 0.9614
9.2733 -1.5838 0.9589
9.2771 -1.3546 0.9569
9.2797 -1.1268 0.9554
9.2834 -0.9002 0.9546
9.2870 -0.6745 0.9543
9.2907 -0.4495 0.9547
9.2943 -0.2247 0.9555
9.2979 -0.0001 0.9569
9.3016 0.2248 0.9589
9.3052 0.4500 0.9615
9.3089 0.6760 0.9646
9.3125 0.9029 0.9683
9.3162 1.1311 0.9725
9.3200 1.3609 0.9774
9.3237 1.5924 0.9829
9.3275 1.8261 0.9890
9.3313 2.0622 0.9957
9.3352 2.3010 1.0031
9.3391 2.5429 1.0112
9.3430 2.7882 1.0199
9.3471 3.0372 1.0294
9.3512 3.2905 1.0397
9.3553 3.5483 1.0507
9.3596 3.8111 1.0626
9.3639 4.0795 1.0753
9.3684 4.3537 1.0889
9.3729 4.6345 1.1035
9.3776 4.9224 1.1190
9.3824 5.2180 1.1357
9.3873 5.5219 1.1534
9.3923 5.8350 1.1724
9.3611 6.1341 1.1880
9.3769 6.4737 1.2109
9.3825 6.8182 1.2338
9.3882 7.1755 1.2584
9.4204 7.5677 1.2882
9.4266 7.9552 1.3163
9.4332 8.3594 1.3464
12.0608 11.2200 1.7614
11.5001 11.2290 1.7203
10.9656 11.2377 1.6821
10.4551 11.2459 1.6465
9.9662 11.2538 1.6134
9.4972 11.2614 1.5824
9.0464 11.2687 1.5535
8.6121 11.2757 1.5266
8.4271 11.6047 1.5443
8.4373 12.2300 1.6011
8.4481 12.9023 1.6631
8.4599 13.6282 1.7310
8.4726 14.4152 1.8056
8.4865 15.2724 1.8880
8.5016 16.2108 1.9792
8.5183 17.2439 2.0808
8.5368 18.3880 2.1945
8.4652 19.4516 2.2976
7.9884 19.6407 2.2976
7.5077 19.8188 2.2976
7.0232 19.9857 2.2976
6.5353 20.1414 2.2976
6.0491 20.3027 2.2995
5.5545 20.4358 2.2995
5.0572 20.5576 2.2995
4.5573 20.6680 2.2995
4.0552 20.7668 2.2995
3.5512 20.8541 2.2995
3.0453 20.9298 2.2995
2.5379 20.9939 2.2995
2.0293 21.0464 2.2995
1.5780 21.8958 2.3876
1.0547 22.0646 2.4027
0.5209 22.0862 2.4031
-0.0132 22.0956 2.4034
-0.5476 22.0928 2.4038
-1.0818 22.0777 2.4042
-1.6157 22.0502 2.4045
-2.1489 22.0105 2.4048
-2.6813 21.9587 2.4052
-3.2125 21.8948 2.4055
-3.7416 21.8146 2.4055
-4.2686 21.7207 2.4052
-4.7933 21.6146 2.4049
-5.3155 21.4965 2.4046
-5.8350 21.3665 2.4043
-6.3515 21.2246 2.4040
-6.8648 21.0710 2.4038
-7.3746 20.9056 2.4035
-7.8808 20.7288 2.4033
-8.3829 20.5400 2.4030
-8.4991 19.4658 2.2995
-8.9722 19.2653 2.2995
-9.4408 19.0539 2.2995
-9.9048 18.8315 2.2995
-10.3639 18.5985 2.2995
-10.8177 18.3548 2.2995
-11.2661 18.1005 2.2995
-11.7089 17.8357 2.2995
-12.1458 17.5606 2.2995
-12.5766 17.2753 2.2995
-13.0010 16.9799 2.2995
-13.4188 16.6745 2.2995
-13.9687 16.5234 2.3226
-14.3767 16.1950 2.3226
-14.7774 15.8572 2.3226
-15.1705 15.5097 2.3226
-15.5558 15.1529 2.3226
-13.9010 12.9010 2.0263
-11.8859 10.5076 1.6934
-16.6628 14.0278 2.3226
-17.0148 13.6352 2.3226
-17.3579 13.2340 2.3226
-17.6919 12.8244 2.3226
-18.0166 12.4068 2.3226
-18.3319 11.9811 2.3226
-18.6374 11.5477 2.3226
-18.9331 11.1067 2.3226
-19.2186 10.6584 2.3226
-19.4939 10.2030 2.3226
-19.7588 9.7406 2.3226
-20.0130 9.2716 2.3226
-11.4419 4.9685 1.3119
-11.3544 4.6077 1.2871
-11.7338 4.4344 1.3159
-20.9201 7.3334 2.3226
-21.1186 6.8345 2.3226
-21.3055 6.3304 2.3226
-20.7027 5.6105 2.2384
-21.6437 5.3076 2.3226
-21.7807 4.7863 2.3211
-21.0928 4.1034 2.2335
-21.2080 3.5963 2.2328
-22.0957 3.1996 2.3143
-22.1560 2.6634 2.3101
-22.2134 2.1272 2.3068
-22.2552 1.5896 2.3033
-22.3599 1.0548 2.3077
-22.4418 0.5156 2.3110
-19.8973 -0.0238 2.0455
-22.5694 -0.5725 2.3178
-22.6222 -1.1213 2.3221
-22.6246 -1.6702 2.3226
-22.6090 -2.2195 2.3226
-22.5801 -2.7689 2.3226
-22.5379 -3.3183 2.3226
-22.4821 -3.8672 2.3226
-22.4130 -4.4153 2.3226
-22.1716 -4.9271 2.3060
-22.1808 -5.4947 2.3170
-22.1249 -6.0517 2.3226
-22.0019 -6.5934 2.3226
-21.5847 -7.0409 2.2927
-21.2899 -7.5185 2.2770
-15.7976 -6.0119 1.7024
-20.9501 -8.5578 2.2762
-20.7643 -9.0732 2.2762
-20.9841 -9.7796 2.3226
-20.7681 -10.2968 2.3226
-20.5393 -10.8091 2.3226
-5.9643 -3.3252 0.6825
-5.7313 -3.3793 0.6641
-18.6169 -11.5920 2.1865
-17.6750 -11.6072 2.1056
-16.7978 -11.6214 2.0316
-15.9778 -11.6347 1.9636
-15.2088 -11.6471 1.9009
-14.8864 -11.9816 1.8941
-14.8973 -12.5964 2.1502
-14.9086 -13.2366 2.1952
-14.9204 -13.9058 2.2436
-14.9327 -14.6070 2.2957
-14.6008 -14.9892 2.2976
-14.2471 -15.3511 2.2976
-13.8843 -15.7044 2.2976
-9.8693 -11.7219 1.6781
-9.4065 -11.7362 1.6458
-12.7421 -16.7094 2.2976
-12.3444 -17.0254 2.2976
-11.9385 -17.3314 2.2976
-11.5248 -17.6274 2.2976
-11.1034 -17.9130 2.2976
-10.6747 -18.1881 2.2976
-10.2389 -18.4524 2.2976
-9.7963 -18.7057 2.2976
-9.3543 -18.9624 2.2993
-8.8986 -19.1934 2.2993
-8.4369 -19.4129 2.2993
-7.9696 -19.6208 2.2993
-7.4970 -19.8168 2.2993
-7.0194 -20.0009 2.2993
-6.5370 -20.1728 2.2993
-6.0502 -20.3326 2.2993
-5.6655 -20.8708 2.3432
-5.2923 -21.5404 2.4026
-4.7719 -21.6682 2.4026
-4.2484 -21.7827 2.4026
-3.7220 -21.8839 2.4026
-3.1930 -21.9716 2.4026
-2.6620 -22.0459 2.4026
-2.1291 -22.1066 2.4026
-1.5948 -22.1538 2.4026
-1.0595 -22.1873 2.4026
-0.5234 -22.2072 2.4026
0.0130 -22.2134 2.4026
0.5494 -22.2060 2.4026
1.0854 -22.1850 2.4026
1.6207 -22.1502 2.4026
2.1548 -22.1019 2.4026
2.5723 -21.0954 2.2996
3.0803 -21.0221 2.2995
3.5862 -20.9369 2.2995
4.0897 -20.8390 2.2995
4.5905 -20.7283 2.2995
5.0881 -20.6050 2.2995
5.5823 -20.4691 2.2995
6.0727 -20.3207 2.2995
6.6962 -20.5816 2.3476
7.1881 -20.4051 2.3476
7.6752 -20.2162 2.3476
5.5304 -13.5698 1.5916
5.8557 -13.4305 1.5922
8.9854 -19.3211 2.3169
9.0036 -18.1975 2.2089
9.0201 -17.1745 2.1118
9.0353 -16.2382 2.0242
9.0492 -15.3770 1.9448
9.0621 -14.5814 1.8726
9.0740 -13.8433 1.8068
9.0498 -13.1048 1.7397
9.0703 -12.4788 1.6865
9.0785 -11.8761 1.6355
9.1144 -11.3444 1.5934
9.1241 -10.8110 1.5503
9.1323 -10.3050 1.5103
9.1401 -9.8251 1.4732
9.1475 -9.3688 1.4387
9.1545 -8.9338 1.4068
9.1612 -8.5181 1.3771
9.1677 -8.1202 1.3495
9.1738 -7.7384 1.3238
9.1798 -7.3714 1.2999
9.1855 -7.0179 1.2776
9.1910 -6.6768 1.2569
9.1963 -6.3471 1.2376
9.2015 -6.0278 1.2197
9.2065 -5.7181 1.2030
9.2114 -5.4173 1.1875
9.2161 -5.1246 1.1731
9.2207 -4.8393 1.1598
9.2252 -4.5609 1.1475
3.1224 -1.4509 0.3844
9.2339 -4.0226 1.1257
9.2381 -3.7616 1.1161
9.1675 -3.4770 1.0984
9.2207 -3.2447 1.0964
9.2247 -2.9977 1.0892
9.2286 -2.7543 1.0829
9.2325 -2.5142 1.0772
9.2117 -2.2710 1.0694
9.2658 -2.0482 1.0709
9.2696 -1.8153 1.0673
9.2733 -1.5844 1.0643
9.2770 -1.3553 1.0620
9.2797 -1.1274 1.0602
9.2834 -0.9008 1.0592
9.2870 -0.6751 1.0587
9.2907 -0.4501 1.0589
9.2943 -0.2253 1.0597
9.2979 -0.0007 1.0612
9.3016 0.2241 1.0632
9.3052 0.4494 1.0659
9.3089 0.6754 1.0692
9.3125 0.9023 1.0732
9.3162 1.1305 1.0778
9.3199 1.3603 1.0830
9.3237 1.5918 1.0889
9.3275 1.8255 1.0956
9.3313 2.0615 1.1029
9.3352 2.3004 1.1109
9.3391 2.5422 1.1197
9.3430 2.7875 1.1293
9.3471 3.0366 1.1396
9.3512 3.2898 1.1508
9.3553 3.5476 1.1629
9.3596 3.8105 1.1759
9.3639 4.0788 1.1898
9.3684 4.3531 1.2047
9.3729 4.6338 1.2207
9.3776 4.9217 1.2378
9.3823 5.2173 1.2561
9.3873 5.5212 1.2756
9.3923 5.8343 1.2964
9.3615 6.1336 1.3136
9.3769 6.4729 1.3387
9.3824 6.8175 1.3639
9.3882 7.1747 1.3909
9.4204 7.5669 1.4237
9.4266 7.9544 1.4547
9.4332 8.3586 1.4878
12.0619 11.2200 1.9464
11.5011 11.2290 1.9008
10.9666 11.2377 1.8584
10.4560 11.2459 1.8189
9.9671 11.2538 1.7821
9.4980 11.2614 1.7478
9.0471 11.2687 1.7158
8.6128 11.2757 1.6859
8.4271 11.6038 1.7052
8.4372 12.2290 1.7678
8.4481 12.9013 1.8361
8.4598 13.6271 1.9109
8.4726 14.4140 1.9932
8.4864 15.2712 2.0840
8.5016 16.2096 2.1845
8.5183 17.2426 2.2965
8.0984 17.4424 2.2976
7.6706 17.6246 2.2976
7.2389 17.7969 2.2976
6.8036 17.9590 2.2976
6.3701 18.1261 2.2995
5.9278 18.2680 2.2995
5.4824 18.3996 2.2995
5.0344 18.5209 2.2995
4.5837 18.6318 2.2995
4.1308 18.7324 2.2995
3.6758 18.8224 2.2995
3.2189 18.9019 2.2995
2.7604 18.9709 2.2995
2.4037 19.8824 2.4026
1.9222 19.9342 2.4028
1.4397 19.9760 2.4031
0.9563 20.0066 2.4035
0.4723 20.0262 2.4038
-0.0120 20.0347 2.4042
-0.4965 20.0321 2.4046
-0.9810 20.0183 2.4049
-1.4651 19.9934 2.4053
-1.9486 19.9572 2.4056
-2.4307 19.9051 2.4054
-2.9114 19.8414 2.4051
-3.3906 19.7666 2.4048
-3.8680 19.6808 2.4045
-4.3433 19.5842 2.4042
-4.8163 19.4766 2.4039
-5.2868 19.3581 2.4036
-5.7546 19.2287 2.4033
-6.2194 19.0886 2.4030
-6.6809 18.9378 2.4027
-6.8331 17.9719 2.2995
-7.2689 17.8094 2.2995
-7.7011 17.6368 2.2995
-8.1294 17.4543 2.2995
-8.5535 17.2618 2.2995
-8.9734 17.0594 2.2995
-9.3887 16.8472 2.2995
-9.7992 16.6254 2.2995
-10.2048 16.3940 2.2995
-10.7116 16.3152 2.3226
-11.1105 16.0624 2.3226
-11.5037 15.8002 2.3226
-11.8910 15.5289 2.3226
-12.2722 15.2483 2.3226
-12.6471 14.9588 2.3226
-13.0155 14.6604 2.3226
-13.3771 14.3532 2.3226
-13.7317 14.0375 2.3226
-14.0792 13.7133 2.3226
-13.8997 12.8985 2.2388
-11.8840 10.5049 1.8710
-15.0770 12.6914 2.3226
-15.3939 12.3349 2.3226
-15.7027 11.9707 2.3226
-16.0033 11.5991 2.3226
-16.2953 11.2201 2.3226
-16.5786 10.8340 2.3226
-16.8531 10.4409 2.3226
-17.1186 10.0410 2.3226
-17.3749 9.6346 2.3226
-17.6218 9.2218 2.3226
-17.8591 8.8028 2.3226
-18.0868 8.3779 2.3226
-11.4389 4.9664 1.4514
-11.3535 4.6065 1.4244
-11.7324 4.4331 1.4564
-18.8975 6.6230 2.3226
-19.0744 6.1716 2.3226
-19.2407 5.7156 2.3226
-19.3964 5.2552 2.3226
-19.5412 4.7907 2.3226
-19.6751 4.3222 2.3226
-19.7979 3.8502 2.3226
-19.9095 3.3748 2.3226
-20.0099 2.8962 2.3226
-20.0989 2.4148 2.3226
-20.1764 1.9308 2.3226
-20.2424 1.4445 2.3226
-20.2968 0.9561 2.3226
-20.3394 0.4660 2.3226
-19.8949 -0.0251 2.2683
-20.3893 -0.5185 2.3226
-20.3964 -1.0123 2.3226
-20.3916 -1.5067 2.3226
-20.3748 -2.0015 2.3226
-20.3460 -2.4963 2.3226
-20.3051 -2.9909 2.3226
-20.2522 -3.4850 2.3226
-20.1871 -3.9782 2.3226
-20.1100 -4.4703 2.3226
-19.7808 -4.9015 2.2947
-19.6374 -5.3727 2.2897
-19.8063 -5.9367 2.3226
-19.6809 -6.4213 2.3226
-19.5436 -6.9032 2.3226
-15.7957 -6.0123 1.8916
-18.8495 -7.7010 2.2762
-18.6799 -8.1637 2.2762
-18.4987 -8.6226 2.2762
-18.3061 -9.0774 2.2762
-18.4704 -9.7217 2.3226
-18.2507 -10.1765 2.3226
-18.0195 -10.6261 2.3226
-17.1667 -10.6903 2.2428
-17.1627 -11.2721 2.2747
-16.7959 -11.6214 2.2603
-15.9761 -11.6347 2.1848
-15.2072 -11.6471 2.1154
-14.8865 -11.9828 2.1083
-14.5203 -12.2789 2.3094
-14.1592 -12.5725 2.2976
-13.8634 -12.9220 2.2976
-13.5588 -13.2643 2.2976
-13.2455 -13.5991 2.2976
-12.9236 -13.9263 2.2976
-12.5934 -14.2456 2.2976
-9.8579 -11.7093 1.8481
-9.3881 -11.7141 1.8112
-11.5549 -15.1537 2.2976
-11.1934 -15.4392 2.2976
-10.8247 -15.7156 2.2976
-10.4488 -15.9829 2.2976
-10.0662 -16.2409 2.2976
-9.6769 -16.4892 2.2976
-9.2883 -16.7405 2.2993
-8.8863 -16.9694 2.2993
-8.4784 -17.1881 2.2993
-8.0650 -17.3967 2.2993
-7.6462 -17.5948 2.2993
-7.2224 -17.7824 2.2993
-6.7938 -17.9593 2.2993
-6.3607 -18.1253 2.2993
-5.9234 -18.2804 2.2993
-5.6326 -18.9302 2.3624
-5.2634 -19.3907 2.4026
-4.7950 -19.5178 2.4026
-4.3235 -19.6330 2.4026
-3.8490 -19.7363 2.4026
-3.3720 -19.8275 2.4026
-2.8928 -19.9067 2.4026
-2.4116 -19.9737 2.4026
-1.9288 -20.0284 2.4026
-1.4448 -20.0710 2.4026
-0.9598 -20.1012 2.4026
-0.4741 -20.1192 2.4026
0.0118 -20.1248 2.4026
0.4977 -20.1181 2.4026
0.9833 -20.0992 2.4026
1.4682 -20.0679 2.4026
1.9521 -20.0243 2.4026
2.4020 -19.6996 2.3702
2.7906 -19.0466 2.2995
3.2491 -18.9699 2.2995
3.7053 -18.8816 2.2995
4.1591 -18.7818 2.2995
4.6101 -18.6706 2.2995
5.0580 -18.5481 2.2995
5.5026 -18.4143 2.2995
5.9434 -18.2693 2.2995
6.3804 -18.1133 2.2995
6.9555 -18.3217 2.3476
5.5302 -13.5702 1.7561
5.8552 -13.4304 1.7567
8.2518 -17.7449 2.3476
8.6733 -17.5313 2.3476
9.0201 -17.1758 2.3297
9.0352 -16.2394 2.2330
9.0492 -15.3782 2.1453
9.0620 -14.5825 2.0655
9.0740 -13.8444 1.9927
9.0491 -13.1048 1.9185
9.0703 -12.4798 1.8598
9.0781 -11.8766 1.8033
9.1144 -11.3453 1.7569
9.1241 -10.8119 1.7092
9.1323 -10.3059 1.6649
9.1401 -9.8260 1.6239
9.1474 -9.3696 1.5859
9.1545 -8.9346 1.5505
9.1612 -8.5190 1.5177
9.1676 -8.1210 1.4871
9.1738 -7.7392 1.4587
9.1797 -7.3722 1.4322
9.1855 -7.0187 1.4075
9.1910 -6.6776 1.3845
9.1963 -6.3478 1.3632
9.2015 -6.0285 1.3433
9.2065 -5.7189 1.3248
9.2113 -5.4180 1.3076
9.2161 -5.1253 1.2916
9.2207 -4.8400 1.2768
9.2252 -4.5616 1.2631
3.1222 -1.4510 0.4230
9.2339 -4.0232 1.2389
9.2381 -3.7622 1.2282
9.1675 -3.4777 1.2086
9.2207 -3.2453 1.2062
9.2247 -2.9983 1.1983
9.2286 -2.7549 1.1911
9.2325 -2.5148 1.1847
9.2113 -2.2715 1.1759
9.2658 -2.0488 1.1776
9.2696 -1.8159 1.1734
9.2733 -1.5851 1.1701
9.2770 -1.3559 1.1674
9.2797 -1.1280 1.1653
9.2833 -0.9014 1.1640
9.2870 -0.6758 1.1634
9.2906 -0.4507 1.1635
9.2943 -0.2259 1.1642
9.2979 -0.0013 1.1657
9.3016 0.2235 1.1678
9.3052 0.4488 1.1706
9.3089 0.6748 1.1741
9.3125 0.9017 1.1783
9.3162 1.1299 1.1833
9.3199 1.3597 1.1889
9.3237 1.5912 1.1953
9.3275 1.8248 1.2024
9.3313 2.0609 1.2103
9.3351 2.2997 1.2190
9.3391 2.5416 1.2285
9.3430 2.7869 1.2389
9.3471 3.0359 1.2501
9.3511 3.2892 1.2623
9.3553 3.5470 1.2754
9.3596 3.8098 1.2895
9.3639 4.0781 1.3047
9.3684 4.3524 1.3209
9.3729 4.6332 1.3383
9.3776 4.9210 1.3569
9.3823 5.2166 1.3768
9.3872 5.5205 1.3980
9.3923 5.8335 1.4207
9.3619 6.1331 1.4395
9.3769 6.4722 1.4668
9.3824 6.8167 1.4943
9.3882 7.1739 1.5238
9.4203 7.5661 1.5596
9.4266 7.9536 1.5934
9.4332 8.3577 1.6295
12.0631 11.2199 2.1318
11.5022 11.2290 2.0817
10.9676 11.2377 2.0352
10.4569 11.2459 1.9918
9.9679 11.2538 1.9514
9.4988 11.2614 1.9136
9.0479 11.2687 1.8785
8.6135 11.2757 1.8456
8.4271 11.6028 1.8665
8.4372 12.2280 1.9349
8.4481 12.9003 2.0095
8.4598 13.6260 2.0913
8.4726 14.4129 2.1812
8.4864 15.2701 2.2804
8.1715 15.5790 2.2976
7.7885 15.7642 2.2976
7.4016 15.9405 2.2976
7.0109 16.1077 2.2976
6.6166 16.2658 2.2976
6.2241 16.4282 2.2995
5.8229 16.5678 2.2995
5.4187 16.6981 2.2995
5.0118 16.8189 2.2995
4.6023 16.9302 2.2995
4.1904 17.0321 2.2995
3.7764 17.1243 2.2995
3.3605 17.2070 2.2995
2.9429 17.2800 2.2995
2.6370 18.1212 2.4026
2.1980 18.1796 2.4029
1.7578 18.2279 2.4033
1.3165 18.2661 2.4036
0.8745 18.2940 2.4039
0.4319 18.3118 2.4042
-0.0110 18.3194 2.4046
-0.4541 18.3167 2.4049
-0.8970 18.3039 2.4052
-1.3397 18.2808 2.4056
-1.7814 18.2438 2.4054
-2.2221 18.1954 2.4051
-2.6615 18.1369 2.4048
-3.0995 18.0682 2.4045
-3.5358 17.9894 2.4042
-3.9702 17.9005 2.4039
-4.4025 17.8016 2.4036
-4.8324 17.6927 2.4033
-5.2597 17.5739 2.4030
-5.6843 17.4452 2.4026
-5.8445 16.5657 2.2995
-6.2458 16.4259 2.2995
-6.6439 16.2767 2.2995
-7.0386 16.1183 2.2995
-7.4297 15.9508 2.2995
-7.8170 15.7741 2.2995
-8.2003 15.5884 2.2995
-8.5794 15.3938 2.2995
-8.9541 15.1903 2.2995
-9.4177 15.1284 2.3226
-9.7867 14.9052 2.3226
-10.1505 14.6734 2.3226
-10.5091 14.4330 2.3226
-10.8623 14.1842 2.3226
-11.2098 13.9271 2.3226
-11.5515 13.6617 2.3226
-11.8871 13.3882 2.3226
-12.2165 13.1068 2.3226
-12.5395 12.8175 2.3226
-12.8559 12.5205 2.3226
-13.1655 12.2160 2.3226
-11.8821 10.5021 2.0490
-13.7637 11.5847 2.3226
-14.0519 11.2584 2.3226
-14.3326 10.9250 2.3226
-14.6056 10.5849 2.3226
-14.8709 10.2381 2.3226
-15.1281 9.8849 2.3226
-15.3772 9.5253 2.3226
-15.6181 9.1596 2.3226
-15.8504 8.7881 2.3226
-16.0741 8.4107 2.3226
-16.2891 8.0278 2.3226
-16.4951 7.6395 2.3226
-11.4359 4.9643 1.5912
-11.3526 4.6053 1.5620
-11.7310 4.4317 1.5972
-17.2276 6.0366 2.3226
-17.3871 5.6245 2.3226
-17.5369 5.2083 2.3226
-17.6769 4.7881 2.3226
-17.8071 4.3643 2.3226
-17.9272 3.9370 2.3226
-18.0371 3.5066 2.3226
-18.1369 3.0731 2.3226
-18.2263 2.6368 2.3226
-18.3054 2.1981 2.3226
-18.3740 1.7571 2.3226
-18.4321 1.3141 2.3226
-18.4795 0.8693 2.3226
-18.5163 0.4230 2.3226
-18.5423 -0.0246 2.3226
-18.5576 -0.4731 2.3226
-18.5620 -0.9225 2.3226
-18.5555 -1.3723 2.3226
-18.5381 -1.8223 2.3226
-18.5098 -2.2722 2.3226
-18.4706 -2.7219 2.3226
-18.4204 -3.1710 2.3226
-18.3593 -3.6192 2.3226
-18.2871 -4.0663 2.3226
-18.2040 -4.5120 2.3226
-18.0151 -4.9300 2.3104
-17.9863 -5.3925 2.3202
-17.2361 -5.6248 2.2378
-17.7622 -6.2752 2.3226
-15.7938 -6.0127 2.0813
-17.4140 -7.1158 2.3143
-16.9719 -7.4185 2.2762
-16.8055 -7.8346 2.2762
-16.6288 -8.2469 2.2762
-16.4418 -8.6551 2.2762
-16.2445 -9.0590 2.2762
-16.0372 -9.4583 2.2762
-16.1417 -10.0533 2.3226
-15.9098 -10.4505 2.3226
-15.4795 -10.7118 2.2946
-15.0078 -10.9307 2.2610
-15.1547 -11.6081 2.3226
-14.8836 -11.9817 2.3226
-13.3634 -11.3017 2.3226
-13.0972 -11.6306 2.3226
-12.8227 -11.9530 2.3226
-12.5400 -12.2687 2.3226
-12.1176 -12.4422 2.2976
-11.8223 -12.7407 2.2976
-11.5195 -13.0319 2.2976
-9.8659 -11.7198 2.0222
-9.3966 -11.7258 1.9821
-10.5675 -13.8600 2.2976
-10.2364 -14.1202 2.2976
-9.8986 -14.3722 2.2976
-9.5543 -14.6158 2.2976
-9.2109 -14.8622 2.2993
-8.8543 -15.0887 2.2993
-8.4919 -15.3062 2.2993
-8.1240 -15.5147 2.2993
-7.7507 -15.7140 2.2993
-7.3725 -15.9040 2.2993
-6.9894 -16.0844 2.2993
-6.6017 -16.2553 2.2993
-6.2097 -16.4163 2.2993
-5.8136 -16.5676 2.2993
-5.6062 -17.3029 2.3811
-5.2353 -17.5962 2.4026
-4.8103 -17.7226 2.4026
-4.3821 -17.8383 2.4026
-3.9511 -17.9432 2.4026
-3.5175 -18.0373 2.4026
-3.0815 -18.1203 2.4026
-2.6435 -18.1924 2.4026
-2.2038 -18.2534 2.4026
-1.7626 -18.3033 2.4026
-1.3203 -18.3420 2.4026
-0.8771 -18.3695 2.4026
-0.4333 -18.3859 2.4026
0.0108 -18.3910 2.4026
0.4548 -18.3850 2.4026
0.8985 -18.3677 2.4026
1.3417 -18.3393 2.4026
1.7839 -18.2996 2.4026
2.2249 -18.2488 2.4026
2.5501 -17.4066 2.2995
2.9691 -17.3368 2.2995
3.3862 -17.2564 2.2995
3.8010 -17.1656 2.2995
4.2132 -17.0644 2.2995
4.6227 -16.9528 2.2995
5.0291 -16.8311 2.2995
5.4322 -16.6991 2.2995
5.8317 -16.5571 2.2995
6.2274 -16.4051 2.2995
5.5299 -13.5706 1.9211
5.8548 -13.4304 1.9216
7.5434 -16.2229 2.3476
7.9291 -16.0283 2.3476
8.3096 -15.8241 2.3476
8.6847 -15.6106 2.3476
9.0491 -15.3793 2.3463
9.0620 -14.5836 2.2589
9.0740 -13.8455 2.1792
9.0483 -13.1048 2.0977
9.0703 -12.4808 2.0336
9.0777 -11.8770 1.9717
9.1144 -11.3463 1.9208
9.1241 -10.8128 1.8686
9.1323 -10.3068 1.8201
9.1401 -9.8269 1.7751
9.1474 -9.3705 1.7334
9.1545 -8.9354 1.6946
9.1612 -8.5198 1.6586
9.1676 -8.1218 1.6251
9.1738 -7.7400 1.5939
9.1797 -7.3730 1.5648
9.1854 -7.0194 1.5378
9.1910 -6.6783 1.5125
9.1963 -6.3486 1.4891
9.2015 -6.0293 1.4672
9.2065 -5.7196 1.4469
9.2113 -5.4187 1.4280
9.2161 -5.1260 1.4104
9.2207 -4.8407 1.3941
9.2252 -4.5623 1.3791
3.1219 -1.4512 0.4618
9.2339 -4.0239 1.3524
9.2381 -3.7629 1.3406
9.1675 -3.4783 1.3191
9.2207 -3.2460 1.3164
9.2247 -2.9989 1.3076
9.2286 -2.7556 1.2996
9.2325 -2.5155 1.2926
9.2108 -2.2720 1.2828
9.2658 -2.0495 1.2845
9.2696 -1.8166 1.2799
9.2733 -1.5857 1.2761
9.2770 -1.3565 1.2730
9.2797 -1.1286 1.2706
9.2833 -0.9021 1.2691
9.2870 -0.6764 1.2683
9.2906 -0.4513 1.2683
9.2943 -0.2266 1.2690
9.2979 -0.0019 1.2705
9.3015 0.2229 1.2727
9.3052 0.4482 1.2756
9.3088 0.6742 1.2793
9.3125 0.9011 1.2838
9.3162 1.1293 1.2890
9.3199 1.3590 1.2951
9.3237 1.5906 1.3019
9.3274 1.8242 1.3095
9.3313 2.0603 1.3180
9.3351 2.2991 1.3274
9.3390 2.5410 1.3376
9.3430 2.7862 1.3488
9.3470 3.0353 1.3609
9.3511 3.2885 1.3740
9.3553 3.5463 1.3882
9.3596 3.8091 1.4034
9.3639 4.0774 1.4198
9.3683 4.3517 1.4374
9.3729 4.6325 1.4562
9.3775 4.9203 1.4763
9.3823 5.2159 1.4978
9.3872 5.5198 1.5208
9.3923 5.8328 1.5454
9.3623 6.1326 1.5658
9.3768 6.4714 1.5953
9.3824 6.8159 1.6251
9.3882 7.1732 1.6570
9.4203 7.5653 1.6959
9.4266 7.9528 1.7325
9.4331 8.3569 1.7717
11.9587 11.1218 2.2976
11.5032 11.2290 2.2632
10.9686 11.2376 2.2125
10.4578 11.2459 2.1652
9.9688 11.2538 2.1211
9.4996 11.2614 2.0800
9.0486 11.2687 2.0416
8.6142 11.2757 2.0058
8.4271 11.6019 2.0282
8.4372 12.2270 2.1024
8.4481 12.8992 2.1834
8.4598 13.6250 2.2722
8.2143 13.9726 2.2976
7.8701 14.1601 2.2976
7.5219 14.3394 2.2976
7.1697 14.5105 2.2976
6.8137 14.6734 2.2976
