ply
format ascii 1.0
element vertex 2165
property float32 x
property float32 y
property float32 z
end_header
4.3572 10.0062 2.2995
4.1128 10.1061 2.2995
3.8662 10.2002 2.2995
3.6175 10.2885 2.2995
3.3668 10.3708 2.2995
3.1144 10.4472 2.2995
2.9119 10.7078 2.3410
2.7213 11.0566 2.4026
2.4526 11.1176 2.4026
2.1827 11.1723 2.4026
1.9116 11.2206 2.4026
1.6394 11.2626 2.4026
1.3663 11.2981 2.4026
1.0925 11.3272 2.4026
0.8182 11.3499 2.4026
0.5433 11.3661 2.4026
0.2682 11.3758 2.4026
-0.0071 11.3791 2.4026
-0.2824 11.3759 2.4026
-0.5576 11.3662 2.4026
-0.8325 11.3501 2.4026
-1.1069 11.3275 2.4026
-1.3807 11.2985 2.4026
-1.6539 11.2631 2.4026
-1.9261 11.2212 2.4026
-2.1973 11.1729 2.4026
-2.4674 11.1183 2.4026
-2.7361 11.0573 2.4026
-3.0034 10.9900 2.4026
-3.2691 10.9164 2.4026
-3.5330 10.8366 2.4026
-3.7951 10.7506 2.4026
-4.0550 10.6584 2.4026
-4.3129 10.5601 2.4026
-4.5684 10.4557 2.4026
-4.8215 10.3453 2.4026
-5.0719 10.2289 2.4026
-5.1662 9.8151 2.3333
-5.3258 9.5503 2.2995
-5.5572 9.4221 2.2995
-5.7857 9.2885 2.2995
-6.0110 9.1494 2.2995
-6.2331 9.0050 2.2995
-6.4518 8.8553 2.2995
-6.6670 8.7005 2.2995
-6.8786 8.5405 2.2995
-7.0864 8.3755 2.2995
-7.2904 8.2056 2.2995
-7.4903 8.0308 2.2995
-7.6862 7.8512 2.2995
-7.8779 7.6670 2.2995
-8.0652 7.4781 2.2995
-8.2481 7.2848 2.2995
-8.4265 7.0871 2.2995
-8.6002 6.8851 2.2995
-8.7691 6.6789 2.2995
-8.9332 6.4687 2.2995
-9.0924 6.2545 2.2995
-9.3393 6.0970 2.3226
-9.4897 5.8730 2.3226
-9.6349 5.6453 2.3226
-9.7747 5.4141 2.3226
-9.9090 5.1795 2.3226
-10.0378 4.9416 2.3226
-10.1609 4.7005 2.3226
-10.2783 4.4564 2.3226
-10.3899 4.2094 2.3226
-10.4956 3.9597 2.3226
-10.5954 3.7073 2.3226
-10.6892 3.4525 2.3226
-10.7770 3.1953 2.3226
-10.8585 2.9359 2.3226
-10.9339 2.6745 2.3226
-11.0031 2.4111 2.3226
-11.0659 2.1460 2.3226
-11.1224 1.8793 2.3226
-11.1725 1.6110 2.3226
-11.2162 1.3415 2.3226
-11.2533 1.0708 2.3226
-11.2840 0.7992 2.3226
-11.3081 0.5267 2.3226
-11.3257 0.2534 2.3226
-11.3366 -0.0203 2.3226
-11.3410 -0.2944 2.3226
-11.3387 -0.5688 2.3226
-11.3298 -0.8432 2.3226
-11.3142 -1.1175 2.3226
-11.2920 -1.3915 2.3226
-11.2631 -1.6650 2.3226
-11.2275 -1.9380 2.3226
-11.1853 -2.2103 2.3226
-11.1365 -2.4816 2.3226
-11.0810 -2.7518 2.3226
-11.0190 -3.0207 2.3226
-10.9504 -3.2883 2.3226
-10.8752 -3.5542 2.3226
-10.7935 -3.8185 2.3226
-10.7054 -4.0808 2.3226
-10.6108 -4.3411 2.3226
-10.5098 -4.5991 2.3226
-10.4025 -4.8548 2.3226
-10.2888 -5.1079 2.3226
-10.1690 -5.3583 2.3226
-10.0430 -5.6058 2.3226
-9.9108 -5.8504 2.3226
-9.7726 -6.0917 2.3226
-9.6285 -6.3297 2.3226
-9.3836 -6.4986 2.2993
-9.2293 -6.7272 2.2993
-9.0694 -6.9520 2.2993
-8.9039 -7.1730 2.2993
-8.2578 -6.9886 2.2993
-5.7595 -5.1180 1.6367
-7.9189 -7.3866 2.2993
-7.7420 -7.5793 2.2993
-7.5604 -7.7677 2.2993
-7.3741 -7.9517 2.2993
-7.1833 -8.1311 2.2993
-6.9880 -8.3058 2.2993
-6.7883 -8.4757 2.2993
-6.5845 -8.6407 2.2993
-6.3766 -8.8006 2.2993
-6.1647 -8.9554 2.2993
-5.9489 -9.1050 2.2993
-5.7295 -9.2493 2.2993
-5.5064 -9.3881 2.2993
-5.4584 -9.8433 2.3770
-5.2770 -10.0825 2.4026
-5.0336 -10.2100 2.4026
-4.7871 -10.3314 2.4026
-4.5375 -10.4468 2.4026
-4.2852 -10.5559 2.4026
-4.0301 -10.6588 2.4026
-3.7725 -10.7554 2.4026
-3.5126 -10.8455 2.4026
-3.2504 -10.9292 2.4026
-2.9862 -11.0064 2.4026
-2.7201 -11.0770 2.4026
-2.4524 -11.1410 2.4026
-2.1830 -11.1983 2.4026
-1.9124 -11.2489 2.4026
-1.6405 -11.2929 2.4026
-1.3676 -11.3300 2.4026
-1.0938 -11.3603 2.4026
-0.8193 -11.3839 2.4026
-0.5444 -11.4006 2.4026
-0.2691 -11.4105 2.4026
0.0064 -11.4136 2.4026
0.2818 -11.4098 2.4026
0.5571 -11.3991 2.4026
0.8320 -11.3817 2.4026
1.1063 -11.3574 2.4026
1.3800 -11.3263 2.4026
1.6527 -11.2885 2.4026
1.9244 -11.2438 2.4026
2.1949 -11.1925 2.4026
2.4640 -11.1345 2.4026
2.6143 -10.5948 2.2995
2.8687 -10.5266 2.2995
3.1213 -10.4521 2.2995
3.3719 -10.3714 2.2995
3.6203 -10.2845 2.2995
3.8665 -10.1915 2.2995
4.1102 -10.0924 2.2995
4.3514 -9.9874 2.2995
4.5898 -9.8765 2.2995
4.8253 -9.7597 2.2995
5.0578 -9.6372 2.2995
5.2871 -9.5090 2.2995
5.5130 -9.3752 2.2995
5.7356 -9.2359 2.2995
5.9545 -9.0912 2.2995
6.1646 -8.9338 2.2976
6.3758 -8.7787 2.2976
6.5830 -8.6185 2.2976
6.7861 -8.4533 2.2976
6.9851 -8.2833 2.2976
7.1796 -8.1084 2.2976
3.1172 -3.3537 0.9718
3.1909 -3.2710 0.9704
7.7362 -7.5564 2.2976
7.9123 -7.3636 2.2976
8.0835 -7.1666 2.2976
8.2497 -6.9656 2.2976
8.4109 -6.7607 2.2976
8.5669 -6.5520 2.2976
8.7177 -6.3397 2.2976
8.8631 -6.1238 2.2976
9.0031 -5.9045 2.2976
9.1377 -5.6820 2.2976
9.2394 -5.4404 2.2908
9.2187 -5.1325 2.2556
9.2233 -4.8471 2.2289
9.2279 -4.5686 2.2040
9.2324 -4.2964 2.1810
9.2624 -4.0411 2.1658
9.2667 -3.7793 2.1462
9.2709 -3.5223 2.1283
9.2751 -3.2698 2.1118
9.2781 -3.0210 2.0967
9.2822 -2.7762 2.0832
9.2861 -2.5347 2.0711
9.2901 -2.2961 2.0604
9.2940 -2.0602 2.0510
9.2978 -1.8266 2.0429
9.3016 -1.5950 2.0360
9.3054 -1.3651 2.0304
9.3092 -1.1366 2.0260
9.3129 -0.9093 2.0229
9.3166 -0.6829 2.0209
9.3203 -0.4571 2.0201
9.3240 -0.2317 2.0205
9.3278 -0.0063 2.0220
9.3315 0.2193 2.0248
9.3352 0.4453 2.0287
9.3389 0.6720 2.0338
9.3427 0.8996 2.0402
9.3464 1.1286 2.0477
9.3502 1.3591 2.0565
9.3540 1.5913 2.0666
9.3579 1.8258 2.0780
9.3618 2.0626 2.0907
9.3657 2.3022 2.1048
9.3697 2.5448 2.1203
9.3738 2.7909 2.1372
9.3779 3.0408 2.1557
9.3821 3.2948 2.1757
9.3863 3.5535 2.1973
9.3907 3.8172 2.2207
9.3951 4.0863 2.2458
9.3289 4.3287 2.2558
9.3783 4.6304 2.2955
9.2665 4.8573 2.2976
9.1410 5.0769 2.2976
9.0104 5.2934 2.2976
8.8747 5.5066 2.2976
8.7341 5.7164 2.2976
8.5886 5.9227 2.2976
8.4383 6.1254 2.2976
8.2833 6.3243 2.2976
8.1238 6.5194 2.2976
7.9597 6.7105 2.2976
7.7912 6.8976 2.2976
7.6184 7.0806 2.2976
7.4414 7.2594 2.2976
7.2603 7.4338 2.2976
7.0752 7.6038 2.2976
6.8862 7.7693 2.2976
6.6934 7.9302 2.2976
6.4970 8.0865 2.2976
6.3022 8.2448 2.2995
6.0986 8.3916 2.2995
5.8916 8.5335 2.2995
5.6814 8.6704 2.2995
5.4681 8.8023 2.2995
5.2518 8.9290 2.2995
5.0327 9.0506 2.2995
4.8109 9.1669 2.2995
4.5864 9.2780 2.2995
4.3594 9.3836 2.2995
4.1300 9.4839 2.2995
3.8984 9.5787 2.2995
3.6647 9.6680 2.2995
3.4290 9.7518 2.2995
3.1915 9.8300 2.2995
2.9522 9.9025 2.2995
2.8328 10.4163 2.4026
2.5796 10.4802 2.4026
2.3250 10.5382 2.4026
2.0691 10.5901 2.4026
1.8121 10.6360 2.4026
1.5541 10.6758 2.4026
1.2952 10.7095 2.4026
1.0357 10.7371 2.4026
0.7756 10.7586 2.4026
0.5150 10.7740 2.4026
0.2542 10.7832 2.4026
-0.0068 10.7863 2.4026
-0.2677 10.7833 2.4026
-0.5286 10.7741 2.4026
-0.7892 10.7588 2.4026
-1.0493 10.7373 2.4026
-1.3089 10.7098 2.4026
-1.5678 10.6761 2.4026
-1.8259 10.6363 2.4026
-2.0830 10.5905 2.4026
-2.3389 10.5386 2.4026
-2.5937 10.4807 2.4026
-2.8470 10.4168 2.4026
-3.0988 10.3470 2.4026
-3.3489 10.2712 2.4026
-3.5973 10.1895 2.4026
-3.8437 10.1020 2.4026
-4.0880 10.0087 2.4026
-4.3301 9.9096 2.4026
-4.5699 9.8048 2.4026
-4.8072 9.6943 2.4026
-5.0420 9.5783 2.4026
-5.1721 9.2739 2.3561
-5.2670 8.9292 2.2995
-5.4834 8.8024 2.2995
-5.6969 8.6704 2.2995
-5.9072 8.5334 2.2995
-6.1144 8.3914 2.2995
-6.3181 8.2445 2.2995
-6.5185 8.0927 2.2995
-6.7153 7.9362 2.2995
-6.9084 7.7749 2.2995
-7.0977 7.6091 2.2995
-7.2831 7.4388 2.2995
-7.4645 7.2640 2.2995
-7.6418 7.0849 2.2995
-7.8149 6.9015 2.2995
-7.9837 6.7140 2.2995
-8.1480 6.5224 2.2995
-8.3079 6.3269 2.2995
-8.4631 6.1275 2.2995
-8.6136 5.9244 2.2995
-8.7593 5.7177 2.2995
-8.9002 5.5074 2.2995
-9.0360 5.2937 2.2995
-9.1668 5.0767 2.2995
-9.3858 4.9053 2.3226
-9.5074 4.6798 2.3226
-9.6237 4.4513 2.3226
-9.7346 4.2200 2.3226
-9.8400 3.9859 2.3226
-9.9398 3.7493 2.3226
-10.0340 3.5102 2.3226
-10.1224 3.2687 2.3226
-10.2052 3.0250 2.3226
-10.2821 2.7793 2.3226
-10.3531 2.5317 2.3226
-10.4182 2.2822 2.3226
-10.4773 2.0311 2.3226
-10.5304 1.7785 2.3226
-10.5774 1.5245 2.3226
-10.6184 1.2693 2.3226
-10.6532 1.0130 2.3226
-10.6819 0.7558 2.3226
-10.7043 0.4978 2.3226
-10.7205 0.2392 2.3226
-10.7305 -0.0200 2.3226
-10.7342 -0.2794 2.3226
-10.7316 -0.5391 2.3226
-10.7228 -0.7987 2.3226
-10.7077 -1.0583 2.3226
-10.6862 -1.3175 2.3226
-10.6585 -1.5764 2.3226
-10.6245 -1.8347 2.3226
-10.5841 -2.0922 2.3226
-10.5376 -2.3488 2.3226
-10.4847 -2.6044 2.3226
-10.4256 -2.8588 2.3226
-10.3603 -3.1118 2.3226
-10.2888 -3.3633 2.3226
-10.2112 -3.6132 2.3226
-10.1275 -3.8612 2.3226
-10.0376 -4.1073 2.3226
-9.9417 -4.3513 2.3226
-9.8399 -4.5929 2.3226
-9.7321 -4.8322 2.3226
-9.6184 -5.0689 2.3226
-9.4989 -5.3029 2.3226
-9.2798 -5.4786 2.2993
-9.1501 -5.7044 2.2993
-9.0149 -5.9270 2.2993
-8.8741 -6.1464 2.2993
-8.7280 -6.3624 2.2993
-8.5765 -6.5749 2.2993
-8.4197 -6.7837 2.2993
-7.8298 -6.6271 2.2993
-5.7596 -5.1186 1.7263
-7.5080 -7.0041 2.2993
-7.3402 -7.1866 2.2993
-7.1678 -7.3651 2.2993
-6.9910 -7.5393 2.2993
-6.8099 -7.7092 2.2993
-6.6247 -7.8746 2.2993
-6.4353 -8.0355 2.2993
-6.2419 -8.1918 2.2993
-6.0447 -8.3432 2.2993
-5.8437 -8.4898 2.2993
-5.6511 -8.6499 2.3042
-5.4518 -8.8018 2.3082
-5.4494 -9.2915 2.4006
-5.2294 -9.4310 2.4026
-5.0018 -9.5574 2.4026
-4.7710 -9.6781 2.4026
-4.5373 -9.7931 2.4026
-4.3007 -9.9022 2.4026
-4.0615 -10.0056 2.4026
-3.8197 -10.1030 2.4026
-3.5755 -10.1944 2.4026
-3.3291 -10.2797 2.4026
-3.0806 -10.3589 2.4026
-2.8302 -10.4320 2.4026
-2.5780 -10.4988 2.4026
-2.3242 -10.5594 2.4026
-2.0690 -10.6137 2.4026
-1.8124 -10.6616 2.4026
-1.5547 -10.7032 2.4026
-1.2961 -10.7383 2.4026
-1.0366 -10.7670 2.4026
-0.7765 -10.7893 2.4026
-0.5159 -10.8052 2.4026
-0.2550 -10.8146 2.4026
0.0060 -10.8174 2.4026
0.2671 -10.8139 2.4026
0.5279 -10.8038 2.4026
0.7884 -10.7873 2.4026
1.0485 -10.7643 2.4026
1.3078 -10.7349 2.4026
1.5663 -10.6991 2.4026
1.8238 -10.6569 2.4026
2.0802 -10.6083 2.4026
2.3352 -10.5534 2.4026
2.5786 -10.4507 2.3931
2.7188 -9.9774 2.2995
2.9582 -9.9069 2.2995
3.1958 -9.8305 2.2995
3.4313 -9.7483 2.2995
3.6647 -9.6603 2.2995
3.8957 -9.5665 2.2995
4.1244 -9.4671 2.2995
4.3504 -9.3621 2.2995
4.5737 -9.2516 2.2995
4.7941 -9.1356 2.2995
5.0116 -9.0142 2.2995
5.2259 -8.8876 2.2995
5.4369 -8.7557 2.2995
5.6446 -8.6187 2.2995
5.8487 -8.4767 2.2995
6.0492 -8.3297 2.2995
6.2408 -8.1711 2.2976
6.4335 -8.0147 2.2976
6.6222 -7.8537 2.2976
6.8068 -7.6881 2.2976
3.1170 -3.3538 1.0249
3.1899 -3.2703 1.0231
7.3350 -7.1652 2.2976
7.5021 -6.9826 2.2976
7.6647 -6.7961 2.2976
7.8225 -6.6056 2.2976
7.9756 -6.4115 2.2976
8.1237 -6.2138 2.2976
8.2669 -6.0126 2.2976
8.4051 -5.8080 2.2976
8.5381 -5.6003 2.2976
8.6660 -5.3894 2.2976
8.7885 -5.1756 2.2976
8.9058 -4.9590 2.2976
9.0177 -4.7397 2.2976
9.1241 -4.5179 2.2976
9.2250 -4.2936 2.2976
9.2624 -4.0418 2.2833
9.2667 -3.7800 2.2626
9.2709 -3.5230 2.2435
9.2751 -3.2705 2.2262
9.2781 -3.0217 2.2101
9.2822 -2.7768 2.1958
9.2861 -2.5353 2.1830
9.2901 -2.2968 2.1717
9.2939 -2.0608 2.1617
9.2978 -1.8272 2.1531
9.3016 -1.5956 2.1458
9.3054 -1.3657 2.1398
9.3091 -1.1373 2.1351
9.3129 -0.9100 2.1317
9.3166 -0.6835 2.1295
9.3203 -0.4577 2.1286
9.3240 -0.2323 2.1289
9.3277 -0.0069 2.1305
9.3315 0.2186 2.1333
9.3352 0.4446 2.1374
9.3389 0.6713 2.1427
9.3426 0.8990 2.1493
9.3464 1.1279 2.1572
9.3502 1.3584 2.1664
9.3540 1.5907 2.1770
9.3579 1.8251 2.1889
9.3618 2.0619 2.2022
9.3657 2.3015 2.2170
9.3697 2.5442 2.2332
9.3738 2.7902 2.2510
9.3779 3.0401 2.2704
9.3821 3.2942 2.2914
9.3192 3.5274 2.2976
9.2257 3.7494 2.2976
9.1270 3.9690 2.2976
9.0231 4.1861 2.2976
8.9141 4.4005 2.2976
8.8001 4.6122 2.2976
8.6812 4.8209 2.2976
8.5574 5.0267 2.2976
8.4288 5.2293 2.2976
8.2954 5.4287 2.2976
8.1575 5.6248 2.2976
8.0149 5.8174 2.2976
7.8679 6.0065 2.2976
7.7166 6.1919 2.2976
7.5609 6.3737 2.2976
7.4010 6.5516 2.2976
7.2370 6.7255 2.2976
7.0690 6.8955 2.2976
6.8972 7.0613 2.2976
6.7215 7.2230 2.2976
6.5420 7.3804 2.2976
6.3590 7.5334 2.2976
6.1776 7.6884 2.2995
5.9876 7.8326 2.2995
5.7942 7.9722 2.2995
5.5977 8.1072 2.2995
5.3981 8.2374 2.2995
5.1955 8.3628 2.2995
4.9901 8.4834 2.2995
4.7820 8.5990 2.2995
4.5712 8.7097 2.2995
4.3580 8.8153 2.2995
4.1423 8.9158 2.2995
3.9245 9.0112 2.2995
3.7044 9.1014 2.2995
3.4824 9.1864 2.2995
3.2584 9.2661 2.2995
3.0327 9.3404 2.2995
2.8833 9.6709 2.3634
2.6920 9.8978 2.4026
2.4514 9.9586 2.4026
2.2094 10.0137 2.4026
1.9662 10.0631 2.4026
1.7220 10.1067 2.4026
1.4768 10.1446 2.4026
1.2308 10.1767 2.4026
0.9842 10.2030 2.4026
0.7370 10.2234 2.4026
0.4894 10.2380 2.4026
0.2415 10.2468 2.4026
-0.0065 10.2497 2.4026
-0.2545 10.2468 2.4026
-0.5023 10.2381 2.4026
-0.7500 10.2235 2.4026
-0.9972 10.2031 2.4026
-1.2439 10.1769 2.4026
-1.4899 10.1448 2.4026
-1.7351 10.1070 2.4026
-1.9794 10.0634 2.4026
-2.2227 10.0140 2.4026
-2.4647 9.9589 2.4026
-2.7054 9.8981 2.4026
-2.9447 9.8316 2.4026
-3.1823 9.7595 2.4026
-3.4183 9.6818 2.4026
-3.6524 9.5985 2.4026
-3.8845 9.5097 2.4026
-4.1145 9.4154 2.4026
-4.3423 9.3157 2.4026
-4.5677 9.2106 2.4026
-4.7907 9.1002 2.4026
-5.0111 8.9845 2.4026
-5.1772 8.7764 2.3789
-5.2099 8.3626 2.2995
-5.4126 8.2371 2.2995
-5.6123 8.1067 2.2995
-5.8090 7.9717 2.2995
-6.0025 7.8319 2.2995
-6.1927 7.6876 2.2995
-6.3796 7.5387 2.2995
-6.5629 7.3854 2.2995
-6.7426 7.2277 2.2995
-6.9185 7.0657 2.2995
-7.0907 6.8995 2.2995
-7.2590 6.7292 2.2995
-7.4232 6.5549 2.2995
-7.5833 6.3766 2.2995
-7.7392 6.1945 2.2995
-7.8908 6.0086 2.2995
-8.0381 5.8191 2.2995
-8.1808 5.6260 2.2995
-8.3190 5.4295 2.2995
-8.4525 5.2297 2.2995
-8.5813 5.0266 2.2995
-8.7052 4.8204 2.2995
-8.8243 4.6111 2.2995
-8.9384 4.3990 2.2995
-9.0475 4.1841 2.2995
-9.1515 3.9665 2.2995
-9.2503 3.7463 2.2995
-9.4376 3.5592 2.3226
-9.5267 3.3320 2.3226
-9.6104 3.1027 2.3226
-9.6886 2.8712 2.3226
-9.7613 2.6379 2.3226
-9.8284 2.4027 2.3226
-9.8899 2.1658 2.3226
-9.9457 1.9274 2.3226
-9.9958 1.6875 2.3226
-10.0401 1.4464 2.3226
-10.0787 1.2041 2.3226
-10.1114 0.9608 2.3226
-10.1382 0.7166 2.3226
-10.1592 0.4718 2.3226
-10.1742 0.2263 2.3226
-10.1834 -0.0196 2.3226
-10.1866 -0.2659 2.3226
-10.1838 -0.5122 2.3226
-10.1751 -0.7586 2.3226
-10.1604 -1.0049 2.3226
-10.1397 -1.2508 2.3226
-10.1130 -1.4964 2.3226
-10.0804 -1.7414 2.3226
-10.0418 -1.9857 2.3226
-9.9973 -2.2291 2.3226
-9.9468 -2.4715 2.3226
-9.8905 -2.7127 2.3226
-9.8282 -2.9527 2.3226
-9.7601 -3.1912 2.3226
-9.6861 -3.4281 2.3226
-9.6064 -3.6632 2.3226
-9.5209 -3.8965 2.3226
-9.3353 -4.0865 2.2993
-9.2393 -4.3133 2.2993
-9.1378 -4.5378 2.2993
-9.0308 -4.7599 2.2993
-8.9183 -4.9794 2.2993
-8.8004 -5.1963 2.2993
-8.6772 -5.4102 2.2993
-8.5487 -5.6212 2.2993
-8.4150 -5.8291 2.2993
-8.2762 -6.0338 2.2993
-8.1323 -6.2351 2.2993
-7.9835 -6.4329 2.2993
-7.4421 -6.2996 2.2993
-5.7596 -5.1191 1.8163
-7.1359 -6.6576 2.2993
-6.9762 -6.8309 2.2993
-6.8123 -7.0004 2.2993
-6.6441 -7.1658 2.2993
-6.4719 -7.3271 2.2993
-6.2957 -7.4842 2.2993
-6.1156 -7.6370 2.2993
-5.9317 -7.7853 2.2993
-5.7442 -7.9291 2.2993
-5.5531 -8.0683 2.2993
-5.4376 -8.3237 2.3332
-5.3924 -8.7066 2.4026
-5.1824 -8.8369 2.4026
-4.9691 -8.9621 2.4026
-4.7527 -9.0820 2.4026
-4.5334 -9.1966 2.4026
-4.3112 -9.3058 2.4026
-4.0864 -9.4094 2.4026
-3.8590 -9.5075 2.4026
-3.6292 -9.5999 2.4026
-3.3972 -9.6866 2.4026
-3.1631 -9.7676 2.4026
-2.9269 -9.8428 2.4026
-2.6890 -9.9121 2.4026
-2.4494 -9.9756 2.4026
-2.2082 -10.0331 2.4026
-1.9657 -10.0846 2.4026
-1.7219 -10.1300 2.4026
-1.4771 -10.1695 2.4026
-1.2314 -10.2029 2.4026
-0.9849 -10.2301 2.4026
-0.7377 -10.2513 2.4026
-0.4902 -10.2663 2.4026
-0.2423 -10.2752 2.4026
0.0057 -10.2780 2.4026
0.2537 -10.2746 2.4026
0.5015 -10.2651 2.4026
0.7491 -10.2494 2.4026
0.9961 -10.2276 2.4026
1.2425 -10.1997 2.4026
1.4881 -10.1658 2.4026
1.7328 -10.1257 2.4026
1.9764 -10.0796 2.4026
2.2187 -10.0275 2.4026
2.4596 -9.9694 2.4026
2.6013 -9.5468 2.3156
2.8107 -9.4135 2.2995
3.0364 -9.3410 2.2995
3.2602 -9.2630 2.2995
3.4820 -9.1795 2.2995
3.7016 -9.0905 2.2995
3.9189 -8.9962 2.2995
4.1337 -8.8965 2.2995
4.3460 -8.7916 2.2995
4.5555 -8.6815 2.2995
4.7622 -8.5663 2.2995
4.9659 -8.4461 2.2995
5.1665 -8.3210 2.2995
5.3640 -8.1909 2.2995
5.5580 -8.0561 2.2995
5.7487 -7.9166 2.2995
5.9358 -7.7725 2.2995
6.1141 -7.6175 2.2976
6.2936 -7.4646 2.2976
6.4692 -7.3074 2.2976
3.1167 -3.3538 1.0783
3.1890 -3.2696 1.0762
6.9716 -6.8110 2.2976
7.1306 -6.6376 2.2976
7.2853 -6.4604 2.2976
7.4355 -6.2795 2.2976
7.5812 -6.0952 2.2976
7.7222 -5.9073 2.2976
7.8585 -5.7162 2.2976
7.9901 -5.5219 2.2976
8.1168 -5.3246 2.2976
8.2385 -5.1243 2.2976
8.3553 -4.9211 2.2976
8.4670 -4.7153 2.2976
8.5735 -4.5069 2.2976
8.6750 -4.2961 2.2976
8.7711 -4.0831 2.2976
8.8621 -3.8678 2.2976
8.9477 -3.6505 2.2976
9.0279 -3.4313 2.2976
9.1027 -3.2104 2.2976
9.1721 -2.9878 2.2976
9.2360 -2.7637 2.2976
9.2861 -2.5360 2.2955
9.2901 -2.2974 2.2835
9.2939 -2.0615 2.2729
9.2978 -1.8279 2.2638
9.3016 -1.5963 2.2561
9.3054 -1.3664 2.2497
9.3091 -1.1379 2.2447
9.3129 -0.9106 2.2410
9.3166 -0.6842 2.2387
9.3203 -0.4584 2.2377
9.3240 -0.2329 2.2380
9.3277 -0.0076 2.2395
9.3314 0.2180 2.2424
9.3352 0.4440 2.2466
9.3389 0.6707 2.2522
9.3426 0.8984 2.2591
9.3464 1.1273 2.2673
9.3502 1.3578 2.2769
9.3540 1.5900 2.2879
9.3464 1.8222 2.2976
9.2940 2.0464 2.2976
9.2363 2.2691 2.2976
9.1733 2.4902 2.2976
9.1051 2.7096 2.2976
9.0316 2.9272 2.2976
8.9530 3.1429 2.2976
8.8693 3.3565 2.2976
8.7806 3.5679 2.2976
8.6869 3.7770 2.2976
8.5882 3.9837 2.2976
8.4847 4.1879 2.2976
8.3765 4.3895 2.2976
8.2634 4.5883 2.2976
8.1458 4.7843 2.2976
8.0236 4.9772 2.2976
7.8968 5.1672 2.2976
7.7657 5.3540 2.2976
7.6302 5.5375 2.2976
7.4904 5.7176 2.2976
7.3464 5.8943 2.2976
7.1984 6.0675 2.2976
7.0463 6.2370 2.2976
6.8904 6.4027 2.2976
6.7306 6.5647 2.2976
6.5670 6.7227 2.2976
6.3999 6.8768 2.2976
6.2343 7.0326 2.2995
6.0600 7.1786 2.2995
5.8824 7.3203 2.2995
5.7015 7.4578 2.2995
5.5175 7.5908 2.2995
5.3304 7.7195 2.2995
5.1404 7.8436 2.2995
4.9476 7.9631 2.2995
4.7521 8.0781 2.2995
4.5539 8.1883 2.2995
4.3533 8.2938 2.2995
4.1502 8.3945 2.2995
3.9449 8.4903 2.2995
3.7375 8.5813 2.2995
3.5280 8.6673 2.2995
3.3165 8.7483 2.2995
3.1419 8.9341 2.3281
2.8942 8.9133 2.3042
2.7916 9.3627 2.4026
2.5638 9.4261 2.4026
2.3347 9.4840 2.4026
2.1043 9.5366 2.4026
1.8727 9.5837 2.4026
1.6401 9.6253 2.4026
1.4066 9.6614 2.4026
1.1723 9.6920 2.4026
0.9374 9.7170 2.4026
0.7019 9.7365 2.4026
0.4661 9.7505 2.4026
0.2300 9.7588 2.4026
-0.0062 9.7616 2.4026
-0.2424 9.7588 2.4026
-0.4785 9.7505 2.4026
-0.7143 9.7366 2.4026
-0.9498 9.7171 2.4026
-1.1847 9.6921 2.4026
-1.4190 9.6615 2.4026
-1.6526 9.6254 2.4026
-1.8853 9.5838 2.4026
-2.1169 9.5367 2.4026
-2.3474 9.4842 2.4026
-2.5766 9.4262 2.4026
-2.8045 9.3628 2.4026
-3.0308 9.2941 2.4026
-3.2555 9.2200 2.4026
-3.4784 9.1405 2.4026
-3.6994 9.0559 2.4026
-3.9184 8.9660 2.4026
-4.1353 8.8709 2.4026
-4.3499 8.7707 2.4026
-4.5622 8.6654 2.4026
-4.7720 8.5551 2.4026
-4.9791 8.4399 2.4026
-5.1818 8.3169 2.4018
-5.1970 7.9084 2.3186
-5.3442 7.7188 2.2995
-5.5314 7.5900 2.2995
-5.7156 7.4568 2.2995
-5.8966 7.3193 2.2995
-6.0743 7.1774 2.2995
-6.2488 7.0312 2.2995
-6.4197 6.8810 2.2995
-6.5871 6.7266 2.2995
-6.7509 6.5682 2.2995
-6.9110 6.4059 2.2995
-7.0672 6.2398 2.2995
-7.2194 6.0700 2.2995
-7.3677 5.8964 2.2995
-7.5119 5.7194 2.2995
-7.6518 5.5388 2.2995
-7.7875 5.3549 2.2995
-7.9188 5.1677 2.2995
-8.0457 4.9773 2.2995
-8.1681 4.7839 2.2995
-8.2859 4.5875 2.2995
-8.3990 4.3882 2.2995
-8.5074 4.1862 2.2995
-8.6110 3.9815 2.2995
-8.7097 3.7743 2.2995
-8.8035 3.5647 2.2995
-8.8922 3.3528 2.2995
-8.9759 3.1387 2.2995
-9.0545 2.9225 2.2995
-9.1280 2.7044 2.2995
-9.1962 2.4845 2.2995
-9.2592 2.2629 2.2995
-9.4103 2.0601 2.3226
-9.4632 1.8332 2.3226
-9.5105 1.6049 2.3226
-9.5524 1.3755 2.3226
-9.5888 1.1449 2.3226
-9.6196 0.9134 2.3226
-9.6449 0.6811 2.3226
-9.6645 0.4481 2.3226
-9.6786 0.2146 2.3226
-9.6870 -0.0193 2.3226
-9.6897 -0.2535 2.3226
-9.6868 -0.4879 2.3226
-9.6782 -0.7222 2.3226
-9.6639 -0.9564 2.3226
-9.6439 -1.1904 2.3226
-9.6183 -1.4239 2.3226
-9.5870 -1.6568 2.3226
-9.5500 -1.8891 2.3226
-9.5074 -2.1205 2.3226
-9.4591 -2.3510 2.3226
-9.3111 -2.5545 2.2993
-9.2522 -2.7803 2.2993
-9.1878 -3.0047 2.2993
-9.1179 -3.2276 2.2993
-9.0426 -3.4489 2.2993
-8.9619 -3.6684 2.2993
-8.8757 -3.8860 2.2993
-8.7843 -4.1015 2.2993
-8.6875 -4.3149 2.2993
-8.5856 -4.5259 2.2993
-8.4784 -4.7345 2.2993
-8.3661 -4.9405 2.2993
-8.2488 -5.1437 2.2993
-8.1264 -5.3442 2.2993
-7.9991 -5.5417 2.2993
-7.8670 -5.7361 2.2993
-7.7300 -5.9273 2.2993
-7.5884 -6.1151 2.2993
-7.0892 -6.0015 2.2993
-5.7597 -5.1197 1.9068
-6.7972 -6.3422 2.2993
-6.6450 -6.5072 2.2993
-6.4887 -6.6685 2.2993
-6.3284 -6.8260 2.2993
-6.1643 -6.9795 2.2993
-5.9963 -7.1290 2.2993
-5.8247 -7.2743 2.2993
-5.6494 -7.4155 2.2993
-5.4707 -7.5523 2.2993
-5.4262 -7.8846 2.3591
-5.3325 -8.1635 2.4026
-5.1355 -8.2924 2.4026
-4.9354 -8.4164 2.4026
-4.7322 -8.5356 2.4026
-4.5261 -8.6496 2.4026
-4.3172 -8.7586 2.4026
-4.1056 -8.8625 2.4026
-3.8914 -8.9611 2.4026
-3.6749 -9.0544 2.4026
-3.4560 -9.1423 2.4026
-3.2350 -9.2248 2.4026
-3.0120 -9.3019 2.4026
-2.7872 -9.3734 2.4026
-2.5606 -9.4393 2.4026
-2.3324 -9.4997 2.4026
-2.1027 -9.5543 2.4026
-1.8718 -9.6033 2.4026
-1.6397 -9.6466 2.4026
-1.4065 -9.6841 2.4026
-1.1725 -9.7159 2.4026
-0.9378 -9.7418 2.4026
-0.7025 -9.7620 2.4026
-0.4668 -9.7763 2.4026
-0.2307 -9.7847 2.4026
0.0054 -9.7874 2.4026
0.2416 -9.7842 2.4026
0.4776 -9.7751 2.4026
0.7132 -9.7602 2.4026
0.9485 -9.7395 2.4026
1.1831 -9.7130 2.4026
1.4170 -9.6807 2.4026
1.6500 -9.6426 2.4026
1.8819 -9.5988 2.4026
2.1127 -9.5492 2.4026
2.3421 -9.4940 2.4026
2.5701 -9.4331 2.4026
2.6765 -8.9647 2.2995
2.8915 -8.8958 2.2995
3.1046 -8.8216 2.2995
3.3158 -8.7421 2.2995
3.5250 -8.6575 2.2995
3.7320 -8.5678 2.2995
3.9366 -8.4730 2.2995
4.1388 -8.3732 2.2995
4.3384 -8.2684 2.2995
4.5353 -8.1589 2.2995
4.7294 -8.0445 2.2995
4.9205 -7.9254 2.2995
5.1086 -7.8017 2.2995
5.2936 -7.6734 2.2995
5.4752 -7.5407 2.2995
5.6535 -7.4036 2.2995
5.8283 -7.2621 2.2995
5.9995 -7.1165 2.2995
6.1619 -6.9610 2.2976
3.1165 -3.3539 1.1320
3.1879 -3.2689 1.1294
6.6409 -6.4885 2.2976
6.7925 -6.3235 2.2976
6.9400 -6.1548 2.2976
7.0832 -5.9827 2.2976
7.2222 -5.8071 2.2976
7.3567 -5.6284 2.2976
7.4867 -5.4464 2.2976
7.6122 -5.2614 2.2976
7.7331 -5.0735 2.2976
7.8493 -4.8828 2.2976
7.9607 -4.6894 2.2976
8.0673 -4.4934 2.2976
8.1691 -4.2950 2.2976
8.2659 -4.0942 2.2976
8.3578 -3.8913 2.2976
8.4446 -3.6863 2.2976
8.5264 -3.4793 2.2976
8.6031 -3.2705 2.2976
8.6746 -3.0600 2.2976
8.7410 -2.8480 2.2976
8.8021 -2.6345 2.2976
8.8581 -2.4197 2.2976
8.9087 -2.2038 2.2976
8.9541 -1.9867 2.2976
8.9942 -1.7688 2.2976
9.0289 -1.5501 2.2976
9.0584 -1.3307 2.2976
9.0825 -1.1108 2.2976
9.1012 -0.8905 2.2976
9.1146 -0.6700 2.2976
9.1227 -0.4493 2.2976
9.1255 -0.2286 2.2976
9.1229 -0.0080 2.2976
9.1150 0.2123 2.2976
9.1018 0.4323 2.2976
9.0833 0.6517 2.2976
9.0595 0.8705 2.2976
9.0305 1.0886 2.2976
8.9962 1.3058 2.2976
8.9568 1.5219 2.2976
8.9122 1.7369 2.2976
8.8625 1.9507 2.2976
8.8077 2.1632 2.2976
8.7478 2.3741 2.2976
8.6830 2.5834 2.2976
8.6132 2.7910 2.2976
8.5384 2.9967 2.2976
8.4588 3.2005 2.2976
8.3744 3.4022 2.2976
8.2852 3.6018 2.2976
8.1913 3.7990 2.2976
8.0928 3.9939 2.2976
7.9897 4.1862 2.2976
7.8821 4.3759 2.2976
7.7701 4.5630 2.2976
7.6537 4.7472 2.2976
7.5329 4.9285 2.2976
7.4080 5.1067 2.2976
7.2789 5.2819 2.2976
7.1457 5.4539 2.2976
7.0085 5.6226 2.2976
6.8674 5.7879 2.2976
6.7225 5.9497 2.2976
6.5738 6.1080 2.2976
6.4215 6.2626 2.2976
6.2708 6.4188 2.2995
6.1112 6.5660 2.2995
5.9483 6.7094 2.2995
5.7821 6.8488 2.2995
5.6127 6.9841 2.2995
5.4402 7.1154 2.2995
5.2647 7.2425 2.2995
5.0863 7.3653 2.2995
4.9051 7.4839 2.2995
4.7211 7.5980 2.2995
4.5346 7.7078 2.2995
4.3456 7.8131 2.2995
4.1542 7.9139 2.2995
3.9604 8.0100 2.2995
3.7646 8.1016 2.2995
3.5666 8.1885 2.2995
3.3667 8.2706 2.2995
3.1650 8.3480 2.2995
2.9615 8.4206 2.2995
2.8624 8.8148 2.3879
2.6641 8.9345 2.4026
2.4468 8.9950 2.4026
2.2281 9.0504 2.4026
2.0082 9.1006 2.4026
1.7872 9.1456 2.4026
1.5652 9.1853 2.4026
1.3424 9.2198 2.4026
1.1188 9.2490 2.4026
0.8946 9.2730 2.4026
0.6699 9.2916 2.4026
0.4448 9.3049 2.4026
0.2195 9.3129 2.4026
-0.0059 9.3156 2.4026
-0.2313 9.3129 2.4026
-0.4566 9.3049 2.4026
-0.6817 9.2916 2.4026
-0.9065 9.2730 2.4026
-1.1307 9.2491 2.4026
-1.3543 9.2199 2.4026
-1.5772 9.1854 2.4026
-1.7992 9.1456 2.4026
-2.0203 9.1006 2.4026
-2.2402 9.0504 2.4026
-2.4590 8.9950 2.4026
-2.6764 8.9345 2.4026
-2.8923 8.8688 2.4026
-3.1067 8.7980 2.4026
-3.3194 8.7221 2.4026
-3.5303 8.6412 2.4026
-3.7393 8.5553 2.4026
-3.9462 8.4645 2.4026
-4.1509 8.3688 2.4026
-4.3534 8.2682 2.4026
-4.5535 8.1629 2.4026
-4.7512 8.0528 2.4026
-4.9462 7.9380 2.4026
-5.1384 7.8186 2.4026
-5.2003 7.5103 2.3450
-5.2778 7.2414 2.2995
-5.4535 7.1142 2.2995
-5.6261 6.9828 2.2995
-5.7956 6.8474 2.2995
-5.9619 6.7078 2.2995
-6.1249 6.5643 2.2995
-6.2845 6.4169 2.2995
-6.4406 6.2657 2.2995
-6.5932 6.1108 2.2995
-6.7421 5.9522 2.2995
-6.8872 5.7900 2.2995
-7.0285 5.6243 2.2995
-7.1658 5.4553 2.2995
-7.2992 5.2830 2.2995
-7.4285 5.1074 2.2995
-7.5536 4.9287 2.2995
-7.6744 4.7470 2.2995
-7.7910 4.5624 2.2995
-7.9031 4.3750 2.2995
-8.0108 4.1848 2.2995
-8.1140 3.9920 2.2995
-8.2126 3.7967 2.2995
-8.3066 3.5990 2.2995
-8.3958 3.3990 2.2995
-8.4802 3.1968 2.2995
-8.5598 2.9926 2.2995
-8.6346 2.7864 2.2995
-8.7044 2.5783 2.2995
-8.7692 2.3685 2.2995
-8.8290 2.1571 2.2995
-8.8831 1.9441 2.2993
-8.9327 1.7298 2.2993
-8.9772 1.5143 2.2993
-9.0165 1.2977 2.2993
-9.0506 1.0800 2.2993
-9.0794 0.8615 2.2993
-9.1030 0.6422 2.2993
-9.1213 0.4223 2.2993
-9.1343 0.2019 2.2993
-9.1420 -0.0189 2.2993
-9.1443 -0.2399 2.2993
-9.1413 -0.4610 2.2993
-9.1329 -0.6822 2.2993
-9.1192 -0.9032 2.2993
-9.1001 -1.1239 2.2993
-9.0757 -1.3442 2.2993
-9.0459 -1.5639 2.2993
-9.0108 -1.7830 2.2993
-8.9703 -2.0013 2.2993
-8.9245 -2.2187 2.2993
-8.8734 -2.4350 2.2993
-8.8171 -2.6501 2.2993
-8.7555 -2.8640 2.2993
-8.6887 -3.0763 2.2993
-8.6167 -3.2871 2.2993
-8.5395 -3.4961 2.2993
-8.4572 -3.7034 2.2993
-8.3699 -3.9086 2.2993
-8.2775 -4.1118 2.2993
-8.1801 -4.3128 2.2993
-8.0778 -4.5114 2.2993
-7.9706 -4.7075 2.2993
-7.8586 -4.9011 2.2993
-7.7419 -5.0920 2.2993
-7.6205 -5.2800 2.2993
-7.4944 -5.4651 2.2993
-7.3638 -5.6471 2.2993
-7.2287 -5.8259 2.2993
-6.7665 -5.7289 2.2993
-5.7598 -5.1203 1.9978
-6.4876 -6.0539 2.2993
-6.3422 -6.2113 2.2993
-6.1929 -6.3651 2.2993
-6.0398 -6.5153 2.2993
-5.8830 -6.6617 2.2993
-5.7227 -6.8042 2.2993
-5.5588 -6.9429 2.2993
-5.4230 -7.1188 2.3128
-5.4196 -7.4823 2.3868
-5.2736 -7.6635 2.4026
-5.0888 -7.7910 2.4026
-4.9007 -7.9139 2.4026
-4.7097 -8.0322 2.4026
-4.5157 -8.1457 2.4026
-4.3190 -8.2545 2.4026
-4.1196 -8.3584 2.4026
-3.9176 -8.4574 2.4026
-3.7132 -8.5514 2.4026
-3.5066 -8.6403 2.4026
-3.2977 -8.7242 2.4026
-3.0868 -8.8028 2.4026
-2.8740 -8.8763 2.4026
-2.6595 -8.9445 2.4026
-2.4432 -9.0073 2.4026
-2.2255 -9.0648 2.4026
-2.0063 -9.1170 2.4026
-1.7860 -9.1637 2.4026
-1.5645 -9.2049 2.4026
-1.3421 -9.2407 2.4026
-1.1188 -9.2710 2.4026
-0.8948 -9.2957 2.4026
-0.6703 -9.3149 2.4026
-0.4454 -9.3285 2.4026
-0.2202 -9.3366 2.4026
0.0052 -9.3391 2.4026
0.2305 -9.3361 2.4026
0.4556 -9.3275 2.4026
0.6805 -9.3133 2.4026
0.9050 -9.2935 2.4026
1.1288 -9.2683 2.4026
1.3520 -9.2375 2.4026
1.5743 -9.2012 2.4026
1.7957 -9.1594 2.4026
2.0159 -9.1122 2.4026
2.2348 -9.0596 2.4026
2.4523 -9.0015 2.4026
2.6073 -8.7336 2.3476
2.7590 -8.4889 2.2995
2.9624 -8.4182 2.2995
3.1640 -8.3425 2.2995
3.3636 -8.2618 2.2995
3.5611 -8.1763 2.2995
3.7565 -8.0859 2.2995
3.9494 -7.9908 2.2995
4.1400 -7.8909 2.2995
4.3279 -7.7865 2.2995
4.5132 -7.6774 2.2995
4.6957 -7.5639 2.2995
4.8753 -7.4459 2.2995
5.0518 -7.3236 2.2995
5.2253 -7.1971 2.2995
5.3955 -7.0663 2.2995
5.5624 -6.9315 2.2995
5.7259 -6.7926 2.2995
5.8859 -6.6498 2.2995
3.1162 -3.3539 1.1859
3.1869 -3.2682 1.1830
6.3385 -6.1937 2.2976
6.4833 -6.0363 2.2976
6.6242 -5.8754 2.2976
6.7611 -5.7112 2.2976
6.8939 -5.5438 2.2976
7.0224 -5.3732 2.2976
7.1467 -5.1997 2.2976
7.2666 -5.0232 2.2976
7.3822 -4.8439 2.2976
7.4933 -4.6620 2.2976
7.5998 -4.4774 2.2976
7.7018 -4.2904 2.2976
7.7991 -4.1011 2.2976
7.8917 -3.9095 2.2976
7.9796 -3.7158 2.2976
8.0627 -3.5202 2.2976
8.1410 -3.3226 2.2976
8.2144 -3.1234 2.2976
8.2829 -2.9225 2.2976
8.3465 -2.7201 2.2976
8.4051 -2.5163 2.2976
8.4587 -2.3112 2.2976
8.5073 -2.1051 2.2976
8.5508 -1.8979 2.2976
8.5893 -1.6898 2.2976
8.6227 -1.4810 2.2976
8.6511 -1.2715 2.2976
8.6743 -1.0615 2.2976
8.6924 -0.8511 2.2976
8.7055 -0.6405 2.2976
8.7134 -0.4297 2.2976
8.7162 -0.2189 2.2976
8.7140 -0.0083 2.2976
8.7066 0.2022 2.2976
8.6943 0.4123 2.2976
8.6768 0.6219 2.2976
8.6543 0.8310 2.2976
8.6268 1.0393 2.2976
8.5943 1.2468 2.2976
8.5568 1.4534 2.2976
8.5145 1.6588 2.2976
8.4672 1.8631 2.2976
8.4150 2.0661 2.2976
8.3580 2.2677 2.2976
8.2962 2.4677 2.2976
8.2297 2.6661 2.2976
8.1585 2.8628 2.2976
8.0826 3.0576 2.2976
8.0021 3.2504 2.2976
7.9171 3.4411 2.2976
7.8276 3.6297 2.2976
7.7336 3.8160 2.2976
7.6353 3.9999 2.2976
7.5326 4.1813 2.2976
7.4257 4.3601 2.2976
7.3145 4.5363 2.2976
7.1993 4.7096 2.2976
7.0800 4.8801 2.2976
6.9568 5.0476 2.2976
6.8296 5.2121 2.2976
6.6986 5.3734 2.2976
6.5639 5.5315 2.2976
6.4255 5.6863 2.2976
6.2887 5.8425 2.2995
6.1431 5.9905 2.2995
5.9940 6.1350 2.2995
5.8417 6.2758 2.2995
5.6860 6.4129 2.2995
5.5272 6.5463 2.2995
5.3654 6.6758 2.2995
5.2005 6.8013 2.2995
5.0328 6.9229 2.2995
4.8623 7.0404 2.2995
4.6892 7.1539 2.2995
4.5134 7.2631 2.2995
4.3351 7.3681 2.2995
4.1544 7.4689 2.2995
3.9715 7.5653 2.2995
3.7863 7.6573 2.2995
3.5991 7.7449 2.2995
3.4099 7.8281 2.2995
3.2188 7.9067 2.2995
3.0260 7.9807 2.2995
2.8710 8.1627 2.3316
2.7535 8.4788 2.4026
2.5471 8.5416 2.4026
2.3393 8.5996 2.4026
2.1303 8.6526 2.4026
1.9200 8.7006 2.4026
1.7087 8.7436 2.4026
1.4965 8.7817 2.4026
1.2834 8.8147 2.4026
1.0697 8.8426 2.4026
0.8553 8.8655 2.4026
0.6405 8.8833 2.4026
0.4253 8.8961 2.4026
0.2099 8.9037 2.4026
-0.0057 8.9062 2.4026
-0.2212 8.9037 2.4026
-0.4366 8.8961 2.4026
-0.6518 8.8833 2.4026
-0.8667 8.8655 2.4026
-1.0811 8.8426 2.4026
-1.2949 8.8146 2.4026
-1.5080 8.7816 2.4026
-1.7203 8.7436 2.4026
-1.9316 8.7005 2.4026
-2.1419 8.6525 2.4026
-2.3510 8.5994 2.4026
-2.5589 8.5415 2.4026
-2.7653 8.4786 2.4026
-2.9703 8.4108 2.4026
-3.1736 8.3382 2.4026
-3.3752 8.2608 2.4026
-3.5749 8.1786 2.4026
-3.7727 8.0917 2.4026
-3.9684 8.0001 2.4026
-4.1619 7.9039 2.4026
-4.3532 7.8030 2.4026
-4.5420 7.6977 2.4026
-4.7284 7.5878 2.4026
-4.9121 7.4736 2.4026
-5.0932 7.3550 2.4026
-5.2032 7.1384 2.3714
-5.2159 6.8037 2.3007
-5.3971 6.6981 2.3077
-5.5399 6.5447 2.2995
-5.6988 6.4112 2.2995
-5.8545 6.2739 2.2995
-6.0070 6.1329 2.2995
-6.1561 5.9883 2.2995
-6.3018 5.8401 2.2995
-6.4440 5.6884 2.2995
-6.5826 5.5333 2.2995
-6.7175 5.3749 2.2995
-6.8486 5.2132 2.2995
-6.9759 5.0484 2.2995
-7.0993 4.8805 2.2995
-7.2187 4.7096 2.2995
-7.3341 4.5359 2.2995
-7.4453 4.3594 2.2995
-7.5523 4.1802 2.2995
-7.6551 3.9984 2.2995
-7.7535 3.8140 2.2995
-7.8475 3.6273 2.2995
-7.9371 3.4383 2.2995
-8.0222 3.2472 2.2995
-8.1027 3.0539 2.2995
-8.1786 2.8587 2.2995
-8.2498 2.6616 2.2995
-8.3163 2.4627 2.2995
-8.3780 2.2623 2.2995
-8.4343 2.0601 2.2993
-8.4864 1.8567 2.2993
-8.5336 1.6519 2.2993
-8.5759 1.4460 2.2993
-8.6132 1.2390 2.2993
-8.6456 1.0311 2.2993
-8.6729 0.8223 2.2993
-8.6952 0.6128 2.2993
-8.7125 0.4028 2.2993
-8.7247 0.1922 2.2993
-8.7318 -0.0186 2.2993
-8.7338 -0.2297 2.2993
-8.7307 -0.4409 2.2993
-8.7225 -0.6521 2.2993
-8.7091 -0.8631 2.2993
-8.6907 -1.0739 2.2993
-8.6671 -1.2843 2.2993
-8.6385 -1.4941 2.2993
-8.6047 -1.7033 2.2993
-8.5659 -1.9117 2.2993
-8.5219 -2.1192 2.2993
-8.4730 -2.3257 2.2993
-8.4189 -2.5311 2.2993
-8.3599 -2.7352 2.2993
-8.2959 -2.9379 2.2993
-8.2270 -3.1390 2.2993
-8.1531 -3.3386 2.2993
-8.0744 -3.5363 2.2993
-7.9908 -3.7322 2.2993
-7.9024 -3.9261 2.2993
-7.8093 -4.1179 2.2993
-7.7114 -4.3074 2.2993
-7.6089 -4.4945 2.2993
-7.5019 -4.6792 2.2993
-7.3903 -4.8613 2.2993
-7.2742 -5.0407 2.2993
-7.1537 -5.2172 2.2993
-7.0289 -5.3909 2.2993
-6.8998 -5.5615 2.2993
-6.4703 -5.4787 2.2993
-5.7598 -5.1209 2.0893
-6.2034 -5.7893 2.2993
-6.0642 -5.9397 2.2993
-5.9214 -6.0866 2.2993
-5.7749 -6.2301 2.2993
-5.6249 -6.3700 2.2993
-5.4715 -6.5062 2.2993
-5.4099 -6.7575 2.3405
-5.3862 -7.0711 2.4026
-5.2156 -7.2013 2.4026
-5.0419 -7.3274 2.4026
-4.8651 -7.4491 2.4026
-4.6853 -7.5666 2.4026
-4.5026 -7.6795 2.4026
-4.3171 -7.7880 2.4026
-4.1290 -7.8919 2.4026
-3.9383 -7.9912 2.4026
-3.7452 -8.0857 2.4026
-3.5498 -8.1755 2.4026
-3.3522 -8.2605 2.4026
-3.1525 -8.3405 2.4026
-2.9509 -8.4157 2.4026
-2.7474 -8.4858 2.4026
-2.5423 -8.5509 2.4026
-2.3356 -8.6110 2.4026
-2.1274 -8.6659 2.4026
-1.9179 -8.7157 2.4026
-1.7073 -8.7603 2.4026
-1.4955 -8.7997 2.4026
-1.2829 -8.8339 2.4026
-1.0695 -8.8628 2.4026
-0.8554 -8.8864 2.4026
-0.6408 -8.9048 2.4026
-0.4258 -8.9178 2.4026
-0.2105 -8.9255 2.4026
0.0049 -8.9279 2.4026
0.2203 -8.9250 2.4026
0.4355 -8.9168 2.4026
0.6505 -8.9032 2.4026
0.8650 -8.8844 2.4026
1.0791 -8.8603 2.4026
1.2924 -8.8309 2.4026
1.5049 -8.7962 2.4026
1.7165 -8.7563 2.4026
1.9270 -8.7112 2.4026
2.1363 -8.6610 2.4026
2.3443 -8.6056 2.4026
2.5508 -8.5451 2.4026
2.6375 -8.1157 2.2995
2.8320 -8.0481 2.2995
3.0247 -7.9758 2.2995
3.2156 -7.8987 2.2995
3.4044 -7.8170 2.2995
3.5912 -7.7307 2.2995
3.7757 -7.6399 2.2995
3.9579 -7.5445 2.2995
4.1376 -7.4447 2.2995
4.3148 -7.3406 2.2995
4.4893 -7.2321 2.2995
4.6611 -7.1194 2.2995
4.8300 -7.0026 2.2995
4.9959 -6.8817 2.2995
5.1587 -6.7568 2.2995
5.3184 -6.6280 2.2995
5.4748 -6.4953 2.2995
5.6278 -6.3589 2.2995
3.1160 -3.3540 1.2402
3.1859 -3.2675 1.2368
6.0659 -5.9279 2.2995
6.1995 -5.7726 2.2976
6.3344 -5.6189 2.2976
6.4654 -5.4620 2.2976
6.5924 -5.3020 2.2976
6.7155 -5.1390 2.2976
6.8345 -4.9731 2.2976
6.9493 -4.8044 2.2976
7.0599 -4.6331 2.2976
7.1663 -4.4592 2.2976
7.2684 -4.2827 2.2976
7.3661 -4.1040 2.2976
7.4593 -3.9230 2.2976
7.5481 -3.7398 2.2976
7.6323 -3.5547 2.2976
7.7119 -3.3676 2.2976
7.7870 -3.1787 2.2976
7.8574 -2.9882 2.2976
7.9231 -2.7961 2.2976
7.9841 -2.6025 2.2976
8.0403 -2.4076 2.2976
8.0918 -2.2116 2.2976
8.1384 -2.0144 2.2976
8.1803 -1.8162 2.2976
8.2173 -1.6172 2.2976
8.2494 -1.4174 2.2976
8.2767 -1.2171 2.2976
8.2991 -1.0162 2.2976
8.3167 -0.8149 2.2976
8.3293 -0.6134 2.2976
8.3371 -0.4118 2.2976
8.3400 -0.2101 2.2976
8.3381 -0.0085 2.2976
8.3312 0.1929 2.2976
8.3196 0.3940 2.2976
8.3031 0.5946 2.2976
8.2817 0.7946 2.2976
8.2556 0.9940 2.2976
8.2247 1.1926 2.2976
8.1890 1.3903 2.2976
8.1487 1.5870 2.2976
8.1036 1.7825 2.2976
8.0538 1.9769 2.2976
7.9995 2.1698 2.2976
7.9405 2.3613 2.2976
7.8770 2.5513 2.2976
7.8090 2.7396 2.2976
7.7365 2.9261 2.2976
7.6597 3.1107 2.2976
7.5784 3.2934 2.2976
7.4929 3.4740 2.2976
7.4031 3.6523 2.2976
7.3091 3.8285 2.2976
7.2109 4.0022 2.2976
7.1087 4.1735 2.2976
7.0025 4.3422 2.2976
6.8923 4.5082 2.2976
6.7782 4.6715 2.2976
6.6603 4.8320 2.2976
6.5387 4.9895 2.2976
6.4134 5.1440 2.2976
6.2845 5.2955 2.2976
6.1572 5.4483 2.2995
6.0212 5.5934 2.2995
5.8819 5.7353 2.2995
5.7393 5.8737 2.2995
5.5935 6.0086 2.2995
5.4445 6.1400 2.2995
5.2925 6.2678 2.2995
5.1376 6.3919 2.2995
4.9799 6.5122 2.2995
4.8193 6.6287 2.2995
4.6561 6.7413 2.2995
4.4903 6.8500 2.2995
4.3221 6.9547 2.2995
4.1514 7.0554 2.2995
3.9784 7.1519 2.2995
3.8033 7.2443 2.2995
3.6260 7.3325 2.2995
3.4467 7.4165 2.2995
3.2655 7.4961 2.2995
3.1206 7.6649 2.3279
2.8979 7.6424 2.2995
2.8332 8.0546 2.4026
2.6370 8.1195 2.4026
2.4394 8.1798 2.4026
2.2404 8.2353 2.4026
2.0402 8.2861 2.4026
1.8388 8.3321 2.4026
1.6365 8.3734 2.4026
1.4332 8.4098 2.4026
1.2292 8.4415 2.4026
1.0244 8.4683 2.4026
0.8192 8.4902 2.4026
0.6134 8.5073 2.4026
0.4073 8.5195 2.4026
0.2010 8.5268 2.4026
-0.0054 8.5292 2.4026
-0.2119 8.5268 2.4026
-0.4182 8.5194 2.4026
-0.6243 8.5072 2.4026
-0.8301 8.4901 2.4026
-1.0354 8.4682 2.4026
-1.2401 8.4414 2.4026
-1.4442 8.4097 2.4026
-1.6475 8.3732 2.4026
-1.8499 8.3320 2.4026
-2.0513 8.2859 2.4026
-2.2516 8.2351 2.4026
-2.4506 8.1795 2.4026
-2.6483 8.1192 2.4026
-2.8446 8.0543 2.4026
-3.0392 7.9847 2.4026
-3.2323 7.9104 2.4026
-3.4235 7.8317 2.4026
-3.6129 7.7484 2.4026
-3.8003 7.6606 2.4026
-3.9856 7.5683 2.4026
-4.1687 7.4717 2.4026
-4.3495 7.3707 2.4026
-4.5279 7.2655 2.4026
-4.7038 7.1559 2.4026
-4.8771 7.0423 2.4026
-5.0477 6.9245 2.4026
-5.2056 6.7897 2.3980
-5.2178 6.4749 2.3299
-5.3046 6.2660 2.2995
-5.4566 6.1381 2.2995
-5.6056 6.0066 2.2995
-5.7515 5.8715 2.2995
-5.8942 5.7329 2.2995
-6.0336 5.5909 2.2995
-6.1696 5.4456 2.2995
-6.3022 5.2970 2.2995
-6.4312 5.1452 2.2995
-6.5567 4.9904 2.2995
-6.6784 4.8325 2.2995
-6.7965 4.6717 2.2995
-6.9106 4.5080 2.2995
-7.0209 4.3416 2.2995
-7.1273 4.1726 2.2995
-7.2296 4.0009 2.2995
-7.3278 3.8268 2.2995
-7.4218 3.6503 2.2995
-7.5117 3.4715 2.2995
-7.5973 3.2905 2.2995
-7.6785 3.1075 2.2995
-7.7554 2.9224 2.2995
-7.8279 2.7355 2.2995
-7.8959 2.5468 2.2995
-7.9593 2.3564 2.2995
-8.0182 2.1645 2.2995
-8.0720 1.9710 2.2993
-8.1216 1.7763 2.2993
-8.1666 1.5803 2.2993
-8.2069 1.3832 2.2993
-8.2424 1.1851 2.2993
-8.2732 0.9861 2.2993
-8.2991 0.7863 2.2993
-8.3203 0.5858 2.2993
-8.3366 0.3848 2.2993
-8.3481 0.1834 2.2993
-8.3547 -0.0184 2.2993
-8.3564 -0.2204 2.2993
-8.3533 -0.4224 2.2993
-8.3452 -0.6245 2.2993
-8.3323 -0.8264 2.2993
-8.3144 -1.0280 2.2993
-8.2917 -1.2292 2.2993
-8.2641 -1.4299 2.2993
-8.2316 -1.6300 2.2993
-8.1943 -1.8294 2.2993
-8.1521 -2.0278 2.2993
-8.1050 -2.2253 2.2993
-8.0532 -2.4217 2.2993
-7.9965 -2.6169 2.2993
-7.9351 -2.8107 2.2993
-7.8690 -3.0030 2.2993
-7.7982 -3.1938 2.2993
-7.7227 -3.3829 2.2993
-7.6426 -3.5702 2.2993
-7.5579 -3.7555 2.2993
-7.4687 -3.9388 2.2993
-7.3750 -4.1200 2.2993
-7.2768 -4.2989 2.2993
-7.1743 -4.4754 2.2993
-7.0674 -4.6495 2.2993
-6.9563 -4.8209 2.2993
-6.8409 -4.9897 2.2993
-6.7214 -5.1556 2.2993
-6.5978 -5.3187 2.2993
-6.1973 -5.2481 2.2993
-5.7599 -5.1215 2.1814
-5.9415 -5.5454 2.2993
-5.8081 -5.6894 2.2993
-5.6712 -5.8300 2.2993
-5.5309 -5.9674 2.2993
-5.4078 -6.1246 2.3081
-5.4022 -6.4243 2.3704
-5.3185 -6.6439 2.4026
-5.1583 -6.7725 2.4026
-4.9949 -6.8971 2.4026
-4.8285 -7.0177 2.4026
-4.6591 -7.1342 2.4026
-4.4868 -7.2466 2.4026
-4.3118 -7.3547 2.4026
-4.1341 -7.4585 2.4026
-3.9540 -7.5580 2.4026
-3.7713 -7.6529 2.4026
-3.5864 -7.7434 2.4026
-3.3992 -7.8293 2.4026
-3.2100 -7.9106 2.4026
-3.0187 -7.9872 2.4026
-2.8257 -8.0591 2.4026
-2.6308 -8.1262 2.4026
-2.4344 -8.1885 2.4026
-2.2364 -8.2460 2.4026
-2.0371 -8.2985 2.4026
-1.8365 -8.3462 2.4026
-1.6348 -8.3889 2.4026
-1.4320 -8.4266 2.4026
-1.2284 -8.4592 2.4026
-1.0241 -8.4869 2.4026
-0.8191 -8.5095 2.4026
-0.6136 -8.5271 2.4026
-0.4077 -8.5395 2.4026
-0.2016 -8.5469 2.4026
0.0047 -8.5492 2.4026
0.2109 -8.5465 2.4026
0.4170 -8.5386 2.4026
0.6228 -8.5256 2.4026
0.8283 -8.5076 2.4026
1.0332 -8.4845 2.4026
1.2375 -8.4564 2.4026
1.4410 -8.4233 2.4026
1.6436 -8.3851 2.4026
1.8452 -8.3420 2.4026
2.0456 -8.2939 2.4026
2.2448 -8.2409 2.4026
2.4425 -8.1830 2.4026
2.6180 -8.0563 2.3836
2.7118 -7.7072 2.2995
2.8964 -7.6380 2.2995
3.0792 -7.5643 2.2995
3.2601 -7.4862 2.2995
3.4389 -7.4036 2.2995
3.6157 -7.3167 2.2995
3.7902 -7.2254 2.2995
3.9623 -7.1299 2.2995
4.1321 -7.0303 2.2995
4.2992 -6.9265 2.2995
4.4638 -6.8187 2.2995
4.6256 -6.7069 2.2995
4.7845 -6.5912 2.2995
4.9405 -6.4716 2.2995
5.0935 -6.3483 2.2995
5.2434 -6.2214 2.2995
5.3900 -6.0908 2.2995
3.1157 -3.3541 1.2948
3.1849 -3.2668 1.2909
5.8099 -5.6783 2.2995
5.9429 -5.5342 2.2995
6.0723 -5.3870 2.2995
6.1928 -5.2323 2.2976
6.3146 -5.0791 2.2976
6.4326 -4.9231 2.2976
6.5467 -4.7643 2.2976
6.6568 -4.6028 2.2976
6.7629 -4.4387 2.2976
6.8650 -4.2722 2.2976
6.9629 -4.1033 2.2976
7.0566 -3.9321 2.2976
7.1460 -3.7588 2.2976
7.2312 -3.5834 2.2976
7.3120 -3.4061 2.2976
7.3885 -3.2269 2.2976
7.4605 -3.0460 2.2976
7.5281 -2.8636 2.2976
7.5912 -2.6796 2.2976
7.6498 -2.4942 2.2976
7.7039 -2.3075 2.2976
7.7533 -2.1196 2.2976
7.7982 -1.9307 2.2976
7.8385 -1.7409 2.2976
7.8741 -1.5502 2.2976
7.9051 -1.3588 2.2976
7.9314 -1.1669 2.2976
7.9531 -0.9744 2.2976
7.9700 -0.7815 2.2976
7.9824 -0.5884 2.2976
7.9900 -0.3952 2.2976
7.9929 -0.2019 2.2976
7.9912 -0.0087 2.2976
7.9849 0.1843 2.2976
7.9738 0.3770 2.2976
7.9582 0.5693 2.2976
7.9379 0.7611 2.2976
7.9130 0.9522 2.2976
7.8836 1.1426 2.2976
7.8495 1.3321 2.2976
7.8110 1.5207 2.2976
7.7680 1.7082 2.2976
7.7204 1.8945 2.2976
7.6685 2.0795 2.2976
7.6121 2.2631 2.2976
7.5514 2.4453 2.2976
7.4863 2.6258 2.2976
7.4170 2.8047 2.2976
7.3435 2.9818 2.2976
7.2657 3.1569 2.2976
7.1838 3.3301 2.2976
7.0979 3.5012 2.2976
7.0079 3.6701 2.2976
6.9139 3.8368 2.2976
6.8160 4.0011 2.2976
6.7143 4.1629 2.2976
6.6087 4.3222 2.2976
6.4995 4.4788 2.2976
6.3865 4.6328 2.2976
6.2718 4.7852 2.2982
6.1551 4.9363 2.2995
6.0314 5.0817 2.2995
5.9045 5.2241 2.2995
5.7742 5.3634 2.2995
5.6406 5.4995 2.2995
5.5039 5.6323 2.2995
5.3642 5.7618 2.2995
5.2214 5.8878 2.2995
5.0757 6.0105 2.2995
4.9272 6.1295 2.2995
4.7760 6.2450 2.2995
4.6221 6.3568 2.2995
4.4656 6.4649 2.2995
4.3066 6.5692 2.2995
4.1453 6.6697 2.2995
3.9816 6.7663 2.2995
3.8158 6.8590 2.2995
3.6478 6.9477 2.2995
3.4778 7.0323 2.2995
3.3059 7.1129 2.2995
3.1321 7.1894 2.2995
2.9567 7.2617 2.2995
2.8500 7.5157 2.3578
2.7175 7.7252 2.4026
2.5294 7.7875 2.4026
2.3398 7.8453 2.4026
2.1490 7.8986 2.4026
1.9569 7.9474 2.4026
1.7638 7.9916 2.4026
1.5697 8.0312 2.4026
1.3747 8.0662 2.4026
1.1790 8.0965 2.4026
0.9826 8.1223 2.4026
0.7857 8.1433 2.4026
0.5884 8.1597 2.4026
0.3907 8.1714 2.4026
0.1928 8.1784 2.4026
-0.0052 8.1808 2.4026
-0.2032 8.1784 2.4026
-0.4011 8.1714 2.4026
-0.5989 8.1596 2.4026
-0.7962 8.1432 2.4026
-0.9932 8.1221 2.4026
-1.1896 8.0964 2.4026
-1.3853 8.0660 2.4026
-1.5803 8.0310 2.4026
-1.7744 7.9913 2.4026
-1.9676 7.9471 2.4026
-2.1597 7.8983 2.4026
-2.3506 7.8450 2.4026
-2.5402 7.7871 2.4026
-2.7284 7.7247 2.4026
-2.9151 7.6579 2.4026
-3.1002 7.5867 2.4026
-3.2836 7.5111 2.4026
-3.4652 7.4311 2.4026
-3.6449 7.3468 2.4026
-3.8226 7.2583 2.4026
-3.9982 7.1655 2.4026
-4.1715 7.0686 2.4026
-4.3426 6.9676 2.4026
-4.5113 6.8625 2.4026
-4.6774 6.7533 2.4026
-4.8410 6.6403 2.4026
-5.0018 6.5233 2.4026
-5.1599 6.4026 2.4026
-5.2194 6.1649 2.3593
-5.2329 5.8859 2.2995
-5.3757 5.7596 2.2995
-5.5155 5.6300 2.2995
-5.6522 5.4970 2.2995
-5.7858 5.3608 2.2995
-5.9162 5.2213 2.2995
-6.0432 5.0788 2.2995
-6.1668 4.9332 2.2995
-6.2870 4.7846 2.2995
-6.4037 4.6331 2.2995
-6.5167 4.4788 2.2995
-6.6261 4.3219 2.2995
-6.7317 4.1622 2.2995
-6.8335 4.0000 2.2995
-6.9315 3.8354 2.2995
-7.0255 3.6684 2.2995
-7.1156 3.4991 2.2995
-7.2016 3.3276 2.2995
-7.2835 3.1541 2.2995
-7.3612 2.9785 2.2995
-7.4348 2.8011 2.2995
-7.5041 2.6218 2.2995
-7.5691 2.4409 2.2995
-7.6298 2.2583 2.2995
-7.6856 2.0742 2.2993
-7.7375 1.8887 2.2993
-7.7849 1.7021 2.2993
-7.8279 1.5142 2.2993
-7.8663 1.3252 2.2993
-7.9002 1.1353 2.2993
-7.9295 0.9446 2.2993
-7.9542 0.7531 2.2993
-7.9744 0.5609 2.2993
-7.9898 0.3683 2.2993
-8.0007 0.1752 2.2993
-8.0068 -0.0182 2.2993
-8.0083 -0.2118 2.2993
-8.0051 -0.4054 2.2993
-7.9972 -0.5990 2.2993
-7.9846 -0.7925 2.2993
-7.9674 -0.9856 2.2993
-7.9454 -1.1784 2.2993
-7.9188 -1.3707 2.2993
-7.8875 -1.5624 2.2993
-7.8516 -1.7534 2.2993
-7.8110 -1.9435 2.2993
-7.7657 -2.1327 2.2993
-7.7159 -2.3208 2.2993
-7.6615 -2.5078 2.2993
-7.6025 -2.6934 2.2993
-7.5390 -2.8776 2.2993
-7.4710 -3.0604 2.2993
-7.3985 -3.2414 2.2993
-7.3216 -3.4208 2.2993
-7.2404 -3.5983 2.2993
-7.1547 -3.7738 2.2993
-7.0648 -3.9473 2.2993
-6.9707 -4.1186 2.2993
-6.8723 -4.2876 2.2993
-6.7698 -4.4543 2.2993
-6.6632 -4.6184 2.2993
-6.5526 -4.7800 2.2993
-6.4381 -4.9388 2.2993
-6.3196 -5.0949 2.2993
-5.9449 -5.0349 2.2993
-5.7600 -5.1221 2.2741
-5.6993 -5.3199 2.2993
-5.5713 -5.4579 2.2993
-5.4399 -5.5928 2.2993
-5.3951 -5.8214 2.3383
-5.3971 -6.1130 2.4015
-5.2519 -6.2462 2.4026
-5.1013 -6.3731 2.4026
-4.9476 -6.4964 2.4026
-4.7908 -6.6159 2.4026
-4.6311 -6.7315 2.4026
-4.4686 -6.8432 2.4026
-4.3034 -6.9509 2.4026
-4.1355 -7.0545 2.4026
-3.9650 -7.1540 2.4026
-3.7922 -7.2493 2.4026
-3.6170 -7.3403 2.4026
-3.4396 -7.4270 2.4026
-3.2601 -7.5093 2.4026
-3.0785 -7.5872 2.4026
-2.8951 -7.6607 2.4026
-2.7099 -7.7295 2.4026
-2.5231 -7.7939 2.4026
-2.3346 -7.8536 2.4026
-2.1448 -7.9086 2.4026
-1.9536 -7.9590 2.4026
-1.7612 -8.0047 2.4026
-1.5678 -8.0456 2.4026
-1.3733 -8.0817 2.4026
-1.1781 -8.1130 2.4026
-0.9821 -8.1395 2.4026
-0.7855 -8.1612 2.4026
-0.5884 -8.1780 2.4026
-0.3910 -8.1900 2.4026
-0.1933 -8.1971 2.4026
0.0045 -8.1993 2.4026
0.2023 -8.1966 2.4026
0.3999 -8.1891 2.4026
0.5973 -8.1767 2.4026
0.7943 -8.1594 2.4026
0.9908 -8.1373 2.4026
1.1867 -8.1104 2.4026
1.3819 -8.0786 2.4026
1.5762 -8.0420 2.4026
1.7695 -8.0007 2.4026
1.9618 -7.9547 2.4026
2.1528 -7.9039 2.4026
2.3425 -7.8484 2.4026
2.5307 -7.7883 2.4026
2.6325 -7.4824 2.3275
2.7778 -7.3259 2.2995
2.9531 -7.2552 2.2995
3.1266 -7.1803 2.2995
3.2982 -7.1012 2.2995
3.4677 -7.0179 2.2995
3.6351 -6.9305 2.2995
3.8003 -6.8390 2.2995
3.9631 -6.7434 2.2995
4.1235 -6.6440 2.2995
4.2814 -6.5406 2.2995
4.4366 -6.4335 2.2995
4.5891 -6.3226 2.2995
4.7388 -6.2080 2.2995
4.8856 -6.0898 2.2995
5.0295 -5.9681 2.2995
5.1702 -5.8429 2.2995
3.1155 -3.3541 1.3497
3.1839 -3.2660 1.3453
5.5732 -5.4475 2.2995
5.7009 -5.3094 2.2995
5.8250 -5.1682 2.2995
5.9457 -5.0241 2.2995
6.0628 -4.8771 2.2995
6.1710 -4.7234 2.2976
6.2806 -4.5712 2.2976
6.3863 -4.4163 2.2976
6.4882 -4.2590 2.2976
6.5862 -4.0993 2.2976
6.6803 -3.9373 2.2976
6.7703 -3.7732 2.2976
6.8562 -3.6069 2.2976
6.9381 -3.4387 2.2976
7.0158 -3.2686 2.2976
7.0893 -3.0968 2.2976
7.1585 -2.9233 2.2976
7.2235 -2.7482 2.2976
7.2842 -2.5717 2.2976
7.3406 -2.3939 2.2976
7.3926 -2.2148 2.2976
7.4402 -2.0346 2.2976
7.4834 -1.8533 2.2976
7.5222 -1.6712 2.2976
7.5565 -1.4882 2.2976
7.5864 -1.3046 2.2976
7.6118 -1.1204 2.2976
7.6327 -0.9357 2.2976
7.6492 -0.7506 2.2976
7.6612 -0.5653 2.2976
7.6686 -0.3798 2.2976
7.6716 -0.1943 2.2976
7.6701 -0.0089 2.2976
7.6642 0.1764 2.2976
7.6537 0.3614 2.2976
7.6389 0.5459 2.2976
7.6196 0.7300 2.2976
7.5958 0.9135 2.2976
7.5677 1.0963 2.2976
7.5352 1.2782 2.2976
7.4983 1.4593 2.2976
7.4571 1.6393 2.2976
7.4117 1.8182 2.2976
7.3619 1.9958 2.2976
7.3079 2.1722 2.2976
7.2498 2.3471 2.2976
7.1875 2.5205 2.2976
7.1210 2.6922 2.2976
7.0505 2.8623 2.2976
6.9760 3.0305 2.2976
6.8975 3.1969 2.2976
6.8151 3.3612 2.2976
6.7288 3.5235 2.2976
6.6387 3.6835 2.2976
6.5448 3.8413 2.2976
6.4472 3.9968 2.2976
6.3460 4.1498 2.2976
6.2463 4.3039 2.2995
6.1379 4.4519 2.2995
6.0260 4.5972 2.2995
5.9107 4.7398 2.2995
5.7921 4.8795 2.2995
5.6702 5.0163 2.2995
5.5452 5.1501 2.2995
5.4170 5.2809 2.2995
5.2858 5.4085 2.2995
5.1516 5.5330 2.2995
5.0146 5.6541 2.2995
4.8747 5.7719 2.2995
4.7322 5.8864 2.2995
4.5869 5.9973 2.2995
4.4392 6.1048 2.2995
4.2889 6.2087 2.2995
4.1363 6.3089 2.2995
3.9814 6.4055 2.2995
3.8242 6.4983 2.2995
3.6650 6.5874 2.2995
3.5037 6.6727 2.2995
3.3404 6.7540 2.2995
3.1753 6.8315 2.2995
3.0085 6.9050 2.2995
2.8589 7.0211 2.3148
2.7895 7.3556 2.4026
2.6102 7.4198 2.4026
2.4295 7.4796 2.4026
2.2475 7.5352 2.4026
2.0642 7.5865 2.4026
1.8797 7.6333 2.4026
1.6942 7.6758 2.4026
1.5078 7.7139 2.4026
1.3205 7.7475 2.4026
1.1325 7.7767 2.4026
0.9439 7.8014 2.4026
0.7547 7.8217 2.4026
0.5652 7.8374 2.4026
0.3753 7.8487 2.4026
0.1852 7.8554 2.4026
-0.0050 7.8576 2.4026
-0.1952 7.8554 2.4026
-0.3853 7.8486 2.4026
-0.5752 7.8373 2.4026
-0.7648 7.8215 2.4026
-0.9540 7.8013 2.4026
-1.1427 7.7765 2.4026
-1.3307 7.7473 2.4026
-1.5180 7.7136 2.4026
-1.7044 7.6755 2.4026
-1.8900 7.6330 2.4026
-2.0745 7.5861 2.4026
-2.2578 7.5348 2.4026
-2.4399 7.4791 2.4026
-2.6207 7.4192 2.4026
-2.8000 7.3550 2.4026
-2.9778 7.2865 2.4026
-3.1539 7.2138 2.4026
-3.3283 7.1369 2.4026
-3.5009 7.0559 2.4026
-3.6715 6.9708 2.4026
-3.8401 6.8817 2.4026
-4.0066 6.7885 2.4026
-4.1708 6.6914 2.4026
-4.3328 6.5904 2.4026
-4.4923 6.4855 2.4026
-4.6494 6.3769 2.4026
-4.8038 6.2645 2.4026
-4.9556 6.1484 2.4026
-5.1046 6.0287 2.4026
-5.2209 5.8719 2.3889
-5.2316 5.6047 2.3302
-5.2968 5.4062 2.2995
-5.4280 5.2784 2.2995
-5.5562 5.1475 2.2995
-5.6813 5.0135 2.2995
-5.8032 4.8765 2.2995
-5.9218 4.7366 2.2995
-6.0372 4.5939 2.2995
-6.1491 4.4484 2.2995
-6.2575 4.3002 2.2995
-6.3624 4.1493 2.2995
-6.4637 3.9960 2.2995
-6.5614 3.8402 2.2995
-6.6553 3.6821 2.2995
-6.7455 3.5217 2.2995
-6.8319 3.3590 2.2995
-6.9143 3.1944 2.2995
-6.9928 3.0277 2.2995
-7.0674 2.8591 2.2995
-7.1378 2.6887 2.2995
-7.2043 2.5165 2.2995
-7.2665 2.3428 2.2995
-7.3247 2.1675 2.2995
-7.3781 1.9906 2.2993
-7.4277 1.8126 2.2993
-7.4731 1.6333 2.2993
-7.5142 1.4530 2.2993
-7.5510 1.2716 2.2993
-7.5834 1.0893 2.2993
-7.6113 0.9061 2.2993
-7.6349 0.7223 2.2993
-7.6541 0.5379 2.2993
-7.6688 0.3529 2.2993
-7.6790 0.1676 2.2993
-7.6848 -0.0180 2.2993
-7.6861 -0.2038 2.2993
-7.6828 -0.3896 2.2993
