ply
format ascii 1.0
element vertex 2154
property float32 x
property float32 y
property float32 z
end_header
-0.1525 -6.4669 1.1337
0.0036 -6.4708 1.1341
0.1600 -6.4747 1.1352
0.3166 -6.4786 1.1370
0.4739 -6.4826 1.1394
1.3284 -13.6359 2.4019
1.5858 -13.0145 2.2988
1.8992 -12.9705 2.2988
2.2113 -12.9187 2.2988
2.5220 -12.8591 2.2988
2.8310 -12.7917 2.2988
3.1382 -12.7167 2.2988
3.4433 -12.6340 2.2988
3.7462 -12.5437 2.2988
4.0467 -12.4458 2.2988
4.3445 -12.3406 2.2988
4.6395 -12.2279 2.2988
4.9315 -12.1080 2.2988
5.2203 -11.9808 2.2988
5.5058 -11.8465 2.2988
5.8198 -11.7702 2.3116
5.4874 -10.4549 2.0796
5.7818 -10.3979 2.0964
6.1259 -10.4164 2.1304
6.4813 -10.4357 2.1668
6.8488 -10.4556 2.2058
7.2296 -10.4762 2.2475
7.6249 -10.4976 2.2922
6.8032 -8.9059 1.9811
6.7688 -8.4309 1.9123
6.8150 -8.0808 1.8708
6.8280 -7.7106 1.8239
6.9586 -7.4858 1.8111
7.1776 -7.3570 1.8225
7.3915 -7.2190 1.8333
7.6077 -7.0794 1.8452
7.7402 -6.8615 1.8379
8.1294 -6.8632 1.8917
8.1860 -6.5792 1.8688
8.2030 -6.2729 1.8389
8.2194 -5.9765 1.8110
8.2352 -5.6892 1.7851
8.2507 -5.4103 1.7609
8.2657 -5.1391 1.7385
8.2803 -4.8749 1.7177
8.2945 -4.6173 1.6984
8.3085 -4.3656 1.6805
8.3221 -4.1194 1.6640
8.3354 -3.8783 1.6488
8.3485 -3.6417 1.6349
8.3613 -3.4094 1.6222
8.3740 -3.1809 1.6107
8.3864 -2.9559 1.6002
8.3987 -2.7340 1.5909
8.4108 -2.5149 1.5826
8.4228 -2.2984 1.5753
8.4347 -2.0841 1.5691
8.4464 -1.8717 1.5638
8.4581 -1.6610 1.5594
8.4696 -1.4517 1.5560
8.4812 -1.2436 1.5536
8.4926 -1.0363 1.5520
8.5040 -0.8297 1.5514
8.5154 -0.6236 1.5517
8.5268 -0.4176 1.5529
8.5382 -0.2115 1.5549
8.5497 -0.0052 1.5579
8.5611 0.2018 1.5619
8.5467 0.4082 1.5620
8.5582 0.6164 1.5678
8.5698 0.8258 1.5745
8.5815 1.0368 1.5822
8.5932 1.2496 1.5909
8.6051 1.4645 1.6006
8.6433 1.6869 1.6162
8.6555 1.9076 1.6280
8.6678 2.1312 1.6410
8.6804 2.3582 1.6551
9.0131 2.6842 1.7319
8.9611 2.9063 1.7363
8.9747 3.1524 1.7547
8.9886 3.4036 1.7745
9.0028 3.6602 1.7957
9.0173 3.9227 1.8184
9.0322 4.1917 1.8428
9.0475 4.4677 1.8689
9.0632 4.7514 1.8968
9.0794 5.0434 1.9266
9.0960 5.3445 1.9585
9.1132 5.6553 1.9926
9.1310 5.9769 2.0289
9.1494 6.3102 2.0678
9.1686 6.6562 2.1094
9.1885 7.0162 2.1539
9.2092 7.3913 2.2015
9.2309 7.7831 2.2526
9.2536 8.1931 2.3073
9.2024 8.5537 2.3469
8.9873 8.7682 2.3469
8.7673 8.9776 2.3469
8.5425 9.1816 2.3469
8.3132 9.3802 2.3469
8.0794 9.5732 2.3469
7.8413 9.7605 2.3469
7.5989 9.9421 2.3469
7.3525 10.1179 2.3469
7.1022 10.2878 2.3469
6.7077 10.2375 2.2988
6.4552 10.3920 2.2988
6.1993 10.5406 2.2988
5.9400 10.6830 2.2988
5.6776 10.8193 2.2988
5.4122 10.9494 2.2988
5.1439 11.0732 2.2988
4.8729 11.1906 2.2988
4.5993 11.3016 2.2988
4.3233 11.4062 2.2988
4.0450 11.5042 2.2988
3.7645 11.5957 2.2988
3.4820 11.6806 2.2988
3.1978 11.7589 2.2988
2.9118 11.8305 2.2988
2.7419 12.4288 2.4019
2.4401 12.4896 2.4019
2.1369 12.5433 2.4019
1.8326 12.5899 2.4019
1.5273 12.6294 2.4019
1.2213 12.6617 2.4019
0.9145 12.6869 2.4019
0.6073 12.7049 2.4019
0.2998 12.7158 2.4019
-0.0080 12.7195 2.4019
-0.3157 12.7160 2.4019
-0.6233 12.7054 2.4019
-0.9305 12.6875 2.4019
-1.2374 12.6625 2.4019
-1.5435 12.6304 2.4019
-1.8489 12.5911 2.4019
-2.1533 12.5447 2.4019
-2.4566 12.4911 2.4019
-2.7586 12.4306 2.4019
-3.0592 12.3629 2.4019
-3.3582 12.2883 2.4019
-3.6555 12.2066 2.4019
-3.9508 12.1180 2.4019
-4.2441 12.0225 2.4019
-4.5351 11.9202 2.4019
-4.8238 11.8110 2.4019
-5.1099 11.6951 2.4019
-5.2288 11.2194 2.3286
-5.4484 10.9881 2.3064
-5.6958 10.8212 2.2987
-5.9585 10.6850 2.2987
-6.2181 10.5425 2.2987
-6.4743 10.3939 2.2987
-6.7271 10.2393 2.2987
-6.9764 10.0787 2.2987
-7.2219 9.9123 2.2987
-7.4636 9.7400 2.2987
-7.7013 9.5620 2.2987
-7.9349 9.3783 2.2987
-8.1642 9.1891 2.2987
-8.3891 8.9945 2.2987
-8.6096 8.7944 2.2987
-8.8254 8.5891 2.2987
-9.0364 8.3787 2.2987
-9.2426 8.1631 2.2987
-9.4365 7.9366 2.2969
-8.0061 6.4096 1.9091
-8.1767 6.2277 1.9120
-10.0083 7.2472 2.2969
-10.1881 7.0082 2.2969
-10.3623 6.7649 2.2969
-10.5308 6.5173 2.2969
-10.6935 6.2656 2.2969
-10.8504 6.0099 2.2969
-11.0012 5.7504 2.2969
-11.1459 5.4871 2.2969
-11.2845 5.2203 2.2969
-11.4168 4.9500 2.2969
-11.5426 4.6765 2.2969
-11.6621 4.3998 2.2969
-11.7750 4.1201 2.2969
-11.8812 3.8375 2.2969
-11.9808 3.5523 2.2969
-12.0736 3.2645 2.2969
-12.1596 2.9743 2.2969
-12.2387 2.6819 2.2969
-12.3107 2.3874 2.2969
-12.3758 2.0911 2.2969
-12.4338 1.7929 2.2969
-6.3144 0.7553 1.1617
-12.5283 1.1922 2.2969
-12.5647 0.8899 2.2969
-12.5938 0.5866 2.2969
-12.6157 0.2824 2.2969
-12.6302 -0.0226 2.2969
-12.6374 -0.3280 2.2969
-12.6371 -0.6339 2.2969
-12.6295 -0.9398 2.2969
-12.6144 -1.2458 2.2969
-10.3824 -1.2793 1.8939
-10.2045 -1.5085 1.8659
-10.2526 -1.7697 1.8802
-12.4798 -2.4660 2.2969
-12.4276 -2.7692 2.2969
-12.3680 -3.0713 2.2969
-12.3009 -3.3721 2.2969
-12.2265 -3.6714 2.2969
-12.1447 -3.9691 2.2969
-12.0556 -4.2649 2.2969
-11.9592 -4.5587 2.2969
-11.8556 -4.8503 2.2969
-11.7447 -5.1395 2.2969
-11.6268 -5.4261 2.2969
-11.5017 -5.7099 2.2969
-11.3696 -5.9908 2.2969
-11.2305 -6.2686 2.2969
-11.0845 -6.5431 2.2969
-10.9317 -6.8142 2.2969
-10.7722 -7.0815 2.2969
-10.6060 -7.3451 2.2969
-9.7304 -7.0923 2.1422
-10.2540 -7.8600 2.2969
-10.0760 -8.1172 2.2987
-8.9776 -7.5978 2.2227
-9.0979 -8.0846 2.2987
-8.9057 -8.3071 2.2987
-8.7079 -8.5249 2.2987
-8.5047 -8.7379 2.2987
-8.2961 -8.9459 2.2987
-8.0823 -9.1488 2.2987
-7.8634 -9.3464 2.2987
-7.6396 -9.5386 2.2987
-7.4110 -9.7253 2.2987
-7.1777 -9.9063 2.2987
-6.9398 -10.0816 2.2987
-6.6976 -10.2510 2.2987
-6.4511 -10.4143 2.2987
-6.4530 -11.0021 2.3923
-6.2131 -11.2042 2.4019
-5.9432 -11.3554 2.4019
-5.6695 -11.4999 2.4019
-5.3923 -11.6375 2.4019
-5.1115 -11.7683 2.4019
-4.8276 -11.8920 2.4019
-4.5405 -12.0087 2.4019
-4.2505 -12.1181 2.4019
-3.9578 -12.2203 2.4019
-3.6626 -12.3152 2.4019
-3.3651 -12.4028 2.4019
-3.0654 -12.4828 2.4019
-2.7637 -12.5554 2.4019
-2.4603 -12.6204 2.4019
-1.0954 -6.4432 1.2207
-0.9366 -6.4472 1.2167
-0.7787 -6.4511 1.2134
-0.6215 -6.4551 1.2109
-0.4649 -6.4590 1.2091
-0.3086 -6.4630 1.2081
-0.1525 -6.4669 1.2078
0.0036 -6.4708 1.2082
0.1599 -6.4747 1.2093
0.3166 -6.4787 1.2112
0.4739 -6.4826 1.2138
1.2469 -12.8003 2.4019
1.5225 -12.4963 2.3514
1.7827 -12.1759 2.2988
2.0757 -12.1274 2.2988
2.3673 -12.0716 2.2988
2.6574 -12.0085 2.2988
2.9458 -11.9382 2.2988
3.2323 -11.8607 2.2988
3.5167 -11.7762 2.2988
3.7988 -11.6846 2.2988
4.0785 -11.5860 2.2988
4.3555 -11.4805 2.2988
4.6297 -11.3681 2.2988
4.9010 -11.2489 2.2988
5.1691 -11.1231 2.2988
5.4339 -10.9907 2.2988
5.4931 -10.4666 2.2172
5.7814 -10.3980 2.2326
6.1253 -10.4163 2.2686
6.4806 -10.4355 2.3073
6.8427 -10.4473 2.3469
7.0893 -10.2739 2.3469
7.3314 -10.0945 2.3469
6.8041 -8.9080 2.1098
6.7939 -8.4630 2.0438
6.8150 -8.0816 1.9920
6.8278 -7.7111 1.9419
6.9584 -7.4863 1.9282
7.1499 -7.3293 1.9329
7.3611 -7.1901 1.9437
7.6072 -7.0798 1.9642
7.7396 -6.8618 1.9563
8.1285 -6.8633 2.0135
8.1860 -6.5800 1.9891
8.2029 -6.2737 1.9572
8.2193 -5.9773 1.9275
8.2352 -5.6900 1.8998
8.2506 -5.4110 1.8740
8.2656 -5.1398 1.8501
8.2802 -4.8756 1.8278
8.2945 -4.6180 1.8072
8.3084 -4.3663 1.7881
8.3220 -4.1201 1.7705
8.3354 -3.8790 1.7543
8.3485 -3.6424 1.7394
8.3613 -3.4101 1.7258
8.3740 -3.1816 1.7134
8.3864 -2.9565 1.7022
8.3987 -2.7347 1.6922
8.4108 -2.5156 1.6833
8.4228 -2.2990 1.6755
8.4346 -2.0847 1.6687
8.4464 -1.8723 1.6630
8.4580 -1.6616 1.6583
8.4696 -1.4523 1.6546
8.4811 -1.2442 1.6519
8.4926 -1.0370 1.6502
8.5040 -0.8304 1.6494
8.5154 -0.6242 1.6496
8.5268 -0.4182 1.6508
8.5382 -0.2122 1.6529
8.5496 -0.0058 1.6560
8.5611 0.2011 1.6601
8.5467 0.4076 1.6602
8.5582 0.6157 1.6662
8.5698 0.8252 1.6733
8.5814 1.0362 1.6814
8.5932 1.2490 1.6905
8.6051 1.4639 1.7007
8.6432 1.6863 1.7172
8.6554 1.9069 1.7297
8.6678 2.1306 1.7434
8.6803 2.3575 1.7583
9.0151 2.6841 1.8402
8.9611 2.9056 1.8444
8.9747 3.1517 1.8639
8.9886 3.4028 1.8848
9.0028 3.6594 1.9072
9.0173 3.9219 1.9313
9.0322 4.1909 1.9571
9.0475 4.4670 1.9847
9.0632 4.7506 2.0143
9.0793 5.0426 2.0458
9.0960 5.3437 2.0796
9.1132 5.6545 2.1157
9.1309 5.9761 2.1542
9.1494 6.3094 2.1954
9.1685 6.6554 2.2395
9.1884 7.0153 2.2866
9.2092 7.3904 2.3371
9.0600 7.6381 2.3469
8.8672 7.8501 2.3469
8.6695 8.0575 2.3469
8.4671 8.2599 2.3469
8.2601 8.4574 2.3469
8.0487 8.6499 2.3469
7.8329 8.8373 2.3469
7.6128 9.0194 2.3469
7.3886 9.1962 2.3469
7.1605 9.3676 2.3469
6.9285 9.5335 2.3469
6.5556 9.4952 2.2988
6.3212 9.6467 2.2988
6.0834 9.7926 2.2988
5.8423 9.9329 2.2988
5.5982 10.0673 2.2988
5.3510 10.1960 2.2988
5.1009 10.3188 2.2988
4.8482 10.4357 2.2988
4.5928 10.5465 2.2988
4.3350 10.6514 2.2988
4.0749 10.7501 2.2988
3.8126 10.8427 2.2988
3.5483 10.9291 2.2988
3.2821 11.0093 2.2988
3.0204 11.1058 2.3035
2.8557 11.6018 2.3918
2.5846 11.7149 2.4019
2.3001 11.7722 2.4019
2.0143 11.8229 2.4019
1.7275 11.8669 2.4019
1.4397 11.9042 2.4019
1.1512 11.9348 2.4019
0.8621 11.9585 2.4019
0.5725 11.9756 2.4019
0.2825 11.9858 2.4019
-0.0075 11.9893 2.4019
-0.2976 11.9860 2.4019
-0.5875 11.9759 2.4019
-0.8772 11.9590 2.4019
-1.1664 11.9354 2.4019
-1.4550 11.9050 2.4019
-1.7428 11.8679 2.4019
-2.0298 11.8240 2.4019
-2.3157 11.7735 2.4019
-2.6003 11.7162 2.4019
-2.8836 11.6523 2.4019
-3.1654 11.5818 2.4019
-3.4455 11.5047 2.4019
-3.7239 11.4210 2.4019
-4.0002 11.3308 2.4019
-4.2745 11.2341 2.4019
-4.5465 11.1310 2.4019
-4.8161 11.0215 2.4019
-5.0831 10.9057 2.4019
-5.2578 10.6028 2.3617
-5.3679 10.1973 2.2987
-5.6153 10.0686 2.2987
-5.8598 9.9341 2.2987
-6.1011 9.7939 2.2987
-6.3392 9.6479 2.2987
-6.5738 9.4963 2.2987
-6.8050 9.3392 2.2987
-7.0325 9.1766 2.2987
-7.2563 9.0085 2.2987
-7.4761 8.8352 2.2987
-7.6919 8.6567 2.2987
-7.9036 8.4730 2.2987
-8.1110 8.2842 2.2987
-8.3140 8.0905 2.2987
-8.5125 7.8920 2.2987
-8.7064 7.6887 2.2987
-8.8955 7.4807 2.2987
-8.1940 6.5591 2.0744
-9.2591 7.0512 2.2987
-9.4262 6.8247 2.2969
-9.5951 6.5994 2.2969
-9.7588 6.3700 2.2969
-9.9170 6.1365 2.2969
-10.0699 5.8993 2.2969
-10.2171 5.6583 2.2969
-10.3587 5.4136 2.2969
-10.4945 5.1655 2.2969
-10.6244 4.9141 2.2969
-10.7485 4.6594 2.2969
-10.8665 4.4016 2.2969
-10.9784 4.1410 2.2969
-11.0841 3.8775 2.2969
-11.1836 3.6113 2.2969
-11.2768 3.3426 2.2969
-11.3636 3.0716 2.2969
-11.4439 2.7984 2.2969
-11.5178 2.5230 2.2969
-11.5850 2.2458 2.2969
-11.6457 1.9668 2.2969
-11.6996 1.6862 2.2969
-6.3139 0.7547 1.2346
-9.3835 0.8922 1.8285
-9.2084 0.6515 1.7893
-9.2293 0.4292 1.7893
-9.2448 0.2062 1.7893
-11.8808 -0.0221 2.2969
-11.8869 -0.3095 2.2969
-11.8861 -0.5971 2.2969
-11.8783 -0.8848 2.2969
-11.8635 -1.1726 2.2969
-10.3995 -1.2822 2.0172
-10.2080 -1.5098 1.9849
-10.2621 -1.7721 2.0014
-11.7345 -2.3196 2.2969
-11.6848 -2.6046 2.2969
-11.6281 -2.8884 2.2969
-11.5645 -3.1711 2.2969
-11.4939 -3.4523 2.2969
-11.4165 -3.7320 2.2969
-11.3322 -4.0099 2.2969
-11.2410 -4.2858 2.2969
-11.1430 -4.5597 2.2969
-11.0383 -4.8312 2.2969
-10.9269 -5.1004 2.2969
-10.8089 -5.3669 2.2969
-10.6842 -5.6306 2.2969
-10.5531 -5.8914 2.2969
-10.4154 -6.1490 2.2969
-10.2714 -6.4034 2.2969
-10.1210 -6.6543 2.2969
-9.9720 -6.9069 2.2987
-9.7330 -7.0951 2.2808
-9.6402 -7.3904 2.2987
-9.4653 -7.6261 2.2987
-8.7515 -7.4073 2.2987
-8.5753 -7.6210 2.2987
-8.3938 -7.8305 2.2987
-8.2071 -8.0355 2.2987
-8.0153 -8.2360 2.2987
-7.8184 -8.4317 2.2987
-7.6167 -8.6226 2.2987
-7.4102 -8.8086 2.2987
-7.1991 -8.9894 2.2987
-6.9835 -9.1651 2.2987
-6.7634 -9.3354 2.2987
-6.5391 -9.5003 2.2987
-6.3909 -9.7824 2.3279
-6.3513 -10.2541 2.4019
-6.1045 -10.4087 2.4019
-5.8538 -10.5572 2.4019
-5.5994 -10.6994 2.4019
-5.3414 -10.8352 2.4019
-5.0801 -10.9647 2.4019
-4.8155 -11.0877 2.4019
-4.5479 -11.2040 2.4019
-4.2774 -11.3137 2.4019
-4.0042 -11.4167 2.4019
-3.7284 -11.5128 2.4019
-3.4503 -11.6020 2.4019
-3.1699 -11.6843 2.4019
-2.8876 -11.7596 2.4019
-2.6034 -11.8279 2.4019
-2.3175 -11.8890 2.4019
-1.0953 -6.4432 1.2958
-0.9365 -6.4472 1.2916
-0.7786 -6.4512 1.2881
-0.6215 -6.4551 1.2855
-0.4649 -6.4591 1.2836
-0.3086 -6.4630 1.2825
-0.1525 -6.4669 1.2821
0.0036 -6.4708 1.2826
0.1599 -6.4748 1.2838
0.3166 -6.4787 1.2858
0.4738 -6.4827 1.2885
1.1745 -12.0583 2.4019
1.4650 -12.0251 2.4019
1.6792 -11.4703 2.2988
1.9552 -11.4247 2.2988
2.2300 -11.3722 2.2988
2.5033 -11.3129 2.2988
2.7750 -11.2469 2.2988
3.0449 -11.1741 2.2988
3.3128 -11.0945 2.2988
3.5787 -11.0084 2.2988
3.8422 -10.9157 2.2988
4.1033 -10.8165 2.2988
4.3617 -10.7108 2.2988
4.6174 -10.5988 2.2988
4.8701 -10.4805 2.2988
5.1196 -10.3560 2.2988
5.3660 -10.2254 2.2988
5.6089 -10.0887 2.2988
5.9706 -10.1542 2.3469
6.2112 -10.0027 2.3469
6.4478 -9.8453 2.3469
6.6804 -9.6821 2.3469
6.9087 -9.5133 2.3469
6.8051 -8.9101 2.2391
6.7939 -8.4638 2.1687
6.8150 -8.0824 2.1137
6.8275 -7.7115 2.0604
6.9581 -7.4868 2.0458
7.1767 -7.3576 2.0584
7.3905 -7.2196 2.0704
7.6067 -7.0801 2.0837
7.7390 -6.8621 2.0752
8.1277 -6.8634 2.1358
8.1859 -6.5807 2.1101
8.2029 -6.2744 2.0761
8.2193 -5.9780 2.0445
8.2352 -5.6907 2.0151
8.2506 -5.4118 1.9876
8.2656 -5.1405 1.9622
8.2802 -4.8764 1.9385
8.2945 -4.6187 1.9165
8.3084 -4.3670 1.8962
8.3220 -4.1208 1.8774
8.3353 -3.8796 1.8601
8.3484 -3.6431 1.8443
8.3613 -3.4108 1.8298
8.3739 -3.1822 1.8166
8.3864 -2.9572 1.8046
8.3986 -2.7353 1.7939
8.4108 -2.5163 1.7844
8.4227 -2.2997 1.7760
8.4346 -2.0854 1.7688
8.4463 -1.8730 1.7626
8.4580 -1.6623 1.7576
8.4696 -1.4530 1.7536
8.4811 -1.2448 1.7506
8.4925 -1.0376 1.7487
8.5040 -0.8310 1.7478
8.5154 -0.6249 1.7480
8.5268 -0.4189 1.7491
8.5382 -0.2128 1.7513
8.5496 -0.0064 1.7545
8.5610 0.2005 1.7588
8.5466 0.4070 1.7587
8.5581 0.6151 1.7651
8.5697 0.8245 1.7725
8.5814 1.0355 1.7810
8.5932 1.2483 1.7906
8.6051 1.4632 1.8013
8.6432 1.6856 1.8187
8.6554 1.9062 1.8319
8.6678 2.1299 1.8463
8.6803 2.3568 1.8620
9.0171 2.6839 1.9491
8.9610 2.9048 1.9530
8.9747 3.1510 1.9735
8.9885 3.4021 1.9955
9.0027 3.6587 2.0192
9.0173 3.9212 2.0446
9.0321 4.1902 2.0719
9.0474 4.4662 2.1010
9.0631 4.7498 2.1322
9.0793 5.0418 2.1656
9.0959 5.3428 2.2012
9.1131 5.6537 2.2393
9.1309 5.9752 2.2800
9.1493 6.3085 2.3236
9.0788 6.5894 2.3469
8.9112 6.8028 2.3469
8.7388 7.0120 2.3469
8.5615 7.2170 2.3469
8.3796 7.4176 2.3469
8.1930 7.6138 2.3469
8.0020 7.8053 2.3469
7.8066 7.9923 2.3469
7.6070 8.1744 2.3469
7.4032 8.3517 2.3469
7.1954 8.5241 2.3469
6.9838 8.6915 2.3469
6.6296 8.6723 2.2988
6.4150 8.8261 2.2988
6.1969 8.9748 2.2988
5.9754 9.1182 2.2988
5.7507 9.2564 2.2988
5.5230 9.3891 2.2988
5.2923 9.5164 2.2988
5.0587 9.6383 2.2988
4.8224 9.7545 2.2988
4.5835 9.8652 2.2988
4.3422 9.9702 2.2988
4.0985 10.0694 2.2988
3.8526 10.1629 2.2988
3.6047 10.2506 2.2988
3.3549 10.3324 2.2988
3.1032 10.4084 2.2988
2.8499 10.4783 2.2988
2.7115 11.0152 2.4019
2.4438 11.0758 2.4019
2.1748 11.1301 2.4019
1.9046 11.1781 2.4019
1.6334 11.2198 2.4019
1.3613 11.2551 2.4019
1.0885 11.2840 2.4019
0.8151 11.3065 2.4019
0.5413 11.3227 2.4019
0.2671 11.3324 2.4019
-0.0071 11.3356 2.4019
-0.2814 11.3325 2.4019
-0.5556 11.3229 2.4019
-0.8295 11.3069 2.4019
-1.1029 11.2845 2.4019
-1.3758 11.2557 2.4019
-1.6479 11.2206 2.4019
-1.9192 11.1790 2.4019
-2.1895 11.1311 2.4019
-2.4586 11.0769 2.4019
-2.7265 11.0163 2.4019
-2.9928 10.9495 2.4019
-3.2577 10.8764 2.4019
-3.5208 10.7972 2.4019
-3.7820 10.7117 2.4019
-4.0412 10.6202 2.4019
-4.2983 10.5225 2.4019
-4.5531 10.4188 2.4019
-4.8055 10.3092 2.4019
-5.0553 10.1935 2.4019
-5.2886 10.0458 2.3957
-5.3268 9.5504 2.3067
-5.5392 9.3899 2.2987
-5.7672 9.2570 2.2987
-5.9921 9.1188 2.2987
-6.2138 8.9753 2.2987
-6.4321 8.8266 2.2987
-6.6470 8.6726 2.2987
-6.8583 8.5136 2.2987
-7.0658 8.3495 2.2987
-7.2696 8.1805 2.2987
-7.4694 8.0067 2.2987
-7.6652 7.8281 2.2987
-7.8568 7.6448 2.2987
-8.0441 7.4569 2.2987
-8.2270 7.2645 2.2987
-8.4055 7.0678 2.2987
-8.1944 6.5587 2.1956
-8.7484 6.6615 2.2987
-8.9127 6.4522 2.2987
-9.0721 6.2389 2.2987
-9.2265 6.0217 2.2987
-9.3758 5.8008 2.2987
-9.5127 5.5720 2.2969
-9.6514 5.3441 2.2969
-9.7847 5.1128 2.2969
-9.9126 4.8783 2.2969
-10.0349 4.6406 2.2969
-10.1517 4.3998 2.2969
-10.2627 4.1562 2.2969
-10.3680 3.9099 2.2969
-10.4674 3.6609 2.2969
-10.5609 3.4094 2.2969
-10.6484 3.1555 2.2969
-10.7299 2.8995 2.2969
-10.8053 2.6413 2.2969
-10.8745 2.3813 2.2969
-10.9375 2.1194 2.2969
-10.9942 1.8559 2.2969
-11.0447 1.5910 2.2969
-6.3133 0.7542 1.3077
-9.3826 0.8914 1.9369
-9.1194 0.6445 1.8773
-8.8713 0.4119 1.8222
-8.7253 0.1940 1.7893
-8.7345 -0.0169 1.7893
-8.7386 -0.2282 1.7893
-11.2166 -0.5643 2.2969
-11.2087 -0.8358 2.2969
-11.1942 -1.1073 2.2969
-11.1732 -1.3785 2.2969
-10.2542 -1.5174 2.1132
-10.3660 -1.7909 2.1429
-11.0705 -2.1892 2.2969
-11.0231 -2.4579 2.2969
-10.9691 -2.7256 2.2969
-10.9086 -2.9921 2.2969
-10.8416 -3.2572 2.2969
-10.7680 -3.5208 2.2969
-10.6880 -3.7828 2.2969
-10.6016 -4.0429 2.2969
-10.5087 -4.3010 2.2969
-10.4096 -4.5569 2.2969
-10.3041 -4.8105 2.2969
-10.1923 -5.0616 2.2969
-10.0743 -5.3100 2.2969
-9.9578 -5.5599 2.2987
-9.8275 -5.8028 2.2987
-9.6912 -6.0426 2.2987
-9.5490 -6.2791 2.2987
-9.4009 -6.5122 2.2987
-9.2470 -6.7417 2.2987
-9.0874 -6.9675 2.2987
-8.9222 -7.1894 2.2987
-8.2742 -7.0042 2.2987
-8.1074 -7.2060 2.2987
-7.9356 -7.4038 2.2987
-7.7588 -7.5974 2.2987
-7.5773 -7.7867 2.2987
-7.3910 -7.9715 2.2987
-7.2001 -8.1518 2.2987
-7.0047 -8.3273 2.2987
-6.8050 -8.4981 2.2987
-6.6009 -8.6639 2.2987
-6.3928 -8.8246 2.2987
-6.3552 -9.2339 2.3636
-6.2325 -9.5408 2.4019
-6.0029 -9.6924 2.4019
-5.7695 -9.8383 2.4019
-5.5324 -9.9783 2.4019
-5.2919 -10.1125 2.4019
-5.0480 -10.2408 2.4019
-4.8009 -10.3629 2.4019
-4.5508 -10.4789 2.4019
-4.2978 -10.5888 2.4019
-4.0421 -10.6923 2.4019
-3.7839 -10.7894 2.4019
-3.5233 -10.8801 2.4019
-3.2604 -10.9643 2.4019
-2.9954 -11.0419 2.4019
-2.7286 -11.1130 2.4019
-2.4600 -11.1773 2.4019
-2.1899 -11.2350 2.4019
-1.0952 -6.4433 1.3713
-0.9364 -6.4472 1.3668
-0.7786 -6.4512 1.3631
-0.6214 -6.4552 1.3603
-0.4648 -6.4591 1.3583
-0.3086 -6.4630 1.3571
-0.1525 -6.4670 1.3568
0.0036 -6.4709 1.3573
0.1599 -6.4748 1.3585
0.3165 -6.4788 1.3606
0.4738 -6.4827 1.3636
1.1098 -11.3949 2.4019
1.3843 -11.3636 2.4019
1.6095 -10.9952 2.3319
1.8475 -10.7964 2.2988
2.1072 -10.7469 2.2988
2.3655 -10.6910 2.2988
2.6222 -10.6286 2.2988
2.8773 -10.5600 2.2988
3.1306 -10.4850 2.2988
3.3818 -10.4037 2.2988
3.6309 -10.3163 2.2988
3.8777 -10.2227 2.2988
4.1220 -10.1230 2.2988
4.3636 -10.0174 2.2988
4.6026 -9.9057 2.2988
4.8385 -9.7883 2.2988
5.0715 -9.6650 2.2988
5.3012 -9.5360 2.2988
5.5275 -9.4015 2.2988
5.8706 -9.4552 2.3469
6.0945 -9.3066 2.3469
6.3144 -9.1526 2.3469
6.5304 -8.9933 2.3469
6.7423 -8.8288 2.3469
6.6242 -8.2533 2.2369
6.7307 -7.9833 2.2083
6.8272 -7.7120 2.1794
6.9578 -7.4873 2.1639
7.1762 -7.3579 2.1771
7.3900 -7.2199 2.1897
7.6062 -7.0804 2.2037
7.7384 -6.8623 2.1947
8.1268 -6.8635 2.2585
8.1859 -6.5815 2.2315
8.2028 -6.2752 2.1956
8.2192 -5.9788 2.1620
8.2351 -5.6915 2.1308
8.2505 -5.4125 2.1018
8.2656 -5.1412 2.0747
8.2802 -4.8771 2.0496
8.2944 -4.6194 2.0263
8.3083 -4.3677 2.0048
8.3220 -4.1215 1.9848
8.3353 -3.8803 1.9665
8.3484 -3.6438 1.9496
8.3612 -3.4114 1.9342
8.3739 -3.1829 1.9202
8.3863 -2.9579 1.9075
8.3986 -2.7360 1.8961
8.4107 -2.5169 1.8860
8.4227 -2.3004 1.8770
8.4346 -2.0860 1.8693
8.4463 -1.8736 1.8627
8.4580 -1.6629 1.8573
8.4695 -1.4536 1.8530
8.4810 -1.2455 1.8498
8.4925 -1.0383 1.8477
8.5039 -0.8317 1.8467
8.5153 -0.6255 1.8468
8.5267 -0.4195 1.8479
8.5381 -0.2135 1.8502
8.5495 -0.0071 1.8535
8.5610 0.1998 1.8579
8.5466 0.4063 1.8578
8.5581 0.6144 1.8644
8.5697 0.8239 1.8721
8.5814 1.0348 1.8810
8.5931 1.2476 1.8911
8.6050 1.4626 1.9023
8.6431 1.6849 1.9207
8.6553 1.9055 1.9345
8.6677 2.1292 1.9496
8.6803 2.3562 1.9661
9.0191 2.6838 2.0584
8.9610 2.9041 2.0621
8.9746 3.1503 2.0836
8.9885 3.4014 2.1068
9.0027 3.6579 2.1318
9.0172 3.9204 2.1585
9.0321 4.1894 2.1872
9.0474 4.4654 2.2179
9.0631 4.7491 2.2507
9.0792 5.0410 2.2858
9.0959 5.3420 2.3234
9.0491 5.6132 2.3469
8.9051 5.8267 2.3469
8.7562 6.0366 2.3469
8.6025 6.2429 2.3469
8.4440 6.4453 2.3469
8.2808 6.6438 2.3469
8.1131 6.8382 2.3469
7.9409 7.0285 2.3469
7.7643 7.2146 2.3469
7.5835 7.3964 2.3469
7.3986 7.5737 2.3469
7.2096 7.7466 2.3469
7.0166 7.9148 2.3469
6.8199 8.0784 2.3469
6.4837 8.0684 2.2988
6.2839 8.2192 2.2988
6.0806 8.3652 2.2988
5.8739 8.5063 2.2988
5.6642 8.6425 2.2988
5.4513 8.7736 2.2988
5.2355 8.8996 2.2988
5.0169 9.0205 2.2988
4.7955 9.1361 2.2988
4.5716 9.2465 2.2988
4.3452 9.3516 2.2988
4.1165 9.4512 2.2988
3.8855 9.5455 2.2988
3.6525 9.6342 2.2988
3.4175 9.7175 2.2988
3.1807 9.7952 2.2988
2.9530 9.9037 2.3073
2.7791 10.2171 2.3644
2.5707 10.4427 2.4019
2.3169 10.5003 2.4019
2.0619 10.5519 2.4019
1.8058 10.5975 2.4019
1.5486 10.6370 2.4019
1.2907 10.6705 2.4019
1.0320 10.6980 2.4019
0.7728 10.7194 2.4019
0.5132 10.7347 2.4019
0.2533 10.7439 2.4019
-0.0068 10.7470 2.4019
-0.2669 10.7440 2.4019
-0.5268 10.7349 2.4019
-0.7865 10.7197 2.4019
-1.0457 10.6984 2.4019
-1.3044 10.6710 2.4019
-1.5624 10.6376 2.4019
-1.8196 10.5981 2.4019
-2.0759 10.5526 2.4019
-2.3310 10.5011 2.4019
-2.5849 10.4436 2.4019
-2.8375 10.3801 2.4019
-3.0885 10.3108 2.4019
-3.3379 10.2355 2.4019
-3.5855 10.1543 2.4019
-3.8312 10.0674 2.4019
-4.0749 9.9747 2.4019
-4.3163 9.8762 2.4019
-4.5555 9.7721 2.4019
-4.7923 9.6623 2.4019
-5.0264 9.5469 2.4019
-5.2579 9.4260 2.4019
-5.3453 9.0603 2.3401
-5.4667 8.7738 2.2987
-5.6797 8.6427 2.2987
-5.8897 8.5064 2.2987
-6.0965 8.3652 2.2987
-6.3000 8.2191 2.2987
-6.5001 8.0682 2.2987
-6.6967 7.9125 2.2987
-6.8896 7.7521 2.2987
-7.0788 7.5871 2.2987
-7.2641 7.4177 2.2987
-7.4455 7.2437 2.2987
-7.6228 7.0655 2.2987
-7.7959 6.8830 2.2987
-7.9647 6.6963 2.2987
-8.1292 6.5056 2.2987
-8.2891 6.3110 2.2987
-8.4446 6.1124 2.2987
-8.5953 5.9101 2.2987
-8.7413 5.7042 2.2987
-8.8824 5.4947 2.2987
-9.0186 5.2818 2.2987
-9.1498 5.0656 2.2987
-9.2759 4.8461 2.2987
-9.3968 4.6236 2.2987
-9.5052 4.3948 2.2969
-9.6154 4.1666 2.2969
-9.7202 3.9357 2.2969
-9.8195 3.7022 2.2969
-9.9132 3.4663 2.2969
-10.0014 3.2280 2.2969
-10.0839 2.9874 2.2969
-10.1607 2.7449 2.2969
-10.2316 2.5003 2.2969
-10.2968 2.2540 2.2969
-10.3560 2.0059 2.2969
-10.4093 1.7564 2.2969
-10.4567 1.5054 2.2969
-6.3128 0.7536 1.3812
-10.5332 1.0000 2.2969
-9.2530 0.6533 2.0122
-8.8706 0.4111 1.9248
-8.6362 0.1913 1.8710
-8.4141 -0.0170 1.8210
-8.3284 -0.2181 1.8017
-8.5158 -0.4291 1.8425
-10.6080 -0.7918 2.2969
-10.5939 -1.0487 2.2969
-10.5735 -1.3053 2.2969
-10.5469 -1.5615 2.2969
-10.5141 -1.8172 2.2969
-10.4750 -2.0723 2.2969
-10.4298 -2.3264 2.2969
-10.3783 -2.5796 2.2969
-10.3206 -2.8316 2.2969
-10.2568 -3.0823 2.2969
-10.1868 -3.3316 2.2969
-10.1107 -3.5793 2.2969
-10.0286 -3.8251 2.2969
-9.9403 -4.0691 2.2969
-9.8536 -4.3143 2.2987
-9.7534 -4.5542 2.2987
-9.6472 -4.7917 2.2987
-9.5352 -5.0267 2.2987
-9.4174 -5.2590 2.2987
-9.2939 -5.4885 2.2987
-9.1647 -5.7151 2.2987
-9.0298 -5.9385 2.2987
-8.8895 -6.1587 2.2987
-8.7436 -6.3755 2.2987
-8.5924 -6.5888 2.2987
-8.4359 -6.7984 2.2987
-7.8444 -6.6411 2.2987
-7.6861 -6.8323 2.2987
-7.5230 -7.0196 2.2987
-7.3552 -7.2029 2.2987
-7.1829 -7.3822 2.2987
-7.0061 -7.5572 2.2987
-6.8250 -7.7278 2.2987
-6.6396 -7.8940 2.2987
-6.4501 -8.0557 2.2987
-6.3104 -8.2833 2.3184
-6.3276 -8.7355 2.4005
-6.1211 -8.8945 2.4019
-5.9070 -9.0433 2.4019
-5.6892 -9.1867 2.4019
-5.4679 -9.3248 2.4019
-5.2431 -9.4574 2.4019
-5.0151 -9.5844 2.4019
-4.7839 -9.7058 2.4019
-4.5497 -9.8214 2.4019
-4.3126 -9.9312 2.4019
-4.0728 -10.0351 2.4019
-3.8305 -10.1331 2.4019
-3.5857 -10.2250 2.4019
-3.3387 -10.3108 2.4019
-3.0895 -10.3905 2.4019
-2.8384 -10.4639 2.4019
-2.5856 -10.5312 2.4019
-2.3311 -10.5921 2.4019
-2.0751 -10.6467 2.4019
-1.0952 -6.4433 1.4471
-0.9364 -6.4473 1.4423
-0.7785 -6.4513 1.4385
-0.6214 -6.4552 1.4355
-0.4648 -6.4591 1.4334
-0.3086 -6.4631 1.4322
-0.1525 -6.4670 1.4318
0.0036 -6.4709 1.4323
0.1599 -6.4748 1.4337
0.3165 -6.4788 1.4359
0.4737 -6.4827 1.4390
1.0515 -10.7980 2.4019
1.3116 -10.7684 2.4019
1.5709 -10.7324 2.4019
1.7506 -10.2310 2.2988
1.9967 -10.1842 2.2988
2.2414 -10.1314 2.2988
2.4848 -10.0724 2.2988
2.7265 -10.0075 2.2988
2.9665 -9.9365 2.2988
3.2047 -9.8596 2.2988
3.4408 -9.7769 2.2988
3.6747 -9.6883 2.2988
3.9062 -9.5940 2.2988
4.1353 -9.4941 2.2988
4.3618 -9.3884 2.2988
4.5855 -9.2773 2.2988
4.8064 -9.1606 2.2988
5.0242 -9.0386 2.2988
5.2388 -8.9113 2.2988
5.4501 -8.7787 2.2988
5.6580 -8.6410 2.2988
5.9850 -8.6760 2.3469
6.1899 -8.5252 2.3469
6.3909 -8.3694 2.3469
6.5879 -8.2088 2.3469
6.6921 -7.9383 2.3162
6.8269 -7.7125 2.2989
6.9575 -7.4878 2.2825
7.0831 -7.2632 2.2668
7.2660 -7.0995 2.2710
7.4893 -6.9724 2.2888
7.7378 -6.8626 2.3147
8.0067 -6.7629 2.3469
8.1628 -6.5638 2.3469
8.2028 -6.2760 2.3156
8.2192 -5.9795 2.2801
8.2351 -5.6922 2.2471
8.2505 -5.4133 2.2164
8.2655 -5.1420 2.1878
8.2801 -4.8778 2.1613
8.2944 -4.6201 2.1367
8.3083 -4.3684 2.1138
8.3219 -4.1222 2.0928
8.3353 -3.8810 2.0733
8.3483 -3.6445 2.0555
8.3612 -3.4121 2.0392
8.3738 -3.1836 2.0243
8.3863 -2.9585 2.0109
8.3986 -2.7367 1.9988
8.4107 -2.5176 1.9880
8.4227 -2.3010 1.9785
8.4345 -2.0867 1.9703
8.4463 -1.8743 1.9633
8.4579 -1.6636 1.9575
8.4695 -1.4543 1.9529
8.4810 -1.2461 1.9495
8.4925 -1.0389 1.9472
8.5039 -0.8323 1.9461
8.5153 -0.6262 1.9461
8.5267 -0.4202 1.9472
8.5381 -0.2141 1.9495
8.5495 -0.0077 1.9529
8.5610 0.1992 1.9575
8.5466 0.4057 1.9573
8.5581 0.6138 1.9642
8.5696 0.8232 1.9723
8.5813 1.0342 1.9815
8.5931 1.2470 1.9921
8.6050 1.4619 2.0039
8.6431 1.6842 2.0231
8.6553 1.9049 2.0376
8.6677 2.1285 2.0534
8.6802 2.3555 2.0708
9.0211 2.6837 2.1684
8.9610 2.9034 2.1717
8.9746 3.1495 2.1943
8.9885 3.4006 2.2187
9.0027 3.6572 2.2448
9.0172 3.9197 2.2729
9.0321 4.1886 2.3030
9.0473 4.4646 2.3353
8.9756 4.7025 2.3469
8.8537 4.9150 2.3469
8.7269 5.1246 2.3469
8.5952 5.3308 2.3469
8.4587 5.5338 2.3469
8.3175 5.7334 2.3469
8.1717 5.9295 2.3469
8.0213 6.1219 2.3469
7.8666 6.3107 2.3469
7.7074 6.4955 2.3469
7.5440 6.6765 2.3469
7.3765 6.8535 2.3469
7.2049 7.0263 2.3469
7.0294 7.1950 2.3469
6.8500 7.3594 2.3469
6.5302 7.3654 2.2988
6.3472 7.5178 2.2988
6.1608 7.6658 2.2988
5.9710 7.8092 2.2988
5.7779 7.9481 2.2988
5.5817 8.0824 2.2988
5.3824 8.2119 2.2988
5.1802 8.3367 2.2988
4.9753 8.4566 2.2988
4.7676 8.5716 2.2988
4.5573 8.6816 2.2988
4.3446 8.7866 2.2988
4.1295 8.8866 2.2988
3.9122 8.9814 2.2988
3.6927 9.0711 2.2988
3.4713 9.1556 2.2988
3.2480 9.2348 2.2988
3.0229 9.3087 2.2988
2.7962 9.3773 2.2988
2.6832 9.8639 2.4019
2.4433 9.9244 2.4019
2.2021 9.9792 2.4019
1.9597 10.0283 2.4019
1.7163 10.0717 2.4019
1.4719 10.1093 2.4019
1.2267 10.1412 2.4019
0.9809 10.1673 2.4019
0.7345 10.1877 2.4019
0.4877 10.2022 2.4019
0.2407 10.2110 2.4019
-0.0065 10.2139 2.4019
-0.2537 10.2110 2.4019
-0.5007 10.2024 2.4019
-0.7475 10.1879 2.4019
-0.9939 10.1676 2.4019
-1.2398 10.1416 2.4019
-1.4850 10.1097 2.4019
-1.7295 10.0722 2.4019
-1.9730 10.0288 2.4019
-2.2155 9.9798 2.4019
-2.4568 9.9251 2.4019
-2.6968 9.8646 2.4019
-2.9353 9.7986 2.4019
-3.1723 9.7269 2.4019
-3.4076 9.6497 2.4019
-3.6411 9.5669 2.4019
-3.8726 9.4787 2.4019
-4.1020 9.3850 2.4019
-4.3293 9.2859 2.4019
-4.5541 9.1814 2.4019
-4.7766 9.0716 2.4019
-4.9965 8.9566 2.4019
-5.2137 8.8364 2.4019
-5.3678 8.6143 2.3753
-5.4020 8.2192 2.3008
-5.6088 8.1000 2.3038
-5.7928 7.9478 2.2987
-5.9861 7.8088 2.2987
-6.1760 7.6652 2.2987
-6.3627 7.5170 2.2987
-6.5458 7.3645 2.2987
-6.7254 7.2076 2.2987
-6.9013 7.0464 2.2987
-7.0734 6.8810 2.2987
-7.2416 6.7114 2.2987
-7.4059 6.5379 2.2987
-7.5661 6.3604 2.2987
-7.7221 6.1791 2.2987
-7.8738 5.9940 2.2987
-8.0212 5.8052 2.2987
-8.1641 5.6129 2.2987
-8.3025 5.4171 2.2987
-8.4363 5.2180 2.2987
-8.5654 5.0156 2.2987
-8.6897 4.8101 2.2987
-8.8092 4.6015 2.2987
-8.9237 4.3901 2.2987
-9.0332 4.1758 2.2987
-9.1376 3.9588 2.2987
-9.2369 3.7393 2.2987
-9.3310 3.5173 2.2987
-9.4197 3.2929 2.2987
-9.5032 3.0664 2.2987
-9.5739 2.8356 2.2969
-9.6465 2.6052 2.2969
-9.7135 2.3729 2.2969
-9.7750 2.1390 2.2969
-9.8309 1.9035 2.2969
-9.8811 1.6665 2.2969
-9.9257 1.4282 2.2969
-6.3122 0.7531 1.4550
-9.9976 0.9483 2.2969
-9.2522 0.6525 2.1199
-9.3777 0.4339 2.1440
-10.0621 0.2221 2.2969
-8.4135 -0.0176 1.9187
-8.3183 -0.2185 1.8963
-8.5165 -0.4298 1.9418
-10.0660 -0.7521 2.2969
-10.0522 -0.9958 2.2969
-10.0325 -1.2393 2.2969
-10.0069 -1.4823 2.2969
-9.9754 -1.7249 2.2969
-9.9380 -1.9668 2.2969
-9.8946 -2.2078 2.2969
-9.8454 -2.4479 2.2969
-9.7978 -2.6889 2.2987
-9.7369 -2.9269 2.2987
-9.6701 -3.1634 2.2987
-9.5975 -3.3984 2.2987
-9.5192 -3.6316 2.2987
-9.4351 -3.8631 2.2987
-9.3454 -4.0926 2.2987
-9.2500 -4.3199 2.2987
-9.1490 -4.5450 2.2987
-9.0425 -4.7677 2.2987
-8.9305 -4.9879 2.2987
-8.8130 -5.2053 2.2987
-8.6902 -5.4200 2.2987
-8.5621 -5.6316 2.2987
-8.4287 -5.8402 2.2987
-8.2902 -6.0456 2.2987
-8.1466 -6.2477 2.2987
-7.9980 -6.4462 2.2987
-7.4552 -6.3123 2.2987
-7.3045 -6.4938 2.2987
-7.1493 -6.6717 2.2987
-6.9897 -6.8457 2.2987
-6.8258 -7.0159 2.2987
-6.6576 -7.1820 2.2987
-6.4854 -7.3440 2.2987
-6.3091 -7.5018 2.2987
-6.2782 -7.8417 2.3547
-6.2119 -8.1548 2.4019
-6.0158 -8.3057 2.4019
-5.8159 -8.4518 2.4019
-5.6124 -8.5930 2.4019
-5.4054 -8.7291 2.4019
-5.1950 -8.8602 2.4019
-4.9814 -8.9860 2.4019
-4.7646 -9.1065 2.4019
-4.5449 -9.2217 2.4019
-4.3223 -9.3314 2.4019
-4.0970 -9.4356 2.4019
-3.8692 -9.5342 2.4019
-3.6389 -9.6271 2.4019
-3.4064 -9.7143 2.4019
-3.1716 -9.7957 2.4019
-2.9349 -9.8713 2.4019
-2.6964 -9.9410 2.4019
-2.4562 -10.0048 2.4019
-2.2144 -10.0626 2.4019
-1.9712 -10.1144 2.4019
-1.0951 -6.4433 1.5233
-0.9363 -6.4473 1.5183
-0.7785 -6.4513 1.5142
-0.6214 -6.4552 1.5111
-0.4648 -6.4592 1.5089
-0.3086 -6.4631 1.5076
-0.1525 -6.4670 1.5072
0.0036 -6.4710 1.5077
0.1598 -6.4749 1.5091
0.3165 -6.4788 1.5115
0.4737 -6.4828 1.5147
0.9988 -10.2581 2.4019
1.2459 -10.2300 2.4019
1.4922 -10.1958 2.4019
1.6780 -9.8076 2.3197
1.8967 -9.6753 2.2988
2.1293 -9.6251 2.2988
2.3604 -9.5692 2.2988
2.5901 -9.5075 2.2988
2.8181 -9.4402 2.2988
3.0444 -9.3673 2.2988
3.2687 -9.2888 2.2988
3.4910 -9.2048 2.2988
3.7110 -9.1154 2.2988
3.9287 -9.0205 2.2988
4.1440 -8.9203 2.2988
4.3566 -8.8149 2.2988
4.5665 -8.7042 2.2988
4.7735 -8.5884 2.2988
4.9775 -8.4676 2.2988
5.1784 -8.3418 2.2988
5.3760 -8.2111 2.2988
5.5703 -8.0756 2.2988
5.7611 -7.9354 2.2988
6.0728 -7.9536 2.3469
6.2601 -7.8012 2.3469
6.4435 -7.6442 2.3469
6.6230 -7.4829 2.3469
6.7983 -7.3173 2.3469
6.9694 -7.1474 2.3469
7.1362 -6.9735 2.3469
7.2986 -6.7956 2.3469
7.4565 -6.6139 2.3469
7.6098 -6.4285 2.3469
7.7584 -6.2394 2.3469
7.9023 -6.0468 2.3469
8.0413 -5.8509 2.3469
8.1754 -5.6517 2.3469
8.2505 -5.4140 2.3317
8.2655 -5.1427 2.3015
8.2801 -4.8785 2.2735
8.2943 -4.6208 2.2475
8.3083 -4.3691 2.2235
8.3219 -4.1229 2.2012
8.3352 -3.8817 2.1807
8.3483 -3.6452 2.1619
8.3612 -3.4128 2.1447
8.3738 -3.1843 2.1290
8.3863 -2.9592 2.1148
8.3985 -2.7373 2.1020
8.4106 -2.5182 2.0906
8.4226 -2.3017 2.0806
8.4345 -2.0873 2.0718
8.4462 -1.8750 2.0644
8.4579 -1.6642 2.0583
8.4695 -1.4549 2.0533
8.4810 -1.2468 2.0497
8.4924 -1.0396 2.0472
8.5039 -0.8330 2.0459
8.5153 -0.6268 2.0459
8.5267 -0.4208 2.0470
8.5381 -0.2148 2.0493
8.5495 -0.0084 2.0528
8.5609 0.1985 2.0576
8.5465 0.4050 2.0573
8.5580 0.6131 2.0645
8.5696 0.8225 2.0729
8.5813 1.0335 2.0826
8.5931 1.2463 2.0936
8.6049 1.4612 2.1059
8.6431 1.6836 2.1260
8.6553 1.9042 2.1412
8.6676 2.1278 2.1578
8.6802 2.3548 2.1759
9.0231 2.6836 2.2790
8.9609 2.9027 2.2818
8.9745 3.1488 2.3055
8.9884 3.3999 2.3310
8.9586 3.6385 2.3469
8.8624 3.8516 2.3469
8.7612 4.0623 2.3469
8.6551 4.2703 2.3469
8.5441 4.4756 2.3469
8.4283 4.6781 2.3469
8.3078 4.8777 2.3469
8.1826 5.0743 2.3469
8.0529 5.2677 2.3469
7.9187 5.4578 2.3469
7.7801 5.6446 2.3469
7.6371 5.8280 2.3469
7.4900 6.0078 2.3469
7.3386 6.1840 2.3469
7.1832 6.3565 2.3469
7.0239 6.5252 2.3469
6.8607 6.6899 2.3469
6.5565 6.7103 2.2988
6.3893 6.8638 2.2988
6.2186 7.0132 2.2988
6.0444 7.1585 2.2988
5.8670 7.2996 2.2988
5.6864 7.4363 2.2988
5.5026 7.5687 2.2988
5.3158 7.6967 2.2988
5.1262 7.8202 2.2988
4.9337 7.9392 2.2988
4.7385 8.0535 2.2988
4.5408 8.1632 2.2988
4.3406 8.2681 2.2988
4.1380 8.3682 2.2988
3.9332 8.4636 2.2988
3.7263 8.5540 2.2988
3.5173 8.6395 2.2988
3.3064 8.7201 2.2988
3.0938 8.7956 2.2988
2.8972 8.9210 2.3131
2.7187 9.1168 2.3465
2.5559 9.3951 2.4019
2.3274 9.4527 2.4019
2.0976 9.5050 2.4019
1.8667 9.5518 2.4019
1.6349 9.5932 2.4019
1.4021 9.6291 2.4019
1.1685 9.6595 2.4019
0.9344 9.6844 2.4019
0.6997 9.7038 2.4019
0.4646 9.7177 2.4019
0.2293 9.7260 2.4019
-0.0062 9.7288 2.4019
-0.2417 9.7261 2.4019
-0.4770 9.7178 2.4019
-0.7121 9.7040 2.4019
-0.9468 9.6846 2.4019
-1.1810 9.6598 2.4019
-1.4146 9.6294 2.4019
-1.6475 9.5936 2.4019
-1.8794 9.5522 2.4019
-2.1104 9.5054 2.4019
-2.3402 9.4532 2.4019
-2.5688 9.3956 2.4019
-2.7960 9.3326 2.4019
-3.0217 9.2642 2.4019
-3.2458 9.1906 2.4019
-3.4681 9.1116 2.4019
-3.6886 9.0275 2.4019
-3.9070 8.9381 2.4019
-4.1234 8.8436 2.4019
-4.3375 8.7439 2.4019
-4.5494 8.6392 2.4019
-4.7587 8.5295 2.4019
-4.9655 8.4149 2.4019
-5.1695 8.2954 2.4019
-5.3708 8.1710 2.4019
-5.4152 7.8195 2.3355
-5.5166 7.5681 2.2987
-5.7005 7.4355 2.2987
-5.8813 7.2986 2.2987
-6.0589 7.1575 2.2987
-6.2332 7.0120 2.2987
-6.4040 6.8625 2.2987
-6.5714 6.7088 2.2987
-6.7351 6.5511 2.2987
-6.8951 6.3896 2.2987
-7.0513 6.2242 2.2987
-7.2037 6.0550 2.2987
-7.3520 5.8822 2.2987
-7.4963 5.7058 2.2987
-7.6364 5.5260 2.2987
-7.7723 5.3428 2.2987
-7.9038 5.1562 2.2987
-8.0310 4.9665 2.2987
-8.1536 4.7737 2.2987
-8.2717 4.5780 2.2987
-8.3852 4.3793 2.2987
-8.4939 4.1779 2.2987
-8.5979 3.9738 2.2987
-8.6970 3.7672 2.2987
-8.7912 3.5581 2.2987
-8.8805 3.3467 2.2987
-8.9647 3.1331 2.2987
-9.0438 2.9174 2.2987
-9.1178 2.6997 2.2987
-9.1866 2.4802 2.2987
-9.2501 2.2590 2.2987
-9.3083 2.0361 2.2987
-9.3613 1.8118 2.2987
-9.4088 1.5861 2.2987
-9.4509 1.3592 2.2987
-6.3116 0.7525 1.5292
-9.5188 0.9022 2.2987
-9.2514 0.6517 2.2281
-9.3783 0.4332 2.2539
-9.5792 0.2107 2.2987
-8.5368 -0.0185 2.0466
-8.6554 -0.2280 2.0743
-9.5894 -0.4846 2.2987
-9.5816 -0.7167 2.2987
-9.5681 -0.9486 2.2987
-9.5491 -1.1803 2.2987
-9.5244 -1.4116 2.2987
-9.4940 -1.6424 2.2987
-9.4581 -1.8725 2.2987
-9.4166 -2.1019 2.2987
-9.3694 -2.3303 2.2987
-9.3167 -2.5576 2.2987
-9.2584 -2.7838 2.2987
-9.1947 -3.0086 2.2987
-9.1254 -3.2319 2.2987
-9.0506 -3.4536 2.2987
-8.9704 -3.6735 2.2987
-8.8848 -3.8916 2.2987
-8.7938 -4.1076 2.2987
-8.6975 -4.3215 2.2987
-8.5960 -4.5330 2.2987
-8.4893 -4.7422 2.2987
-8.3774 -4.9487 2.2987
-8.2604 -5.1526 2.2987
-8.1384 -5.3537 2.2987
-8.0114 -5.5518 2.2987
-7.8795 -5.7469 2.2987
-7.7428 -5.9387 2.2987
-7.6013 -6.1272 2.2987
-7.1010 -6.0131 2.2987
-6.9573 -6.1859 2.2987
-6.8093 -6.3551 2.2987
-6.6571 -6.5207 2.2987
-6.5009 -6.6826 2.2987
-6.3406 -6.8407 2.2987
-6.2420 -7.0692 2.3231
-6.2559 -7.4393 2.3934
-6.0988 -7.6184 2.4019
-5.9156 -7.7665 2.4019
-5.7288 -7.9101 2.4019
-5.5383 -8.0491 2.4019
-5.3444 -8.1834 2.4019
-5.1472 -8.3130 2.4019
-4.9468 -8.4376 2.4019
-4.7433 -8.5573 2.4019
-4.5369 -8.6719 2.4019
-4.3276 -8.7814 2.4019
-4.1156 -8.8858 2.4019
-3.9010 -8.9848 2.4019
-3.6840 -9.0786 2.4019
-3.4647 -9.1670 2.4019
-3.2433 -9.2499 2.4019
-3.0198 -9.3274 2.4019
-2.7944 -9.3993 2.4019
-2.5673 -9.4656 2.4019
-2.3385 -9.5262 2.4019
-2.1083 -9.5812 2.4019
-1.8768 -9.6304 2.4019
-1.0950 -6.4434 1.5998
-0.9363 -6.4474 1.5946
-0.7785 -6.4513 1.5904
-0.6213 -6.4553 1.5871
-0.4648 -6.4592 1.5848
-0.3086 -6.4631 1.5834
-0.1525 -6.4671 1.5830
0.0036 -6.4710 1.5835
0.1598 -6.4749 1.5850
0.3164 -6.4789 1.5875
0.4736 -6.4828 1.5909
0.9510 -9.7672 2.4019
1.1862 -9.7405 2.4019
1.4207 -9.7080 2.4019
1.6543 -9.6696 2.4019
1.8058 -9.2124 2.2988
2.0272 -9.1647 2.2988
2.2474 -9.1116 2.2988
2.4661 -9.0530 2.2988
2.6832 -8.9890 2.2988
2.8986 -8.9197 2.2988
3.1123 -8.8450 2.2988
3.3239 -8.7652 2.2988
3.5335 -8.6801 2.2988
3.7408 -8.5899 2.2988
3.9458 -8.4946 2.2988
4.1484 -8.3943 2.2988
4.3483 -8.2890 2.2988
4.5455 -8.1789 2.2988
4.7398 -8.0640 2.2988
4.9312 -7.9443 2.2988
5.1195 -7.8200 2.2988
5.3046 -7.6912 2.2988
5.4864 -7.5578 2.2988
5.6648 -7.4201 2.2988
5.9619 -7.4303 2.3469
6.1367 -7.2810 2.3469
6.3077 -7.1275 2.3469
6.4748 -6.9699 2.3469
6.6380 -6.8083 2.3469
6.7970 -6.6428 2.3469
6.9518 -6.4735 2.3469
7.1024 -6.3006 2.3469
7.2486 -6.1241 2.3469
7.3904 -5.9441 2.3469
7.5276 -5.7608 2.3469
7.6602 -5.5743 2.3469
7.7881 -5.3848 2.3469
7.9113 -5.1922 2.3469
8.0297 -4.9968 2.3469
8.1432 -4.7986 2.3469
8.2518 -4.5978 2.3469
8.3082 -4.3698 2.3337
8.3218 -4.1236 2.3103
8.3352 -3.8824 2.2887
8.3483 -3.6459 2.2689
8.3611 -3.4135 2.2507
8.3738 -3.1850 2.2342
8.3862 -2.9599 2.2192
8.3985 -2.7380 2.2057
8.4106 -2.5189 2.1937
8.4226 -2.3024 2.1831
8.4344 -2.0880 2.1739
8.4462 -1.8756 2.1660
8.4578 -1.6649 2.1595
8.4694 -1.4556 2.1543
8.4809 -1.2475 2.1504
8.4924 -1.0402 2.1477
8.5038 -0.8336 2.1463
8.5152 -0.6275 2.1462
8.5266 -0.4215 2.1473
8.5380 -0.2154 2.1497
8.5494 -0.0091 2.1533
8.5609 0.1979 2.1582
8.5465 0.4043 2.1578
8.5580 0.6125 2.1653
8.5696 0.8219 2.1741
8.5812 1.0329 2.1842
8.5930 1.2456 2.1956
8.6049 1.4605 2.2085
8.6430 1.6829 2.2295
8.6552 1.9035 2.2454
8.6676 2.1271 2.2627
8.6802 2.3541 2.2817
8.8617 2.6349 2.3469
8.7899 2.8466 2.3469
8.7131 3.0563 2.3469
8.6313 3.2641 2.3469
8.5446 3.4697 2.3469
8.4531 3.6731 2.3469
8.3568 3.8741 2.3469
8.2558 4.0726 2.3469
8.1502 4.2686 2.3469
8.0399 4.4619 2.3469
7.9252 4.6524 2.3469
7.8060 4.8400 2.3469
7.6824 5.0246 2.3469
7.5546 5.2061 2.3469
7.4225 5.3845 2.3469
7.2863 5.5596 2.3469
7.1460 5.7313 2.3469
7.0018 5.8995 2.3469
6.8537 6.0642 2.3469
6.5645 6.0977 2.2988
6.4121 6.2518 2.2988
6.2561 6.4022 2.2988
6.0967 6.5488 2.2988
5.9339 6.6915 2.2988
5.7679 6.8303 2.2988
5.5986 6.9650 2.2988
5.4264 7.0956 2.2988
5.2511 7.2221 2.2988
5.0729 7.3444 2.2988
4.8920 7.4623 2.2988
4.7084 7.5760 2.2988
4.5222 7.6852 2.2988
4.3336 7.7899 2.2988
4.1426 7.8902 2.2988
3.9493 7.9859 2.2988
3.7538 8.0770 2.2988
3.5564 8.1634 2.2988
3.3570 8.2451 2.2988
3.1557 8.3220 2.2988
2.9528 8.3942 2.2988
2.7482 8.4616 2.2988
2.6562 8.9064 2.4019
2.4395 8.9666 2.4019
2.2214 9.0217 2.4019
2.0021 9.0716 2.4019
1.7818 9.1163 2.4019
1.5604 9.1559 2.4019
1.3382 9.1901 2.4019
1.1153 9.2192 2.4019
0.8918 9.2430 2.4019
0.6678 9.2615 2.4019
0.4434 9.2748 2.4019
0.2188 9.2827 2.4019
-0.0059 9.2854 2.4019
-0.2307 9.2828 2.4019
-0.4553 9.2749 2.4019
-0.6797 9.2617 2.4019
-0.9037 9.2432 2.4019
-1.1273 9.2194 2.4019
-1.3502 9.1904 2.4019
-1.5725 9.1561 2.4019
-1.7939 9.1166 2.4019
-2.0143 9.0719 2.4019
-2.2337 9.0220 2.4019
-2.4518 8.9669 2.4019
-2.6686 8.9067 2.4019
-2.8840 8.8414 2.4019
-3.0978 8.7710 2.4019
-3.3100 8.6955 2.4019
-3.5204 8.6151 2.4019
-3.7289 8.5297 2.4019
-3.9353 8.4394 2.4019
-4.1396 8.3442 2.4019
-4.3417 8.2441 2.4019
-4.5414 8.1393 2.4019
-4.7387 8.0298 2.4019
-4.9333 7.9156 2.4019
-5.1253 7.7968 2.4019
-5.3145 7.6734 2.4019
-5.4321 7.4514 2.3720
-5.4609 7.1222 2.3076
-5.6121 6.9638 2.2987
-5.7815 6.8290 2.2987
-5.9476 6.6901 2.2987
-6.1105 6.5472 2.2987
-6.2701 6.4005 2.2987
-6.4261 6.2499 2.2987
-6.5787 6.0956 2.2987
-6.7276 5.9377 2.2987
-6.8727 5.7761 2.2987
-7.0141 5.6112 2.2987
-7.1516 5.4428 2.2987
-7.2851 5.2710 2.2987
-7.4145 5.0961 2.2987
-7.5398 4.9181 2.2987
-7.6609 4.7370 2.2987
-7.7777 4.5529 2.2987
-7.8901 4.3661 2.2987
-7.9981 4.1765 2.2987
-8.1016 3.9842 2.2987
-8.2006 3.7895 2.2987
-8.2949 3.5923 2.2987
-8.3845 3.3928 2.2987
-8.4694 3.1911 2.2987
-8.5495 2.9873 2.2987
-8.6247 2.7815 2.2987
-8.6950 2.5738 2.2987
-8.7603 2.3644 2.2987
-8.8206 2.1534 2.2987
-8.8759 1.9408 2.2987
-8.9261 1.7269 2.2987
-8.9711 1.5116 2.2987
-9.0110 1.2952 2.2987
-6.3111 0.7519 1.6038
-6.3995 0.6060 1.6210
-9.0994 0.6403 2.2987
-9.1183 0.4205 2.2987
-9.1319 0.2002 2.2987
-8.5361 -0.0192 2.1468
-8.6560 -0.2287 2.1762
-9.1408 -0.4627 2.2987
-9.1331 -0.6838 2.2987
-9.1200 -0.9049 2.2987
-9.1015 -1.1257 2.2987
-9.0777 -1.3461 2.2987
-9.0485 -1.5660 2.2987
-9.0140 -1.7853 2.2987
-8.9741 -2.0039 2.2987
-8.9289 -2.2215 2.2987
-8.8784 -2.4380 2.2987
-8.8226 -2.6535 2.2987
-8.7616 -2.8676 2.2987
-8.6953 -3.0803 2.2987
-8.6238 -3.2914 2.2987
-8.5471 -3.5009 2.2987
-8.4653 -3.7086 2.2987
-8.3784 -3.9143 2.2987
-8.2865 -4.1179 2.2987
-8.1895 -4.3194 2.2987
-8.0876 -4.5185 2.2987
-7.9808 -4.7152 2.2987
-7.8691 -4.9093 2.2987
-7.7526 -5.1007 2.2987
-7.6315 -5.2893 2.2987
-7.5057 -5.4749 2.2987
-7.3753 -5.6575 2.2987
-7.2403 -5.8369 2.2987
-6.7772 -5.7396 2.2987
-6.6399 -5.9043 2.2987
-6.4985 -6.0657 2.2987
-6.3532 -6.2237 2.2987
-6.2098 -6.3841 2.3009
-6.2154 -6.7063 2.3612
-6.1588 -6.9756 2.4019
-5.9912 -7.1252 2.4019
-5.8198 -7.2706 2.4019
-5.6449 -7.4118 2.4019
-5.4665 -7.5487 2.4019
-5.2847 -7.6812 2.4019
-5.0996 -7.8092 2.4019
-4.9113 -7.9327 2.4019
-4.7200 -8.0515 2.4019
-4.5258 -8.1655 2.4019
-4.3288 -8.2748 2.4019
-4.1290 -8.3792 2.4019
-3.9267 -8.4787 2.4019
-3.7220 -8.5731 2.4019
-3.5149 -8.6625 2.4019
-3.3056 -8.7467 2.4019
-3.0943 -8.8257 2.4019
-2.8811 -8.8996 2.4019
-2.6660 -8.9681 2.4019
-2.4493 -9.0313 2.4019
-2.2310 -9.0891 2.4019
-2.0114 -9.1415 2.4019
-1.7905 -9.1884 2.4019
-1.0950 -6.4434 1.6768
-0.9362 -6.4474 1.6713
-0.7784 -6.4514 1.6669
-0.6213 -6.4553 1.6635
-0.4648 -6.4593 1.6610
-0.3085 -6.4632 1.6596
-0.1525 -6.4671 1.6592
0.0035 -6.4710 1.6597
0.1598 -6.4750 1.6613
0.3164 -6.4789 1.6639
0.4736 -6.4829 1.6674
0.9072 -9.3187 2.4019
1.1316 -9.2933 2.4019
1.3554 -9.2623 2.4019
1.5782 -9.2258 2.4019
1.7331 -8.8422 2.3126
1.9340 -8.7442 2.2988
2.1441 -8.6936 2.2988
2.3527 -8.6378 2.2988
2.5599 -8.5768 2.2988
2.7655 -8.5107 2.2988
2.9693 -8.4396 2.2988
3.1713 -8.3635 2.2988
3.3713 -8.2824 2.2988
3.5692 -8.1965 2.2988
3.7648 -8.1056 2.2988
3.9581 -8.0100 2.2988
4.1489 -7.9097 2.2988
4.3371 -7.8048 2.2988
4.5226 -7.6952 2.2988
4.7053 -7.5812 2.2988
4.8851 -7.4627 2.2988
5.0618 -7.3398 2.2988
5.2354 -7.2127 2.2988
5.4057 -7.0814 2.2988
5.5727 -6.9460 2.2988
5.7362 -6.8066 2.2988
6.0196 -6.8026 2.3469
6.1792 -6.6523 2.3469
6.3350 -6.4983 2.3469
6.4869 -6.3405 2.3469
6.6348 -6.1790 2.3469
6.7787 -6.0141 2.3469
6.9184 -5.8458 2.3469
7.0538 -5.6742 2.3469
7.1850 -5.4994 2.3469
7.3117 -5.3215 2.3469
7.4340 -5.1406 2.3469
7.5518 -4.9569 2.3469
7.6650 -4.7705 2.3469
7.7735 -4.5815 2.3469
7.8774 -4.3899 2.3469
7.9764 -4.1960 2.3469
8.0707 -3.9999 2.3469
8.1601 -3.8016 2.3469
8.2445 -3.6013 2.3469
8.3241 -3.3991 2.3469
8.3737 -3.1856 2.3400
8.3862 -2.9606 2.3242
8.3985 -2.7387 2.3101
8.4106 -2.5196 2.2974
8.4225 -2.3030 2.2862
8.4344 -2.0887 2.2765
8.4462 -1.8763 2.2683
8.4578 -1.6656 2.2614
8.4694 -1.4563 2.2558
8.4809 -1.2481 2.2516
8.4924 -1.0409 2.2488
8.5038 -0.8343 2.2473
8.5152 -0.6281 2.2471
8.5266 -0.4222 2.2482
8.5380 -0.2161 2.2506
8.5494 -0.0097 2.2543
8.5608 0.1972 2.2594
8.5464 0.4037 2.2590
8.5580 0.6118 2.2667
8.5695 0.8212 2.2758
8.5812 1.0322 2.2863
8.5930 1.2450 2.2983
8.6049 1.4598 2.3117
8.6430 1.6822 2.3336
8.6434 1.9002 2.3469
8.5897 2.1073 2.3469
8.5309 2.3129 2.3469
8.4674 2.5169 2.3469
8.3990 2.7193 2.3469
8.3258 2.9198 2.3469
8.2478 3.1184 2.3469
8.1652 3.3150 2.3469
8.0780 3.5094 2.3469
7.9861 3.7016 2.3469
7.8898 3.8914 2.3469
7.7890 4.0788 2.3469
7.6839 4.2636 2.3469
7.5744 4.4458 2.3469
7.4606 4.6252 2.3469
7.3427 4.8017 2.3469
7.2207 4.9754 2.3469
7.0946 5.1459 2.3469
6.9646 5.3134 2.3469
6.8306 5.4776 2.3469
6.6929 5.6386 2.3469
6.4172 5.6773 2.2988
6.2751 5.8283 2.2988
6.1295 5.9757 2.2988
5.9806 6.1196 2.2988
5.8283 6.2598 2.2988
5.6728 6.3964 2.2988
5.5141 6.5291 2.2988
5.3524 6.6581 2.2988
5.1878 6.7831 2.2988
5.0203 6.9041 2.2988
4.8501 7.0211 2.2988
4.6772 7.1340 2.2988
4.5017 7.2427 2.2988
4.3237 7.3472 2.2988
4.1434 7.4475 2.2988
3.9608 7.5434 2.2988
3.7761 7.6350 2.2988
3.5892 7.7222 2.2988
3.4005 7.8049 2.2988
3.2098 7.8831 2.2988
3.0175 7.9567 2.2988
2.8234 8.0258 2.2988
2.6716 8.2250 2.3371
2.5398 8.5156 2.4019
2.3326 8.5733 2.4019
2.1241 8.6260 2.4019
1.9145 8.6738 2.4019
1.7037 8.7166 2.4019
1.4921 8.7544 2.4019
1.2797 8.7873 2.4019
1.0665 8.8151 2.4019
0.8528 8.8379 2.4019
0.6386 8.8556 2.4019
0.4240 8.8683 2.4019
0.2092 8.8759 2.4019
-0.0057 8.8784 2.4019
-0.2206 8.8759 2.4019
-0.4354 8.8683 2.4019
-0.6500 8.8557 2.4019
-0.8642 8.8380 2.4019
-1.0780 8.8152 2.4019
-1.2912 8.7874 2.4019
-1.5037 8.7546 2.4019
-1.7154 8.7168 2.4019
-1.9261 8.6740 2.4019
-2.1359 8.6262 2.4019
-2.3444 8.5734 2.4019
-2.5517 8.5158 2.4019
-2.7577 8.4533 2.4019
-2.9621 8.3859 2.4019
-3.1649 8.3137 2.4019
-3.3660 8.2367 2.4019
-3.5653 8.1549 2.4019
-3.7627 8.0685 2.4019
-3.9580 7.9773 2.4019
-4.1512 7.8816 2.4019
-4.3421 7.7813 2.4019
-4.5306 7.6765 2.4019
-4.7166 7.5671 2.4019
-4.9001 7.4534 2.4019
-5.0809 7.3354 2.4019
-5.2589 7.2130 2.4019
-5.4340 7.0865 2.4019
-5.4702 6.7870 2.3437
-5.5269 6.5277 2.2987
-5.7018 6.4129 2.3052
-5.8413 6.2581 2.2987
-5.9937 6.1177 2.2987
-6.1428 5.9736 2.2987
-6.2885 5.8260 2.2987
-6.4306 5.6749 2.2987
-6.5693 5.5204 2.2987
-6.7042 5.3626 2.2987
-6.8355 5.2015 2.2987
-6.9629 5.0373 2.2987
-7.0865 4.8700 2.2987
-7.2061 4.6997 2.2987
-7.3216 4.5265 2.2987
-7.4331 4.3505 2.2987
-7.5403 4.1718 2.2987
-7.6434 3.9906 2.2987
-7.7421 3.8067 2.2987
-7.8364 3.6205 2.2987
-7.9264 3.4320 2.2987
-8.0118 3.2413 2.2987
-8.0927 3.0485 2.2987
-8.1690 2.8537 2.2987
-8.2406 2.6570 2.2987
-8.3076 2.4585 2.2987
-8.3698 2.2584 2.2987
-8.4272 2.0567 2.2987
-8.4797 1.8535 2.2987
-8.5275 1.6491 2.2987
-8.5703 1.4434 2.2987
-8.6081 1.2366 2.2987
-6.2338 0.7423 1.6583
-6.2423 0.5907 1.6552
-8.6918 0.6109 2.2987
-8.7096 0.4010 2.2987
-8.7224 0.1905 2.2987
-8.5354 -0.0198 2.2474
-8.6567 -0.2293 2.2787
-8.7301 -0.4426 2.2987
-8.7225 -0.6538 2.2987
-8.7097 -0.8649 2.2987
-8.6919 -1.0757 2.2987
-8.6689 -1.2862 2.2987
-8.6408 -1.4961 2.2987
-8.6076 -1.7055 2.2987
-8.5693 -1.9141 2.2987
-8.5259 -2.1219 2.2987
-8.4774 -2.3286 2.2987
-8.4239 -2.5342 2.2987
-8.3654 -2.7386 2.2987
-8.3019 -2.9416 2.2987
-8.2334 -3.1431 2.2987
-8.1600 -3.3430 2.2987
-8.0817 -3.5412 2.2987
-7.9985 -3.7375 2.2987
-7.9105 -3.9318 2.2987
-7.8177 -4.1240 2.2987
-7.7202 -4.3139 2.2987
-7.6181 -4.5016 2.2987
-7.5113 -4.6867 2.2987
-7.4000 -4.8693 2.2987
-7.2842 -5.0492 2.2987
-7.1639 -5.2263 2.2987
-7.0393 -5.4005 2.2987
-6.9103 -5.5716 2.2987
-6.4800 -5.4885 2.2987
-6.3696 -5.6647 2.3063
-6.2133 -5.8001 2.2987
-6.1818 -6.0564 2.3394
-6.1969 -6.3715 2.4016
-6.0448 -6.5229 2.4019
-5.8880 -6.6696 2.4019
-5.7277 -6.8125 2.4019
-5.5638 -6.9514 2.4019
-5.3965 -7.0863 2.4019
-5.2258 -7.2170 2.4019
-5.0519 -7.3436 2.4019
-4.8749 -7.4659 2.4019
-4.6949 -7.5838 2.4019
-4.5120 -7.6972 2.4019
-4.3263 -7.8062 2.4019
-4.1379 -7.9105 2.4019
-3.9469 -8.0102 2.4019
-3.7535 -8.1052 2.4019
-3.5577 -8.1954 2.4019
-3.3597 -8.2807 2.4019
-3.1597 -8.3612 2.4019
-2.9577 -8.4367 2.4019
-2.7538 -8.5072 2.4019
-2.5482 -8.5726 2.4019
-2.3411 -8.6329 2.4019
-2.1325 -8.6881 2.4019
-1.9225 -8.7381 2.4019
-1.7114 -8.7829 2.4019
-1.0949 -6.4435 1.7542
-0.9362 -6.4474 1.7485
-0.7784 -6.4514 1.7439
-0.6213 -6.4554 1.7403
-0.4647 -6.4593 1.7378
-0.3085 -6.4632 1.7363
-0.1525 -6.4671 1.7358
0.0035 -6.4711 1.7364
0.1598 -6.4750 1.7380
0.3164 -6.4789 1.7407
0.4735 -6.4829 1.7444
0.6869 -7.0564 1.9028
1.0816 -8.8832 2.4019
1.2954 -8.8537 2.4019
1.5084 -8.8188 2.4019
1.7205 -8.7787 2.4019
1.8486 -8.3585 2.2988
2.0493 -8.3102 2.2988
2.2488 -8.2569 2.2988
2.4469 -8.1987 2.2988
2.6434 -8.1356 2.2988
2.8382 -8.0677 2.2988
3.0313 -7.9950 2.2988
3.2225 -7.9176 2.2988
3.4117 -7.8355 2.2988
3.5988 -7.7488 2.2988
3.7836 -7.6575 2.2988
3.9660 -7.5617 2.2988
4.1460 -7.4615 2.2988
4.3234 -7.3569 2.2988
4.4981 -7.2480 2.2988
4.6700 -7.1348 2.2988
4.8390 -7.0175 2.2988
5.0051 -6.8961 2.2988
5.1680 -6.7707 2.2988
5.3277 -6.6413 2.2988
5.4842 -6.5081 2.2988
5.6372 -6.3712 2.2988
5.7868 -6.2306 2.2988
6.0569 -6.2137 2.3469
6.2023 -6.0630 2.3469
6.3439 -5.9087 2.3469
6.4815 -5.7512 2.3469
6.6152 -5.5904 2.3469
6.7449 -5.4264 2.3469
6.8704 -5.2593 2.3469
6.9918 -5.0893 2.3469
7.1089 -4.9165 2.3469
7.2217 -4.7410 2.3469
7.3301 -4.5628 2.3469
7.4341 -4.3821 2.3469
7.5336 -4.1990 2.3469
7.6285 -4.0137 2.3469
7.7188 -3.8262 2.3469
7.8045 -3.6366 2.3469
7.8855 -3.4451 2.3469
7.9617 -3.2518 2.3469
8.0332 -3.0568 2.3469
8.0999 -2.8602 2.3469
8.1617 -2.6622 2.3469
8.2187 -2.4628 2.3469
8.2708 -2.2622 2.3469
8.3180 -2.0605 2.3469
8.3602 -1.8579 2.3469
8.3975 -1.6544 2.3469
8.4298 -1.4502 2.3469
8.4572 -1.2453 2.3469
8.4796 -1.0400 2.3469
8.4970 -0.8343 2.3469
8.5094 -0.6284 2.3469
8.5168 -0.4223 2.3469
8.5192 -0.2163 2.3469
8.5167 -0.0104 2.3469
8.5092 0.1953 2.3469
8.4967 0.4007 2.3469
8.4793 0.6055 2.3469
8.4570 0.8098 2.3469
8.4298 1.0133 2.3469
8.3977 1.2160 2.3469
8.3608 1.4178 2.3469
