ply
format ascii 1.0
element vertex 2018
property float32 x
property float32 y
property float32 z
end_header
6.9827 -8.2592 -0.8802
7.2816 -8.2020 -0.8911
7.5084 -8.0565 -0.8932
7.6490 -7.8195 -0.8856
7.8646 -7.6603 -0.8872
8.1324 -7.5468 -0.8949
8.1827 -7.2333 -0.8792
8.2017 -6.9042 -0.8614
8.2307 -6.5953 -0.8457
8.2941 -6.3231 -0.8346
8.3057 -6.0201 -0.8191
8.3171 -5.7269 -0.8046
8.3283 -5.4426 -0.7910
8.3033 -5.1443 -0.7749
8.3186 -4.8795 -0.7634
8.3335 -4.6212 -0.7526
8.3481 -4.3689 -0.7424
8.3623 -4.1220 -0.7329
8.3763 -3.8802 -0.7239
8.4034 -3.6487 -0.7167
8.4138 -3.4140 -0.7086
8.4243 -3.1833 -0.7010
8.4347 -2.9563 -0.6940
8.4451 -2.7327 -0.6875
8.4555 -2.5120 -0.6814
8.4611 -2.2927 -0.6755
8.4666 -2.0759 -0.6700
8.4926 -1.8659 -0.6665
8.5048 -1.6542 -0.6624
8.4859 -1.4386 -0.6563
8.4932 -1.2295 -0.6526
8.5011 -1.0216 -0.6493
8.5095 -0.8146 -0.6465
8.5183 -0.6081 -0.6441
8.5277 -0.4020 -0.6422
8.5376 -0.1959 -0.6406
8.5481 0.0105 -0.6395
8.5591 0.2174 -0.6387
8.5706 0.4251 -0.6384
8.5828 0.6339 -0.6385
8.6493 0.8494 -0.6430
8.6616 1.0624 -0.6438
8.3780 1.2338 -0.6231
8.3901 1.4435 -0.6247
8.4024 1.6555 -0.6266
8.6685 1.9266 -0.6480
8.6814 2.1508 -0.6508
8.9927 2.4600 -0.6766
9.0066 2.6993 -0.6805
9.0206 2.9428 -0.6849
9.0467 3.1951 -0.6906
9.0755 3.4541 -0.6971
9.0929 3.7146 -0.7033
9.1109 3.9814 -0.7100
9.1295 4.2551 -0.7174
9.1229 4.5233 -0.7234
9.1281 4.8040 -0.7309
9.1451 5.0988 -0.7400
9.1627 5.4028 -0.7499
9.1808 5.7167 -0.7606
9.2577 6.0798 -0.7770
9.2825 6.4222 -0.7900
9.3480 6.8072 -0.8074
9.3250 7.1414 -0.8181
9.2821 7.4711 -0.8281
9.3049 7.8673 -0.8449
9.3289 8.2821 -0.8631
9.3934 8.7541 -0.8864
9.5043 9.2964 -0.9158
9.5326 9.7856 -0.9391
9.4378 10.1685 -0.9518
9.4691 10.7097 -0.9788
9.2359 10.9689 -0.9799
9.2227 11.5061 -1.0058
9.5768 12.5578 -1.0752
9.7446 13.4388 -1.1282
9.6985 14.0787 -1.1599
9.7091 14.8494 -1.2017
9.8898 15.9541 -1.2694
9.8653 16.8080 -1.3159
9.8797 17.8040 -1.3728
10.0798 19.2459 -1.4627
10.0250 20.3208 -1.5235
9.7744 21.0812 -1.5603
10.2900 23.6753 -1.7313
10.4534 25.7341 -1.8607
10.4446 27.6066 -1.9752
10.5934 30.1829 -2.1384
10.8701 33.5425 -2.3549
9.9966 33.5929 -2.3387
9.8950 36.4491 -2.5182
10.1834 41.4455 -2.8435
10.8978 49.4811 -3.3735
10.3192 52.9063 -3.5869
8.9919 52.8656 -3.5665
7.7258 53.1580 -3.5711
6.4346 53.2862 -3.5669
5.2117 54.1093 -3.6115
4.0252 55.9105 -3.7233
2.7141 56.8325 -3.7787
1.3773 58.4289 -3.8812
-0.0392 67.1687 -4.4606
-2.0115 81.3017 -5.4013
-2.9200 59.6817 -3.9691
-4.3072 58.8668 -3.9216
-5.6183 57.6241 -3.8479
-7.1287 58.4601 -3.9156
-8.4891 57.9343 -3.8948
-4.9279 28.7687 -1.9425
-5.6531 28.8037 -1.9547
-5.9792 26.9982 -1.8427
-6.5697 26.6036 -1.8274
-7.1012 26.0376 -1.8013
-7.6183 25.4918 -1.7773
-9.0980 27.9629 -1.9662
-8.6420 24.5313 -1.7409
-9.1502 24.1002 -1.7274
-9.6511 23.6797 -1.7155
-10.0604 23.0733 -1.6907
-8.3538 17.9624 -1.3324
-8.9424 18.0731 -1.3580
-9.5546 18.1914 -1.3859
-10.1930 18.3181 -1.4160
-10.6380 18.0761 -1.4189
-11.0551 17.7876 -1.4191
-11.4732 17.5028 -1.4204
-11.8928 17.2209 -1.4229
-8.0753 11.1093 -0.9355
-8.5200 11.1448 -0.9573
-8.9757 11.1711 -0.9797
-9.4518 11.1986 -1.0038
-9.9503 11.2274 -1.0297
-10.4636 11.2472 -1.0566
-25.4382 26.0522 -2.5096
-23.7787 23.2040 -2.2948
-21.5334 20.0206 -2.0353
-15.6205 13.8350 -1.4476
-16.6884 14.0764 -1.5181
-17.6897 14.2042 -1.5812
-18.3332 14.0062 -1.6117
-26.6643 19.3691 -2.3078
-15.0707 10.4008 -1.2854
-15.0844 9.8810 -1.2689
-15.0986 9.3770 -1.2538
-15.1131 8.8875 -1.2399
-15.1280 8.4112 -1.2273
-15.1434 7.9471 -1.2157
-15.1592 7.4941 -1.2052
-15.1754 7.0511 -1.1957
-15.1920 6.6174 -1.1872
-15.2090 6.1922 -1.1797
-15.2266 5.7746 -1.1730
-15.2445 5.3638 -1.1672
-15.2630 4.9593 -1.1623
-15.2819 4.5604 -1.1581
-15.3014 4.1664 -1.1548
-15.3214 3.7767 -1.1522
-15.3418 3.3908 -1.1505
-15.3629 3.0081 -1.1494
-15.3845 2.6281 -1.1491
-15.4067 2.2502 -1.1496
-15.4296 1.8741 -1.1507
-15.4531 1.4990 -1.1526
-15.4773 1.1247 -1.1553
-15.5022 0.7505 -1.1586
-15.5278 0.3760 -1.1627
-15.5543 0.0007 -1.1676
-6.3188 -0.1524 -0.4758
-15.6097 -0.7543 -1.1796
-15.6387 -1.1351 -1.1867
-15.6687 -1.5187 -1.1946
-15.6997 -1.9056 -1.2034
-15.7317 -2.2965 -1.2130
-15.7649 -2.6919 -1.2235
-15.7992 -3.0925 -1.2348
-23.6891 -5.2342 -1.8658
-23.7451 -5.8519 -1.8857
-23.8038 -6.4804 -1.9071
-80.6906 -42.3516 -7.2010
-76.5845 -42.5887 -6.9403
-74.7208 -43.9499 -6.8811
-74.7867 -46.4575 -7.0039
-75.0788 -49.1930 -7.1561
-64.0973 -54.0961 -5.8208
-41.1809 -38.3127 -3.9206
-39.6720 -38.7396 -3.8732
-38.9737 -39.9433 -3.9062
-38.5579 -41.4774 -3.9718
-37.2991 -42.1209 -3.9536
-35.0338 -41.5444 -3.8260
-33.7565 -42.0517 -3.8034
-33.5684 -43.9532 -3.9077
-34.1243 -46.9941 -4.1105
-35.0958 -53.6026 -4.5494
-32.3871 -52.1759 -4.3672
-29.0213 -49.3791 -4.0792
-27.5904 -49.6547 -4.0513
-26.4030 -50.3476 -4.0600
-26.3025 -53.2474 -4.2466
-20.8081 -44.8220 -3.5378
-19.1345 -43.9702 -3.4370
-17.9554 -44.1483 -3.4196
-16.8601 -44.5096 -3.4185
-15.9336 -45.3440 -3.4552
-16.4983 -50.8497 -3.8466
-13.0331 -43.7455 -3.2871
-12.0122 -44.1970 -3.3007
-11.2951 -45.9173 -3.4100
-10.5829 -47.9971 -3.5466
-12.2580 -62.7763 -4.6179
-13.4769 -79.1474 -5.7993
3.0866 -62.9902 -4.5607
3.7574 -51.2803 -3.7175
3.9970 -40.9399 -2.9732
4.6913 -38.4205 -2.7967
4.3528 -29.6673 -2.1656
4.7791 -27.8640 -2.0408
5.1188 -26.0482 -1.9153
5.5336 -24.9540 -1.8430
5.8448 -23.6380 -1.7545
6.1280 -22.4404 -1.6748
6.3871 -21.3445 -1.6028
6.6254 -20.3370 -1.5373
5.9581 -16.8906 -1.2861
6.2969 -16.5633 -1.2711
6.5739 -16.1084 -1.2466
6.9075 -15.8211 -1.2355
7.2898 -15.6534 -1.2343
7.7299 -15.6013 -1.2430
7.7645 -14.7629 -1.1892
7.8509 -14.0895 -1.1483
7.8910 -13.3896 -1.1049
7.8930 -12.6818 -1.0603
7.9256 -12.0733 -1.0235
6.6425 -9.6043 -0.8262
6.7749 -9.3066 -0.8130
6.6954 -8.7449 -0.7765
6.8662 -8.5324 -0.7707
6.9822 -8.2597 -0.7597
7.2810 -8.2024 -0.7688
7.5078 -8.0569 -0.7704
7.6483 -7.8198 -0.7637
7.8645 -7.6613 -0.7649
8.1312 -7.5468 -0.7712
8.1827 -7.2343 -0.7576
8.2017 -6.9052 -0.7420
8.2303 -6.5961 -0.7282
8.2501 -6.2905 -0.7146
8.2623 -5.9897 -0.7012
8.2743 -5.6984 -0.6886
8.2822 -5.4135 -0.6765
8.2831 -5.1327 -0.6645
8.2845 -4.8605 -0.6533
8.3335 -4.6221 -0.6464
8.3480 -4.3698 -0.6374
8.2973 -4.0909 -0.6241
8.3112 -3.8509 -0.6163
8.3265 -3.6162 -0.6090
8.3477 -3.3880 -0.6027
8.3683 -3.1630 -0.5968
8.3882 -2.9409 -0.5912
8.4075 -2.7214 -0.5860
8.4262 -2.5041 -0.5812
8.4444 -2.2889 -0.5767
8.4620 -2.0756 -0.5726
8.4925 -1.8667 -0.5697
8.5047 -1.6550 -0.5659
8.5118 -1.4438 -0.5621
8.5275 -1.2353 -0.5593
8.5410 -1.0272 -0.5566
8.5530 -0.8195 -0.5542
8.5649 -0.6123 -0.5521
8.5769 -0.4051 -0.5503
8.5889 -0.1978 -0.5488
8.6008 0.0098 -0.5477
8.6129 0.2179 -0.5468
8.6249 0.4270 -0.5463
8.6371 0.6371 -0.5461
8.6493 0.8485 -0.5462
8.6616 1.0616 -0.5467
8.3780 1.2330 -0.5288
8.3901 1.4427 -0.5299
8.4023 1.6547 -0.5313
8.6684 1.9258 -0.5491
8.6814 2.1500 -0.5513
8.9927 2.4591 -0.5728
9.0065 2.6984 -0.5758
8.9525 2.9197 -0.5749
8.9669 3.1660 -0.5787
8.9875 3.4196 -0.5833
9.0090 3.6794 -0.5885
9.0317 3.9458 -0.5941
9.0555 4.2196 -0.6004
9.0804 4.5013 -0.6072
9.1067 4.7918 -0.6146
9.1450 5.0978 -0.6235
9.1626 5.4017 -0.6315
9.1807 5.7157 -0.6402
9.2072 6.0456 -0.6502
9.2308 6.3854 -0.6606
9.2555 6.7388 -0.6720
9.2815 7.1070 -0.6842
9.2820 7.4699 -0.6954
9.3049 7.8661 -0.7093
9.3288 8.2809 -0.7242
9.3925 8.7521 -0.7434
9.4337 9.2261 -0.7622
9.4698 9.7198 -0.7819
9.4377 10.1671 -0.7974
9.4690 10.7083 -0.8197
9.2370 10.9688 -0.8204
9.2226 11.5046 -0.8417
9.5767 12.5562 -0.8994
9.7445 13.4372 -0.9434
9.6988 14.0776 -0.9696
9.7090 14.8476 -1.0042
9.8897 15.9522 -1.0605
9.8657 16.8068 -1.0991
9.8796 17.8019 -1.1462
10.0797 19.2437 -1.2209
10.0249 20.3184 -1.2713
9.7742 21.0788 -1.3017
10.2910 23.6753 -1.4442
10.4532 25.7311 -1.5516
10.4444 27.6034 -1.6467
10.5932 30.1794 -1.7824
10.8711 33.5424 -1.9627
9.9976 33.5929 -1.9489
9.8947 36.4447 -2.0978
10.1831 41.4406 -2.3685
10.8974 49.4751 -2.8096
10.0979 51.7670 -2.9230
8.9132 52.3984 -2.9438
7.5911 52.2272 -2.9215
6.0110 49.7742 -2.7742
5.1770 53.7445 -2.9866
3.8880 54.0004 -2.9939
2.5958 54.3532 -3.0086
1.2753 54.1028 -2.9919
-0.0312 53.4139 -2.9531
-1.9748 79.8061 -4.4140
-3.8844 79.3836 -4.3954
-4.3889 59.9759 -3.3266
-5.8499 59.9930 -3.3357
-7.0833 58.0812 -3.2394
-8.8322 60.2694 -3.3742
-13.5153 78.8940 -4.4368
-5.1557 26.2667 -1.4848
-5.7718 26.0591 -1.4817
-6.3278 25.6215 -1.4664
-6.8436 25.0903 -1.4465
-8.4525 28.2802 -1.6434
-8.5918 26.4043 -1.5478
-8.3508 23.7020 -1.4025
-8.8445 23.2925 -1.3924
-9.2783 22.7625 -1.3756
-11.3513 26.0311 -1.5916
-7.9719 17.1393 -1.0611
-8.5265 17.2307 -1.0809
-9.1022 17.3282 -1.1024
-9.5894 17.2314 -1.1126
-10.0472 17.0703 -1.1197
-10.5116 16.9112 -1.1277
-10.9834 16.7537 -1.1368
-11.4123 16.5232 -1.1419
-8.0763 11.1094 -0.7827
-8.5210 11.1449 -0.8012
-8.9769 11.1712 -0.8203
-9.4531 11.1987 -0.8408
-9.9516 11.2275 -0.8629
-10.4650 11.2473 -0.8857
-24.2520 24.8340 -2.0062
-26.3980 25.7565 -2.1371
-26.1100 24.2723 -2.0711
-19.6567 17.4073 -1.5294
-16.0233 13.5135 -1.2243
-16.9248 13.5879 -1.2712
-17.4930 13.3622 -1.2929
-14.8461 10.7825 -1.0807
-14.8626 10.2554 -1.0666
-14.8792 9.7449 -1.0537
-14.8961 9.2496 -1.0418
-14.9131 8.7682 -1.0310
-14.9304 8.2997 -1.0211
-14.9479 7.8429 -1.0121
-14.9656 7.3968 -1.0040
-14.9836 6.9605 -0.9967
-15.0018 6.5331 -0.9902
-15.0204 6.1138 -0.9845
-15.0392 5.7020 -0.9795
-15.0584 5.2968 -0.9753
-15.0779 4.8977 -0.9717
-15.0978 4.5039 -0.9688
-15.1180 4.1150 -0.9665
-15.1386 3.7302 -0.9649
-15.1596 3.3490 -0.9639
-15.1811 2.9710 -0.9636
-15.2030 2.5956 -0.9638
-15.2254 2.2223 -0.9647
-15.2483 1.8506 -0.9662
-15.2717 1.4800 -0.9683
-15.2957 1.1100 -0.9710
-15.3203 0.7402 -0.9743
-15.3455 0.3701 -0.9782
-15.3714 -0.0008 -0.9827
-6.3182 -0.1530 -0.4053
-15.4252 -0.7469 -0.9937
-15.4533 -1.1231 -1.0001
-15.4822 -1.5021 -1.0072
-15.5120 -1.8843 -1.0150
-15.5426 -2.2704 -1.0235
-15.5743 -2.6609 -1.0327
-15.6070 -3.0563 -1.0427
-15.6407 -3.4574 -1.0535
-23.4413 -5.7793 -1.5927
-23.4967 -6.3990 -1.6113
-42.7985 -12.7744 -2.9641
-42.9426 -13.9562 -3.0054
-43.0931 -15.1660 -3.0495
-43.2663 -16.4125 -3.0979
-80.6759 -42.3525 -6.1849
-76.5712 -42.5895 -5.9632
-75.0575 -44.1560 -5.9421
-75.2059 -46.7262 -6.0570
-75.3594 -49.3853 -6.1793
-72.9962 -53.0507 -6.2190
-69.2790 -52.9548 -6.0239
-65.8089 -52.8706 -5.8452
-64.0966 -54.1034 -4.8878
-67.5112 -59.8391 -5.2709
-41.6229 -38.7292 -3.3304
-39.8458 -38.9145 -3.2707
-38.8572 -39.8290 -3.2756
-38.0200 -40.9040 -3.2952
-37.4435 -42.2892 -3.3406
-35.4069 -41.9919 -3.2558
-33.6129 -41.8779 -3.1899
-33.5746 -43.9664 -3.2931
-34.8435 -47.9901 -3.5375
-38.2336 -55.4297 -4.0244
-37.9902 -58.0296 -4.1531
-32.3439 -52.1120 -3.6791
-28.9756 -49.3065 -3.4366
-27.9903 -50.3798 -3.4689
-26.5589 -50.6501 -3.4477
-25.9997 -52.6399 -3.5447
-20.7890 -44.7853 -2.9853
-19.3924 -44.5673 -2.9426
-17.8892 -43.9900 -2.8788
-16.9323 -44.7045 -2.9014
-15.8525 -45.1176 -2.9057
-15.0535 -46.4009 -2.9671
-13.1798 -44.2420 -2.8105
-11.9560 -43.9941 -2.7780
-11.0079 -44.7539 -2.8106
-11.0233 -49.9987 -3.1246
-12.3620 -63.3147 -3.9395
-10.8849 -63.9304 -3.9625
-8.2513 -85.5876 -5.2600
3.1008 -63.2877 -3.8769
3.7593 -51.3113 -3.1471
3.9967 -40.9417 -2.5155
4.6907 -38.4204 -2.3659
4.3815 -29.8658 -1.8441
4.8067 -28.0279 -1.7363
5.1894 -26.4097 -1.6423
5.5333 -24.9552 -1.5585
5.8445 -23.6392 -1.4835
6.1277 -22.4416 -1.4160
6.3868 -21.3458 -1.3549
6.6251 -20.3382 -1.2993
6.8452 -19.4075 -1.2487
6.2882 -16.5423 -1.0725
6.5527 -16.0580 -1.0497
6.8861 -15.7739 -1.0403
7.2672 -15.6067 -1.0390
7.7291 -15.6014 -1.0492
7.8072 -14.8458 -1.0092
7.9020 -14.1828 -0.9752
7.8900 -13.3894 -0.9318
7.9721 -12.8103 -0.9030
8.0158 -12.2121 -0.8726
6.6426 -9.6057 -0.6963
6.7500 -9.2735 -0.6824
6.6952 -8.7458 -0.6539
6.8658 -8.5330 -0.6488
6.9817 -8.2601 -0.6393
7.2804 -8.2028 -0.6468
7.5072 -8.0573 -0.6479
7.6476 -7.8201 -0.6419
7.8645 -7.6623 -0.6428
8.1300 -7.5467 -0.6477
8.1826 -7.2353 -0.6361
8.1379 -6.8525 -0.6179
8.1617 -6.5420 -0.6058
8.1925 -6.2476 -0.5950
8.2220 -5.9614 -0.5848
8.2504 -5.6829 -0.5752
8.2777 -5.4114 -0.5661
8.3032 -5.1461 -0.5575
8.3185 -4.8813 -0.5487
8.3334 -4.6230 -0.5404
8.3480 -4.3706 -0.5326
8.3622 -4.1238 -0.5253
8.3762 -3.8819 -0.5184
8.3899 -3.6446 -0.5119
8.4033 -3.4114 -0.5058
8.4166 -3.1821 -0.5001
8.4296 -2.9563 -0.4948
8.4425 -2.7335 -0.4898
8.4552 -2.5136 -0.4851
8.4677 -2.2961 -0.4808
8.4802 -2.0809 -0.4767
8.4925 -1.8675 -0.4730
8.5047 -1.6558 -0.4696
8.5168 -1.4455 -0.4664
8.5289 -1.2363 -0.4635
8.5409 -1.0280 -0.4609
8.5529 -0.8204 -0.4586
8.5649 -0.6131 -0.4566
8.5768 -0.4059 -0.4548
8.5888 -0.1987 -0.4533
8.6008 0.0089 -0.4520
8.6128 0.2171 -0.4510
8.6249 0.4262 -0.4503
8.6370 0.6363 -0.4498
8.6492 0.8477 -0.4496
8.6615 1.0608 -0.4497
8.3779 1.2322 -0.4346
8.3901 1.4418 -0.4352
8.4023 1.6539 -0.4361
8.6684 1.9249 -0.4504
8.6813 2.1491 -0.4518
8.9926 2.4582 -0.4692
9.0065 2.6975 -0.4713
9.0205 2.9410 -0.4737
9.0348 3.1891 -0.4766
9.0495 3.4423 -0.4797
9.0644 3.7011 -0.4832
9.0797 3.9659 -0.4872
9.0954 4.2372 -0.4915
9.1114 4.5158 -0.4962
9.1280 4.8020 -0.5014
9.1450 5.0968 -0.5071
9.1625 5.4007 -0.5133
9.1660 5.7055 -0.5192
9.1758 6.0239 -0.5259
9.1854 6.3530 -0.5332
9.1950 6.6937 -0.5411
9.2045 7.0470 -0.5497
9.2139 7.4140 -0.5589
9.3048 7.8649 -0.5738
9.2622 8.2206 -0.5814
9.3058 8.6701 -0.5952
9.3524 9.1454 -0.6102
9.4024 9.6495 -0.6266
9.4377 10.1657 -0.6432
9.4689 10.7069 -0.6608
9.2381 10.9688 -0.6611
9.2225 11.5031 -0.6778
9.5767 12.5546 -0.7239
9.6467 13.3009 -0.7513
9.6992 14.0765 -0.7797
9.7089 14.8458 -0.8071
9.8757 15.9279 -0.8507
9.8660 16.8057 -0.8825
9.8795 17.7998 -0.9199
10.0795 19.2414 -0.9795
10.0247 20.3161 -1.0195
9.7741 21.0764 -1.0435
10.2920 23.6753 -1.1574
10.4530 25.7282 -1.2429
10.4442 27.6003 -1.3186
10.5930 30.1759 -1.4269
10.8721 33.5424 -1.5710
9.9985 33.5928 -1.5595
9.8945 36.4405 -1.6781
10.2586 41.7439 -1.9083
10.8971 49.4691 -2.2465
9.8216 50.3460 -2.2729
8.6356 50.7617 -2.2799
7.6047 52.3159 -2.3392
6.3704 52.7457 -2.3496
5.0957 52.8958 -2.3491
3.8453 53.4037 -2.3660
2.5420 53.2229 -2.3541
1.2481 52.9450 -2.3396
-0.0320 54.5610 -2.4104
-1.9356 78.2137 -3.4568
-3.8236 78.1316 -3.4570
-5.7088 78.0039 -3.4577
-5.6819 58.2635 -2.5892
-6.9751 57.1885 -2.5496
-8.8094 60.1076 -2.6903
-11.2923 65.9101 -2.9637
-6.3100 32.1444 -1.4532
-5.5786 25.1842 -1.1454
-8.0827 32.7238 -1.4985
-7.8035 28.6068 -1.3198
-7.0826 23.6943 -1.1022
-8.1006 24.8922 -1.1684
-8.9637 25.4392 -1.2057
-9.7145 25.5810 -1.2252
-10.3447 25.3761 -1.2291
-11.0113 25.2487 -1.2378
-11.5524 24.8345 -1.2332
-8.1481 16.4643 -0.8288
-8.6171 16.4030 -0.8377
-9.0418 16.2456 -0.8424
-9.4711 16.0896 -0.8479
-9.9058 15.9348 -0.8542
-10.3468 15.7808 -0.8612
-10.7949 15.6275 -0.8690
-8.0773 11.1094 -0.6301
-8.5221 11.1449 -0.6454
-8.9780 11.1713 -0.6611
-9.4543 11.1988 -0.6780
-9.9530 11.2276 -0.6962
-10.4665 11.2474 -0.7151
-23.4542 24.0139 -1.5671
-25.4287 24.8073 -1.6637
-26.7949 24.9055 -1.7188
-38.7213 34.2852 -2.4379
-17.2512 14.5469 -1.0673
-16.1941 12.9993 -0.9855
-14.6214 11.1669 -0.8761
-14.6409 10.6318 -0.8646
-14.6604 10.1142 -0.8541
-14.6798 9.6126 -0.8445
-14.6992 9.1257 -0.8357
-14.7187 8.6523 -0.8277
-14.7381 8.1912 -0.8205
-14.7576 7.7415 -0.8140
-14.7772 7.3021 -0.8081
-14.7969 6.8722 -0.8029
-14.8167 6.4509 -0.7984
-14.8366 6.0375 -0.7944
-14.8567 5.6313 -0.7910
-14.8770 5.2315 -0.7882
-14.8975 4.8376 -0.7859
-14.9182 4.4489 -0.7842
-14.9392 4.0648 -0.7830
-14.9604 3.6848 -0.7823
-14.9820 3.3083 -0.7821
-15.0038 2.9349 -0.7824
-15.0260 2.5640 -0.7832
-15.0485 2.1950 -0.7844
-15.0714 1.8277 -0.7862
-15.0948 1.4614 -0.7884
-15.1186 1.0957 -0.7912
-15.1428 0.7302 -0.7944
-15.1676 0.3644 -0.7981
-15.1930 -0.0022 -0.8024
-6.3177 -0.1536 -0.3350
-15.2454 -0.7396 -0.8124
-15.2725 -1.1114 -0.8181
-15.3004 -1.4859 -0.8245
-15.3290 -1.8635 -0.8313
-15.3583 -2.2449 -0.8388
-15.3885 -2.6306 -0.8468
-15.4196 -3.0211 -0.8555
-15.4516 -3.4171 -0.8648
-15.4847 -3.8191 -0.8747
-23.1977 -6.3199 -1.3234
-41.8865 -12.5063 -2.4148
-42.0176 -13.6597 -2.4493
-42.1542 -14.8398 -2.4861
-42.3273 -16.0606 -2.5272
-42.5079 -17.3155 -2.5710
-89.9590 -39.2056 -5.5151
-90.2720 -41.9664 -5.6134
-86.6076 -42.8381 -5.4662
-80.6613 -42.3533 -5.1706
-76.6731 -42.6544 -4.9953
-75.0548 -44.1626 -4.9736
-69.0746 -42.9243 -4.6587
-65.7793 -43.1146 -4.5190
-62.6921 -43.2928 -4.3904
-24.2079 -17.5961 -1.7296
-62.6554 -47.8993 -4.5708
-62.8035 -50.4636 -4.6821
-64.2073 -54.2047 -3.9628
-67.5117 -59.8479 -4.2687
-41.8934 -38.9862 -2.7163
-40.5432 -39.6009 -2.6983
-38.7414 -39.7155 -2.6495
-38.1659 -41.0662 -2.6851
-36.8696 -41.6462 -2.6715
-36.3336 -43.0962 -2.7148
-33.7601 -42.0662 -2.6047
-33.5807 -43.9796 -2.6790
-39.0738 -53.8226 -3.2281
-37.6763 -54.6278 -3.2285
-36.3088 -55.4675 -3.2328
-32.3009 -52.0483 -2.9937
-30.1273 -51.2719 -2.9125
-28.4162 -51.1517 -2.8716
-26.9204 -51.3448 -2.8506
-25.5182 -51.6703 -2.8388
-24.4796 -52.7413 -2.8693
-20.6237 -47.4018 -2.5551
-19.0456 -46.8381 -2.5031
-17.0050 -44.9009 -2.3804
-16.0719 -45.7463 -2.4072
-16.5277 -50.9500 -2.6626
-13.0122 -43.6835 -2.2684
-11.9614 -44.0182 -2.2725
-11.2977 -45.9365 -2.3591
-11.0121 -49.9527 -2.5531
-12.0148 -61.5421 -3.1322
-11.0833 -65.1019 -3.3010
-12.9953 -89.3349 -4.5151
3.1042 -63.3656 -3.1765
3.7589 -51.3127 -2.5753
3.9965 -40.9435 -2.0583
4.6266 -37.8994 -1.9093
4.3812 -29.8671 -1.5087
4.8064 -28.0291 -1.4203
5.1891 -26.4110 -1.3432
5.4363 -24.5203 -1.2522
5.7421 -23.2273 -1.1917
6.1274 -22.4428 -1.1575
6.3866 -21.3470 -1.1073
6.6248 -20.3394 -1.0616
6.8449 -19.4088 -1.0200
6.2875 -16.5422 -0.8758
6.5522 -16.0584 -0.8569
6.9409 -15.9011 -0.8558
7.2666 -15.6070 -0.8477
7.7283 -15.6015 -0.8557
7.8072 -14.8472 -0.8228
7.9146 -14.2069 -0.7961
7.8891 -13.3893 -0.7590
7.9712 -12.8102 -0.7353
8.0286 -12.2330 -0.7115
6.6428 -9.6070 -0.5665
6.7748 -9.3087 -0.5571
6.6950 -8.7466 -0.5316
6.8654 -8.5337 -0.5271
6.9812 -8.2606 -0.5191
7.2798 -8.2032 -0.5249
7.5066 -8.0577 -0.5255
7.6468 -7.8204 -0.5204
7.8644 -7.6633 -0.5208
8.1288 -7.5466 -0.5244
8.1825 -7.2363 -0.5147
8.2015 -6.9071 -0.5036
8.2199 -6.5897 -0.4931
8.2376 -6.2830 -0.4832
8.2547 -5.9861 -0.4739
8.2713 -5.6983 -0.4651
8.2875 -5.4188 -0.4568
8.3032 -5.1470 -0.4490
8.3184 -4.8822 -0.4416
8.3334 -4.6239 -0.4346
8.3479 -4.3715 -0.4280
8.3622 -4.1246 -0.4217
8.3761 -3.8827 -0.4159
8.3898 -3.6454 -0.4103
8.4033 -3.4123 -0.4051
8.4165 -3.1830 -0.4002
8.4296 -2.9571 -0.3956
8.4424 -2.7343 -0.3912
8.4551 -2.5144 -0.3871
8.4677 -2.2969 -0.3833
8.4801 -2.0817 -0.3797
8.4924 -1.8683 -0.3764
8.5046 -1.6566 -0.3733
8.5168 -1.4463 -0.3705
8.5289 -1.2371 -0.3678
8.5409 -1.0288 -0.3654
8.5529 -0.8212 -0.3632
8.5648 -0.6139 -0.3612
8.5768 -0.4067 -0.3594
8.5888 -0.1995 -0.3579
8.6008 0.0081 -0.3565
8.6128 0.2163 -0.3553
8.6248 0.4253 -0.3544
8.6370 0.6355 -0.3536
8.6492 0.8469 -0.3531
8.6615 1.0599 -0.3528
8.3779 1.2314 -0.3406
8.3900 1.4410 -0.3407
8.4022 1.6531 -0.3410
8.6683 1.9241 -0.3518
8.6813 2.1483 -0.3525
8.9926 2.4573 -0.3656
9.0064 2.6966 -0.3669
9.0205 2.9401 -0.3684
9.0348 3.1882 -0.3702
9.0494 3.4414 -0.3722
9.0643 3.7001 -0.3745
9.0796 3.9649 -0.3771
9.0953 4.2363 -0.3801
9.1114 4.5148 -0.3833
9.1279 4.8011 -0.3869
9.1449 5.0958 -0.3909
9.1625 5.3997 -0.3952
9.1806 5.7136 -0.3999
9.1994 6.0384 -0.4051
9.2188 6.3750 -0.4107
9.2390 6.7246 -0.4168
9.2600 7.0884 -0.4235
9.2819 7.4675 -0.4307
9.3047 7.8637 -0.4386
9.3287 8.2784 -0.4471
9.3538 8.7136 -0.4563
9.3802 9.1714 -0.4664
9.4081 9.6540 -0.4773
9.4376 10.1644 -0.4892
9.4688 10.7055 -0.5021
9.2391 10.9687 -0.5019
9.2224 11.5016 -0.5141
9.5766 12.5530 -0.5486
9.6057 13.2428 -0.5665
9.6233 13.9649 -0.5853
9.7088 14.8440 -0.6101
9.6897 15.6263 -0.6305
9.7891 16.6728 -0.6610
9.8793 17.7977 -0.6939
9.9694 19.0291 -0.7303
10.0246 20.3137 -0.7680
9.7740 21.0740 -0.7856
10.2930 23.6753 -0.8709
10.4529 25.7253 -0.9346
10.4441 27.5971 -0.9910
10.5928 30.1725 -1.0718
10.8731 33.5423 -1.1797
9.9994 33.5928 -1.1706
9.8942 36.4361 -1.2589
10.2591 41.7422 -1.4312
10.8967 49.4630 -1.6842
10.3292 52.9432 -1.7916
8.9946 52.8676 -1.7793
7.7364 53.2173 -1.7827
6.0165 49.8112 -1.6620
4.9459 51.3370 -1.7075
3.6234 50.3172 -1.6694
2.6527 55.5356 -1.8394
1.3159 55.8199 -1.8470
-0.0319 54.2825 -1.7956
-1.8847 76.1455 -2.5200
-3.4290 70.0604 -2.3215
-4.9811 68.0535 -2.2593
-6.5171 66.8212 -2.2244
-8.0381 65.8970 -2.2011
-8.7867 59.9469 -2.0107
-11.0364 64.4103 -2.1710
-6.0562 30.8482 -1.0457
-6.6045 29.8122 -1.0170
-7.1237 28.8382 -0.9909
-9.0099 33.0260 -1.1438
-8.2501 27.5972 -0.9641
-8.7268 26.8138 -0.9456
-9.2706 26.3073 -0.9373
-9.7312 25.6225 -0.9230
-10.5813 25.9537 -0.9461
-11.4071 26.1534 -0.9655
-12.0280 25.8541 -0.9674
-11.3105 22.8516 -0.8673
-13.9408 26.5336 -1.0224
-14.3619 25.8014 -1.0103
-15.9064 27.0189 -1.0759
-14.6449 23.5555 -0.9549
-17.8121 27.1634 -1.1219
-18.5314 26.8241 -1.1299
-8.0783 11.1095 -0.4777
-8.5232 11.1450 -0.4897
-8.9792 11.1713 -0.5021
-9.4556 11.1988 -0.5154
-9.9543 11.2276 -0.5297
-10.4679 11.2475 -0.5446
-22.5036 23.0375 -1.1460
-35.4235 34.5531 -1.7682
-37.6890 35.0265 -1.8463
-37.1325 32.8738 -1.7872
-32.5397 27.4345 -1.5405
-14.4209 11.5741 -0.6722
-14.4561 11.0389 -0.6642
-14.4899 10.5204 -0.6569
-14.5225 10.0174 -0.6502
-14.5539 9.5285 -0.6441
-14.5843 9.0527 -0.6386
-14.6137 8.5890 -0.6336
-14.6422 8.1363 -0.6291
-14.6699 7.6939 -0.6252
-14.6967 7.2608 -0.6217
-14.7228 6.8362 -0.6186
-14.7483 6.4196 -0.6161
-14.7907 6.0173 -0.6146
-14.8141 5.6137 -0.6128
-14.8371 5.2160 -0.6114
-14.8598 4.8239 -0.6104
-14.8822 4.4367 -0.6098
-14.9043 4.0539 -0.6096
-14.9262 3.6749 -0.6098
-14.9479 3.2994 -0.6103
-14.9693 2.9267 -0.6112
-14.9906 2.5565 -0.6124
-15.0118 2.1883 -0.6140
-15.0144 1.8193 -0.6153
-15.0344 1.4541 -0.6175
-15.0541 1.0896 -0.6202
-15.0737 0.7255 -0.6232
-15.0932 0.3612 -0.6266
-15.1125 -0.0036 -0.6303
-6.3171 -0.1542 -0.2648
-15.1507 -0.7364 -0.6389
-15.1697 -1.1053 -0.6437
-15.1886 -1.4764 -0.6490
-15.2075 -1.8502 -0.6546
-15.2264 -2.2271 -0.6607
-15.2453 -2.6076 -0.6672
-15.2642 -2.9921 -0.6741
-15.2831 -3.3813 -0.6815
-15.3021 -3.7756 -0.6893
-22.9065 -6.2428 -1.0431
-41.0135 -12.2496 -1.8890
-41.1327 -13.3761 -1.9173
-41.2710 -14.5329 -1.9480
-41.4293 -15.7240 -1.9814
-41.5938 -16.9474 -2.0168
-28.4619 -12.4070 -1.4000
-86.6081 -42.8474 -4.3929
-80.6466 -42.3542 -4.1578
-76.6598 -42.6552 -4.0200
-75.0422 -44.1633 -4.0055
-69.0634 -42.9250 -3.7547
-65.7690 -43.1151 -3.6447
-62.8490 -43.4083 -3.5529
-24.2067 -17.5981 -1.3970
-62.7240 -47.9591 -3.6987
-62.9279 -50.5711 -3.7946
-64.0953 -54.1179 -3.0250
-67.5122 -59.8567 -3.2674
-67.9889 -63.2794 -3.3775
-42.6795 -41.6931 -2.1784
-67.3198 -69.0213 -3.5339
-38.3129 -41.2295 -2.0708
-37.8689 -42.7803 -2.1098
-36.2940 -43.0544 -2.0869
-34.7928 -43.3581 -2.0674
-40.8193 -53.4659 -2.5099
-39.2448 -54.0642 -2.5008
-38.4666 -55.7800 -2.5443
-37.1763 -56.7990 -2.5566
-34.7299 -55.9683 -2.4878
-30.1797 -51.3665 -2.2563
-29.3214 -52.7868 -2.2929
-29.7142 -56.6792 -2.4362
-25.8038 -52.2539 -2.2238
-24.4617 -52.7080 -2.2223
-20.6612 -47.4927 -1.9850
-18.9320 -46.5633 -1.9303
-17.0783 -45.0987 -1.8554
-16.2069 -46.1349 -1.8847
-16.5424 -51.0002 -2.0699
-13.8550 -46.5170 -1.8766
-12.4643 -45.8732 -1.8405
-14.2119 -57.7910 -2.3070
-12.7358 -57.7767 -2.2961
-12.5627 -64.3540 -2.5472
-13.4369 -78.9330 -3.1132
-12.7938 -87.9574 -3.4585
3.1039 -63.3670 -2.4721
3.7586 -51.3141 -2.0041
4.0155 -41.1435 -1.6093
4.6794 -38.3359 -1.5025
4.3810 -29.8685 -1.1735
4.8061 -28.0304 -1.1046
5.1888 -26.4122 -1.0444
5.4831 -24.7339 -0.9818
5.7597 -23.3012 -0.9290
6.0705 -22.2365 -0.8909
6.3863 -21.3482 -0.8599
6.5638 -20.1542 -0.8166
6.8446 -19.4100 -0.7915
6.2868 -16.5420 -0.6793
6.5516 -16.0589 -0.6644
6.9403 -15.9015 -0.6632
7.2659 -15.6072 -0.6565
7.7275 -15.6016 -0.6624
7.8071 -14.8487 -0.6366
7.9018 -14.1856 -0.6146
7.8881 -13.3891 -0.5865
7.9703 -12.8102 -0.5678
8.0156 -12.2147 -0.5482
6.6429 -9.6083 -0.4369
6.7748 -9.3097 -0.4293
6.6949 -8.7474 -0.4093
6.8651 -8.5343 -0.4056
6.9807 -8.2610 -0.3990
7.2792 -8.2036 -0.4031
7.5059 -8.0580 -0.4033
7.6461 -7.8207 -0.3989
7.8644 -7.6643 -0.3989
8.1276 -7.5465 -0.4012
8.1825 -7.2373 -0.3935
8.2015 -6.9081 -0.3846
8.2198 -6.5906 -0.3762
8.2375 -6.2839 -0.3682
8.2547 -5.9870 -0.3607
8.2713 -5.6992 -0.3536
8.2874 -5.4197 -0.3469
8.3031 -5.1479 -0.3405
8.3184 -4.8831 -0.3345
8.3333 -4.6247 -0.3288
8.3479 -4.3724 -0.3234
8.3621 -4.1255 -0.3183
8.3761 -3.8836 -0.3134
8.3898 -3.6463 -0.3088
8.4032 -3.4131 -0.3045
8.4165 -3.1838 -0.3003
8.4295 -2.9579 -0.2964
8.4424 -2.7352 -0.2927
8.4551 -2.5152 -0.2892
8.4676 -2.2977 -0.2859
8.4801 -2.0825 -0.2828
8.4924 -1.8691 -0.2799
8.5046 -1.6574 -0.2772
8.5167 -1.4471 -0.2746
8.5288 -1.2380 -0.2722
8.5408 -1.0296 -0.2699
8.5528 -0.8220 -0.2679
8.5648 -0.6147 -0.2659
8.5768 -0.4075 -0.2642
8.5887 -0.2003 -0.2625
8.6007 0.0073 -0.2611
8.6127 0.2155 -0.2597
8.6248 0.4245 -0.2586
8.6369 0.6346 -0.2575
8.6491 0.8461 -0.2567
8.6614 1.0591 -0.2559
8.3779 1.2306 -0.2467
8.3900 1.4402 -0.2462
8.4022 1.6523 -0.2460
8.6683 1.9232 -0.2533
8.6812 2.1474 -0.2533
8.9925 2.4564 -0.2622
9.0064 2.6957 -0.2626
9.0204 2.9392 -0.2631
9.0347 3.1873 -0.2639
9.0494 3.4405 -0.2648
9.0643 3.6992 -0.2659
9.0796 3.9640 -0.2672
9.0952 4.2353 -0.2688
9.1113 4.5138 -0.2705
9.1279 4.8001 -0.2725
9.1449 5.0948 -0.2747
9.1624 5.3986 -0.2772
9.1805 5.7125 -0.2800
9.1993 6.0373 -0.2830
9.2187 6.3739 -0.2864
9.2389 6.7235 -0.2901
9.2599 7.0872 -0.2941
9.2818 7.4664 -0.2986
9.3047 7.8625 -0.3034
9.3286 8.2772 -0.3087
9.3537 8.7124 -0.3145
9.3802 9.1701 -0.3208
9.4080 9.6527 -0.3277
9.4375 10.1630 -0.3353
9.4687 10.7040 -0.3436
9.2402 10.9686 -0.3429
9.2223 11.5002 -0.3505
9.5765 12.5515 -0.3735
9.6172 13.2571 -0.3855
9.6611 14.0182 -0.3987
9.7087 14.8423 -0.4134
9.7605 15.7387 -0.4297
9.8170 16.7187 -0.4478
9.8792 17.7956 -0.4681
9.9480 18.9863 -0.4909
10.0244 20.3114 -0.5167
9.7738 21.0715 -0.5279
10.1289 23.2955 -0.5752
10.2962 25.3373 -0.6172
10.4439 27.5939 -0.6637
10.5926 30.1690 -0.7171
10.8741 33.5423 -0.7886
10.0003 33.5927 -0.7819
9.8940 36.4319 -0.8401
10.2597 41.7406 -0.9545
10.8964 49.4570 -1.1223
10.1110 51.8202 -1.1680
8.9616 52.6690 -1.1801
7.6366 52.5265 -1.1709
6.1912 51.2533 -1.1376
4.9057 50.9154 -1.1262
3.8896 54.0107 -1.1914
2.5944 54.3123 -1.1959
1.2709 53.9112 -1.1858
-0.0315 53.5238 -1.1770
-1.4098 56.9500 -1.2530
-3.3317 68.0638 -1.4996
-4.8793 66.6547 -1.4717
-6.3917 65.5284 -1.4512
-7.8837 64.6241 -1.4366
-9.3564 63.8267 -1.4255
-5.0259 29.3290 -0.6586
-5.7609 29.3409 -0.6630
-6.4651 29.1803 -0.6640
-7.0827 28.6695 -0.6576
-7.6866 28.1723 -0.6518
-8.0590 26.9553 -0.6297
-8.5628 26.3072 -0.6209
-8.8663 25.1576 -0.6005
-10.4928 27.6248 -0.6674
-10.1745 24.9534 -0.6108
-11.1279 25.5106 -0.6331
-11.9429 25.6685 -0.6465
-15.4346 31.1805 -0.7976
-16.0989 30.6377 -0.7968
-16.7407 30.0715 -0.7958
-17.2477 29.2939 -0.7896
-15.7163 25.2757 -0.6945
-17.1977 26.2235 -0.7353
-18.1475 26.2653 -0.7523
-8.0793 11.1096 -0.3254
-8.5243 11.1451 -0.3341
-8.9804 11.1714 -0.3431
-9.4568 11.1989 -0.3529
-9.9556 11.2277 -0.3633
-10.4694 11.2476 -0.3742
-26.1574 26.7744 -0.9168
-32.4114 31.6107 -1.1156
-38.0817 35.3864 -1.2888
-66.4373 58.8091 -2.2133
-40.3916 34.0494 -1.3261
-14.4755 11.6161 -0.4689
-14.5069 11.0760 -0.4641
-14.5374 10.5532 -0.4598
-14.5668 10.0463 -0.4559
-14.5955 9.5541 -0.4524
-14.6233 9.0753 -0.4493
-14.6504 8.6089 -0.4467
-14.6768 8.1539 -0.4444
-14.7025 7.7094 -0.4424
-14.7277 7.2745 -0.4408
-14.7524 6.8484 -0.4394
-14.7766 6.4304 -0.4384
-14.8003 6.0197 -0.4377
-14.8237 5.6158 -0.4373
-14.8467 5.2179 -0.4372
-14.8693 4.8255 -0.4374
-14.8917 4.4380 -0.4378
-14.9137 4.0550 -0.4385
-14.9356 3.6758 -0.4395
-14.9572 3.3000 -0.4407
-14.9787 2.9271 -0.4422
-14.9999 2.5566 -0.4440
-15.0211 2.1882 -0.4460
-15.0422 1.8213 -0.4483
-15.0631 1.4555 -0.4508
-15.0841 1.0904 -0.4536
-15.1050 0.7256 -0.4567
-15.1258 0.3606 -0.4600
-15.1468 -0.0050 -0.4636
-6.3166 -0.1548 -0.1947
-15.1887 -0.7397 -0.4717
-15.2098 -1.1097 -0.4762
-15.2311 -1.4820 -0.4810
-15.2524 -1.8571 -0.4861
-15.2740 -2.2355 -0.4915
-15.2957 -2.6177 -0.4972
-15.3177 -3.0041 -0.5033
-15.3399 -3.3954 -0.5097
-15.3624 -3.7919 -0.5165
-22.6228 -6.1676 -0.7700
-40.1768 -12.0037 -1.3852
-40.2851 -13.1045 -1.4077
-40.4249 -14.2390 -1.4325
-40.5694 -15.4017 -1.4587
-40.7190 -16.5951 -1.4864
-40.8741 -17.8219 -1.5158
-90.6058 -42.1403 -3.4154
-86.6086 -42.8567 -3.3206
-80.6320 -42.3550 -3.1463
-76.5312 -42.5918 -3.0413
-75.0590 -44.1813 -3.0397
-69.0522 -42.9256 -2.8518
-65.7587 -43.1157 -2.7715
-62.8395 -43.4088 -2.7048
-62.6377 -45.5442 -2.7556
-28.1046 -21.4922 -1.2646
-62.9283 -50.5789 -2.8987
-64.0947 -54.1252 -2.0946
-67.5127 -59.8656 -2.2668
-67.9343 -63.2372 -2.3455
-42.7381 -41.7558 -1.5187
-67.4089 -69.1216 -2.4679
-38.3820 -41.3090 -1.4492
-37.7155 -42.6123 -1.4702
-35.6185 -44.3924 -1.4853
-42.5803 -55.7789 -1.8400
-43.5523 -60.0052 -1.9530
-38.7931 -56.2598 -1.8080
-37.1118 -56.7067 -1.8006
-36.2581 -58.4374 -1.8346
-40.3219 -68.6361 -2.1318
-27.5780 -49.6532 -1.5267
-29.7303 -56.7157 -1.7273
-27.2805 -55.2498 -1.6677
-25.5137 -54.9804 -1.6457
-24.3235 -55.9165 -1.6606
-23.2142 -57.1009 -1.6833
-25.2975 -66.8097 -1.9561
-16.1378 -45.9428 -1.3366
-16.5572 -51.0504 -1.4765
-13.8496 -46.5035 -1.3377
-12.7726 -47.0119 -1.3457
-14.8823 -60.5227 -1.7247
-13.5114 -61.3011 -1.7398
-14.5279 -74.4275 -2.1047
-15.2334 -89.4941 -2.5227
-12.8069 -88.0552 -2.4752
2.4749 -99.9071 -2.7865
3.0974 -63.2420 -1.7648
3.7498 -51.1990 -1.4300
4.0152 -41.1448 -1.1507
4.6791 -38.3373 -1.0741
4.3807 -29.8698 -0.8387
4.7620 -27.7757 -0.7819
5.1414 -26.1736 -0.7390
5.5063 -24.8409 -0.7038
5.7811 -23.3900 -0.6652
6.1330 -22.4680 -0.6418
6.3860 -21.3495 -0.6127
6.6309 -20.3624 -0.5875
6.8443 -19.4112 -0.5632
6.2861 -16.5418 -0.4829
6.5511 -16.0593 -0.4720
6.9398 -15.9018 -0.4707
7.2653 -15.6075 -0.4656
7.7267 -15.6017 -0.4692
7.8070 -14.8502 -0.4506
7.9017 -14.1870 -0.4345
7.8871 -13.3890 -0.4141
7.9694 -12.8102 -0.4004
8.0155 -12.2160 -0.3861
6.6430 -9.6096 -0.3074
6.7747 -9.3107 -0.3016
6.6947 -8.7482 -0.2871
6.8647 -8.5349 -0.2841
6.9802 -8.2614 -0.2791
7.2786 -8.2039 -0.2815
7.5053 -8.0584 -0.2811
7.6454 -7.8211 -0.2776
7.8643 -7.6653 -0.2771
8.1264 -7.5465 -0.2782
8.1824 -7.2383 -0.2724
8.2014 -6.9091 -0.2657
8.2198 -6.5916 -0.2593
8.2375 -6.2848 -0.2533
8.2546 -5.9879 -0.2476
8.2712 -5.7001 -0.2422
8.2874 -5.4206 -0.2371
8.3031 -5.1487 -0.2322
8.3183 -4.8840 -0.2275
8.3333 -4.6256 -0.2231
8.3478 -4.3732 -0.2189
8.3621 -4.1263 -0.2149
8.3760 -3.8844 -0.2110
8.3897 -3.6471 -0.2074
8.1165 -3.2975 -0.1969
8.1292 -3.0760 -0.1937
8.1418 -2.8578 -0.1906
8.1543 -2.6426 -0.1877
8.1665 -2.4302 -0.1849
8.1786 -2.2201 -0.1822
8.1907 -2.0122 -0.1797
8.2026 -1.8061 -0.1772
8.2144 -1.6017 -0.1749
8.2261 -1.3985 -0.1727
8.2377 -1.1965 -0.1706
8.2494 -0.9953 -0.1686
8.2609 -0.7947 -0.1667
8.2725 -0.5945 -0.1649
8.2840 -0.3944 -0.1632
8.2956 -0.1942 -0.1616
8.3072 0.0063 -0.1600
8.3188 0.2074 -0.1586
8.3304 0.4092 -0.1573
8.3422 0.6122 -0.1560
8.3539 0.8164 -0.1548
8.3658 1.0222 -0.1538
8.3778 1.2298 -0.1528
8.3899 1.4394 -0.1519
8.4022 1.6514 -0.1510
8.6682 1.9224 -0.1548
8.6812 2.1466 -0.1542
8.9925 2.4556 -0.1588
9.0063 2.6948 -0.1583
9.0204 2.9383 -0.1579
9.0347 3.1864 -0.1576
9.0493 3.4395 -0.1574
9.0642 3.6983 -0.1574
9.0795 3.9630 -0.1574
9.0952 4.2343 -0.1575
9.1113 4.5128 -0.1578
9.1278 4.7991 -0.1581
9.1448 5.0937 -0.1587
9.1624 5.3976 -0.1593
9.1805 5.7115 -0.1601
9.1992 6.0362 -0.1610
9.2187 6.3729 -0.1621
9.2388 6.7224 -0.1634
9.2598 7.0861 -0.1648
9.2817 7.4652 -0.1665
9.3046 7.8613 -0.1684
9.3285 8.2760 -0.1705
9.3537 8.7111 -0.1728
9.3801 9.1688 -0.1754
9.4080 9.6514 -0.1783
9.4374 10.1616 -0.1815
9.4687 10.7026 -0.1851
9.2413 10.9686 -0.1839
9.2222 11.4987 -0.1871
9.2589 12.1338 -0.1919
9.2983 12.8160 -0.1971
9.6610 14.0165 -0.2100
9.7086 14.8405 -0.2168
9.7604 15.7368 -0.2243
9.8169 16.7167 -0.2329
9.8791 17.7936 -0.2424
9.9478 18.9841 -0.2533
10.0243 20.3090 -0.2656
9.7737 21.0691 -0.2704
10.2058 23.4699 -0.2959
10.3163 25.3842 -0.3146
10.4437 27.5908 -0.3366
10.5924 30.1656 -0.3627
10.8751 33.5422 -0.3978
10.0012 33.5927 -0.3933
9.8937 36.4276 -0.4216
10.1820 41.4208 -0.4743
10.8121 49.0700 -0.5566
9.8678 50.5692 -0.5687
8.7829 51.6140 -0.5761
7.6117 52.3507 -0.5806
6.3440 52.5144 -0.5793
5.1022 52.9511 -0.5815
3.8469 53.4128 -0.5847
2.5458 53.2908 -0.5820
1.2503 53.0336 -0.5784
-0.0310 52.4883 -0.5724
-1.3934 56.2789 -0.6142
-3.2660 66.7146 -0.7294
-4.7838 65.3423 -0.7165
-6.2712 64.2863 -0.7077
-7.6501 62.7021 -0.6937
-9.1759 62.5890 -0.6966
-4.8543 28.3244 -0.3175
-5.5245 28.1339 -0.3179
-6.1633 27.8148 -0.3172
-6.7948 27.5010 -0.3168
-7.3976 27.1104 -0.3158
-7.8665 26.3087 -0.3102
-18.1749 55.8319 -0.6670
-12.6632 35.9270 -0.4353
-10.4926 27.6215 -0.3398
-23.3672 57.3028 -0.7166
-13.5939 31.1606 -0.3965
-11.6666 25.0718 -0.3249
-14.2286 28.7412 -0.3797
-15.7912 30.0489 -0.4052
-16.4350 29.5192 -0.4067
-16.9577 28.7981 -0.4058
-17.2882 27.8005 -0.4010
-15.9487 24.3162 -0.3595
-17.1055 24.7543 -0.3755
-8.0803 11.1096 -0.1731
-8.5253 11.1451 -0.1786
-8.9815 11.1715 -0.1843
-9.4581 11.1990 -0.1904
-9.9570 11.2278 -0.1970
-10.4708 11.2476 -0.2038
-25.2424 25.8343 -0.4843
-37.5074 36.5757 -0.7102
-32.1917 29.9092 -0.6023
-39.1237 34.6267 -0.7241
-39.6262 33.3993 -0.7264
-14.4865 11.6232 -0.2633
-14.5178 11.0825 -0.2619
-14.5480 10.5592 -0.2608
-14.5774 10.0519 -0.2599
-14.6059 9.5592 -0.2592
-14.6335 9.0800 -0.2587
-14.6605 8.6133 -0.2585
-14.6868 8.1579 -0.2584
-14.7125 7.7131 -0.2585
-14.7376 7.2778 -0.2588
-14.7622 6.8514 -0.2593
-14.7863 6.4331 -0.2599
-14.8100 6.0221 -0.2608
-14.8333 5.6179 -0.2618
-14.8562 5.2197 -0.2629
-14.8788 4.8271 -0.2642
-14.9011 4.4394 -0.2657
-14.9231 4.0561 -0.2673
-14.9449 3.6766 -0.2691
-14.9665 3.3006 -0.2711
-14.9880 2.9275 -0.2732
-15.0092 2.5568 -0.2754
-15.0304 2.1881 -0.2779
-15.0515 1.8210 -0.2804
-15.0724 1.4549 -0.2832
-15.0934 1.0896 -0.2861
-15.1143 0.7246 -0.2892
-15.1352 0.3594 -0.2924
-15.1561 -0.0065 -0.2959
-6.3160 -0.1554 -0.1246
-15.1981 -0.7416 -0.3033
-15.2193 -1.1118 -0.3073
-15.2406 -1.4844 -0.3115
-15.2620 -1.8597 -0.3159
-15.2836 -2.2384 -0.3205
-15.3054 -2.6208 -0.3253
-15.3275 -3.0075 -0.3304
-15.3498 -3.3990 -0.3357
-15.3724 -3.7959 -0.3412
-21.6478 -5.9039 -0.4880
-21.6803 -6.4795 -0.4966
-39.4856 -12.8483 -0.9193
-39.6133 -13.9571 -0.9380
-39.7450 -15.0927 -0.9576
-39.8808 -16.2575 -0.9783
-40.0211 -17.4541 -1.0000
-40.1663 -18.6853 -1.0228
-86.6092 -42.8660 -2.2490
-76.3730 -40.1258 -2.0234
-75.9510 -42.2771 -2.0543
-75.0594 -44.1897 -2.0739
-69.0410 -42.9263 -1.9498
-65.7485 -43.1163 -1.8992
-62.6636 -43.2944 -1.8526
-62.5147 -45.4621 -1.8930
-62.7249 -47.9745 -1.9468
-62.8048 -50.4872 -1.9994
-61.4368 -51.8882 -1.1164
-67.5132 -59.8744 -1.2666
-67.9256 -63.2377 -1.3165
-67.2098 -65.6738 -1.3468
-67.4094 -69.1311 -1.3977
-41.7962 -60.6218 -1.1318
-40.4133 -68.7990 -1.2522
-41.6146 -74.9335 -1.3537
-37.4803 -71.5076 -1.2827
-43.6999 -88.5122 -1.5772
-30.8765 -70.9882 -1.2498
-26.1242 -68.9998 -1.2022
-17.0098 -48.4298 -0.8399
-16.4272 -60.4690 -1.0362
-18.2242 -74.1198 -1.2659
-13.4990 -61.2502 -1.0429
-14.7968 -75.8116 -1.2874
-15.5480 -91.3505 -1.5476
2.4745 -99.9070 -1.6785
3.0971 -63.2433 -1.0628
3.7245 -50.8595 -0.8552
3.9847 -40.8368 -0.6872
4.6433 -38.0481 -0.6410
4.3804 -29.8712 -0.5040
4.7612 -27.7741 -0.4694
5.1934 -26.4413 -0.4478
5.5060 -24.8421 -0.4217
5.7909 -23.4322 -0.3988
6.1327 -22.4692 -0.3836
6.3857 -21.3507 -0.3657
6.6306 -20.3636 -0.3501
6.8440 -19.4124 -0.3350
6.2854 -16.5417 -0.2867
6.5506 -16.0598 -0.2797
6.9392 -15.9022 -0.2784
7.2647 -15.6078 -0.2747
7.7259 -15.6017 -0.2762
7.8069 -14.8516 -0.2646
7.9017 -14.1884 -0.2545
7.8862 -13.3888 -0.2419
7.9685 -12.8102 -0.2332
8.0155 -12.2173 -0.2242
6.6432 -9.6109 -0.1779
6.7746 -9.3117 -0.1739
6.6945 -8.7490 -0.1650
6.8644 -8.5355 -0.1627
6.9797 -8.2619 -0.1592
7.2780 -8.2043 -0.1599
7.5047 -8.0588 -0.1590
7.6447 -7.8214 -0.1564
7.8643 -7.6663 -0.1554
7.8841 -7.3225 -0.1506
7.9032 -6.9922 -0.1461
7.9215 -6.6743 -0.1418
7.9392 -6.3676 -0.1377
7.9563 -6.0713 -0.1337
7.9729 -5.7845 -0.1300
7.9889 -5.5065 -0.1264
8.0045 -5.2365 -0.1230
8.0197 -4.9739 -0.1197
8.0344 -4.7182 -0.1165
8.0489 -4.4686 -0.1135
8.0629 -4.2249 -0.1105
8.0767 -3.9864 -0.1077
8.0902 -3.7527 -0.1050
8.1034 -3.5235 -0.1024
8.1164 -3.2983 -0.0998
8.1292 -3.0768 -0.0974
8.1418 -2.8586 -0.0950
8.1542 -2.6434 -0.0927
8.1665 -2.4310 -0.0905
8.1786 -2.2209 -0.0883
8.1906 -2.0130 -0.0862
8.2025 -1.8069 -0.0841
8.2143 -1.6025 -0.0822
8.2260 -1.3993 -0.0802
8.2377 -1.1973 -0.0783
8.2493 -0.9961 -0.0765
8.2609 -0.7955 -0.0747
8.2725 -0.5953 -0.0730
8.2840 -0.3952 -0.0713
8.2956 -0.1950 -0.0696
8.3071 0.0055 -0.0680
8.3187 0.2066 -0.0664
8.3304 0.4085 -0.0648
8.3421 0.6114 -0.0633
8.3539 0.8156 -0.0618
8.3658 1.0214 -0.0604
8.3778 1.2290 -0.0589
8.3899 1.4386 -0.0575
8.4021 1.6506 -0.0561
8.6682 1.9215 -0.0564
8.6811 2.1457 -0.0550
8.6943 2.3733 -0.0537
8.7076 2.6046 -0.0524
8.7212 2.8400 -0.0511
8.7351 3.0798 -0.0498
8.7492 3.3246 -0.0485
8.7636 3.5747 -0.0472
8.7784 3.8307 -0.0460
8.7936 4.0930 -0.0448
8.8091 4.3622 -0.0436
8.8251 4.6390 -0.0424
8.8415 4.9239 -0.0412
8.8585 5.2177 -0.0401
8.8760 5.5211 -0.0389
8.8941 5.8351 -0.0378
8.9129 6.1605 -0.0367
8.9324 6.4984 -0.0356
8.9527 6.8500 -0.0344
8.9739 7.2166 -0.0334
8.9960 7.5995 -0.0323
9.0192 8.0004 -0.0312
9.0435 8.4211 -0.0301
9.0690 8.8635 -0.0290
9.0959 9.3301 -0.0280
9.1244 9.8234 -0.0269
9.1546 10.3464 -0.0259
9.1867 10.9025 -0.0248
9.2221 11.4972 -0.0238
9.2588 12.1323 -0.0227
9.2982 12.8145 -0.0217
9.3407 13.5501 -0.0206
9.3866 14.3467 -0.0196
9.4367 15.2133 -0.0185
9.4914 16.1606 -0.0174
9.5515 17.2016 -0.0163
9.6179 18.3526 -0.0152
9.6918 19.6335 -0.0141
9.7736 21.0667 -0.0130
9.8672 22.6891 -0.0118
9.9741 24.5398 -0.0106
10.0972 26.6729 -0.0094
10.2409 29.1620 -0.0081
10.8761 33.5421 -0.0070
10.0021 33.5926 -0.0049
9.5208 35.0514 -0.0032
9.7982 39.8557 -0.0016
10.4980 47.6404 0.0002
9.6245 49.3178 0.0022
8.5628 50.3166 0.0040
7.4667 51.3487 0.0055
6.5685 54.3680 0.0072
5.2526 54.5075 0.0082
3.7738 52.3937 0.0086
2.4912 52.1450 0.0091
1.2236 51.8997 0.0092
-0.0332 56.0074 0.0099
-1.3944 56.3114 0.0097
-3.1964 65.2842 0.0105
-4.6873 64.0180 0.0093
-6.1445 62.9802 0.0079
-7.5751 62.0813 0.0062
-8.9916 61.3256 0.0043
-9.7149 56.6802 0.0020
-10.9294 55.6537 -0.0003
-12.7952 57.7391 -0.0030
-14.7541 59.7094 -0.0062
-16.3054 59.7492 -0.0096
-15.8438 52.9824 -0.0117
-17.9274 55.0660 -0.0161
-12.6630 35.9228 -0.0132
-10.4925 27.6182 -0.0124
-23.0671 56.5611 -0.0304
-13.3612 30.6240 -0.0194
-14.1055 30.3098 -0.0223
-14.7862 29.8642 -0.0253
-15.4631 29.4214 -0.0284
-16.1371 28.9809 -0.0317
-16.6626 28.2938 -0.0348
-36.0761 58.0063 -0.0798
-17.5130 26.6981 -0.0409
-17.9443 25.9652 -0.0441
-8.0813 11.1097 -0.0209
-8.5264 11.1452 -0.0231
-8.9827 11.1715 -0.0254
-9.4593 11.1991 -0.0279
-9.9583 11.2279 -0.0307
-10.4723 11.2477 -0.0335
-57.5477 58.8895 -0.1915
-36.9407 36.0182 -0.1276
-37.6535 34.9788 -0.1349
-38.2843 33.8788 -0.1420
-38.8896 32.7736 -0.1493
-14.5044 11.6358 -0.0576
-14.5364 11.0950 -0.0596
-14.5674 10.5716 -0.0616
-14.5974 10.0640 -0.0637
-14.6266 9.5711 -0.0658
-14.6550 9.0917 -0.0680
-14.6827 8.6247 -0.0701
-14.7096 8.1690 -0.0723
-14.7360 7.7238 -0.0745
-14.7618 7.2882 -0.0768
-14.7870 6.8614 -0.0791
-14.8118 6.4427 -0.0814
-14.8362 6.0313 -0.0837
-14.8601 5.6266 -0.0861
-14.8837 5.2279 -0.0886
-14.9070 4.8348 -0.0910
-14.9300 4.4465 -0.0936
-14.9527 4.0626 -0.0961
-14.9752 3.6826 -0.0988
-14.9975 3.3060 -0.1014
-15.0196 2.9322 -0.1041
-15.0416 2.5609 -0.1069
-15.0635 2.1915 -0.1098
-15.0853 1.8236 -0.1127
-15.1070 1.4569 -0.1156
-15.1287 1.0908 -0.1187
-15.1503 0.7249 -0.1218
-15.1720 0.3588 -0.1250
-15.1937 -0.0079 -0.1282
-6.3155 -0.1559 -0.0546
-15.2373 -0.7450 -0.1350
-15.2593 -1.1162 -0.1385
-15.2814 -1.4898 -0.1421
-15.3037 -1.8663 -0.1459
-15.3262 -2.2460 -0.1497
-15.3489 -2.6297 -0.1536
-15.3719 -3.0177 -0.1577
-15.3951 -3.4105 -0.1619
-15.4187 -3.8088 -0.1662
-21.6485 -5.9062 -0.2393
-21.6810 -6.4819 -0.2458
-39.0579 -12.7129 -0.4541
-39.1533 -13.7989 -0.4670
-39.2508 -14.9090 -0.4804
-39.3507 -16.0454 -0.4943
-39.4530 -17.2103 -0.5087
-39.5580 -18.4064 -0.5238
-86.6097 -42.8753 -1.1779
-80.6029 -42.3567 -1.1263
-76.4290 -42.5512 -1.0977
-75.0045 -44.1655 -1.1075
-69.0299 -42.9269 -1.0485
-65.7382 -43.1169 -1.0275
-62.6541 -43.2950 -1.0082
-61.0027 -44.3695 -1.0111
-61.1413 -46.7705 -1.0444
-61.2858 -49.2734 -1.0794
-61.4372 -51.8960 -0.2252
-67.5137 -59.8832 -0.2666
-39.9648 -37.2117 -0.1695
-67.1221 -65.5967 -0.3050
-67.3214 -69.0498 -0.3272
-17.0127 -48.4429 -0.2711
-18.9451 -77.0587 -0.4366
2.4741 -99.9069 -0.5709
3.0811 -62.9243 -0.3592
3.7287 -50.9225 -0.2903
3.9907 -40.9025 -0.2328
4.6428 -38.0476 -0.2162
4.3802 -29.8725 -0.1694
4.7613 -27.7773 -0.1571
5.1931 -26.4426 -0.1492
5.5057 -24.8433 -0.1397
5.7906 -23.4334 -0.1313
6.1324 -22.4704 -0.1255
6.3854 -21.3519 -0.1187
6.6303 -20.3648 -0.1127
6.8437 -19.4136 -0.1069
6.2847 -16.5415 -0.0906
6.5501 -16.0602 -0.0875
6.9386 -15.9026 -0.0861
7.2640 -15.6081 -0.0839
7.7251 -15.6018 -0.0833
7.8068 -14.8531 -0.0786
7.9016 -14.1899 -0.0745
7.8852 -13.3887 -0.0696
7.9675 -12.8102 -0.0660
8.0154 -12.2186 -0.0622
6.6433 -9.6122 -0.0484
6.7746 -9.3127 -0.0463
6.6943 -8.7499 -0.0429
6.8640 -8.5361 -0.0413
6.9792 -8.2623 -0.0393
7.2508 -8.1746 -0.0382
7.4748 -8.0278 -0.0368
7.6440 -7.8217 -0.0352
7.8642 -7.6673 -0.0337
7.8840 -7.3235 -0.0314
7.9031 -6.9932 -0.0292
7.9215 -6.6752 -0.0270
7.9392 -6.3685 -0.0249
7.9563 -6.0722 -0.0228
7.9728 -5.7854 -0.0208
7.9889 -5.5074 -0.0189
8.0045 -5.2374 -0.0170
8.0196 -4.9748 -0.0151
8.0344 -4.7190 -0.0133
8.0488 -4.4695 -0.0114
8.0629 -4.2257 -0.0097
8.0766 -3.9872 -0.0079
8.0901 -3.7535 -0.0062
8.1034 -3.5243 -0.0044
8.1164 -3.2991 -0.0027
8.1292 -3.0776 -0.0010
8.1417 -2.8594 0.0006
8.1542 -2.6442 0.0023
8.1664 -2.4318 0.0040
8.1786 -2.2217 0.0056
8.1906 -2.0138 0.0073
8.2025 -1.8077 0.0089
8.2143 -1.6032 0.0106
8.2260 -1.4001 0.0122
8.2377 -1.1980 0.0139
8.2493 -0.9968 0.0156
8.2608 -0.7963 0.0172
8.2724 -0.5960 0.0189
8.2840 -0.3960 0.0206
8.2955 -0.1958 0.0223
8.3071 0.0047 0.0241
8.3187 0.2058 0.0258
8.3303 0.4077 0.0276
8.3421 0.6106 0.0294
8.3539 0.8148 0.0312
8.3657 1.0206 0.0330
8.3777 1.2282 0.0349
8.3898 1.4378 0.0368
8.4021 1.6498 0.0388
8.6681 1.9207 0.0420
8.6811 2.1449 0.0440
8.6942 2.3724 0.0462
8.7076 2.6037 0.0484
8.7212 2.8391 0.0506
8.7350 3.0789 0.0529
8.7491 3.3237 0.0552
8.7636 3.5738 0.0576
8.7784 3.8298 0.0601
8.7935 4.0921 0.0627
8.8091 4.3613 0.0653
8.8250 4.6380 0.0681
8.8415 4.9229 0.0709
8.8584 5.2167 0.0739
8.8760 5.5201 0.0769
8.8941 5.8340 0.0801
8.9129 6.1594 0.0834
8.9324 6.4974 0.0869
8.9527 6.8489 0.0905
8.9738 7.2155 0.0943
8.9960 7.5983 0.0982
9.0191 7.9992 0.1024
9.0434 8.4198 0.1068
9.0689 8.8623 0.1115
9.0959 9.3288 0.1164
9.1243 9.8221 0.1216
9.1545 10.3450 0.1272
9.1866 10.9011 0.1332
9.2221 11.4958 0.1395
9.2587 12.1308 0.1464
9.2981 12.8129 0.1538
9.3406 13.5485 0.1617
9.3865 14.3450 0.1704
9.4366 15.2115 0.1799
9.4912 16.1587 0.1902
9.5513 17.1996 0.2017
9.6178 18.3505 0.2143
9.6917 19.6312 0.2285
9.7734 21.0643 0.2443
9.8671 22.6865 0.2623
9.9739 24.5369 0.2829
10.0971 26.6699 0.3066
10.2408 29.1587 0.3344
10.8771 33.5421 0.3838
10.0031 33.5925 0.3835
9.8932 36.4191 0.4149
10.1814 41.4109 0.4709
10.8954 49.4389 0.5613
13.3269 68.2840 0.7740
8.9969 52.8626 0.5984
7.7253 53.1232 0.6006
6.5308 54.0517 0.6105
5.2799 54.7862 0.6182
3.9288 54.5423 0.6150
2.6424 55.3071 0.6232
1.2979 55.0501 0.6200
-0.0330 55.6824 0.6269
-1.3957 56.3536 0.6344
-3.1260 63.8386 0.7186
-4.5874 62.6460 0.7052
-5.6651 58.0608 0.6538
-6.9813 57.2088 0.6444
-8.8030 60.0328 0.6766
-9.6400 56.2371 0.6343
-10.8717 55.3541 0.6248
-12.7470 57.5156 0.6499
-4.8272 19.5334 0.2210
-5.3392 19.5629 0.2216
-15.8439 52.9772 0.6009
-17.8812 54.9184 0.6240
-12.6628 35.9185 0.4089
-10.4924 27.6150 0.3150
-22.8813 56.0994 0.6412
-13.1364 30.1055 0.3449
-13.8142 29.6809 0.3410
-28.4845 57.5251 0.6626
-29.8016 56.6969 0.6551
-20.8416 37.4256 0.4338
-33.1872 56.3471 0.6554
-27.5699 44.3242 0.5175
-38.1247 58.1134 0.6812
-19.9847 28.9142 0.3404
-8.0823 11.1097 0.1314
-8.5275 11.1453 0.1324
-8.9838 11.1716 0.1334
-9.4606 11.1991 0.1345
-9.9597 11.2279 0.1357
-10.4737 11.2478 0.1368
-56.0519 57.3511 0.7021
-59.2860 57.7977 0.7127
-63.6495 59.1199 0.7347
-64.9896 57.5028 0.7205
-69.0158 58.1533 0.7352
-14.5045 11.6341 0.1485
-14.5365 11.0934 0.1430
-14.5675 10.5699 0.1378
-14.5975 10.0624 0.1327
-14.6267 9.5695 0.1279
-14.6551 9.0901 0.1231
-14.6827 8.6231 0.1186
-14.7097 8.1675 0.1141
-14.7361 7.7223 0.1098
-14.7619 7.2867 0.1056
-14.7871 6.8599 0.1016
-14.8119 6.4412 0.0976
-14.8363 6.0298 0.0937
-14.8602 5.6251 0.0899
-14.8838 5.2265 0.0862
-14.9071 4.8333 0.0826
-14.9301 4.4451 0.0791
-14.9528 4.0612 0.0756
-14.9753 3.6812 0.0721
-14.9976 3.3045 0.0688
-15.0197 2.9308 0.0654
-15.0417 2.5594 0.0621
-15.0636 2.1901 0.0589
-15.0854 1.8222 0.0557
-15.1071 1.4554 0.0525
-15.1287 1.0893 0.0494
-15.1504 0.7235 0.0463
-15.1721 0.3574 0.0432
-15.1938 -0.0094 0.0401
-6.3149 -0.1565 0.0154
-15.2374 -0.7464 0.0341
-15.2594 -1.1176 0.0310
-15.2815 -1.4912 0.0280
-15.3038 -1.8677 0.0250
-15.3263 -2.2475 0.0220
-15.3490 -2.6312 0.0189
-15.3720 -3.0191 0.0159
-15.3952 -3.4120 0.0128
-15.4188 -3.8103 0.0098
-21.8880 -5.9737 0.0095
-21.6814 -6.4841 0.0050
-39.1886 -12.7593 0.0011
-39.2673 -13.8430 -0.0070
-39.3477 -14.9497 -0.0151
-39.4299 -16.0817 -0.0234
-39.5141 -17.2410 -0.0318
-39.6005 -18.4302 -0.0403
-86.6103 -42.8846 -0.1069
-80.5883 -42.3575 -0.1172
-66.8475 -37.2240 -0.1122
-63.5474 -37.4260 -0.1212
-69.0187 -42.9275 -0.1477
-65.7280 -43.1175 -0.1563
-62.6632 -43.3084 -0.1643
-61.0031 -44.3768 -0.1752
-61.1417 -46.7780 -0.1913
-61.2863 -49.2811 -0.2080
-61.4377 -51.9039 0.6660
-67.5143 -59.8921 0.7335
-67.9082 -63.2387 0.7403
-67.2109 -65.6923 0.7360
-39.6818 -40.7060 0.4371
-46.1692 -54.7955 0.5218
-46.0397 -57.4010 0.5264
-46.7938 -64.4932 0.5506
-46.9655 -71.7869 0.5732
-47.5461 -76.6552 0.5930
-17.0157 -48.4559 0.2980
-18.9410 -77.0491 0.4427
-13.2558 -91.1648 0.5006
1.6969 -68.5322 0.3681
3.0807 -62.9242 0.3389
3.7282 -50.9224 0.2755
3.9903 -40.9024 0.2226
4.6428 -38.0522 0.2086
4.3799 -29.8739 0.1652
4.7613 -27.7806 0.1552
5.1928 -26.4438 0.1495
5.5054 -24.8446 0.1423
5.7903 -23.4346 0.1362
6.1321 -22.4717 0.1327
6.3851 -21.3531 0.1283
6.6301 -20.3660 0.1246
6.8435 -19.4148 0.1212
6.2839 -16.5414 0.1055
6.5496 -16.0607 0.1047
6.9381 -15.9030 0.1062
7.2634 -15.6084 0.1069
7.7243 -15.6019 0.1097
7.8067 -14.8545 0.1073
7.9015 -14.1913 0.1055
7.8842 -13.3885 0.1026
7.9666 -12.8102 0.1012
8.0153 -12.2199 0.0997
6.6434 -9.6135 0.0811
6.7745 -9.3138 0.0813
6.6941 -8.7507 0.0792
6.8637 -8.5367 0.0801
6.9787 -8.2628 0.0805
7.2768 -8.2051 0.0832
7.5035 -8.0596 0.0850
7.6433 -7.8220 0.0860
7.8641 -7.6683 0.0880
7.8840 -7.3245 0.0879
7.9031 -6.9941 0.0878
7.9214 -6.6761 0.0878
7.9391 -6.3694 0.0879
7.9562 -6.0731 0.0881
7.9728 -5.7863 0.0883
7.9888 -5.5083 0.0886
8.0044 -5.2383 0.0890
8.0196 -4.9757 0.0895
8.0343 -4.7199 0.0900
8.0488 -4.4703 0.0906
8.0628 -4.2265 0.0912
8.0766 -3.9880 0.0919
8.0901 -3.7543 0.0927
8.1033 -3.5251 0.0935
8.1163 -3.2999 0.0944
8.1291 -3.0784 0.0953
8.1417 -2.8602 0.0963
8.1541 -2.6450 0.0973
8.1664 -2.4325 0.0984
8.1785 -2.2225 0.0995
8.1905 -2.0146 0.1007
8.2024 -1.8085 0.1020
8.2142 -1.6040 0.1033
8.2259 -1.4009 0.1047
8.2376 -1.1988 0.1062
8.2492 -0.9976 0.1077
8.2608 -0.7970 0.1092
8.2724 -0.5968 0.1108
8.2839 -0.3967 0.1125
8.2955 -0.1966 0.1143
8.3070 0.0039 0.1161
8.3186 0.2050 0.1180
8.3303 0.4069 0.1200
8.3420 0.6098 0.1221
8.3538 0.8140 0.1242
8.3657 1.0198 0.1264
8.3777 1.2274 0.1287
8.3898 1.4370 0.1311
8.4020 1.6490 0.1336
8.6681 1.9198 0.1404
8.6810 2.1440 0.1431
8.6942 2.3716 0.1460
8.7075 2.6028 0.1491
8.7211 2.8382 0.1522
8.7350 3.0781 0.1555
8.7491 3.3228 0.1589
8.7635 3.5729 0.1625
8.7783 3.8289 0.1663
8.7935 4.0912 0.1702
8.8090 4.3604 0.1743
8.8250 4.6370 0.1786
8.8414 4.9219 0.1831
8.8584 5.2157 0.1878
8.8759 5.5191 0.1927
8.8940 5.8330 0.1980
8.9128 6.1584 0.2035
8.9323 6.4963 0.2093
8.9526 6.8478 0.2154
8.9738 7.2143 0.2219
8.9959 7.5972 0.2287
9.0190 7.9980 0.2360
