ply
format ascii 1.0
element vertex 2086
property float32 x
property float32 y
property float32 z
end_header
6.3610 -18.0458 0.1214
6.5081 -17.1313 0.1175
6.8853 -16.8835 0.1181
7.2604 -16.6416 0.1190
7.6710 -16.4842 0.1205
7.8361 -15.8276 0.1185
7.9333 -15.0952 0.1159
7.9247 -14.2328 0.1122
8.0156 -13.6116 0.1103
8.0525 -12.9481 0.1079
6.7884 -10.3492 0.0889
6.7005 -9.6961 0.0859
6.8674 -9.4414 0.0864
6.9938 -9.1423 0.0865
7.2990 -9.0780 0.0889
7.5375 -8.9242 0.0905
7.6979 -8.6798 0.0913
7.8871 -8.4716 0.0926
7.9082 -8.0930 0.0920
7.9283 -7.7307 0.0916
7.9475 -7.3834 0.0912
7.9661 -7.0498 0.0909
7.9839 -6.7287 0.0907
8.0011 -6.4191 0.0907
8.0177 -6.1200 0.0907
8.0338 -5.8305 0.0907
8.0493 -5.5499 0.0909
8.0645 -5.2775 0.0911
8.0792 -5.0126 0.0914
8.0935 -4.7545 0.0918
8.1075 -4.5029 0.0922
8.1211 -4.2570 0.0927
8.1345 -4.0165 0.0933
8.1476 -3.7809 0.0939
8.1604 -3.5499 0.0946
8.1730 -3.3229 0.0954
8.1854 -3.0996 0.0962
8.1976 -2.8798 0.0970
8.2096 -2.6629 0.0979
8.2215 -2.4489 0.0989
8.2333 -2.2373 0.0999
8.2449 -2.0279 0.1010
8.2564 -1.8203 0.1022
8.2679 -1.6144 0.1034
8.2792 -1.4099 0.1047
8.2905 -1.2064 0.1060
8.3017 -1.0039 0.1074
8.3130 -0.8020 0.1088
8.3241 -0.6005 0.1104
8.3353 -0.3991 0.1119
8.3465 -0.1977 0.1136
8.3577 0.0040 0.1153
8.3689 0.2063 0.1171
8.3802 0.4094 0.1190
8.3916 0.6135 0.1209
9.0518 0.8821 0.1325
8.6666 1.0565 0.1288
8.6785 1.2715 0.1311
8.6906 1.4886 0.1334
8.7027 1.7081 0.1359
8.7151 1.9303 0.1385
8.7276 2.1556 0.1411
8.7403 2.3842 0.1439
8.7532 2.6166 0.1468
8.7663 2.8530 0.1498
8.7797 3.0939 0.1530
8.7934 3.3397 0.1563
8.8073 3.5909 0.1597
8.8216 3.8478 0.1633
8.8362 4.1111 0.1671
8.8512 4.3813 0.1711
8.8666 4.6590 0.1752
8.8825 4.9449 0.1796
8.8989 5.2396 0.1841
8.9158 5.5440 0.1889
8.9332 5.8588 0.1940
8.9514 6.1851 0.1993
8.9702 6.5239 0.2049
8.9897 6.8764 0.2109
9.0101 7.2437 0.2171
9.0314 7.6273 0.2238
9.0537 8.0289 0.2308
9.0771 8.4502 0.2384
9.1017 8.8933 0.2464
9.1277 9.3603 0.2549
9.1551 9.8540 0.2640
9.1842 10.3773 0.2738
9.2162 10.9350 0.2844
9.5644 11.9212 0.3058
9.6008 12.5777 0.3185
9.6400 13.2826 0.3322
9.6822 14.0425 0.3472
9.7278 14.8651 0.3636
9.7775 15.7595 0.3815
9.8318 16.7367 0.4012
9.8914 17.8102 0.4230
9.9572 18.9963 0.4474
10.0293 20.3130 0.4745
10.1113 21.7906 0.5052
10.2040 23.4590 0.5400
10.3096 25.3604 0.5800
10.4227 27.5274 0.6257
11.4642 32.6392 0.7377
10.6009 32.6872 0.7349
9.7485 32.7345 0.7325
9.8558 36.2779 0.8082
10.0953 41.0569 0.9111
10.8170 49.0789 1.0852
3.9317 20.1431 0.4440
8.8490 51.9885 1.1428
7.5602 51.9827 1.1400
6.5198 53.9552 1.1809
5.1814 53.7594 1.1747
3.8584 53.5597 1.1689
2.5866 54.1337 1.1805
1.2741 54.0314 1.1776
-0.0328 55.4251 1.2079
-1.3643 55.0848 1.2008
-2.7460 56.0751 1.2232
-4.1037 56.0371 1.2236
-5.4012 55.3516 1.2102
-6.7732 55.4998 1.2156
-8.1210 55.3776 1.2155
-9.3945 54.8010 1.2059
-10.6716 54.3309 1.1991
-12.1003 54.5935 1.2088
-13.7395 55.5933 1.2355
-5.0900 18.6484 0.4162
-16.7874 56.1274 1.2582
-10.6748 32.7828 0.7385
-18.9673 53.7969 1.2185
-21.2587 55.9464 1.2746
-22.4555 55.0509 1.2621
-22.6544 51.9141 1.1982
-25.9475 55.7451 1.2960
-27.8936 56.3266 1.3196
-29.4842 56.0878 1.3249
-30.5819 54.9116 1.3085
-22.0196 37.3827 0.8992
-35.0180 56.2932 1.3675
-36.5762 55.7477 1.3685
-38.7853 56.1097 1.3927
-41.0245 56.3855 1.4161
-20.1652 26.3528 0.6701
-8.2095 10.2076 0.2630
-8.6530 10.2421 0.2676
-9.1086 10.2674 0.2722
-9.5866 10.2939 0.2772
-10.0892 10.3218 0.2825
-26.7684 26.0933 0.7266
-60.8220 56.4868 1.6020
-64.5702 57.1246 1.6517
-68.1986 57.4573 1.6956
-71.8478 57.6216 1.7377
-76.8419 58.6328 1.8091
-14.5372 10.5464 0.3334
-14.5661 10.0392 0.3256
-14.5942 9.5468 0.3183
-14.6215 9.0678 0.3112
-14.7021 8.6330 0.3056
-15.0567 8.3587 0.3058
-15.0827 7.9025 0.2995
-15.1082 7.4562 0.2935
-14.7484 6.8406 0.2804
-14.7722 6.4225 0.2750
-14.7956 6.0119 0.2699
-14.8187 5.6080 0.2649
-14.8413 5.2102 0.2602
-14.8637 4.8179 0.2556
-14.8858 4.4305 0.2512
-15.2964 4.1532 0.2535
-15.3186 3.7642 0.2493
-15.3406 3.3787 0.2454
-15.3624 2.9963 0.2415
-15.3840 2.6163 0.2379
-15.0139 2.1815 0.2284
-15.0348 1.8148 0.2251
-15.0557 1.4492 0.2219
-15.0765 1.0842 0.2189
-15.0973 0.7196 0.2160
-15.1181 0.3548 0.2132
-15.1389 -0.0107 0.2105
-15.1598 -0.3771 0.2080
-15.1807 -0.7450 0.2055
-15.2018 -1.1148 0.2032
-15.2230 -1.4869 0.2010
-15.2444 -1.8618 0.1989
-15.2659 -2.2400 0.1969
-6.3047 -1.0813 0.0804
-15.3097 -3.0083 0.1932
-15.3320 -3.3994 0.1915
-15.3546 -3.7959 0.1899
-15.3775 -4.1983 0.1884
-15.4009 -4.6073 0.1870
-21.6449 -7.0494 0.2607
-21.6771 -7.6439 0.2590
-39.6130 -15.0543 0.4699
-39.6932 -16.1929 0.4677
-39.7754 -17.3589 0.4657
-39.8596 -18.5548 0.4641
-39.5710 -19.5973 0.4585
-54.0447 -28.4117 0.6235
-67.0568 -37.3475 0.7708
-66.8730 -39.3916 0.7664
-63.5676 -39.5439 0.7269
-67.3392 -44.1818 0.7690
-64.0045 -44.2424 0.7304
-61.0355 -44.4073 0.6967
-24.2508 -18.5565 0.2771
-61.1111 -49.1474 0.6998
-61.2791 -51.7769 1.5931
-30.9530 -27.4621 0.8157
-44.6510 -41.5861 1.1941
-42.4544 -41.5003 1.1535
-45.2585 -46.4322 1.2510
-45.4034 -48.8903 1.2784
-37.0472 -41.8775 1.0641
-26.3336 -31.2574 0.7726
-25.1210 -31.3237 0.7541
-23.9497 -31.3878 0.7368
-22.8162 -31.4498 0.7206
-21.7176 -31.5099 0.7054
-21.3529 -32.6414 0.7148
-46.9349 -75.6778 1.6226
-47.2001 -80.3782 1.6891
-22.4430 -42.8316 0.8671
-27.7001 -56.1224 1.1168
-19.9408 -42.9885 0.8416
-28.5284 -70.2002 1.3339
-28.2505 -74.6376 1.3992
-17.2235 -49.0527 0.9080
-11.8129 -43.4962 0.7793
-12.2015 -49.6388 0.8813
-12.7417 -57.8301 1.0183
-13.1640 -67.4649 1.1792
-12.5587 -73.8078 1.2817
-13.6400 -93.8175 1.6200
-7.6542 -79.4412 1.3599
1.7445 -70.4519 1.1979
3.1566 -64.4761 1.0976
3.8252 -52.2492 0.8913
4.0759 -41.7821 0.7149
4.7431 -38.8763 0.6677
4.4822 -30.5732 0.5275
4.8860 -28.5097 0.4947
5.2618 -26.7969 0.4679
5.6328 -25.4214 0.4471
5.9759 -24.1872 0.4289
6.2085 -22.7532 0.4071
6.4697 -21.6376 0.3910
6.7098 -20.6125 0.3765
6.2310 -17.6787 0.3267
6.5078 -17.1320 0.3206
6.8847 -16.8839 0.3202
7.2598 -16.6420 0.3202
7.6703 -16.4842 0.3220
7.8360 -15.8290 0.3143
7.9332 -15.0965 0.3049
7.9246 -14.2341 0.2928
7.2832 -12.3691 0.2593
8.0524 -12.9493 0.2770
6.7883 -10.3502 0.2261
6.7004 -9.6969 0.2165
6.8671 -9.4420 0.2158
6.9934 -9.1427 0.2140
7.2984 -9.0784 0.2180
7.5369 -8.9246 0.2200
7.6973 -8.6801 0.2199
7.8871 -8.4726 0.2209
7.9081 -8.0939 0.2175
7.9282 -7.7317 0.2143
7.9475 -7.3843 0.2114
7.9660 -7.0507 0.2088
7.9839 -6.7296 0.2065
8.0010 -6.4199 0.2044
8.0177 -6.1208 0.2025
8.0337 -5.8313 0.2008
8.0493 -5.5507 0.1993
8.0644 -5.2783 0.1980
8.0791 -5.0134 0.1968
8.0935 -4.7553 0.1959
8.1074 -4.5036 0.1950
8.1211 -4.2578 0.1944
8.1344 -4.0173 0.1939
8.1475 -3.7817 0.1935
8.1604 -3.5506 0.1933
8.1730 -3.3236 0.1931
8.1854 -3.1004 0.1932
8.1976 -2.8805 0.1933
8.2096 -2.6637 0.1936
8.2215 -2.4496 0.1940
8.2332 -2.2380 0.1945
8.2449 -2.0286 0.1951
8.2564 -1.8211 0.1959
8.2678 -1.6151 0.1968
8.2792 -1.4106 0.1978
8.2905 -1.2072 0.1989
8.3017 -1.0046 0.2001
8.3129 -0.8027 0.2014
8.3241 -0.6012 0.2029
8.3353 -0.3999 0.2044
8.3465 -0.1984 0.2061
8.3577 0.0033 0.2080
8.3689 0.2056 0.2099
8.3802 0.4087 0.2120
8.3915 0.6128 0.2142
9.0570 0.8818 0.2334
8.6665 1.0558 0.2256
8.6785 1.2707 0.2283
8.6905 1.4878 0.2312
8.7027 1.7073 0.2342
8.7150 1.9295 0.2374
8.7275 2.1548 0.2408
8.7402 2.3834 0.2443
8.7531 2.6158 0.2481
8.7663 2.8522 0.2520
8.7797 3.0931 0.2562
8.7933 3.3389 0.2606
8.8072 3.5900 0.2652
8.8215 3.8469 0.2700
8.8361 4.1102 0.2752
8.8511 4.3804 0.2806
8.8666 4.6581 0.2863
8.8824 4.9440 0.2923
8.8988 5.2387 0.2986
8.9157 5.5430 0.3053
8.9332 5.8578 0.3124
8.9513 6.1841 0.3199
8.9701 6.5229 0.3279
8.9897 6.8753 0.3363
9.3172 7.4895 0.3571
9.3393 7.8862 0.3669
9.3623 8.3015 0.3774
9.3865 8.7371 0.3887
9.4119 9.1952 0.4006
9.4388 9.6782 0.4135
9.4671 10.1886 0.4272
9.4983 10.7310 0.4421
9.5302 11.3063 0.4580
9.5643 11.9198 0.4752
9.6008 12.5762 0.4939
9.6399 13.2810 0.5142
9.6821 14.0409 0.5363
9.7277 14.8634 0.5605
9.7774 15.7577 0.5871
9.8317 16.7348 0.6164
9.8912 17.8082 0.6489
9.9282 18.9391 0.6831
10.0292 20.3108 0.7257
10.1112 21.7881 0.7715
10.2038 23.4564 0.8237
10.3094 25.3575 0.8835
5.8224 15.3761 0.5318
11.4653 32.6392 1.1213
10.6018 32.6871 1.1160
9.7493 32.7345 1.1113
9.8555 36.2736 1.2250
10.0950 41.0520 1.3798
10.8166 49.0728 1.6424
3.9318 20.1420 0.6716
9.3666 55.0245 1.8286
7.7019 52.9518 1.7546
6.6300 54.8626 1.8136
5.1481 53.4091 1.7621
3.8524 53.4709 1.7615
2.5684 53.7461 1.7687
1.2946 54.8955 1.8054
-0.0328 55.3959 1.8216
-1.3548 54.6979 1.7992
-2.7026 55.1842 1.8165
-4.0738 55.6244 1.8331
-5.3726 55.0544 1.8172
-6.7725 55.4892 1.8353
-8.0826 55.1114 1.8274
-9.3157 54.3366 1.8071
-10.6713 54.3249 1.8129
-12.0623 54.4171 1.8231
-13.7689 55.7075 1.8745
-5.0905 18.6484 0.6305
-16.8302 56.2654 1.9126
-10.6743 32.7783 1.1207
-19.2185 54.5045 1.8754
-21.0321 55.3448 1.9175
-22.3936 54.8938 1.9159
-22.6206 51.8316 1.8235
-25.9733 55.7953 1.9796
-28.1186 56.7755 2.0328
-29.4716 56.0583 2.0266
-30.6274 54.9877 2.0084
-22.0190 37.3779 1.3801
-34.6916 55.7627 2.0829
-36.5621 55.7203 2.1069
-38.6358 55.8876 2.1407
-40.9916 56.3343 2.1875
-20.1641 26.3484 1.0380
-8.2105 10.2077 0.4083
-8.6453 10.2318 0.4159
-9.1006 10.2571 0.4240
-9.5781 10.2836 0.4327
-10.0803 10.3115 0.4421
-26.7651 26.0868 1.1409
-57.5694 53.4590 2.3874
-59.4721 52.6074 2.4016
-61.0174 51.4001 2.4016
-62.5479 50.1561 2.4016
-58.9691 44.9888 2.2107
-14.5373 10.5449 0.5325
-14.5662 10.0378 0.5218
-14.5943 9.5453 0.5116
-14.6216 9.0664 0.5020
-14.7049 8.6332 0.4947
-15.0568 8.3572 0.4968
-15.0828 7.9011 0.4883
-15.1083 7.4548 0.4803
-14.7485 6.8392 0.4606
-14.7723 6.4212 0.4536
-14.7957 6.0105 0.4469
-14.8187 5.6067 0.4406
-14.8414 5.2088 0.4345
-14.8638 4.8165 0.4288
-14.8858 4.4292 0.4234
-15.2965 4.1518 0.4292
-15.3187 3.7628 0.4242
-15.3406 3.3774 0.4195
-15.3624 2.9949 0.4150
-15.3841 2.6150 0.4109
-15.0140 2.1802 0.3966
-15.0349 1.8135 0.3930
-15.0558 1.4478 0.3896
-15.0766 1.0829 0.3865
-15.0973 0.7183 0.3835
-15.1181 0.3534 0.3808
-15.1390 -0.0120 0.3784
-15.1598 -0.3784 0.3761
-15.1808 -0.7463 0.3740
-15.5984 -1.1452 0.3819
-15.6201 -1.5271 0.3802
-15.6421 -1.9118 0.3788
-15.6642 -2.2999 0.3775
-6.3041 -1.0818 0.1513
-15.3098 -3.0097 0.3661
-15.3321 -3.4008 0.3656
-15.3547 -3.7973 0.3652
-15.3776 -4.1997 0.3651
-15.4009 -4.6087 0.3652
-21.6452 -7.0515 0.5130
-21.6774 -7.6461 0.5138
-39.6133 -15.0582 0.9397
-39.6935 -16.1968 0.9429
-39.7756 -17.3629 0.9468
-39.8599 -18.5588 0.9515
-39.5713 -19.6014 0.9480
-54.0401 -28.4146 1.3002
-67.0538 -37.3526 1.6215
-66.8734 -39.3987 1.6268
-63.5680 -39.5508 1.5568
-67.1542 -44.0676 1.6572
-63.9953 -44.2429 1.5927
-61.0270 -44.4078 1.5332
-24.2510 -18.5593 0.6156
-61.1115 -49.1546 1.5691
-57.8332 -48.8721 2.3432
-30.9492 -27.4624 1.2744
-44.4798 -41.4321 1.8636
-42.4498 -41.5011 1.8117
-40.5684 -41.6257 1.7659
-38.7573 -41.7390 1.7229
-37.0199 -41.8517 1.6829
-26.3307 -31.2575 1.2257
-25.1183 -31.3239 1.1993
-23.9471 -31.3879 1.1745
-22.8138 -31.4499 1.1514
-21.7153 -31.5100 1.1297
-21.3531 -32.6452 1.1474
-42.8254 -69.0589 2.3816
-41.2861 -70.3145 2.3816
-39.7064 -71.5274 2.3816
-22.4408 -42.8318 1.4032
-27.6659 -56.0588 1.8086
-19.9389 -42.9887 1.3670
-30.7029 -70.6171 2.2151
-28.5418 -70.2400 2.1753
-27.2861 -72.0966 2.2062
-17.2263 -49.0653 1.4848
-14.0905 -43.4657 1.3018
-12.9593 -43.5345 1.2914
-11.8121 -43.4972 1.2790
-12.1972 -49.6261 1.4476
-12.5084 -56.7769 1.6443
-11.0053 -56.4071 1.6231
-12.5353 -73.6769 2.1081
-11.7355 -80.7252 2.2984
-10.2311 -84.7036 2.4016
-8.1883 -84.9930 2.4016
-6.1366 -85.2192 2.4016
-4.0779 -85.3817 2.4016
-1.9282 -81.8111 2.2985
0.0487 -81.8446 2.2985
1.7461 -70.5208 1.9812
3.1564 -64.4770 1.8134
3.8250 -52.2502 1.4722
4.1019 -42.0522 1.1879
4.7779 -39.1650 1.1101
4.4819 -30.5743 0.8702
4.8563 -28.3388 0.8105
5.2344 -26.6594 0.7667
5.6326 -25.4225 0.7358
5.9756 -24.1883 0.7052
6.2086 -22.7556 0.6687
6.4698 -21.6399 0.6415
6.7099 -20.6147 0.6169
6.2308 -17.6797 0.5345
6.5074 -17.1326 0.5238
6.8204 -16.7277 0.5175
7.2074 -16.5233 0.5178
7.2233 -15.5250 0.4932
6.9945 -14.1303 0.4554
7.2503 -13.7983 0.4515
7.6956 -13.8241 0.4598
7.2042 -12.2361 0.4139
7.6219 -12.2582 0.4222
6.6278 -10.1066 0.3548
6.7002 -9.6977 0.3472
6.8668 -9.4425 0.3452
6.9929 -9.1432 0.3417
7.2004 -8.9575 0.3425
7.4294 -8.7983 0.3446
7.6966 -8.6803 0.3486
8.0691 -8.6691 0.3573
8.1857 -8.3791 0.3550
8.2065 -8.0041 0.3489
8.2265 -7.6445 0.3434
8.2457 -7.2992 0.3383
8.2641 -6.9668 0.3336
8.2819 -6.6462 0.3293
8.2991 -6.3366 0.3254
8.3157 -6.0369 0.3218
8.3319 -5.7465 0.3185
8.3475 -5.4645 0.3156
8.3628 -5.1902 0.3129
8.3776 -4.9231 0.3105
8.3920 -4.6626 0.3084
8.4062 -4.4081 0.3065
8.4200 -4.1591 0.3048
8.4335 -3.9153 0.3034
8.1603 -3.5514 0.2920
8.1729 -3.3244 0.2910
8.1853 -3.1011 0.2902
8.1975 -2.8813 0.2897
8.2096 -2.6644 0.2893
8.2214 -2.4504 0.2891
8.2332 -2.2388 0.2891
8.2448 -2.0293 0.2893
8.2563 -1.8218 0.2897
8.2678 -1.6159 0.2902
8.2791 -1.4113 0.2909
8.2904 -1.2079 0.2918
8.5931 -1.0407 0.3031
8.6047 -0.8317 0.3044
8.6163 -0.6231 0.3058
8.6279 -0.4147 0.3074
8.6395 -0.2062 0.3092
8.6511 0.0027 0.3112
8.6627 0.2120 0.3134
8.6744 0.4222 0.3158
8.6861 0.6335 0.3183
9.0623 0.8815 0.3345
8.6665 1.0550 0.3224
8.6784 1.2700 0.3256
8.6905 1.4870 0.3290
8.7027 1.7065 0.3326
8.7150 1.9288 0.3364
8.7275 2.1540 0.3405
9.0381 2.4638 0.3566
9.0515 2.7041 0.3613
9.0651 2.9485 0.3664
9.0789 3.1976 0.3717
9.0930 3.4518 0.3773
9.1074 3.7115 0.3833
9.1222 3.9772 0.3896
9.1373 4.2494 0.3963
9.1528 4.5288 0.4034
9.1688 4.8160 0.4109
9.1852 5.1115 0.4188
9.2021 5.4163 0.4272
9.2196 5.7310 0.4361
9.2376 6.0565 0.4456
9.2564 6.3939 0.4556
9.2758 6.7442 0.4663
9.2961 7.1086 0.4776
9.3172 7.4884 0.4897
9.3392 7.8851 0.5025
9.3622 8.3003 0.5162
9.3864 8.7359 0.5309
9.4119 9.1940 0.5466
9.4387 9.6769 0.5634
9.4670 10.1873 0.5815
9.4982 10.7297 0.6010
9.5302 11.3049 0.6221
9.5642 11.9183 0.6448
9.6007 12.5747 0.6694
9.6398 13.2795 0.6962
9.6820 14.0392 0.7255
9.7276 14.8616 0.7576
9.7773 15.7559 0.7928
9.8315 16.7329 0.8317
9.8911 17.8062 0.8749
9.9281 18.9369 0.9204
10.0290 20.3085 0.9770
10.1111 21.7857 1.0380
10.2037 23.4537 1.1074
10.3093 25.3547 1.1871
5.7934 15.2980 0.7107
5.5188 15.7093 0.7245
10.6028 32.6871 1.4974
9.7502 32.7344 1.4903
9.8553 36.2693 1.6419
10.0947 41.0471 1.8488
10.8163 49.0667 2.1998
3.9320 20.1409 0.8993
8.7882 51.6222 2.2966
7.5816 52.1206 2.3116
6.3157 52.2568 2.3116
5.0482 52.3677 2.3116
3.2459 45.0482 1.9853
2.5098 52.5139 2.3116
1.2395 52.5494 2.3116
-0.0309 52.2621 2.2985
-1.2942 52.2471 2.2985
-2.5570 52.2073 2.2985
-3.8191 52.1425 2.2985
-5.0801 52.0526 2.2985
-6.3396 51.9377 2.2985
-7.5973 51.7979 2.2985
-8.8529 51.6327 2.2985
-10.1061 51.4429 2.2985
-11.3563 51.2278 2.2985
-12.6035 50.9878 2.2985
-5.1069 18.7067 0.8477
-15.2924 51.1199 2.3299
-10.6738 32.7739 1.5031
-18.0760 51.2597 2.3670
-19.5142 51.3459 2.3885
-20.8967 51.2199 2.4016
-22.1661 50.7856 2.4016
-23.4292 50.3253 2.4016
-24.6854 49.8387 2.4016
-25.9345 49.3256 2.4016
-27.1762 48.7867 2.4016
-22.0184 37.3731 1.8613
-29.6348 47.6296 2.4016
-30.8510 47.0117 2.4016
-32.0579 46.3676 2.4016
-31.8277 43.7356 2.2985
-20.1629 26.3440 1.4059
-26.1956 32.5641 1.7663
-19.0943 22.5956 1.2467
-36.3087 40.9182 2.2985
-9.6196 10.3269 0.5912
-15.5781 15.9335 0.9305
-26.7618 26.0803 1.5553
-41.0122 38.0791 2.3216
-28.2741 25.0072 1.5605
-28.0843 23.6546 1.5127
-28.3442 22.7255 1.4913
-28.8830 22.0322 1.4858
-14.5374 10.5434 0.7317
-14.5663 10.0363 0.7180
-14.5943 9.5438 0.7050
-14.6216 9.0649 0.6928
-14.7077 8.6333 0.6840
-15.0569 8.3558 0.6878
-15.0829 7.8996 0.6772
-15.1083 7.4533 0.6672
-14.7486 6.8378 0.6410
-14.7724 6.4198 0.6323
-14.7958 6.0092 0.6241
-14.8188 5.6053 0.6163
-14.8415 5.2075 0.6090
-14.8639 4.8152 0.6021
-14.8859 4.4279 0.5957
-15.2966 4.1504 0.6050
-15.3187 3.7615 0.5992
-15.3407 3.3760 0.5937
-15.3625 2.9936 0.5887
-15.3842 2.6136 0.5839
-15.0141 2.1789 0.5649
-15.0350 1.8121 0.5610
-15.0558 1.4465 0.5574
-15.0766 1.0816 0.5541
-15.0974 0.7169 0.5512
-15.1182 0.3521 0.5486
-15.1390 -0.0133 0.5463
-15.1599 -0.3798 0.5443
-15.1809 -0.7476 0.5426
-15.5985 -1.1466 0.5554
-15.6202 -1.5285 0.5543
-15.6422 -1.9132 0.5535
-15.6643 -2.3013 0.5531
-6.3036 -1.0823 0.2222
-15.3099 -3.0111 0.5392
-15.3322 -3.4022 0.5398
-15.3548 -3.7987 0.5407
-15.3777 -4.2011 0.5419
-15.4010 -4.6102 0.5435
-21.6455 -7.0536 0.7655
-21.6777 -7.6482 0.7688
-39.6136 -15.0620 1.4097
-39.6938 -16.2007 1.4184
-39.7759 -17.3668 1.4282
-39.8601 -18.5628 1.4392
-39.5715 -19.6054 1.4378
-53.9449 -28.3699 1.9739
-65.1235 -36.2839 2.4016
-62.3155 -36.7198 2.3180
-61.2048 -38.0868 2.2984
-60.5758 -39.7571 2.2984
-59.8997 -41.4180 2.2984
-59.1767 -43.0678 2.2984
-24.2511 -18.5621 0.9543
-57.7076 -46.4233 2.3031
-43.6279 -36.8729 2.4016
-30.9453 -27.4626 1.7335
-16.3887 -15.2677 0.9352
-16.1647 -15.8055 0.9408
-16.2257 -16.6506 0.9643
-16.2747 -17.5289 0.9889
-16.3310 -18.4647 1.0159
-16.3908 -19.4601 1.0454
-16.4552 -20.5229 1.0776
-16.5240 -21.6607 1.1128
-16.5934 -22.8773 1.1510
-16.6739 -24.1973 1.1935
-16.7590 -25.6242 1.2403
-29.8214 -48.0941 2.2864
-28.4543 -48.4656 2.2651
-23.7296 -42.7510 1.9659
-22.4386 -42.8319 1.9397
-21.1752 -42.9111 1.9153
-19.9370 -42.9888 1.8927
-18.7220 -43.0650 1.8718
-17.5280 -43.1398 1.8526
-16.3532 -43.2135 1.8350
-15.1958 -43.2860 1.8188
-14.0280 -43.2771 1.8008
-12.9001 -43.3397 1.7873
-11.8112 -43.4981 1.7791
-12.0502 -49.0324 1.9905
-12.4954 -56.7231 2.2872
-11.1876 -57.3468 2.2984
-9.8081 -57.6532 2.2984
-8.7975 -60.5213 2.4016
-7.3381 -60.7577 2.4016
-5.8716 -60.9514 2.4016
-4.3995 -61.1029 2.4016
-2.9232 -61.2115 2.4016
-1.4441 -61.2773 2.4016
0.0350 -58.6687 2.2985
1.4521 -58.6493 2.2985
2.8679 -58.5887 2.2985
3.6738 -50.1887 1.9724
4.1016 -42.0532 1.6567
4.7777 -39.1660 1.5479
4.4817 -30.5754 1.2130
4.9183 -28.7036 1.1440
5.3083 -27.0383 1.0833
5.6323 -25.4236 1.0248
5.9779 -24.1998 0.9820
6.2635 -22.9588 0.9387
6.5270 -21.8334 0.9000
6.7692 -20.7989 0.8651
6.3608 -18.0501 0.7581
6.5070 -17.1332 0.7271
6.8837 -16.8845 0.7247
6.8001 -15.5909 0.6773
7.2225 -15.5249 0.6831
6.8824 -13.9054 0.6203
7.2495 -13.7982 0.6244
6.8723 -12.3463 0.5674
7.2269 -12.2759 0.5733
7.6459 -12.2981 0.5843
6.5785 -10.0323 0.4852
6.6623 -9.6438 0.4753
6.8020 -9.3545 0.4703
6.9629 -9.1050 0.4674
7.1696 -8.9201 0.4680
7.3962 -8.7600 0.4702
7.6622 -8.6426 0.4752
7.9831 -8.5777 0.4836
8.1856 -8.3800 0.4850
8.2065 -8.0050 0.4762
8.2264 -7.6455 0.4680
8.2456 -7.3001 0.4605
8.2641 -6.9677 0.4536
8.2819 -6.6471 0.4472
8.2991 -6.3375 0.4413
8.3157 -6.0378 0.4358
8.3318 -5.7473 0.4308
8.3475 -5.4653 0.4263
8.3627 -5.1910 0.4221
8.3775 -4.9239 0.4183
8.3920 -4.6634 0.4149
8.4061 -4.4089 0.4118
8.4200 -4.1599 0.4091
8.4335 -3.9161 0.4066
8.4468 -3.6769 0.4044
8.4598 -3.4419 0.4026
8.4727 -3.2108 0.4010
8.4853 -2.9832 0.3997
8.4977 -2.7588 0.3986
8.5101 -2.5372 0.3979
8.5222 -2.3181 0.3973
8.5343 -2.1013 0.3970
8.5462 -1.8865 0.3970
8.5580 -1.6734 0.3972
8.5698 -1.4616 0.3976
8.5815 -1.2511 0.3983
8.5931 -1.0414 0.3992
8.6047 -0.8324 0.4003
8.6163 -0.6238 0.4017
8.6279 -0.4154 0.4033
8.6394 -0.2069 0.4052
8.6510 0.0019 0.4072
8.6627 0.2113 0.4096
8.6743 0.4215 0.4122
8.6860 0.6327 0.4150
9.0675 0.8812 0.4359
8.9619 1.0902 0.4336
8.9742 1.3124 0.4374
8.9867 1.5369 0.4414
8.9993 1.7639 0.4457
9.0120 1.9937 0.4504
9.0250 2.2266 0.4553
9.0381 2.4630 0.4606
9.0514 2.7032 0.4662
9.0650 2.9477 0.4722
9.0788 3.1968 0.4786
9.0930 3.4509 0.4853
9.1074 3.7106 0.4925
9.1221 3.9763 0.5001
9.1372 4.2485 0.5082
9.1528 4.5279 0.5168
9.1687 4.8150 0.5259
9.1851 5.1106 0.5355
9.2020 5.4153 0.5458
9.2195 5.7300 0.5567
9.2376 6.0555 0.5682
9.2563 6.3929 0.5805
9.2758 6.7431 0.5936
9.2960 7.1075 0.6075
9.3171 7.4873 0.6224
9.3391 7.8839 0.6382
9.3272 8.2681 0.6527
9.3591 8.7094 0.6713
9.3845 9.1660 0.6907
9.4386 9.6756 0.7135
9.4670 10.1860 0.7359
9.4982 10.7283 0.7601
9.5301 11.3035 0.7862
9.5641 11.9168 0.8144
9.6006 12.5732 0.8451
9.6397 13.2779 0.8784
9.6819 14.0376 0.9149
9.7276 14.8599 0.9548
9.7772 15.7540 0.9987
9.8314 16.7310 1.0472
9.8910 17.8041 1.1010
9.9280 18.9348 1.1577
10.0289 20.3062 1.2284
10.1109 21.7833 1.3046
10.2035 23.4511 1.3914
10.3091 25.3518 1.4910
5.7928 15.2950 0.8922
5.5141 15.6944 0.9086
10.6038 32.6870 1.8791
9.7512 32.7344 1.8697
9.8551 36.2651 2.0592
10.0012 40.6628 2.2966
9.0079 40.8592 2.2966
3.9321 20.1398 1.1272
7.0186 41.2236 2.2985
6.0166 41.3577 2.2985
5.0126 41.4707 2.2985
4.0145 41.6397 2.3028
3.1348 43.5017 2.4016
2.0824 43.5672 2.4023
1.0287 43.6114 2.4030
-0.0258 43.6331 2.4037
-1.0809 43.6325 2.4044
-2.1355 43.5985 2.4044
-3.1888 43.5329 2.4039
-4.2405 43.4457 2.4034
-5.2902 43.3373 2.4029
-6.3381 43.2090 2.4025
-7.0650 41.2014 2.2985
-8.0638 41.0435 2.2985
-9.0598 40.8647 2.2985
-10.0528 40.6653 2.2985
-5.1073 18.7069 1.0631
-12.0281 40.2042 2.2985
-10.6734 32.7694 1.8858
-13.9869 39.6601 2.2985
-14.9592 39.3571 2.2985
-16.0863 39.4254 2.3216
-17.0576 39.0776 2.3216
-18.0231 38.7093 2.3216
-18.9821 38.3202 2.3216
-19.9345 37.9102 2.3216
-20.8798 37.4796 2.3216
-21.8178 37.0288 2.3216
-22.7480 36.5572 2.3216
-23.6699 36.0652 2.3216
-24.5832 35.5527 2.3216
-25.4877 35.0199 2.3216
-20.1618 26.3397 1.7742
-26.1948 32.5595 2.2302
-19.0902 22.5882 1.5748
-25.6770 28.9334 2.0550
-9.6227 10.3291 0.7481
-15.5776 15.9310 1.1779
-25.7698 25.1104 1.8972
-26.0595 24.1927 1.8700
-26.3835 23.3320 1.8472
-26.8056 22.5745 1.8330
-27.3020 21.8869 1.8250
-27.9222 21.2963 1.8263
-14.5375 10.5419 0.9311
-14.5664 10.0348 0.9144
-14.5944 9.5424 0.8987
-14.6217 9.0634 0.8838
-14.7105 8.6335 0.8735
-15.0570 8.3543 0.8790
-15.0830 7.8982 0.8662
-15.1084 7.4519 0.8542
-14.7487 6.8364 0.8215
-14.7725 6.4184 0.8111
-14.7959 6.0078 0.8013
-14.8189 5.6039 0.7922
-14.8416 5.2061 0.7836
-14.8639 4.8138 0.7756
-14.8860 4.4265 0.7681
-15.2967 4.1491 0.7809
-15.3188 3.7601 0.7743
-15.3408 3.3746 0.7681
-15.3626 2.9922 0.7624
-15.3842 2.6123 0.7572
-15.0142 2.1776 0.7333
-15.0351 1.8108 0.7291
-15.0559 1.4452 0.7253
-15.0767 1.0803 0.7219
-15.0975 0.7156 0.7190
-15.1183 0.3508 0.7164
-15.1391 -0.0147 0.7143
-15.1600 -0.3811 0.7126
-15.1810 -0.7490 0.7113
-15.5985 -1.1480 0.7290
-15.6203 -1.5298 0.7285
-15.6422 -1.9146 0.7285
-15.6643 -2.3027 0.7289
-6.3031 -1.0828 0.2932
-15.3100 -3.0125 0.7124
-15.3323 -3.4036 0.7141
-15.3549 -3.8001 0.7162
-15.3778 -4.2026 0.7189
-15.4011 -4.6116 0.7220
-21.6459 -7.0557 1.0182
-21.6780 -7.6503 1.0239
-39.6139 -15.0658 1.8801
-10.5712 -4.3156 0.5045
-10.3842 -4.5349 0.4986
-39.8604 -18.5668 1.9272
-30.5226 -15.1252 1.4871
-47.2543 -24.8561 2.3216
-46.3569 -25.8327 2.2985
-45.8967 -27.0497 2.2985
-45.4035 -28.2587 2.2985
-44.8776 -29.4588 2.2985
-46.3063 -32.0237 2.4016
-45.6878 -33.2558 2.4016
-24.2513 -18.5649 1.2933
-44.3486 -35.6816 2.4016
-16.0376 -13.5564 1.1161
-16.0816 -14.2736 1.1397
-16.1259 -15.0248 1.1651
-16.1745 -15.8170 1.1927
-16.2258 -16.6527 1.2226
-16.2749 -17.5312 1.2546
-16.3311 -18.4671 1.2898
-16.3910 -19.4625 1.3280
-16.4551 -20.5251 1.3698
-16.5239 -21.6630 1.4154
-16.5941 -22.8808 1.4651
-16.6746 -24.2009 1.5201
-16.7593 -25.6274 1.5804
-24.0141 -38.7325 2.3474
-22.7824 -38.8088 2.3134
-21.7384 -39.1676 2.2985
-20.8233 -39.7526 2.2985
-19.8912 -40.3132 2.2985
-18.9428 -40.8490 2.2985
-17.9786 -41.3591 2.2984
-16.9996 -41.8433 2.2984
-16.0064 -42.3009 2.2984
-14.9997 -42.7314 2.2984
-13.9804 -43.1344 2.2984
-12.8989 -43.3398 2.2894
-5.4805 -20.1852 1.0578
-4.9962 -20.3317 1.0578
-4.5077 -20.4648 1.0579
-4.0154 -20.5844 1.0579
-3.9381 -23.1509 1.1837
-6.8576 -47.1807 2.4016
-5.7192 -47.3578 2.4016
-1.5120 -15.6971 0.7936
-1.1328 -15.7345 0.7936
-0.7526 -15.7613 0.7936
-0.3718 -15.7775 0.7936
0.0094 -15.7830 0.7936
1.1314 -45.6979 2.2985
2.2345 -45.6523 2.2985
3.3359 -45.5757 2.2985
4.1014 -42.0542 2.1260
4.5603 -37.3872 1.8958
4.4815 -30.5766 1.5562
4.9181 -28.7046 1.4674
5.3080 -27.0393 1.3893
5.6320 -25.4247 1.3140
5.9796 -24.2087 1.2593
6.2632 -22.9599 1.2030
6.5268 -21.8345 1.1531
6.7690 -20.8000 1.1080
6.2304 -17.6817 0.9508
6.5067 -17.1339 0.9307
6.4101 -15.7241 0.8634
6.7591 -15.4986 0.8610
6.4375 -13.8389 0.7784
6.7969 -13.7339 0.7828
7.2487 -13.7980 0.7975
6.7979 -12.2139 0.7165
7.2262 -12.2759 0.7315
7.6451 -12.2981 0.7450
6.7882 -10.3532 0.6382
6.6999 -9.6992 0.6090
6.8661 -9.4437 0.6044
6.9920 -9.1440 0.5972
7.1995 -8.9583 0.5976
7.4282 -8.7988 0.6002
7.6953 -8.6809 0.6061
8.0673 -8.6693 0.6202
8.1856 -8.3810 0.6151
8.2064 -8.0060 0.6035
8.2264 -7.6464 0.5928
8.2456 -7.3010 0.5828
8.2640 -6.9686 0.5736
8.2818 -6.6480 0.5651
8.2990 -6.3383 0.5573
8.3156 -6.0387 0.5500
8.3318 -5.7482 0.5433
8.3474 -5.4661 0.5371
8.3627 -5.1919 0.5315
8.3775 -4.9248 0.5263
8.3920 -4.6642 0.5216
8.4061 -4.4097 0.5173
8.4199 -4.1608 0.5134
8.4334 -3.9169 0.5099
8.4467 -3.6777 0.5068
8.4598 -3.4427 0.5041
8.4726 -3.2116 0.5017
8.4852 -2.9840 0.4996
8.4977 -2.7595 0.4979
8.5100 -2.5380 0.4965
8.5222 -2.3189 0.4954
8.5342 -2.1021 0.4947
8.5461 -1.8873 0.4942
8.5580 -1.6741 0.4941
8.5697 -1.4624 0.4942
8.5814 -1.2518 0.4946
8.5931 -1.0422 0.4954
8.6047 -0.8332 0.4964
8.6162 -0.6246 0.4977
8.6278 -0.4162 0.4993
8.6394 -0.2077 0.5012
8.6510 0.0011 0.5034
8.6626 0.2105 0.5059
8.6743 0.4207 0.5087
8.6860 0.6320 0.5118
9.0728 0.8810 0.5374
8.9618 1.0894 0.5340
8.9742 1.3116 0.5382
8.9866 1.5361 0.5427
8.9992 1.7631 0.5476
9.0120 1.9928 0.5529
9.0249 2.2258 0.5586
9.0381 2.4621 0.5647
9.0514 2.7024 0.5712
9.0650 2.9468 0.5781
9.0788 3.1959 0.5855
9.0929 3.4500 0.5934
9.1073 3.7097 0.6018
9.1221 3.9754 0.6107
9.1372 4.2476 0.6202
9.1527 4.5270 0.6303
9.1687 4.8141 0.6410
9.1851 5.1096 0.6523
9.2020 5.4143 0.6644
9.2195 5.7290 0.6773
9.2375 6.0545 0.6910
9.2563 6.3918 0.7055
9.2757 6.7421 0.7211
9.2960 7.1064 0.7376
9.3170 7.4862 0.7552
9.3391 7.8828 0.7741
9.3277 8.2674 0.7913
9.3591 8.7082 0.8134
9.3844 9.1648 0.8365
9.4385 9.6743 0.8637
9.4669 10.1847 0.8905
9.4981 10.7269 0.9194
9.5300 11.3021 0.9505
9.5641 11.9154 0.9843
9.6005 12.5716 1.0209
9.6396 13.2763 1.0608
9.6818 14.0359 1.1044
9.7275 14.8582 1.1522
9.7771 15.7522 1.2048
9.8313 16.7291 1.2629
9.8909 17.8021 1.3274
9.9278 18.9326 1.3954
10.0288 20.3039 1.4802
10.1108 21.7808 1.5716
10.2034 23.4485 1.6757
10.3089 25.3490 1.7952
5.7933 15.2949 1.0741
5.5135 15.6912 1.0934
10.6048 32.6870 2.2613
9.7521 32.7343 2.2496
9.1375 33.6214 2.2966
8.3157 33.8070 2.2966
7.4971 34.0032 2.2985
3.9323 20.1387 1.3553
5.8380 34.2860 2.2985
5.0050 34.4007 2.2985
4.2656 35.2875 2.3512
3.4836 36.1304 2.4018
2.6085 36.1947 2.4018
1.7323 36.2400 2.4018
0.8556 36.2664 2.4018
-0.0214 36.2738 2.4018
-0.8983 36.2620 2.4017
-1.7748 36.2319 2.4016
-2.6507 36.1841 2.4016
-3.5255 36.1176 2.4016
-4.2101 34.4858 2.2985
-5.0444 34.3865 2.2985
-5.8768 34.2694 2.2985
-6.7070 34.1346 2.2985
-7.5346 33.9820 2.2985
-8.4432 34.1513 2.3216
-5.1079 18.7071 1.2788
-10.0992 33.7537 2.3216
-10.6729 32.7649 2.2688
-11.7397 33.2851 2.3216
-12.5533 33.0241 2.3216
-13.3620 32.7454 2.3216
-14.1656 32.4492 2.3216
-14.9637 32.1355 2.3216
-15.7559 31.8043 2.3216
-16.5420 31.4556 2.3216
-17.3216 31.0896 2.3216
-18.0943 30.7062 2.3216
-18.8598 30.3057 2.3216
-19.6178 29.8881 2.3216
-20.3680 29.4534 2.3216
-21.1099 29.0017 2.3216
-20.1607 26.3353 2.1428
-22.2596 27.6651 2.2899
-19.0860 22.5807 1.9031
-22.9017 25.8032 2.2164
-9.6259 10.3312 0.9053
-15.5771 15.9286 1.4255
-24.0237 23.4061 2.1415
-24.5099 22.7512 2.1305
-25.0350 22.1365 2.1243
-25.5954 21.5524 2.1222
-26.2091 21.0078 2.1253
-26.9584 20.5582 2.1401
-14.5376 10.5404 1.1307
-14.5665 10.0333 1.1110
-14.5945 9.5409 1.0925
-14.6218 9.0620 1.0750
-14.7134 8.6336 1.0633
-15.0571 8.3528 1.0703
-15.0831 7.8967 1.0554
-15.1085 7.4505 1.0414
-14.7487 6.8350 1.0021
-14.7726 6.4170 0.9901
-14.7960 6.0064 0.9788
-14.8190 5.6026 0.9683
-14.8416 5.2048 0.9584
-14.8640 4.8125 0.9492
-14.8861 4.4252 0.9407
-15.2967 4.1477 0.9571
-15.3189 3.7587 0.9496
-15.3409 3.3733 0.9427
-15.3627 2.9908 0.9363
-15.3843 2.6109 0.9306
-15.0142 2.1762 0.9019
-15.0351 1.8095 0.8974
-15.0560 1.4439 0.8934
-15.0768 1.0789 0.8899
-15.0976 0.7143 0.8869
-15.1184 0.3494 0.8845
-15.1392 -0.0160 0.8826
-15.1601 -0.3824 0.8811
-15.1810 -0.7503 0.8802
-15.5986 -1.1494 0.9028
-15.6204 -1.5312 0.9029
-15.6423 -1.9160 0.9036
-15.6644 -2.3041 0.9048
-6.3026 -1.0832 0.3642
-15.3100 -3.0139 0.8858
-15.3323 -3.4050 0.8886
-15.3549 -3.8015 0.8920
-15.3779 -4.2040 0.8960
-15.4012 -4.6131 0.9006
-15.6695 -5.1091 0.9202
-15.8244 -5.5860 0.9339
-15.5734 -5.9243 0.9242
-10.4893 -4.2831 0.6264
-10.3014 -4.4998 0.6195
-15.6532 -7.2927 0.9487
-15.6909 -7.7770 0.9590
-15.7200 -8.2704 0.9697
-15.7500 -8.7784 0.9813
-15.7809 -9.3022 0.9938
-15.8159 -9.8453 1.0076
-15.8501 -10.4061 1.0225
-15.8857 -10.9876 1.0385
-15.9226 -11.5917 1.0558
-15.9555 -12.2161 1.0741
-15.9957 -12.8715 1.0943
-16.0381 -13.5586 1.3497
-16.0821 -14.2760 1.3789
-16.1259 -15.0268 1.4102
-16.1746 -15.8191 1.4443
-16.2258 -16.6549 1.4812
-16.2750 -17.5334 1.5207
-16.3313 -18.4694 1.5640
-16.3911 -19.4649 1.6111
-16.4550 -20.5273 1.6624
-16.5237 -21.6652 1.7184
-16.5948 -22.8843 1.7795
-16.6753 -24.2046 1.8470
-16.7596 -25.6307 1.9211
-20.2059 -32.5936 2.4016
-19.4440 -33.1254 2.4016
-18.6671 -33.6374 2.4016
-17.8758 -34.1291 2.4016
-17.0705 -34.6000 2.4016
-16.2519 -35.0497 2.4016
-15.4205 -35.4778 2.4016
-14.5770 -35.8838 2.4016
-13.7220 -36.2673 2.4016
-12.8561 -36.6280 2.4016
-11.9799 -36.9654 2.4016
-11.0941 -37.2792 2.4016
-5.4037 -19.9043 1.2724
-4.8967 -19.9283 1.2650
-4.3944 -19.9521 1.2585
-3.8963 -19.9756 1.2528
-3.9383 -23.1540 1.4449
-5.6174 -38.6513 2.4016
-1.6558 -13.7118 0.8489
-1.3220 -13.7261 0.8472
-0.9891 -13.7404 0.8462
-0.6567 -13.7546 0.8456
-0.3244 -13.7688 0.8457
0.0082 -13.7830 0.8463
0.3416 -13.7973 0.8474
1.8299 -37.3878 2.2985
2.7318 -37.3265 2.2985
3.6316 -37.2405 2.2985
4.4425 -36.4243 2.2548
4.4813 -30.5777 1.8998
4.9608 -28.9565 1.8068
5.0985 -25.9741 1.6288
5.4318 -24.5230 1.5466
5.9780 -24.2043 1.5362
6.2630 -22.9610 1.4676
6.5265 -21.8356 1.4065
6.7687 -20.8011 1.3512
6.2630 -17.7759 1.1653
6.5063 -17.1345 1.1344
6.2909 -15.4333 1.0327
6.7585 -15.4986 1.0490
6.4263 -13.8160 0.9465
6.8159 -13.7736 0.9559
6.4738 -12.3242 0.8671
6.8193 -12.2536 0.8747
7.2254 -12.2759 0.8898
7.6444 -12.2982 0.9060
6.7881 -10.3542 0.7759
6.6997 -9.7000 0.7401
6.8658 -9.4442 0.7343
6.9915 -9.1444 0.7252
7.2963 -9.0797 0.7352
7.5347 -8.9260 0.7387
7.6947 -8.6812 0.7351
8.0665 -8.6694 0.7519
8.1855 -8.3820 0.7454
8.2064 -8.0069 0.7310
8.2263 -7.6474 0.7177
8.2455 -7.3019 0.7053
8.2640 -6.9695 0.6939
8.2818 -6.6489 0.6832
8.2990 -6.3392 0.6734
8.3156 -6.0395 0.6643
8.3317 -5.7490 0.6559
8.3474 -5.4670 0.6481
8.3626 -5.1927 0.6410
8.3774 -4.9256 0.6344
8.3919 -4.6650 0.6284
8.4060 -4.4105 0.6229
8.4199 -4.1616 0.6179
8.4334 -3.9177 0.6133
8.4467 -3.6784 0.6093
8.4597 -3.4435 0.6057
8.4726 -3.2123 0.6025
8.4852 -2.9847 0.5997
8.4977 -2.7603 0.5973
8.5100 -2.5387 0.5953
8.5221 -2.3197 0.5937
8.5342 -2.1029 0.5925
8.5461 -1.8880 0.5916
8.5579 -1.6749 0.5911
8.4950 -1.4504 0.5858
8.5066 -1.2417 0.5860
8.5182 -1.0338 0.5865
8.5297 -0.8267 0.5874
8.5411 -0.6199 0.5886
8.5526 -0.4133 0.5902
8.6182 -0.2079 0.5959
8.6509 0.0004 0.5996
8.6626 0.2098 0.6023
8.6742 0.4199 0.6053
8.6860 0.6312 0.6087
9.0781 0.8807 0.6392
8.9618 1.0886 0.6344
8.9741 1.3108 0.6391
8.9866 1.5353 0.6442
8.9992 1.7623 0.6497
9.0119 1.9920 0.6556
9.0249 2.2249 0.6620
9.0380 2.4613 0.6689
9.0513 2.7015 0.6763
9.0649 2.9460 0.6842
9.0787 3.1950 0.6926
9.0929 3.4492 0.7016
9.1073 3.7088 0.7112
9.1220 3.9745 0.7214
9.1371 4.2467 0.7323
9.1527 4.5260 0.7439
9.1686 4.8131 0.7562
9.1850 5.1086 0.7693
9.2019 5.4133 0.7833
9.2194 5.7280 0.7981
9.2375 6.0535 0.8139
9.2562 6.3908 0.8307
9.2757 6.7410 0.8487
9.2959 7.1053 0.8678
9.3170 7.4851 0.8882
9.3390 7.8817 0.9101
9.3282 8.2668 0.9301
9.3590 8.7070 0.9557
9.3844 9.1636 0.9825
9.4385 9.6731 1.0142
9.4668 10.1834 1.0452
9.4980 10.7256 1.0789
9.5299 11.3007 1.1151
9.5640 11.9139 1.1543
9.6004 12.5701 1.1970
9.6395 13.2747 1.2434
9.6817 14.0343 1.2942
9.7274 14.8564 1.3498
9.7770 15.7504 1.4111
9.8312 16.7272 1.4788
9.8908 17.8001 1.5541
9.9277 18.9305 1.6333
10.0287 20.3017 1.7322
10.1107 21.7784 1.8388
10.2033 23.4458 1.9603
10.3088 25.3462 2.0998
5.7938 15.2948 1.2563
5.5129 15.6882 1.2784
9.2121 28.3914 2.2966
8.5164 28.5840 2.2966
7.8174 28.7613 2.2966
7.1211 28.9474 2.2985
6.4153 29.0940 2.2985
3.9324 20.1377 1.5838
4.9964 29.3409 2.2985
4.2838 29.4410 2.2985
3.7296 30.8500 2.4016
2.9818 30.9222 2.4016
2.2327 30.9782 2.4016
1.4829 31.0179 2.4016
0.7324 31.0413 2.4016
-0.0183 31.0485 2.4016
-0.7690 31.0394 2.4016
-1.5193 31.0139 2.4016
-2.2691 30.9724 2.4016
-3.0179 30.9144 2.4016
-3.7654 30.8403 2.4016
-4.3203 29.4482 2.3000
-5.0298 29.3279 2.2985
-5.7399 29.2103 2.2985
-6.4477 29.0774 2.2985
-7.1528 28.9289 2.2985
-5.1084 18.7073 1.4948
-8.6396 28.8730 2.3216
-9.3420 28.6767 2.3216
-10.0405 28.4648 2.3216
-10.7348 28.2376 2.3216
-11.4247 27.9951 2.3216
-12.1098 27.7373 2.3216
-12.7899 27.4644 2.3216
-13.4645 27.1763 2.3216
-14.1336 26.8732 2.3216
-14.7967 26.5552 2.3216
-15.4535 26.2222 2.3216
-16.1038 25.8744 2.3216
-16.7472 25.5119 2.3216
-17.3834 25.1348 2.3216
-18.0122 24.7432 2.3216
-18.6331 24.3372 2.3216
-19.2460 23.9169 2.3216
-19.0819 22.5732 2.2317
-20.4463 23.0339 2.3216
-9.6251 10.3291 1.0624
-15.5766 15.9261 1.6734
-22.1223 21.5509 2.3158
-22.6316 21.0049 2.3109
-23.2089 20.5191 2.3142
-23.7078 19.9602 2.3106
-24.3023 19.4767 2.3174
-24.8191 18.9241 2.3176
-14.5376 10.5389 1.3306
-14.5665 10.0318 1.3079
-14.5946 9.5394 1.2865
-14.6219 9.0605 1.2665
-14.7162 8.6338 1.2534
-15.0572 8.3514 1.2620
-15.0831 7.8953 1.2449
-15.1086 7.4490 1.2289
-14.7488 6.8336 1.1830
-14.7726 6.4156 1.1693
-14.7960 6.0051 1.1565
-14.8191 5.6012 1.1446
-14.8417 5.2034 1.1334
-14.8641 4.8111 1.1231
-14.8862 4.4238 1.1135
-15.2968 4.1463 1.1335
-15.3190 3.7574 1.1251
-15.3409 3.3719 1.1175
-15.3627 2.9895 1.1105
-15.3844 2.6095 1.1042
-15.0143 2.1749 1.0707
-15.0352 1.8082 1.0659
-15.0561 1.4425 1.0617
-15.0769 1.0776 1.0581
-15.0976 0.7130 1.0551
-15.1184 0.3481 1.0528
-15.1393 -0.0173 1.0510
-15.1601 -0.3838 1.0499
-15.1811 -0.7517 1.0494
-15.5987 -1.1508 1.0768
-15.6205 -1.5326 1.0775
-15.6424 -1.9174 1.0789
-15.6645 -2.3055 1.0809
-6.3021 -1.0837 0.4353
-15.3101 -3.0153 1.0594
-15.3324 -3.4064 1.0633
-15.3550 -3.8030 1.0680
-15.3780 -4.2054 1.0734
-15.4013 -4.6145 1.0795
-15.5317 -5.0656 1.0939
-15.5568 -5.4930 1.1016
-15.5824 -5.9292 1.1102
-10.4557 -4.2704 0.7501
-10.2754 -4.4894 0.7427
-10.3925 -4.8428 0.7574
-15.6911 -7.7787 1.1538
-15.7202 -8.2721 1.1673
-15.7502 -8.7801 1.1818
-15.7811 -9.3040 1.1976
-15.8159 -9.8469 1.2149
-15.8502 -10.4078 1.2334
-15.8858 -10.9894 1.2533
-15.9227 -11.5935 1.2749
-15.9560 -12.2182 1.2977
-15.9961 -12.8737 1.3227
-16.0386 -13.5609 1.5837
-16.0826 -14.2783 1.6185
-16.1260 -15.0289 1.6558
-16.1746 -15.8212 1.6963
-16.2259 -16.6570 1.7402
-16.2751 -17.5357 1.7872
-16.3314 -18.4718 1.8387
-16.3912 -19.4674 1.8946
-16.4548 -20.5295 1.9554
-16.5236 -21.6675 2.0219
-16.5955 -22.8877 2.0945
-16.6760 -24.2083 2.1745
-16.7599 -25.6339 2.2622
-14.7112 -23.7328 2.0595
-15.7823 -26.8901 2.2966
-15.1483 -27.2993 2.2966
-14.5139 -27.7132 2.2984
-13.8571 -28.0896 2.2984
-13.1899 -28.4488 2.2984
-10.4201 -23.9757 1.9140
-9.9267 -24.4387 1.9292
-11.1304 -29.4206 2.2984
-10.4263 -29.7082 2.2984
-9.7142 -29.9773 2.2984
-9.3987 -31.5853 2.4016
-5.4032 -19.9044 1.5020
-4.8962 -19.9284 1.4934
-4.3940 -19.9521 1.4859
-3.8959 -19.9757 1.4794
-3.9384 -23.1570 1.7066
-4.7559 -32.7269 2.4016
-1.6556 -13.7119 1.0026
-1.1307 -11.7410 0.8560
-0.8467 -11.7629 0.8557
-0.5623 -11.7773 0.8553
-0.2776 -11.7841 0.8550
0.0070 -11.7834 0.8546
0.2915 -11.7750 0.8543
1.5490 -31.6503 2.2985
2.3125 -31.5992 2.2985
3.0743 -31.5276 2.2985
3.8337 -31.4357 2.2985
4.4852 -30.6067 2.2459
4.9176 -28.7067 2.1155
5.0185 -25.5687 1.8935
5.3497 -24.1542 1.7987
5.9774 -24.2041 1.8137
6.3174 -23.1627 1.7477
6.5262 -21.8367 1.6602
6.8276 -20.9839 1.6087
6.3605 -18.0544 1.3967
5.9007 -15.5410 1.2140
6.3064 -15.4728 1.2214
6.7579 -15.4986 1.2372
6.3763 -13.7100 1.1075
6.8152 -13.7736 1.1269
6.4367 -12.2547 1.0163
6.8186 -12.2536 1.0308
7.2246 -12.2757 1.0484
7.6436 -12.2982 1.0672
6.6283 -10.1115 0.8923
6.6995 -9.7008 0.8713
6.8655 -9.4448 0.8643
6.9911 -9.1448 0.8534
7.2793 -9.0597 0.8629
7.4838 -8.8668 0.8629
7.6940 -8.6815 0.8642
8.0656 -8.6695 0.8837
8.1855 -8.3830 0.8759
8.2063 -8.0079 0.8587
8.2263 -7.6483 0.8428
8.2455 -7.3029 0.8280
8.2639 -6.9704 0.8143
8.2817 -6.6498 0.8016
8.2989 -6.3401 0.7897
8.3155 -6.0404 0.7788
8.3317 -5.7499 0.7686
8.3473 -5.4678 0.7593
8.3626 -5.1936 0.7506
8.3774 -4.9264 0.7427
8.3919 -4.6659 0.7353
8.4060 -4.4113 0.7286
8.4198 -4.1624 0.7225
8.4334 -3.9185 0.7169
8.4466 -3.6792 0.7119
8.4597 -3.4442 0.7074
8.4725 -3.2131 0.7034
8.4852 -2.9855 0.6999
8.4976 -2.7611 0.6968
8.5099 -2.5395 0.6942
8.5221 -2.3204 0.6921
8.5341 -2.1036 0.6904
8.5461 -1.8888 0.6891
8.5579 -1.6757 0.6882
8.4950 -1.4512 0.6818
8.5557 -1.2496 0.6857
8.5673 -1.0406 0.6861
8.5789 -0.8322 0.6868
8.5904 -0.6242 0.6880
8.6020 -0.4164 0.6896
8.6174 -0.2087 0.6919
8.6509 -0.0004 0.6960
8.6625 0.2090 0.6988
8.6742 0.4192 0.7021
8.6859 0.6304 0.7057
9.0834 0.8804 0.7413
8.9617 1.0877 0.7350
8.9741 1.3100 0.7401
8.9865 1.5345 0.7458
8.9991 1.7614 0.7519
9.0119 1.9912 0.7585
9.0248 2.2241 0.7656
9.0380 2.4605 0.7733
9.0513 2.7007 0.7816
9.0649 2.9451 0.7904
9.0787 3.1942 0.7999
9.0928 3.4483 0.8100
9.1072 3.7079 0.8208
9.1220 3.9736 0.8323
9.1371 4.2458 0.8446
9.1526 4.5251 0.8577
9.1686 4.8122 0.8716
9.1850 5.1077 0.8865
9.2019 5.4123 0.9023
9.2193 5.7270 0.9191
9.2374 6.0524 0.9370
9.2562 6.3898 0.9561
9.2756 6.7400 0.9765
9.2958 7.1043 0.9982
9.3169 7.4839 1.0215
9.3389 7.8805 1.0463
9.3287 8.2661 1.0691
9.3589 8.7058 1.0982
9.3843 9.1624 1.1287
9.4384 9.6718 1.1648
9.4667 10.1821 1.2002
9.4979 10.7242 1.2386
9.5299 11.2992 1.2799
9.5639 11.9125 1.3246
9.6003 12.5686 1.3733
9.6395 13.2731 1.4263
9.6816 14.0326 1.4842
9.7273 14.8547 1.5478
9.7769 15.7486 1.6178
9.8311 16.7253 1.6951
9.8907 17.7981 1.7811
9.9276 18.9284 1.8716
10.0285 20.2993 1.9846
10.1105 21.7759 2.1065
10.2031 23.4432 2.2453
9.8448 24.2031 2.2966
5.7944 15.2947 1.4388
5.5125 15.6853 1.4637
8.0461 24.7957 2.2966
7.4393 24.9663 2.2966
6.8349 25.1443 2.2985
6.2213 25.2873 2.2985
5.6051 25.4171 2.2985
3.9178 20.0606 1.8058
4.3659 25.6356 2.2984
3.7434 25.7243 2.2984
3.2594 26.9580 2.4016
2.6059 27.0221 2.4016
1.9514 27.0718 2.4016
1.2961 27.1071 2.4016
0.6401 27.1280 2.4016
-0.0160 27.1344 2.4016
-0.6721 27.1264 2.4016
-1.3279 27.1039 2.4016
-1.9831 27.0671 2.4016
-2.6375 27.0158 2.4016
-3.2907 26.9501 2.4016
-3.9424 26.8700 2.4016
-4.3951 25.6245 2.2984
-5.0153 25.5204 2.2984
-5.6333 25.4026 2.2984
-6.2489 25.2712 2.2984
-5.1089 18.7074 1.7113
-7.4717 24.9676 2.2984
-8.0784 24.7954 2.2984
-8.7693 24.8586 2.3216
-9.3747 24.6576 2.3216
-9.9760 24.4430 2.3216
-10.5730 24.2151 2.3216
-11.1653 23.9736 2.3216
-11.7527 23.7189 2.3216
-12.3350 23.4510 2.3216
-12.9118 23.1699 2.3216
-13.4828 22.8758 2.3216
-14.0478 22.5687 2.3216
-14.6065 22.2486 2.3216
-15.1587 21.9158 2.3216
-15.7042 21.5704 2.3216
-16.2424 21.2122 2.3216
-16.7733 20.8417 2.3216
-17.2966 20.4589 2.3216
-17.8119 20.0638 2.3216
-9.6300 10.3331 1.2204
-15.5761 15.9236 1.9217
-19.3077 18.8065 2.3216
-19.7886 18.3639 2.3216
-20.2603 17.9098 2.3216
-20.7224 17.4444 2.3216
-21.1747 16.9677 2.3216
-21.6169 16.4800 2.3216
-14.5377 10.5373 1.5307
-14.5666 10.0303 1.5050
-14.5947 9.5379 1.4809
-14.6220 9.0591 1.4582
-14.6486 8.5926 1.4369
-14.6745 8.1376 1.4170
-14.6998 7.6931 1.3982
-14.7246 7.2583 1.3807
-14.7489 6.8322 1.3642
-14.7727 6.4142 1.3489
-14.7961 6.0037 1.3345
-14.8191 5.5998 1.3212
-14.8418 5.2021 1.3087
-14.8642 4.8098 1.2972
-14.8862 4.4225 1.2866
-14.9851 4.0605 1.2834
-15.1130 3.7055 1.2834
-15.2328 3.3468 1.2834
-15.3445 2.9845 1.2834
-15.3845 2.6082 1.2781
-15.0144 2.1736 1.2398
-15.0353 1.8068 1.2346
-15.0561 1.4412 1.2302
-15.0769 1.0763 1.2265
-15.0977 0.7116 1.2236
-15.1185 0.3468 1.2213
-15.1393 -0.0187 1.2197
-15.1602 -0.3851 1.2189
-15.1812 -0.7530 1.2187
-15.5988 -1.1521 1.2511
-15.6205 -1.5340 1.2524
-15.6425 -1.9188 1.2545
-15.6646 -2.3069 1.2574
-6.3015 -1.0842 0.5065
-15.3102 -3.0167 1.2332
-15.3325 -3.4079 1.2383
-15.3551 -3.8044 1.2442
-15.3780 -4.2069 1.2510
-15.4014 -4.6160 1.2586
-15.5315 -5.0670 1.2759
-15.5566 -5.4944 1.2854
-15.5822 -5.9306 1.2960
-10.4546 -4.2709 0.8758
-10.2749 -4.4902 0.8676
-10.3957 -4.8453 0.8854
-15.6913 -7.7803 1.3490
-15.7204 -8.2737 1.3652
-15.7504 -8.7818 1.3828
-15.7813 -9.3057 1.4017
-15.8160 -9.8487 1.4224
-15.8503 -10.4096 1.4446
-15.8859 -10.9912 1.4685
-15.9228 -11.5953 1.4943
-15.9564 -12.2204 1.5216
-15.9966 -12.8759 1.5515
-16.0391 -13.5632 1.8182
-16.0831 -14.2807 1.8586
-16.1261 -15.0309 1.9018
-16.1747 -15.8233 1.9488
-16.2260 -16.6592 1.9997
-16.2753 -17.5380 2.0542
-16.3315 -18.4741 2.1138
-16.3914 -19.4698 2.1785
-16.4547 -20.5317 2.2490
-16.3152 -21.3966 2.2966
-15.8153 -21.8141 2.2966
-15.3041 -22.2191 2.2966
-14.7820 -22.6111 2.2966
-14.2492 -22.9899 2.2966
-13.7062 -23.3551 2.2966
-10.3557 -18.6643 1.8082
-9.9637 -19.0268 1.8174
-9.5679 -19.3969 1.8283
-11.4386 -24.6740 2.2966
-10.8580 -24.9858 2.2984
-10.2608 -25.2635 2.2984
-9.6560 -25.5257 2.2984
-9.0440 -25.7721 2.2984
-8.4254 -26.0025 2.2984
-7.8004 -26.2167 2.2984
-5.4027 -19.9044 1.7319
-4.8957 -19.9284 1.7222
-4.3936 -19.9521 1.7137
-3.8955 -19.9757 1.7063
-3.9386 -23.1600 1.9687
-4.1225 -28.3712 2.4016
-1.2265 -10.1593 0.8570
-0.9808 -10.1851 0.8567
-0.7344 -10.2043 0.8563
-0.4877 -10.2171 0.8561
-0.2408 -10.2234 0.8558
0.0061 -10.2232 0.8555
0.2529 -10.2165 0.8552
0.4993 -10.2033 0.8549
2.0043 -27.3898 2.2985
2.6646 -27.3285 2.2985
3.3230 -27.2499 2.2985
3.9788 -27.1538 2.2985
4.6318 -27.0405 2.2985
4.9297 -25.1184 2.1455
5.3265 -24.0518 2.0657
5.9768 -24.2040 2.0917
6.3172 -23.1638 2.0155
6.5260 -21.8378 1.9144
6.8273 -20.9850 1.8548
6.3374 -17.9905 1.6044
5.8563 -15.4256 1.3889
6.3059 -15.4730 1.4077
6.0602 -13.8998 1.2786
6.3942 -13.7497 1.2798
6.0995 -12.3283 1.1620
6.4243 -12.2323 1.1684
6.8179 -12.2536 1.1871
7.2238 -12.2756 1.2072
7.6428 -12.2982 1.2286
6.6901 -10.2069 1.0368
6.7397 -9.7600 1.0089
6.8651 -9.4454 0.9945
7.0222 -9.1865 0.9862
7.2306 -9.0000 0.9860
7.4611 -8.8409 0.9894
7.7294 -8.7225 0.9982
8.0647 -8.6696 1.0157
8.1854 -8.3839 1.0066
8.2063 -8.0088 0.9867
8.2262 -7.6492 0.9681
8.2454 -7.3038 0.9509
8.2639 -6.9713 0.9349
8.2817 -6.6507 0.9201
8.2989 -6.3410 0.9063
8.3155 -6.0413 0.8935
8.3316 -5.7508 0.8816
8.3473 -5.4687 0.8706
8.3625 -5.1944 0.8605
8.3774 -4.9273 0.8511
8.3918 -4.6667 0.8425
8.4060 -4.4122 0.8346
8.4198 -4.1632 0.8273
8.4333 -3.9193 0.8207
8.4466 -3.6800 0.8147
8.4596 -3.4450 0.8093
8.4725 -3.2139 0.8045
8.4851 -2.9863 0.8003
8.4976 -2.7619 0.7966
8.5099 -2.5403 0.7934
8.5220 -2.3212 0.7907
8.5341 -2.1044 0.7885
8.5460 -1.8896 0.7868
8.5578 -1.6764 0.7856
8.4950 -1.4519 0.7780
8.5557 -1.2504 0.7822
8.5673 -1.0413 0.7824
8.5788 -0.8330 0.7830
8.5904 -0.6250 0.7841
8.6019 -0.4172 0.7857
8.6167 -0.2094 0.7880
8.6509 -0.0012 0.7926
8.6625 0.2082 0.7956
8.6742 0.4184 0.7990
8.6859 0.6296 0.8029
9.0887 0.8801 0.8436
8.9617 1.0869 0.8358
8.9740 1.3092 0.8414
8.9865 1.5336 0.8475
8.9991 1.7606 0.8542
9.0119 1.9904 0.8615
9.0248 2.2232 0.8694
9.0379 2.4596 0.8779
9.0512 2.6998 0.8870
9.0648 2.9442 0.8968
9.0787 3.1933 0.9073
9.0928 3.4474 0.9186
9.1072 3.7070 0.9306
9.1219 3.9727 0.9434
9.1370 4.2449 0.9571
9.1526 4.5242 0.9717
9.1685 4.8112 0.9872
9.1849 5.1067 1.0038
9.2018 5.4114 1.0215
9.2193 5.7260 1.0403
9.2374 6.0514 1.0603
9.2561 6.3887 1.0817
9.2755 6.7389 1.1045
9.2958 7.1032 1.1289
9.3169 7.4828 1.1549
9.3389 7.8794 1.1828
9.3292 8.2655 1.2083
9.3589 8.7045 1.2409
9.3842 9.1611 1.2751
9.4383 9.6705 1.3157
9.4667 10.1807 1.3555
9.4979 10.7228 1.3985
9.5298 11.2978 1.4450
9.5638 11.9110 1.4953
9.6002 12.5670 1.5499
9.6394 13.2715 1.6095
9.6815 14.0310 1.6746
9.7272 14.8530 1.7461
9.7768 15.7468 1.8248
9.8310 16.7233 1.9118
9.8906 17.7960 2.0085
9.9275 18.9262 2.1103
10.0284 20.2970 2.2375
9.7782 21.0580 2.2966
9.2586 21.2709 2.2966
8.7348 21.4720 2.2966
5.7949 15.2946 1.6216
5.5120 15.6826 1.6493
7.1408 22.0035 2.2966
6.6082 22.1750 2.2985
6.0667 22.3161 2.2985
5.5225 22.4450 2.2985
4.9758 22.5616 2.2985
3.9162 20.0510 2.0333
3.8762 22.7582 2.2985
3.4727 23.8623 2.4016
2.8939 23.9328 2.4016
2.3138 23.9904 2.4016
1.7327 24.0351 2.4016
1.1508 24.0668 2.4016
0.5684 24.0856 2.4016
-0.0142 24.0913 2.4016
-0.5968 24.0842 2.4016
-1.1790 24.0641 2.4016
-1.7608 24.0311 2.4016
-2.3418 23.9851 2.4016
-2.9217 23.9261 2.4016
-3.5003 23.8543 2.4016
-4.0773 23.7697 2.4016
-4.4849 22.8196 2.3151
-5.0009 22.5488 2.2984
-5.5471 22.4309 2.2984
-5.1094 18.7076 1.9281
-6.6317 22.1585 2.2984
-7.1696 22.0042 2.2984
-7.7043 21.8378 2.2984
-8.2356 21.6594 2.2984
-8.8516 21.6860 2.3216
-9.3805 21.4817 2.3216
-9.9050 21.2654 2.3216
-10.4250 21.0373 2.3216
-10.9402 20.7973 2.3216
-11.4505 20.5456 2.3216
-11.9554 20.2823 2.3216
-12.4549 20.0074 2.3216
-12.9485 19.7210 2.3216
-13.4362 19.4233 2.3216
-13.9176 19.1143 2.3216
-14.3925 18.7943 2.3216
-14.8606 18.4631 2.3216
-15.3218 18.1209 2.3216
-15.3782 17.3204 2.2631
-9.6404 10.3430 1.3797
-15.5756 15.9212 2.1704
-17.0915 16.6458 2.3216
-17.5141 16.2510 2.3216
-17.9281 15.8461 2.3216
-17.9677 15.1234 2.2753
-18.3562 14.7072 2.2753
-18.7357 14.2815 2.2753
-14.5378 10.5358 1.7313
-14.5667 10.0288 1.7026
-14.5948 9.5365 1.6756
-14.6221 9.0576 1.6503
-14.6486 8.5912 1.6266
-14.6746 8.1362 1.6043
-14.6999 7.6917 1.5835
-14.7247 7.2568 1.5640
-14.7490 6.8308 1.5457
-14.7728 6.4129 1.5287
-14.7962 6.0023 1.5128
-14.8192 5.5985 1.4981
-14.8419 5.2007 1.4844
-14.8642 4.8084 1.4717
-14.8863 4.4211 1.4600
-14.9081 4.0382 1.4493
-14.9297 3.6592 1.4395
-14.9511 3.2835 1.4306
-14.9724 2.9108 1.4226
-14.9935 2.5405 1.4154
-15.0145 2.1722 1.4092
-15.0354 1.8055 1.4037
-15.0562 1.4399 1.3991
-15.0770 1.0749 1.3953
-15.0978 0.7103 1.3923
-15.1186 0.3454 1.3901
-15.1394 -0.0200 1.3887
-15.1603 -0.3865 1.3882
-15.1813 -0.7544 1.3884
-15.2023 -1.1242 1.3895
-15.2236 -1.4964 1.3914
-15.2449 -1.8714 1.3941
-15.2665 -2.2497 1.3977
-6.3010 -1.0847 0.5779
-15.3103 -3.0181 1.4074
-15.3326 -3.4093 1.4137
-15.3552 -3.8058 1.4208
-15.3781 -4.2083 1.4290
-15.4014 -4.6174 1.4381
-15.5313 -5.0684 1.4582
-15.5564 -5.4958 1.4696
-15.5819 -5.9320 1.4820
-10.4534 -4.2715 1.0017
-10.2747 -4.4911 0.9927
-10.3991 -4.8479 1.0137
-15.6915 -7.7820 1.5445
-15.7206 -8.2754 1.5635
-15.7506 -8.7835 1.5840
-15.7815 -9.3075 1.6062
-15.8161 -9.8504 1.6304
-15.8504 -10.4113 1.6563
-15.8859 -10.9930 1.6841
-15.9229 -11.5971 1.7141
-15.9569 -12.2225 1.7459
-15.9971 -12.8781 1.7807
-16.0395 -13.5655 2.0531
-16.0836 -14.2831 2.0991
-16.1262 -15.0330 2.1483
-14.0751 -13.7711 1.9160
-13.7283 -14.0966 1.9119
-13.3818 -14.4217 1.9089
-15.6970 -17.7584 2.2966
-15.2837 -18.1562 2.2966
-14.8598 -18.5437 2.2966
-14.4256 -18.9207 2.2966
-13.9814 -19.2868 2.2966
-13.5275 -19.6419 2.2966
-13.0640 -19.9855 2.2966
-12.5914 -20.3173 2.2966
-12.1099 -20.6372 2.2966
-11.6198 -20.9448 2.2966
-11.1214 -21.2399 2.2966
-9.6810 -19.6282 2.0945
-10.1090 -21.8082 2.2984
-9.5876 -22.0646 2.2984
-9.0593 -22.3074 2.2984
-8.5244 -22.5366 2.2984
-7.9834 -22.7521 2.2984
-7.4367 -22.9534 2.2984
-7.0503 -23.6977 2.3537
-5.4022 -19.9044 1.9623
-4.8953 -19.9284 1.9514
-4.3932 -19.9521 1.9419
-3.8952 -19.9757 1.9336
-3.9644 -23.3141 2.2460
-3.6372 -25.0333 2.4016
-1.0827 -8.9685 0.8574
-0.8657 -8.9913 0.8571
-0.6483 -9.0085 0.8569
-0.4305 -9.0200 0.8566
-0.2126 -9.0258 0.8564
0.0054 -9.0259 0.8561
0.2233 -9.0204 0.8558
0.4408 -9.0092 0.8556
1.7681 -24.1648 2.2985
2.3507 -24.1113 2.2985
2.9316 -24.0425 2.2985
3.5103 -23.9586 2.2985
4.0866 -23.8596 2.2985
4.6598 -23.7455 2.2985
5.3260 -24.0516 2.3409
5.9170 -23.9640 2.3466
6.2685 -22.9875 2.2663
6.5263 -21.8407 2.1693
6.8052 -20.9190 2.0947
5.4655 -15.5168 1.5675
5.8641 -15.4476 1.5755
5.7106 -14.0137 1.4439
5.9666 -13.6866 1.4258
6.3936 -13.7498 1.4492
6.1053 -12.3412 1.3170
6.4236 -12.2323 1.3228
6.8172 -12.2536 1.3438
7.2230 -12.2755 1.3663
7.6421 -12.2983 1.3904
6.6903 -10.2081 1.1732
6.7396 -9.7608 1.1415
6.8648 -9.4459 1.1250
7.0217 -9.1869 1.1154
7.2301 -9.0004 1.1150
