ply
format ascii 1.0
element vertex 2178
property float32 x
property float32 y
property float32 z
end_header
2.3639 -5.4323 2.4026
2.4230 -5.2201 2.3343
2.5097 -5.0823 2.2995
2.6310 -5.0194 2.2995
2.7507 -4.9535 2.2995
2.8688 -4.8848 2.2995
2.9851 -4.8131 2.2995
3.0996 -4.7387 2.2995
3.2123 -4.6615 2.2995
3.3230 -4.5816 2.2995
3.4317 -4.4990 2.2995
3.5383 -4.4139 2.2995
3.6428 -4.3261 2.2995
3.7451 -4.2359 2.2995
3.8451 -4.1432 2.2995
3.9428 -4.0481 2.2995
4.0382 -3.9506 2.2995
4.1311 -3.8509 2.2995
4.2215 -3.7490 2.2995
4.3094 -3.6450 2.2995
4.3947 -3.5388 2.2995
4.4774 -3.4307 2.2995
4.5574 -3.3206 2.2995
4.6347 -3.2086 2.2995
4.7092 -3.0948 2.2995
4.7808 -2.9792 2.2995
4.8497 -2.8620 2.2995
4.9156 -2.7431 2.2995
4.9786 -2.6227 2.2995
5.0386 -2.5009 2.2995
5.0957 -2.3777 2.2995
5.1497 -2.2531 2.2995
5.2007 -2.1274 2.2995
5.2485 -2.0004 2.2995
5.2933 -1.8724 2.2995
5.3349 -1.7434 2.2995
5.3734 -1.6135 2.2995
5.4087 -1.4827 2.2995
5.4408 -1.3511 2.2995
5.4697 -1.2188 2.2995
5.4954 -1.0859 2.2995
5.5178 -0.9525 2.2995
5.5370 -0.8186 2.2995
5.5530 -0.6844 2.2995
5.5656 -0.5498 2.2995
5.5751 -0.4150 2.2995
5.5812 -0.2801 2.2995
5.5841 -0.1451 2.2995
5.5838 -0.0101 2.2995
5.5801 0.1248 2.2995
5.5733 0.2595 2.2995
5.5631 0.3939 2.2995
5.5498 0.5280 2.2995
5.5332 0.6618 2.2995
5.5134 0.7950 2.2995
5.4904 0.9277 2.2995
5.4642 1.0597 2.2995
5.4349 1.1910 2.2995
5.4024 1.3216 2.2995
5.3668 1.4512 2.2995
5.3281 1.5800 2.2995
5.2863 1.7077 2.2995
5.2415 1.8343 2.2995
5.1936 1.9598 2.2995
5.1428 2.0841 2.2995
5.0890 2.2071 2.2995
5.0323 2.3287 2.2995
4.9727 2.4488 2.2995
4.9103 2.5675 2.2995
4.8450 2.6846 2.2995
4.7770 2.8000 2.2995
4.7063 2.9138 2.2995
4.6329 3.0258 2.2995
4.5568 3.1360 2.2995
4.4781 3.2443 2.2995
4.3969 3.3506 2.2995
4.3132 3.4550 2.2995
4.2270 3.5572 2.2995
4.1384 3.6574 2.2995
4.0475 3.7554 2.2995
3.9543 3.8511 2.2995
3.8588 3.9446 2.2995
3.7612 4.0358 2.2995
3.6614 4.1245 2.2995
3.5596 4.2109 2.2995
3.4557 4.2947 2.2995
3.3499 4.3761 2.2995
3.2422 4.4548 2.2995
3.1327 4.5310 2.2995
3.0214 4.6045 2.2995
2.9084 4.6753 2.2995
2.7938 4.7434 2.2995
2.6776 4.8087 2.2995
2.5599 4.8713 2.2995
2.5463 5.1443 2.3990
2.4242 5.2114 2.4026
2.2969 5.2677 2.4026
2.1684 5.3210 2.4026
2.0386 5.3711 2.4026
1.9076 5.4182 2.4026
1.7756 5.4621 2.4026
1.6426 5.5029 2.4026
1.5087 5.5405 2.4026
1.3739 5.5748 2.4026
1.2384 5.6060 2.4026
1.1021 5.6339 2.4026
0.9653 5.6586 2.4026
0.8279 5.6799 2.4026
0.6900 5.6980 2.4026
0.5518 5.7129 2.4026
0.4132 5.7244 2.4026
0.2745 5.7326 2.4026
0.1355 5.7375 2.4026
-0.0035 5.7390 2.4026
-0.1425 5.7373 2.4026
-0.2814 5.7323 2.4026
-0.4202 5.7239 2.4026
-0.5588 5.7123 2.4026
-0.6970 5.6973 2.4026
-0.8348 5.6791 2.4026
-0.9722 5.6576 2.4026
-1.1090 5.6328 2.4026
-1.2452 5.6047 2.4026
-1.3808 5.5734 2.4026
-1.5155 5.5389 2.4026
-1.6494 5.5012 2.4026
-1.7824 5.4603 2.4026
-1.9143 5.4162 2.4026
-2.0452 5.3690 2.4026
-2.1750 5.3187 2.4026
-2.3035 5.2653 2.4026
-2.4307 5.2088 2.4026
-2.5566 5.1493 2.4026
-2.6810 5.0869 2.4026
-2.8040 5.0214 2.4026
-2.9253 4.9530 2.4026
-3.0450 4.8818 2.4026
-3.1630 4.8076 2.4026
-3.2792 4.7307 2.4026
-3.3936 4.6510 2.4026
-3.5060 4.5686 2.4026
-3.6165 4.4835 2.4026
-3.7249 4.3957 2.4026
-3.8313 4.3054 2.4026
-3.9354 4.2125 2.4026
-4.0374 4.1172 2.4026
-4.1370 4.0194 2.4026
-4.2343 3.9192 2.4026
-4.3292 3.8167 2.4026
-4.4216 3.7119 2.4026
-4.5116 3.6050 2.4026
-4.5989 3.4958 2.4026
-4.6837 3.3846 2.4026
-4.7658 3.2714 2.4026
-4.8451 3.1561 2.4026
-4.9217 3.0390 2.4026
-4.9955 2.9201 2.4026
-5.0665 2.7993 2.4026
-5.1345 2.6769 2.4026
-5.1996 2.5528 2.4026
-5.2618 2.4272 2.4026
-5.3209 2.3000 2.4026
-5.3769 2.1715 2.4026
-5.4299 2.0416 2.4026
-5.4797 1.9104 2.4026
-5.5264 1.7780 2.4026
-5.5431 1.6365 2.3910
-5.5449 1.4923 2.3746
-5.5466 1.3498 2.3597
-5.5490 1.2091 2.3467
-5.5535 1.0702 2.3360
-5.5575 0.9322 2.3267
-5.5613 0.7951 2.3186
-5.5647 0.6588 2.3118
-5.5678 0.5231 2.3062
-5.5706 0.3878 2.3019
-5.5743 0.2529 2.2993
-5.5810 0.1181 2.2993
-5.5845 -0.0168 2.2993
-5.5847 -0.1517 2.2993
-5.5816 -0.2867 2.2993
-5.5806 -0.4221 2.3015
-5.5812 -0.5580 2.3057
-5.5814 -0.6946 2.3112
-5.5814 -0.8319 2.3179
-5.5810 -0.9702 2.3259
-5.5804 -1.1096 2.3351
-5.5794 -1.2502 2.3458
-5.5802 -1.3927 2.3586
-5.5820 -1.5373 2.3735
-5.5838 -1.6838 2.3899
-5.5730 -1.8285 2.4026
-5.5293 -1.9632 2.4026
-5.4824 -2.0970 2.4026
-5.4322 -2.2295 2.4026
-5.3788 -2.3609 2.4026
-5.3222 -2.4910 2.4026
-5.2624 -2.6197 2.4026
-5.1995 -2.7469 2.4026
-5.1335 -2.8726 2.4026
-5.0644 -2.9967 2.4026
-4.9924 -3.1191 2.4026
-4.9173 -3.2398 2.4026
-4.8393 -3.3586 2.4026
-4.7584 -3.4756 2.4026
-4.6747 -3.5905 2.4026
-4.5881 -3.7034 2.4026
-4.3597 -3.6967 2.4026
-4.2705 -3.8019 2.4026
-4.1788 -3.9050 2.4026
-4.0845 -4.0058 2.4026
-3.9878 -4.1043 2.4026
-3.8887 -4.2004 2.4026
-3.7873 -4.2941 2.4026
-3.6836 -4.3853 2.4026
-3.5776 -4.4740 2.4026
-3.4695 -4.5601 2.4026
-3.3593 -4.6435 2.4026
-3.2471 -4.7242 2.4026
-3.1329 -4.8022 2.4026
-3.0169 -4.8774 2.4026
-2.8990 -4.9497 2.4026
-2.7793 -5.0192 2.4026
-2.6580 -5.0857 2.4026
-2.5350 -5.1492 2.4026
-2.4106 -5.2097 2.4026
-2.2846 -5.2671 2.4026
-2.1573 -5.3215 2.4026
-2.0287 -5.3727 2.4026
-1.8988 -5.4208 2.4026
-1.7678 -5.4657 2.4026
-1.6357 -5.5073 2.4026
-1.5027 -5.5458 2.4026
-1.3687 -5.5809 2.4026
-1.2338 -5.6128 2.4026
-1.0983 -5.6413 2.4026
-0.9620 -5.6666 2.4026
-0.8252 -5.6884 2.4026
-0.6879 -5.7070 2.4026
-0.5501 -5.7221 2.4026
-0.4121 -5.7339 2.4026
-0.2737 -5.7423 2.4026
-0.1352 -5.7473 2.4026
0.0033 -5.7489 2.4026
0.1419 -5.7471 2.4026
0.2804 -5.7419 2.4026
0.4187 -5.7333 2.4026
0.5568 -5.7214 2.4026
0.6945 -5.7060 2.4026
0.8318 -5.6873 2.4026
0.9686 -5.6652 2.4026
1.1048 -5.6398 2.4026
1.2403 -5.6111 2.4026
1.3751 -5.5791 2.4026
1.5090 -5.5437 2.4026
1.6420 -5.5051 2.4026
1.7740 -5.4633 2.4026
1.9050 -5.4182 2.4026
2.0348 -5.3700 2.4026
2.1633 -5.3186 2.4026
2.2906 -5.2641 2.4026
2.4164 -5.2065 2.4026
2.4341 -4.9297 2.3017
2.5494 -4.8641 2.2995
2.6654 -4.8003 2.2995
2.7798 -4.7337 2.2995
2.8925 -4.6643 2.2995
3.0035 -4.5922 2.2995
3.1127 -4.5174 2.2995
3.2200 -4.4400 2.2995
3.3253 -4.3600 2.2995
3.4287 -4.2775 2.2995
3.5300 -4.1925 2.2995
3.6291 -4.1051 2.2995
3.7261 -4.0153 2.2995
3.8208 -3.9232 2.2995
3.9132 -3.8288 2.2995
4.0033 -3.7322 2.2995
4.0909 -3.6335 2.2995
4.1762 -3.5327 2.2995
4.2589 -3.4299 2.2995
4.3390 -3.3251 2.2995
4.4166 -3.2184 2.2995
4.4915 -3.1099 2.2995
4.5637 -2.9996 2.2995
4.6332 -2.8876 2.2995
4.7000 -2.7740 2.2995
4.7639 -2.6589 2.2995
4.8250 -2.5422 2.2995
4.8833 -2.4242 2.2995
4.9386 -2.3048 2.2995
4.9910 -2.1841 2.2995
5.0404 -2.0622 2.2995
5.0869 -1.9392 2.2995
5.1303 -1.8152 2.2995
5.1707 -1.6902 2.2995
5.2081 -1.5642 2.2995
5.2423 -1.4375 2.2995
5.2735 -1.3100 2.2995
5.3016 -1.1818 2.2995
5.3265 -1.0530 2.2995
5.3483 -0.9237 2.2995
5.3670 -0.7939 2.2995
5.3825 -0.6638 2.2995
5.3948 -0.5333 2.2995
5.4040 -0.4027 2.2995
5.4101 -0.2719 2.2995
5.4129 -0.1411 2.2995
5.4126 -0.0102 2.2995
5.4092 0.1205 2.2995
5.4026 0.2511 2.2995
5.3928 0.3814 2.2995
5.3799 0.5115 2.2995
5.3639 0.6411 2.2995
5.3448 0.7703 2.2995
5.3225 0.8989 2.2995
5.2972 1.0269 2.2995
5.2688 1.1542 2.2995
5.2374 1.2808 2.2995
5.2029 1.4065 2.2995
5.1654 1.5313 2.2995
5.1250 1.6552 2.2995
5.0815 1.7780 2.2995
5.0352 1.8996 2.2995
4.9860 2.0201 2.2995
4.9339 2.1394 2.2995
4.8790 2.2573 2.2995
4.8212 2.3738 2.2995
4.7608 2.4889 2.2995
4.6975 2.6024 2.2995
4.6316 2.7144 2.2995
4.5631 2.8247 2.2995
4.4919 2.9333 2.2995
4.4182 3.0402 2.2995
4.3420 3.1452 2.2995
4.2632 3.2484 2.2995
4.1821 3.3496 2.2995
4.0986 3.4488 2.2995
4.0127 3.5459 2.2995
3.9246 3.6410 2.2995
3.8342 3.7338 2.2995
3.7417 3.8245 2.2995
3.6471 3.9129 2.2995
3.5503 3.9990 2.2995
3.4516 4.0828 2.2995
3.3509 4.1641 2.2995
3.2484 4.2430 2.2995
3.1439 4.3194 2.2995
3.0378 4.3933 2.2995
2.9299 4.4646 2.2995
2.8203 4.5333 2.2995
2.7290 4.6331 2.3163
2.5965 4.6627 2.2995
2.5426 4.8379 2.3553
2.4729 4.9956 2.4026
2.3508 5.0532 2.4026
2.2274 5.1078 2.4026
2.1027 5.1595 2.4026
1.9769 5.2082 2.4026
1.8499 5.2538 2.4026
1.7219 5.2965 2.4026
1.5929 5.3360 2.4026
1.4631 5.3725 2.4026
1.3324 5.4058 2.4026
1.2009 5.4360 2.4026
1.0688 5.4631 2.4026
0.9361 5.4870 2.4026
0.8029 5.5078 2.4026
0.6692 5.5253 2.4026
0.5351 5.5397 2.4026
0.4007 5.5509 2.4026
0.2662 5.5588 2.4026
0.1314 5.5636 2.4026
-0.0034 5.5651 2.4026
-0.1382 5.5634 2.4026
-0.2729 5.5585 2.4026
-0.4075 5.5504 2.4026
-0.5419 5.5391 2.4026
-0.6759 5.5246 2.4026
-0.8096 5.5069 2.4026
-0.9428 5.4861 2.4026
-1.0755 5.4620 2.4026
-1.2076 5.4348 2.4026
-1.3390 5.4044 2.4026
-1.4697 5.3710 2.4026
-1.5995 5.3344 2.4026
-1.7284 5.2947 2.4026
-1.8564 5.2519 2.4026
-1.9833 5.2061 2.4026
-2.1091 5.1573 2.4026
-2.2338 5.1055 2.4026
-2.3572 5.0507 2.4026
-2.4792 4.9930 2.4026
-2.5999 4.9324 2.4026
-2.7191 4.8689 2.4026
-2.8367 4.8026 2.4026
-2.9528 4.7334 2.4026
-3.0672 4.6615 2.4026
-3.1799 4.5869 2.4026
-3.2907 4.5096 2.4026
-3.3997 4.4296 2.4026
-3.5068 4.3471 2.4026
-3.6120 4.2620 2.4026
-3.7150 4.1743 2.4026
-3.8160 4.0843 2.4026
-3.9148 3.9918 2.4026
-4.0114 3.8969 2.4026
-4.1057 3.7998 2.4026
-4.1977 3.7004 2.4026
-4.2873 3.5987 2.4026
-4.3745 3.4950 2.4026
-4.4591 3.3891 2.4026
-4.5413 3.2813 2.4026
-4.6208 3.1714 2.4026
-4.6977 3.0597 2.4026
-4.7720 2.9461 2.4026
-4.8435 2.8307 2.4026
-4.9122 2.7137 2.4026
-4.9781 2.5949 2.4026
-5.0412 2.4746 2.4026
-5.1014 2.3528 2.4026
-5.1587 2.2295 2.4026
-5.2130 2.1048 2.4026
-5.2643 1.9789 2.4026
-5.3125 1.8517 2.4026
-5.3578 1.7233 2.4026
-5.3999 1.5938 2.4026
-5.4389 1.4633 2.4026
-5.4748 1.3319 2.4026
-5.5075 1.1996 2.4026
-5.5370 1.0665 2.4026
-5.5518 0.9308 2.3976
-5.5534 0.7936 2.3884
-5.5551 0.6572 2.3807
-5.5568 0.5216 2.3743
-5.5584 0.3865 2.3694
-5.5601 0.2518 2.3659
-5.5617 0.1173 2.3638
-5.5634 -0.0171 2.3631
-5.5650 -0.1516 2.3637
-5.5667 -0.2864 2.3657
-5.5683 -0.4216 2.3691
-5.5700 -0.5573 2.3740
-5.5717 -0.6938 2.3802
-5.5733 -0.8312 2.3879
-5.5750 -0.9696 2.3970
-5.5650 -1.1070 2.4026
-5.5388 -1.2415 2.4026
-5.5093 -1.3755 2.4026
-5.4766 -1.5087 2.4026
-5.4406 -1.6411 2.4026
-5.4014 -1.7726 2.4026
-5.3591 -1.9032 2.4026
-5.3135 -2.0328 2.4026
-5.2648 -2.1613 2.4026
-5.2130 -2.2886 2.4026
-5.1581 -2.4146 2.4026
-5.1001 -2.5393 2.4026
-5.0391 -2.6626 2.4026
-4.9751 -2.7844 2.4026
-4.9081 -2.9046 2.4026
-4.8382 -3.0232 2.4026
-4.7654 -3.1402 2.4026
-4.6898 -3.2553 2.4026
-4.6114 -3.3686 2.4026
-4.5302 -3.4800 2.4026
-4.4463 -3.5893 2.4026
-4.2277 -3.5852 2.4026
-4.1412 -3.6872 2.4026
-4.0522 -3.7871 2.4026
-3.9608 -3.8848 2.4026
-3.8670 -3.9803 2.4026
-3.7709 -4.0735 2.4026
-3.6725 -4.1644 2.4026
-3.5719 -4.2528 2.4026
-3.4691 -4.3387 2.4026
-3.3643 -4.4222 2.4026
-3.2574 -4.5031 2.4026
-3.1486 -4.5813 2.4026
-3.0378 -4.6569 2.4026
-2.9253 -4.7298 2.4026
-2.8110 -4.7999 2.4026
-2.6949 -4.8672 2.4026
-2.5773 -4.9316 2.4026
-2.4580 -4.9932 2.4026
-2.3373 -5.0518 2.4026
-2.2152 -5.1075 2.4026
-2.0918 -5.1602 2.4026
-1.9670 -5.2099 2.4026
-1.8411 -5.2565 2.4026
-1.7141 -5.3000 2.4026
-1.5860 -5.3403 2.4026
-1.4570 -5.3776 2.4026
-1.3271 -5.4116 2.4026
-1.1963 -5.4425 2.4026
-1.0649 -5.4702 2.4026
-0.9328 -5.4946 2.4026
-0.8001 -5.5159 2.4026
-0.6670 -5.5338 2.4026
-0.5334 -5.5485 2.4026
-0.3995 -5.5599 2.4026
-0.2654 -5.5680 2.4026
-0.1311 -5.5729 2.4026
0.0032 -5.5745 2.4026
0.1376 -5.5727 2.4026
0.2718 -5.5677 2.4026
0.4060 -5.5594 2.4026
0.5398 -5.5478 2.4026
0.6733 -5.5329 2.4026
0.8065 -5.5148 2.4026
0.9391 -5.4934 2.4026
1.0712 -5.4688 2.4026
1.2026 -5.4409 2.4026
1.3333 -5.4099 2.4026
1.4631 -5.3756 2.4026
1.5921 -5.3382 2.4026
1.7201 -5.2977 2.4026
1.8471 -5.2540 2.4026
1.9729 -5.2072 2.4026
2.0976 -5.1574 2.4026
2.2210 -5.1046 2.4026
2.3430 -5.0487 2.4026
2.4233 -4.9082 2.3632
2.4719 -4.7167 2.2995
2.5844 -4.6549 2.2995
2.6954 -4.5904 2.2995
2.8047 -4.5231 2.2995
2.9124 -4.4532 2.2995
3.0182 -4.3808 2.2995
3.1223 -4.3057 2.2995
3.2245 -4.2282 2.2995
3.3247 -4.1482 2.2995
3.4229 -4.0658 2.2995
3.5191 -3.9811 2.2995
3.6131 -3.8940 2.2995
3.7050 -3.8047 2.2995
3.7947 -3.7132 2.2995
3.8820 -3.6196 2.2995
3.9671 -3.5239 2.2995
4.0497 -3.4262 2.2995
4.1300 -3.3265 2.2995
4.2077 -3.2249 2.2995
4.2830 -3.1214 2.2995
4.3557 -3.0162 2.2995
4.4258 -2.9093 2.2995
4.4932 -2.8008 2.2995
4.5580 -2.6906 2.2995
4.6200 -2.5790 2.2995
4.6793 -2.4659 2.2995
4.7359 -2.3514 2.2995
4.7896 -2.2356 2.2995
4.8404 -2.1186 2.2995
4.8884 -2.0005 2.2995
4.9335 -1.8812 2.2995
4.9757 -1.7609 2.2995
5.0149 -1.6396 2.2995
5.0512 -1.5175 2.2995
5.0844 -1.3946 2.2995
5.1147 -1.2709 2.2995
5.1420 -1.1466 2.2995
5.1662 -1.0217 2.2995
5.1874 -0.8963 2.2995
5.2056 -0.7704 2.2995
5.2207 -0.6442 2.2995
5.2327 -0.5177 2.2995
5.2417 -0.3910 2.2995
5.2476 -0.2642 2.2995
5.2504 -0.1372 2.2995
5.2502 -0.0103 2.2995
5.2469 0.1165 2.2995
5.2405 0.2432 2.2995
5.2311 0.3696 2.2995
5.2187 0.4957 2.2995
5.2032 0.6215 2.2995
5.1847 0.7468 2.2995
5.1631 0.8716 2.2995
5.1386 0.9958 2.2995
5.1111 1.1193 2.2995
5.0807 1.2421 2.2995
5.0473 1.3641 2.2995
5.0110 1.4851 2.2995
4.9718 1.6053 2.2995
4.9297 1.7244 2.2995
4.8848 1.8425 2.2995
4.8371 1.9594 2.2995
4.7866 2.0751 2.2995
4.7334 2.1895 2.2995
4.6774 2.3026 2.2995
4.6188 2.4142 2.2995
4.5575 2.5244 2.2995
4.4936 2.6331 2.2995
4.4271 2.7402 2.2995
4.3581 2.8456 2.2995
4.2866 2.9493 2.2995
4.2127 3.0512 2.2995
4.1363 3.1513 2.2995
4.0576 3.2495 2.2995
3.9766 3.3457 2.2995
3.8934 3.4400 2.2995
3.8079 3.5323 2.2995
3.7202 3.6224 2.2995
3.6305 3.7104 2.2995
3.5387 3.7962 2.2995
3.4448 3.8798 2.2995
3.3491 3.9611 2.2995
3.2514 4.0400 2.2995
3.1519 4.1166 2.2995
3.0506 4.1908 2.2995
2.9476 4.2625 2.2995
2.8429 4.3317 2.2995
2.7366 4.3984 2.2995
2.6288 4.4625 2.2995
2.5454 4.5706 2.3232
2.5167 4.7883 2.4026
2.3996 4.8470 2.4026
2.2811 4.9029 2.4026
2.1614 4.9560 2.4026
2.0404 5.0061 2.4026
1.9183 5.0534 2.4026
1.7951 5.0977 2.4026
1.6709 5.1391 2.4026
1.5457 5.1775 2.4026
1.4197 5.2129 2.4026
1.2929 5.2452 2.4026
1.1653 5.2746 2.4026
1.0372 5.3009 2.4026
0.9084 5.3241 2.4026
0.7791 5.3442 2.4026
0.6494 5.3613 2.4026
0.5193 5.3752 2.4026
0.3889 5.3860 2.4026
0.2583 5.3938 2.4026
0.1275 5.3984 2.4026
-0.0033 5.3999 2.4026
-0.1341 5.3982 2.4026
-0.2648 5.3935 2.4026
-0.3954 5.3856 2.4026
-0.5258 5.3747 2.4026
-0.6559 5.3606 2.4026
-0.7856 5.3434 2.4026
-0.9149 5.3231 2.4026
-1.0436 5.2998 2.4026
-1.1718 5.2734 2.4026
-1.2993 5.2439 2.4026
-1.4261 5.2114 2.4026
-1.5521 5.1759 2.4026
-1.6772 5.1374 2.4026
-1.8014 5.0959 2.4026
-1.9245 5.0514 2.4026
-2.0466 5.0040 2.4026
-2.1676 4.9537 2.4026
-2.2873 4.9005 2.4026
-2.4057 4.8445 2.4026
-2.5227 4.7857 2.4026
-2.6384 4.7240 2.4026
-2.7525 4.6596 2.4026
-2.8652 4.5925 2.4026
-2.9761 4.5227 2.4026
-3.0855 4.4503 2.4026
-3.1930 4.3753 2.4026
-3.2988 4.2977 2.4026
-3.4027 4.2175 2.4026
-3.5046 4.1349 2.4026
-3.6046 4.0499 2.4026
-3.7026 3.9624 2.4026
-3.7984 3.8727 2.4026
-3.8921 3.7806 2.4026
-3.9836 3.6863 2.4026
-4.0728 3.5898 2.4026
-4.1597 3.4912 2.4026
-4.2443 3.3905 2.4026
-4.3264 3.2878 2.4026
-4.4060 3.1831 2.4026
-4.4832 3.0765 2.4026
-4.5578 2.9681 2.4026
-4.6298 2.8579 2.4026
-4.6991 2.7459 2.4026
-4.7657 2.6323 2.4026
-4.8297 2.5171 2.4026
-4.8908 2.4004 2.4026
-4.9492 2.2821 2.4026
-5.0047 2.1625 2.4026
-5.0573 2.0416 2.4026
-5.1070 1.9193 2.4026
-5.1538 1.7959 2.4026
-5.1976 1.6714 2.4026
-5.2384 1.5458 2.4026
-5.2762 1.4192 2.4026
-5.3110 1.2917 2.4026
-5.3426 1.1633 2.4026
-5.3712 1.0342 2.4026
-5.3967 0.9044 2.4026
-5.4190 0.7740 2.4026
-5.4382 0.6430 2.4026
-5.4543 0.5116 2.4026
-5.4671 0.3797 2.4026
-5.4768 0.2476 2.4026
-5.4833 0.1152 2.4026
-5.4866 -0.0173 2.4026
-5.4867 -0.1499 2.4026
-5.4836 -0.2825 2.4026
-5.4772 -0.4151 2.4026
-5.4677 -0.5475 2.4026
-5.4550 -0.6797 2.4026
-5.4390 -0.8116 2.4026
-5.4199 -0.9431 2.4026
-5.3976 -1.0741 2.4026
-5.3721 -1.2046 2.4026
-5.3434 -1.3345 2.4026
-5.3116 -1.4636 2.4026
-5.2767 -1.5921 2.4026
-5.2386 -1.7196 2.4026
-5.1975 -1.8463 2.4026
-5.1533 -1.9719 2.4026
-5.1060 -2.0965 2.4026
-5.0557 -2.2199 2.4026
-5.0024 -2.3421 2.4026
-4.9461 -2.4631 2.4026
-4.8869 -2.5826 2.4026
-4.8248 -2.7007 2.4026
-4.7598 -2.8173 2.4026
-4.6920 -2.9323 2.4026
-4.6214 -3.0456 2.4026
-4.5480 -3.1573 2.4026
-4.4719 -3.2671 2.4026
-4.3931 -3.3751 2.4026
-4.3117 -3.4811 2.4026
-4.1023 -3.4793 2.4026
-4.0183 -3.5782 2.4026
-3.9320 -3.6751 2.4026
-3.8432 -3.7699 2.4026
-3.7522 -3.8626 2.4026
-3.6589 -3.9530 2.4026
-3.5634 -4.0411 2.4026
-3.4658 -4.1268 2.4026
-3.3660 -4.2102 2.4026
-3.2643 -4.2912 2.4026
-3.1606 -4.3696 2.4026
-3.0550 -4.4455 2.4026
-2.9475 -4.5188 2.4026
-2.8383 -4.5895 2.4026
-2.7273 -4.6575 2.4026
-2.6147 -4.7228 2.4026
-2.5006 -4.7853 2.4026
-2.3849 -4.8450 2.4026
-2.2678 -4.9019 2.4026
-2.1493 -4.9559 2.4026
-2.0295 -5.0070 2.4026
-1.9085 -5.0552 2.4026
-1.7863 -5.1003 2.4026
-1.6630 -5.1425 2.4026
-1.5388 -5.1817 2.4026
-1.4136 -5.2178 2.4026
-1.2875 -5.2509 2.4026
-1.1607 -5.2808 2.4026
-1.0332 -5.3076 2.4026
-0.9050 -5.3314 2.4026
-0.7763 -5.3519 2.4026
-0.6471 -5.3693 2.4026
-0.5175 -5.3836 2.4026
-0.3876 -5.3947 2.4026
-0.2575 -5.4025 2.4026
-0.1272 -5.4072 2.4026
0.0031 -5.4088 2.4026
0.1335 -5.4071 2.4026
0.2637 -5.4022 2.4026
0.3939 -5.3941 2.4026
0.5237 -5.3829 2.4026
0.6533 -5.3685 2.4026
0.7824 -5.3509 2.4026
0.9111 -5.3301 2.4026
1.0392 -5.3063 2.4026
1.1667 -5.2792 2.4026
1.2935 -5.2491 2.4026
1.4195 -5.2159 2.4026
1.5447 -5.1796 2.4026
1.6689 -5.1403 2.4026
1.7921 -5.0980 2.4026
1.9142 -5.0526 2.4026
2.0351 -5.0043 2.4026
2.1549 -4.9530 2.4026
2.2733 -4.8989 2.4026
2.3903 -4.8419 2.4026
2.4309 -4.6389 2.3307
2.5076 -4.5168 2.2995
2.6206 -4.4633 2.3042
2.7213 -4.3890 2.2995
2.8258 -4.3212 2.2995
2.9285 -4.2509 2.2995
3.0295 -4.1781 2.2995
3.1286 -4.1030 2.2995
3.2259 -4.0254 2.2995
3.3212 -3.9454 2.2995
3.4146 -3.8632 2.2995
3.5058 -3.7788 2.2995
3.5950 -3.6922 2.2995
3.6820 -3.6034 2.2995
3.7668 -3.5126 2.2995
3.8494 -3.4197 2.2995
3.9296 -3.3249 2.2995
4.0075 -3.2282 2.2995
4.0830 -3.1297 2.2995
4.1560 -3.0293 2.2995
4.2266 -2.9273 2.2995
4.2947 -2.8235 2.2995
4.3601 -2.7182 2.2995
4.4230 -2.6114 2.2995
4.4833 -2.5030 2.2995
4.5409 -2.3933 2.2995
4.5958 -2.2823 2.2995
4.6479 -2.1699 2.2995
4.6973 -2.0564 2.2995
4.7439 -1.9417 2.2995
4.7877 -1.8260 2.2995
4.8287 -1.7093 2.2995
4.8668 -1.5916 2.2995
4.9021 -1.4731 2.2995
4.9344 -1.3538 2.2995
4.9638 -1.2338 2.2995
4.9903 -1.1132 2.2995
5.0139 -0.9920 2.2995
5.0345 -0.8703 2.2995
5.0522 -0.7481 2.2995
5.0669 -0.6256 2.2995
5.0786 -0.5029 2.2995
5.0874 -0.3799 2.2995
5.0932 -0.2568 2.2995
5.0960 -0.1336 2.2995
5.0958 -0.0104 2.2995
5.0926 0.1127 2.2995
5.0865 0.2356 2.2995
5.0774 0.3584 2.2995
5.0654 0.4808 2.2995
5.0504 0.6029 2.2995
5.0325 0.7245 2.2995
5.0116 0.8456 2.2995
4.9879 0.9662 2.2995
4.9612 1.0861 2.2995
4.9317 1.2053 2.2995
4.8993 1.3237 2.2995
4.8641 1.4412 2.2995
4.8261 1.5579 2.2995
4.7854 1.6735 2.2995
4.7418 1.7882 2.2995
4.6955 1.9017 2.2995
4.6466 2.0140 2.2995
4.5949 2.1251 2.2995
4.5406 2.2349 2.2995
4.4837 2.3433 2.2995
4.4243 2.4503 2.2995
4.3623 2.5558 2.2995
4.2978 2.6597 2.2995
4.2308 2.7621 2.2995
4.1615 2.8628 2.2995
4.0897 2.9617 2.2995
4.0156 3.0589 2.2995
3.9393 3.1543 2.2995
3.8606 3.2478 2.2995
3.7798 3.3393 2.2995
3.6969 3.4289 2.2995
3.6118 3.5164 2.2995
3.5247 3.6019 2.2995
3.4356 3.6852 2.2995
3.3445 3.7664 2.2995
3.2515 3.8453 2.2995
3.1567 3.9220 2.2995
3.0601 3.9964 2.2995
2.9618 4.0684 2.2995
2.8618 4.1380 2.2995
2.7602 4.2052 2.2995
2.6570 4.2700 2.2995
2.5523 4.3323 2.2995
2.5392 4.5590 2.3869
2.4435 4.6487 2.4026
2.3298 4.7057 2.4026
2.2148 4.7600 2.4026
2.0985 4.8115 2.4026
1.9811 4.8602 2.4026
1.8625 4.9061 2.4026
1.7429 4.9492 2.4026
1.6223 4.9894 2.4026
1.5008 5.0267 2.4026
1.3785 5.0610 2.4026
1.2553 5.0925 2.4026
1.1315 5.1210 2.4026
1.0070 5.1465 2.4026
0.8820 5.1690 2.4026
0.7565 5.1886 2.4026
0.6305 5.2052 2.4026
0.5042 5.2187 2.4026
0.3776 5.2292 2.4026
0.2508 5.2367 2.4026
0.1238 5.2412 2.4026
-0.0032 5.2427 2.4026
-0.1302 5.2411 2.4026
-0.2572 5.2365 2.4026
-0.3840 5.2288 2.4026
-0.5106 5.2182 2.4026
-0.6369 5.2045 2.4026
-0.7628 5.1878 2.4026
-0.8883 5.1681 2.4026
-1.0133 5.1454 2.4026
-1.1378 5.1198 2.4026
-1.2616 5.0912 2.4026
-1.3847 5.0596 2.4026
-1.5070 5.0251 2.4026
-1.6285 4.9877 2.4026
-1.7490 4.9474 2.4026
-1.8686 4.9042 2.4026
-1.9871 4.8582 2.4026
-2.1045 4.8093 2.4026
-2.2208 4.7577 2.4026
-2.3357 4.7032 2.4026
-2.4494 4.6461 2.4026
-2.5617 4.5862 2.4026
-2.6725 4.5237 2.4026
-2.7818 4.4585 2.4026
-2.8895 4.3907 2.4026
-2.9957 4.3204 2.4026
-3.1001 4.2475 2.4026
-3.2027 4.1721 2.4026
-3.3036 4.0943 2.4026
-3.4026 4.0141 2.4026
-3.4996 3.9315 2.4026
-3.5947 3.8466 2.4026
-3.6877 3.7594 2.4026
-3.7787 3.6700 2.4026
-3.8675 3.5784 2.4026
-3.9540 3.4847 2.4026
-4.0384 3.3890 2.4026
-4.1204 3.2912 2.4026
-4.2001 3.1914 2.4026
-4.2774 3.0898 2.4026
-4.3523 2.9863 2.4026
-4.4246 2.8810 2.4026
-4.4945 2.7740 2.4026
-4.5618 2.6653 2.4026
-4.6264 2.5550 2.4026
-4.6884 2.4431 2.4026
-4.7478 2.3297 2.4026
-4.8044 2.2150 2.4026
-4.8582 2.0988 2.4026
-4.9093 1.9814 2.4026
-4.9575 1.8627 2.4026
-5.0028 1.7429 2.4026
-5.0453 1.6220 2.4026
-5.0849 1.5000 2.4026
-5.1215 1.3771 2.4026
-5.1552 1.2534 2.4026
-5.1859 1.1288 2.4026
-5.2136 1.0034 2.4026
-5.2383 0.8774 2.4026
-5.2599 0.7508 2.4026
-5.2785 0.6237 2.4026
-5.2940 0.4961 2.4026
-5.3065 0.3682 2.4026
-5.3158 0.2399 2.4026
-5.3221 0.1114 2.4026
-5.3252 -0.0172 2.4026
-5.3252 -0.1459 2.4026
-5.3222 -0.2746 2.4026
-5.3160 -0.4033 2.4026
-5.3067 -0.5318 2.4026
-5.2943 -0.6601 2.4026
-5.2787 -0.7881 2.4026
-5.2601 -0.9157 2.4026
-5.2384 -1.0428 2.4026
-5.2136 -1.1695 2.4026
-5.1858 -1.2955 2.4026
-5.1549 -1.4209 2.4026
-5.1209 -1.5455 2.4026
-5.0839 -1.6693 2.4026
-5.0440 -1.7922 2.4026
-5.0010 -1.9141 2.4026
-4.9551 -2.0349 2.4026
-4.9062 -2.1547 2.4026
-4.8544 -2.2733 2.4026
-4.7998 -2.3906 2.4026
-4.7423 -2.5066 2.4026
-4.6820 -2.6212 2.4026
-4.6189 -2.7343 2.4026
-4.5530 -2.8459 2.4026
-4.4844 -2.9558 2.4026
-4.4132 -3.0641 2.4026
-4.3393 -3.1707 2.4026
-4.2629 -3.2754 2.4026
-4.1838 -3.3783 2.4026
-3.9830 -3.3785 2.4026
-3.9014 -3.4745 2.4026
-3.8175 -3.5686 2.4026
-3.7314 -3.6606 2.4026
-3.6429 -3.7505 2.4026
-3.5523 -3.8383 2.4026
-3.4596 -3.9238 2.4026
-3.3648 -4.0070 2.4026
-3.2680 -4.0880 2.4026
-3.1692 -4.1665 2.4026
-3.0685 -4.2426 2.4026
-2.9659 -4.3163 2.4026
-2.8616 -4.3875 2.4026
-2.7555 -4.4561 2.4026
-2.6478 -4.5221 2.4026
-2.5385 -4.5854 2.4026
-2.4276 -4.6461 2.4026
-2.3153 -4.7040 2.4026
-2.2016 -4.7592 2.4026
-2.0865 -4.8117 2.4026
-1.9702 -4.8612 2.4026
-1.8527 -4.9080 2.4026
-1.7341 -4.9518 2.4026
-1.6145 -4.9928 2.4026
-1.4938 -5.0308 2.4026
-1.3723 -5.0658 2.4026
-1.2499 -5.0979 2.4026
-1.1268 -5.1270 2.4026
-1.0030 -5.1530 2.4026
-0.8786 -5.1760 2.4026
-0.7536 -5.1960 2.4026
-0.6282 -5.2129 2.4026
-0.5024 -5.2267 2.4026
-0.3763 -5.2374 2.4026
-0.2500 -5.2451 2.4026
-0.1235 -5.2497 2.4026
0.0030 -5.2511 2.4026
0.1296 -5.2495 2.4026
0.2560 -5.2448 2.4026
0.3823 -5.2369 2.4026
0.5084 -5.2260 2.4026
0.6342 -5.2120 2.4026
0.7596 -5.1950 2.4026
0.8845 -5.1748 2.4026
1.0089 -5.1517 2.4026
1.1327 -5.1254 2.4026
1.2557 -5.0962 2.4026
1.3781 -5.0640 2.4026
1.4996 -5.0288 2.4026
1.6201 -4.9906 2.4026
1.7398 -4.9495 2.4026
1.8583 -4.9055 2.4026
1.9757 -4.8586 2.4026
2.0920 -4.8089 2.4026
2.2069 -4.7563 2.4026
2.3206 -4.7010 2.4026
2.4267 -4.6312 2.3965
2.4399 -4.3954 2.3047
2.5390 -4.3247 2.2995
2.6420 -4.2614 2.2995
2.7434 -4.1956 2.2995
2.8431 -4.1274 2.2995
2.9412 -4.0568 2.2995
3.0375 -3.9838 2.2995
3.1319 -3.9085 2.2995
3.2245 -3.8309 2.2995
3.3151 -3.7511 2.2995
3.4038 -3.6691 2.2995
3.4904 -3.5851 2.2995
3.5749 -3.4989 2.2995
3.6572 -3.4108 2.2995
3.7374 -3.3206 2.2995
3.8153 -3.2286 2.2995
3.8910 -3.1347 2.2995
3.9643 -3.0391 2.2995
4.0352 -2.9417 2.2995
4.1038 -2.8426 2.2995
4.1699 -2.7419 2.2995
4.2335 -2.6397 2.2995
4.2946 -2.5359 2.2995
4.3531 -2.4308 2.2995
4.4091 -2.3243 2.2995
4.4624 -2.2164 2.2995
4.5131 -2.1074 2.2995
4.5611 -1.9972 2.2995
4.6064 -1.8858 2.2995
4.6490 -1.7735 2.2995
4.6888 -1.6601 2.2995
4.7259 -1.5459 2.2995
4.7601 -1.4309 2.2995
4.7916 -1.3150 2.2995
4.8202 -1.1985 2.2995
4.8460 -1.0814 2.2995
4.8689 -0.9637 2.2995
4.8890 -0.8455 2.2995
4.9062 -0.7269 2.2995
4.9205 -0.6080 2.2995
4.9319 -0.4887 2.2995
4.9405 -0.3693 2.2995
4.9461 -0.2498 2.2995
4.9489 -0.1301 2.2995
4.9488 -0.0105 2.2995
4.9458 0.1090 2.2995
4.9399 0.2284 2.2995
4.9311 0.3476 2.2995
4.9194 0.4665 2.2995
4.9049 0.5851 2.2995
4.8875 0.7032 2.2995
4.8673 0.8209 2.2995
4.8443 0.9380 2.2995
4.8185 1.0544 2.2995
4.7899 1.1702 2.2995
4.7585 1.2852 2.2995
4.7243 1.3994 2.2995
4.6874 1.5127 2.2995
4.6479 1.6251 2.2995
4.6056 1.7364 2.2995
4.5607 1.8467 2.2995
4.5132 1.9558 2.2995
4.4630 2.0637 2.2995
4.4103 2.1704 2.2995
4.3551 2.2757 2.2995
4.2974 2.3796 2.2995
4.2372 2.4821 2.2995
4.1746 2.5831 2.2995
4.1096 2.6825 2.2995
4.0422 2.7804 2.2995
3.9726 2.8765 2.2995
3.9007 2.9710 2.2995
3.8265 3.0636 2.2995
3.7502 3.1544 2.2995
3.6717 3.2434 2.2995
3.5911 3.3304 2.2995
3.5085 3.4155 2.2995
3.4239 3.4985 2.2995
3.3374 3.5795 2.2995
3.2489 3.6583 2.2995
3.1586 3.7351 2.2995
3.0665 3.8096 2.2995
2.9727 3.8818 2.2995
2.8772 3.9518 2.2995
2.7801 4.0195 2.2995
2.6814 4.0848 2.2995
2.5811 4.1477 2.2995
2.5361 4.3043 2.3520
2.4829 4.4576 2.4026
2.3738 4.5156 2.4026
2.2634 4.5710 2.4026
2.1516 4.6238 2.4026
2.0387 4.6739 2.4026
1.9246 4.7212 2.4026
1.8094 4.7658 2.4026
1.6932 4.8077 2.4026
1.5761 4.8467 2.4026
1.4580 4.8830 2.4026
1.3392 4.9164 2.4026
1.2195 4.9469 2.4026
1.0992 4.9746 2.4026
0.9783 4.9994 2.4026
0.8569 5.0213 2.4026
0.7349 5.0403 2.4026
0.6125 5.0564 2.4026
0.4898 5.0696 2.4026
0.3668 5.0798 2.4026
0.2436 5.0871 2.4026
0.1203 5.0915 2.4026
-0.0031 5.0929 2.4026
-0.1265 5.0914 2.4026
-0.2498 5.0869 2.4026
-0.3730 5.0794 2.4026
-0.4960 5.0691 2.4026
-0.6187 5.0558 2.4026
-0.7411 5.0396 2.4026
-0.8630 5.0204 2.4026
-0.9845 4.9984 2.4026
-1.1054 4.9735 2.4026
-1.2256 4.9456 2.4026
-1.3452 4.9150 2.4026
-1.4641 4.8814 2.4026
-1.5821 4.8451 2.4026
-1.6992 4.8059 2.4026
-1.8153 4.7639 2.4026
-1.9305 4.7192 2.4026
-2.0445 4.6717 2.4026
-2.1574 4.6215 2.4026
-2.2691 4.5687 2.4026
-2.3795 4.5131 2.4026
-2.4886 4.4549 2.4026
-2.5962 4.3942 2.4026
-2.7024 4.3308 2.4026
-2.8070 4.2650 2.4026
-2.9101 4.1966 2.4026
-3.0115 4.1258 2.4026
-3.1112 4.0525 2.4026
-3.2092 3.9769 2.4026
-3.3053 3.8990 2.4026
-3.3996 3.8187 2.4026
-3.4919 3.7362 2.4026
-3.5823 3.6515 2.4026
-3.6706 3.5646 2.4026
-3.7568 3.4757 2.4026
-3.8409 3.3846 2.4026
-3.9228 3.2916 2.4026
-4.0025 3.1966 2.4026
-4.0799 3.0997 2.4026
-4.1549 3.0009 2.4026
-4.2276 2.9003 2.4026
-4.2979 2.7981 2.4026
-4.3657 2.6941 2.4026
-4.4310 2.5885 2.4026
-4.4938 2.4813 2.4026
-4.5540 2.3726 2.4026
-4.6115 2.2625 2.4026
-4.6665 2.1510 2.4026
-4.7187 2.0381 2.4026
-4.7683 1.9241 2.4026
-4.8151 1.8088 2.4026
-4.8591 1.6924 2.4026
-4.9003 1.5750 2.4026
-4.9387 1.4565 2.4026
-4.9743 1.3371 2.4026
-5.0069 1.2169 2.4026
-5.0367 1.0959 2.4026
-5.0636 0.9742 2.4026
-5.0875 0.8518 2.4026
-5.1084 0.7288 2.4026
-5.1264 0.6053 2.4026
-5.1415 0.4814 2.4026
-5.1535 0.3572 2.4026
-5.1625 0.2326 2.4026
-5.1685 0.1078 2.4026
-5.1716 -0.0171 2.4026
-5.1715 -0.1421 2.4026
-5.1685 -0.2671 2.4026
-5.1625 -0.3921 2.4026
-5.1534 -0.5168 2.4026
-5.1413 -0.6414 2.4026
-5.1262 -0.7657 2.4026
-5.1080 -0.8896 2.4026
-5.0869 -1.0131 2.4026
-5.0628 -1.1360 2.4026
-5.0357 -1.2584 2.4026
-5.0056 -1.3801 2.4026
-4.9726 -1.5011 2.4026
-4.9367 -1.6213 2.4026
-4.8978 -1.7406 2.4026
-4.8561 -1.8590 2.4026
-4.8114 -1.9764 2.4026
-4.7639 -2.0926 2.4026
-4.7136 -2.2077 2.4026
-4.6605 -2.3216 2.4026
-4.6047 -2.4342 2.4026
-4.5460 -2.5455 2.4026
-4.4847 -2.6553 2.4026
-4.4208 -2.7636 2.4026
-4.3542 -2.8704 2.4026
-4.2849 -2.9755 2.4026
-4.2132 -3.0789 2.4026
-4.1389 -3.1806 2.4026
-4.0622 -3.2805 2.4026
-3.8693 -3.2824 2.4026
-3.7900 -3.3757 2.4026
-3.7085 -3.4671 2.4026
-3.6248 -3.5564 2.4026
-3.5388 -3.6437 2.4026
-3.4508 -3.7289 2.4026
-3.3607 -3.8120 2.4026
-3.2686 -3.8929 2.4026
-3.1745 -3.9714 2.4026
-3.0785 -4.0477 2.4026
-2.9807 -4.1217 2.4026
-2.8810 -4.1932 2.4026
-2.7797 -4.2623 2.4026
-2.6766 -4.3289 2.4026
-2.5720 -4.3930 2.4026
-2.4658 -4.4545 2.4026
-2.3581 -4.5134 2.4026
-2.2490 -4.5697 2.4026
-2.1385 -4.6233 2.4026
-2.0268 -4.6742 2.4026
-1.9138 -4.7224 2.4026
-1.7997 -4.7678 2.4026
-1.6844 -4.8103 2.4026
-1.5682 -4.8501 2.4026
-1.4510 -4.8870 2.4026
-1.3330 -4.9210 2.4026
-1.2141 -4.9522 2.4026
-1.0945 -4.9804 2.4026
-0.9742 -5.0057 2.4026
-0.8534 -5.0280 2.4026
-0.7320 -5.0474 2.4026
-0.6102 -5.0638 2.4026
-0.4880 -5.0772 2.4026
-0.3655 -5.0877 2.4026
-0.2428 -5.0951 2.4026
-0.1200 -5.0995 2.4026
0.0029 -5.1009 2.4026
0.1259 -5.0994 2.4026
0.2487 -5.0948 2.4026
0.3714 -5.0872 2.4026
0.4938 -5.0766 2.4026
0.6160 -5.0630 2.4026
0.7378 -5.0464 2.4026
0.8591 -5.0269 2.4026
0.9800 -5.0044 2.4026
1.1002 -4.9789 2.4026
1.2197 -4.9505 2.4026
1.3386 -4.9193 2.4026
1.4566 -4.8851 2.4026
1.5737 -4.8480 2.4026
1.6899 -4.8081 2.4026
1.8051 -4.7654 2.4026
1.9191 -4.7198 2.4026
2.0320 -4.6715 2.4026
2.1437 -4.6205 2.4026
2.2541 -4.5668 2.4026
2.3631 -4.5103 2.4026
2.4298 -4.3775 2.3627
2.4663 -4.2013 2.2995
2.5663 -4.1398 2.2995
2.6649 -4.0759 2.2995
2.7618 -4.0097 2.2995
2.8570 -3.9411 2.2995
2.9506 -3.8702 2.2995
3.0424 -3.7971 2.2995
3.1323 -3.7218 2.2995
3.2204 -3.6443 2.2995
3.3065 -3.5647 2.2995
3.3906 -3.4830 2.2995
3.4727 -3.3994 2.2995
3.5528 -3.3137 2.2995
3.6307 -3.2262 2.2995
3.7064 -3.1368 2.2995
3.7799 -3.0457 2.2995
3.8512 -2.9527 2.2995
3.9201 -2.8581 2.2995
3.9867 -2.7619 2.2995
4.0510 -2.6641 2.2995
4.1128 -2.5648 2.2995
4.1722 -2.4640 2.2995
4.2291 -2.3619 2.2995
4.2835 -2.2584 2.2995
4.3353 -2.1537 2.2995
4.3846 -2.0478 2.2995
4.4313 -1.9407 2.2995
4.4753 -1.8326 2.2995
4.5167 -1.7234 2.2995
4.5555 -1.6133 2.2995
4.5915 -1.5024 2.2995
4.6248 -1.3906 2.2995
4.6554 -1.2781 2.2995
4.6833 -1.1649 2.2995
4.7084 -1.0511 2.2995
4.7307 -0.9367 2.2995
4.7502 -0.8219 2.2995
4.7670 -0.7067 2.2995
4.7809 -0.5911 2.2995
4.7921 -0.4753 2.2995
4.8004 -0.3592 2.2995
4.8060 -0.2431 2.2995
4.8087 -0.1268 2.2995
4.8086 -0.0106 2.2995
4.8057 0.1056 2.2995
4.8000 0.2216 2.2995
4.7915 0.3374 2.2995
4.7802 0.4530 2.2995
4.7662 0.5682 2.2995
4.7493 0.6830 2.2995
4.7298 0.7973 2.2995
4.7074 0.9111 2.2995
4.6824 1.0243 2.2995
4.6546 1.1368 2.2995
4.6241 1.2486 2.2995
4.5910 1.3595 2.2995
4.5552 1.4697 2.2995
4.5168 1.5789 2.2995
4.4757 1.6871 2.2995
4.4321 1.7942 2.2995
4.3860 1.9003 2.2995
4.3373 2.0052 2.2995
4.2861 2.1088 2.2995
4.2325 2.2112 2.2995
4.1764 2.3122 2.2995
4.1179 2.4119 2.2995
4.0571 2.5100 2.2995
3.9940 2.6067 2.2995
3.9285 2.7018 2.2995
3.8609 2.7952 2.2995
3.7910 2.8870 2.2995
3.7189 2.9771 2.2995
3.6448 3.0654 2.2995
3.5685 3.1519 2.2995
3.4902 3.2365 2.2995
3.4100 3.3192 2.2995
3.3278 3.3999 2.2995
3.2437 3.4786 2.2995
3.1577 3.5553 2.2995
3.0700 3.6299 2.2995
2.9805 3.7023 2.2995
2.8893 3.7726 2.2995
2.7965 3.8406 2.2995
2.7207 3.9333 2.3153
2.6062 3.9699 2.2995
2.5386 4.0789 2.3268
2.5180 4.2733 2.4026
2.4133 4.3323 2.4026
2.3073 4.3887 2.4026
2.1999 4.4426 2.4026
2.0913 4.4939 2.4026
1.9816 4.5426 2.4026
1.8707 4.5886 2.4026
1.7587 4.6320 2.4026
1.6458 4.6727 2.4026
1.5319 4.7106 2.4026
1.4172 4.7459 2.4026
1.3017 4.7783 2.4026
1.1854 4.8080 2.4026
1.0685 4.8350 2.4026
0.9509 4.8591 2.4026
0.8329 4.8804 2.4026
0.7143 4.8989 2.4026
0.5954 4.9145 2.4026
0.4761 4.9273 2.4026
0.3566 4.9373 2.4026
0.2368 4.9444 2.4026
0.1169 4.9486 2.4026
-0.0030 4.9500 2.4026
-0.1230 4.9485 2.4026
-0.2428 4.9441 2.4026
-0.3626 4.9369 2.4026
-0.4821 4.9268 2.4026
-0.6014 4.9139 2.4026
-0.7203 4.8981 2.4026
-0.8388 4.8795 2.4026
-0.9569 4.8581 2.4026
-1.0744 4.8339 2.4026
-1.1913 4.8068 2.4026
-1.3076 4.7770 2.4026
-1.4231 4.7444 2.4026
-1.5378 4.7090 2.4026
-1.6516 4.6709 2.4026
-1.7645 4.6301 2.4026
-1.8764 4.5866 2.4026
-1.9873 4.5405 2.4026
-2.0970 4.4917 2.4026
-2.2055 4.4403 2.4026
-2.3128 4.3862 2.4026
-2.4188 4.3297 2.4026
-2.5234 4.2706 2.4026
-2.6266 4.2090 2.4026
-2.7283 4.1450 2.4026
-2.8285 4.0785 2.4026
-2.9271 4.0097 2.4026
-3.0240 3.9384 2.4026
-3.1192 3.8649 2.4026
-3.2126 3.7891 2.4026
-3.3042 3.7111 2.4026
-3.3939 3.6309 2.4026
-3.4817 3.5486 2.4026
-3.5675 3.4641 2.4026
-3.6513 3.3776 2.4026
-3.7330 3.2891 2.4026
-3.8126 3.1987 2.4026
-3.8900 3.1063 2.4026
-3.9651 3.0121 2.4026
-4.0381 2.9161 2.4026
-4.1087 2.8184 2.4026
-4.1769 2.7189 2.4026
-4.2428 2.6178 2.4026
-4.3062 2.5152 2.4026
-4.3672 2.4110 2.4026
-4.4257 2.3054 2.4026
-4.4816 2.1983 2.4026
-4.5350 2.0900 2.4026
-4.5857 1.9803 2.4026
-4.6338 1.8694 2.4026
-4.6793 1.7574 2.4026
-4.7220 1.6443 2.4026
-4.7620 1.5301 2.4026
-4.7993 1.4150 2.4026
-4.8338 1.2990 2.4026
-4.8655 1.1821 2.4026
-4.8944 1.0645 2.4026
-4.9205 0.9462 2.4026
-4.9437 0.8273 2.4026
-4.9640 0.7078 2.4026
-4.9814 0.5878 2.4026
-4.9960 0.4674 2.4026
-5.0076 0.3466 2.4026
-5.0164 0.2256 2.4026
-5.0222 0.1044 2.4026
-5.0251 -0.0170 2.4026
-5.0250 -0.1385 2.4026
-5.0220 -0.2599 2.4026
-5.0161 -0.3813 2.4026
-5.0072 -0.5026 2.4026
-4.9954 -0.6236 2.4026
-4.9807 -0.7444 2.4026
-4.9630 -0.8647 2.4026
-4.9425 -0.9847 2.4026
-4.9190 -1.1042 2.4026
-4.8926 -1.2231 2.4026
-4.8634 -1.3413 2.4026
-4.8313 -1.4589 2.4026
-4.7963 -1.5756 2.4026
-4.7585 -1.6915 2.4026
-4.7179 -1.8065 2.4026
-4.6745 -1.9205 2.4026
-4.6283 -2.0335 2.4026
-4.5794 -2.1453 2.4026
-4.5278 -2.2559 2.4026
-4.4735 -2.3653 2.4026
-4.4165 -2.4733 2.4026
-4.3569 -2.5800 2.4026
-4.2947 -2.6852 2.4026
-4.2300 -2.7889 2.4026
-4.1627 -2.8910 2.4026
-4.0930 -2.9915 2.4026
-4.0208 -3.0902 2.4026
-3.9462 -3.1872 2.4026
-3.7608 -3.1907 2.4026
-3.6837 -3.2814 2.4026
-3.6044 -3.3702 2.4026
-3.5230 -3.4570 2.4026
-3.4395 -3.5419 2.4026
-3.3539 -3.6246 2.4026
-3.2663 -3.7054 2.4026
-3.1768 -3.7839 2.4026
-3.0853 -3.8603 2.4026
-2.9920 -3.9344 2.4026
-2.8969 -4.0062 2.4026
-2.8001 -4.0758 2.4026
-2.7015 -4.1429 2.4026
-2.6014 -4.2076 2.4026
-2.4997 -4.2699 2.4026
-2.3964 -4.3297 2.4026
-2.2918 -4.3869 2.4026
-2.1857 -4.4416 2.4026
-2.0784 -4.4936 2.4026
-1.9697 -4.5431 2.4026
-1.8599 -4.5899 2.4026
-1.7490 -4.6340 2.4026
-1.6370 -4.6753 2.4026
-1.5241 -4.7140 2.4026
-1.4102 -4.7498 2.4026
-1.2954 -4.7829 2.4026
-1.1799 -4.8131 2.4026
-1.0637 -4.8405 2.4026
-0.9468 -4.8651 2.4026
-0.8293 -4.8868 2.4026
-0.7114 -4.9057 2.4026
-0.5930 -4.9216 2.4026
-0.4743 -4.9346 2.4026
-0.3552 -4.9448 2.4026
-0.2360 -4.9520 2.4026
-0.1166 -4.9563 2.4026
0.0029 -4.9577 2.4026
0.1223 -4.9561 2.4026
0.2417 -4.9517 2.4026
0.3609 -4.9443 2.4026
0.4799 -4.9340 2.4026
0.5987 -4.9208 2.4026
0.7170 -4.9047 2.4026
0.8349 -4.8857 2.4026
0.9524 -4.8639 2.4026
1.0692 -4.8391 2.4026
1.1854 -4.8116 2.4026
1.3009 -4.7812 2.4026
1.4156 -4.7479 2.4026
1.5294 -4.7119 2.4026
1.6423 -4.6732 2.4026
1.7543 -4.6317 2.4026
1.8651 -4.5874 2.4026
1.9749 -4.5405 2.4026
2.0834 -4.4909 2.4026
2.1907 -4.4387 2.4026
2.2967 -4.3839 2.4026
2.4012 -4.3265 2.4026
2.4356 -4.1493 2.3365
2.4942 -4.0238 2.2995
2.5900 -3.9617 2.2995
2.6842 -3.8974 2.2995
2.7768 -3.8307 2.2995
2.8677 -3.7619 2.2995
2.9569 -3.6908 2.2995
3.0443 -3.6176 2.2995
3.1299 -3.5423 2.2995
3.2137 -3.4650 2.2995
3.2955 -3.3856 2.2995
3.3753 -3.3043 2.2995
3.4531 -3.2211 2.2995
3.5288 -3.1361 2.2995
3.6025 -3.0492 2.2995
3.6739 -2.9606 2.2995
3.7432 -2.8703 2.2995
3.8103 -2.7784 2.2995
3.8750 -2.6849 2.2995
3.9375 -2.5899 2.2995
3.9976 -2.4934 2.2995
4.0554 -2.3954 2.2995
4.1107 -2.2962 2.2995
4.1636 -2.1956 2.2995
4.2141 -2.0938 2.2995
4.2620 -1.9909 2.2995
4.3074 -1.8868 2.2995
4.3502 -1.7817 2.2995
4.3905 -1.6756 2.2995
4.4282 -1.5686 2.2995
4.4633 -1.4608 2.2995
4.4957 -1.3521 2.2995
4.5255 -1.2428 2.2995
4.5526 -1.1327 2.2995
4.5770 -1.0221 2.2995
4.5987 -0.9110 2.2995
4.6178 -0.7993 2.2995
4.6341 -0.6873 2.2995
4.6477 -0.5750 2.2995
4.6586 -0.4624 2.2995
4.6667 -0.3496 2.2995
4.6721 -0.2367 2.2995
4.6748 -0.1237 2.2995
4.6748 -0.0107 2.2995
4.6720 0.1023 2.2995
4.6665 0.2151 2.2995
4.6583 0.3277 2.2995
4.6474 0.4400 2.2995
4.6337 0.5520 2.2995
4.6174 0.6636 2.2995
4.5984 0.7748 2.2995
4.5767 0.8854 2.2995
4.5524 0.9955 2.2995
4.5254 1.1049 2.2995
4.4958 1.2136 2.2995
4.4636 1.3215 2.2995
4.4289 1.4285 2.2995
4.3916 1.5347 2.2995
4.3517 1.6399 2.2995
4.3093 1.7442 2.2995
4.2645 1.8473 2.2995
4.2172 1.9493 2.2995
4.1675 2.0501 2.2995
4.1153 2.1496 2.2995
4.0608 2.2479 2.2995
4.0040 2.3448 2.2995
3.9449 2.4402 2.2995
3.8835 2.5342 2.2995
3.8199 2.6267 2.2995
3.7542 2.7176 2.2995
3.6862 2.8069 2.2995
3.6162 2.8945 2.2995
3.5441 2.9804 2.2995
3.4700 3.0645 2.2995
3.3939 3.1468 2.2995
3.3159 3.2272 2.2995
3.2359 3.3057 2.2995
3.1542 3.3823 2.2995
3.0706 3.4569 2.2995
2.9853 3.5294 2.2995
2.8983 3.5999 2.2995
2.8097 3.6682 2.2995
2.7216 3.7374 2.3013
2.6276 3.7984 2.2995
2.5409 3.8701 2.3054
2.5332 4.0699 2.3876
2.4486 4.1552 2.4026
2.3469 4.2125 2.4026
2.2437 4.2674 2.4026
2.1394 4.3199 2.4026
2.0338 4.3698 2.4026
1.9270 4.4171 2.4026
1.8192 4.4619 2.4026
1.7103 4.5041 2.4026
1.6005 4.5437 2.4026
1.4898 4.5806 2.4026
1.3782 4.6149 2.4026
1.2659 4.6465 2.4026
1.1528 4.6754 2.4026
1.0391 4.7016 2.4026
0.9248 4.7250 2.4026
0.8100 4.7458 2.4026
0.6947 4.7637 2.4026
0.5790 4.7790 2.4026
0.4630 4.7914 2.4026
0.3467 4.8011 2.4026
0.2303 4.8080 2.4026
0.1137 4.8121 2.4026
-0.0029 4.8135 2.4026
-0.1196 4.8120 2.4026
-0.2362 4.8078 2.4026
-0.3526 4.8007 2.4026
-0.4689 4.7909 2.4026
-0.5849 4.7784 2.4026
-0.7005 4.7630 2.4026
-0.8158 4.7449 2.4026
-0.9306 4.7241 2.4026
-1.0449 4.7005 2.4026
-1.1586 4.6742 2.4026
-1.2716 4.6451 2.4026
-1.3839 4.6134 2.4026
-1.4954 4.5790 2.4026
-1.6061 4.5420 2.4026
-1.7159 4.5023 2.4026
-1.8248 4.4600 2.4026
-1.9325 4.4151 2.4026
-2.0392 4.3676 2.4026
-2.1448 4.3176 2.4026
-2.2491 4.2651 2.4026
-2.3522 4.2100 2.4026
-2.4539 4.1526 2.4026
-2.5543 4.0927 2.4026
-2.6532 4.0304 2.4026
-2.7505 3.9657 2.4026
-2.8464 3.8987 2.4026
-2.9406 3.8295 2.4026
-3.0331 3.7580 2.4026
-3.1240 3.6842 2.4026
-3.2130 3.6084 2.4026
-3.3003 3.5303 2.4026
-3.3856 3.4502 2.4026
-3.4690 3.3681 2.4026
-3.5505 3.2840 2.4026
-3.6299 3.1979 2.4026
-3.7073 3.1099 2.4026
-3.7825 3.0201 2.4026
-3.8556 2.9285 2.4026
-3.9265 2.8351 2.4026
-3.9951 2.7401 2.4026
-4.0614 2.6434 2.4026
-4.1255 2.5451 2.4026
-4.1871 2.4452 2.4026
-4.2464 2.3439 2.4026
-4.3032 2.2412 2.4026
-4.3575 2.1371 2.4026
-4.4094 2.0317 2.4026
-4.4587 1.9251 2.4026
-4.5054 1.8172 2.4026
-4.5496 1.7083 2.4026
-4.5911 1.5983 2.4026
-4.6300 1.4873 2.4026
-4.6662 1.3754 2.4026
-4.6997 1.2626 2.4026
-4.7305 1.1489 2.4026
-4.7585 1.0346 2.4026
-4.7838 0.9196 2.4026
-4.8063 0.8039 2.4026
-4.8261 0.6877 2.4026
-4.8430 0.5711 2.4026
-4.8571 0.4540 2.4026
-4.8684 0.3366 2.4026
-4.8768 0.2190 2.4026
-4.8825 0.1011 2.4026
-4.8852 -0.0169 2.4026
-4.8851 -0.1350 2.4026
-4.8822 -0.2531 2.4026
-4.8764 -0.3711 2.4026
-4.8677 -0.4890 2.4026
-4.8562 -0.6066 2.4026
-4.8418 -0.7240 2.4026
-4.8246 -0.8410 2.4026
-4.8046 -0.9576 2.4026
-4.7817 -1.0738 2.4026
-4.7561 -1.1893 2.4026
-4.7276 -1.3042 2.4026
-4.6964 -1.4185 2.4026
-4.6623 -1.5320 2.4026
-4.6255 -1.6446 2.4026
-4.5860 -1.7564 2.4026
-4.5438 -1.8672 2.4026
-4.4989 -1.9770 2.4026
-4.4513 -2.0857 2.4026
-4.4011 -2.1932 2.4026
-4.3483 -2.2995 2.4026
-4.2929 -2.4045 2.4026
-4.2349 -2.5082 2.4026
-4.1744 -2.6104 2.4026
-4.1115 -2.7112 2.4026
-4.0461 -2.8104 2.4026
-3.9783 -2.9080 2.4026
-3.9081 -3.0040 2.4026
-3.8356 -3.0983 2.4026
-3.6571 -3.1032 2.4026
-3.5821 -3.1913 2.4026
-3.5050 -3.2776 2.4026
-3.4258 -3.3620 2.4026
-3.3446 -3.4445 2.4026
-3.2614 -3.5250 2.4026
-3.1762 -3.6035 2.4026
-3.0891 -3.6798 2.4026
-3.0001 -3.7541 2.4026
-2.9094 -3.8261 2.4026
-2.8169 -3.8960 2.4026
-2.7227 -3.9635 2.4026
-2.6269 -4.0288 2.4026
-2.5295 -4.0917 2.4026
-2.4306 -4.1522 2.4026
-2.3302 -4.2103 2.4026
-2.2284 -4.2660 2.4026
-2.1253 -4.3191 2.4026
-2.0209 -4.3698 2.4026
-1.9153 -4.4178 2.4026
-1.8085 -4.4633 2.4026
-1.7006 -4.5062 2.4026
-1.5917 -4.5464 2.4026
-1.4819 -4.5839 2.4026
-1.3712 -4.6188 2.4026
-1.2596 -4.6509 2.4026
-1.1473 -4.6803 2.4026
-1.0342 -4.7070 2.4026
-0.9206 -4.7308 2.4026
-0.8064 -4.7519 2.4026
-0.6917 -4.7702 2.4026
-0.5766 -4.7857 2.4026
-0.4611 -4.7984 2.4026
-0.3454 -4.8083 2.4026
-0.2295 -4.8153 2.4026
-0.1134 -4.8195 2.4026
0.0028 -4.8208 2.4026
0.1189 -4.8193 2.4026
0.2350 -4.8150 2.4026
0.3509 -4.8078 2.4026
0.4666 -4.7978 2.4026
0.5821 -4.7850 2.4026
0.6972 -4.7693 2.4026
0.8118 -4.7509 2.4026
0.9260 -4.7296 2.4026
1.0396 -4.7056 2.4026
1.1526 -4.6788 2.4026
1.2649 -4.6492 2.4026
1.3764 -4.6170 2.4026
1.4871 -4.5820 2.4026
1.5969 -4.5443 2.4026
1.7057 -4.5039 2.4026
1.8135 -4.4609 2.4026
1.9202 -4.4153 2.4026
2.0258 -4.3671 2.4026
2.1301 -4.3163 2.4026
2.2332 -4.2631 2.4026
2.3349 -4.2073 2.4026
2.4326 -4.1447 2.4001
2.4428 -3.9413 2.3161
2.5184 -3.8526 2.2995
2.6262 -3.8136 2.3138
2.7001 -3.7253 2.2995
2.7885 -3.6583 2.2995
2.8752 -3.5893 2.2995
2.9603 -3.5181 2.2995
3.0435 -3.4449 2.2995
3.1250 -3.3697 2.2995
3.2045 -3.2926 2.2995
3.2822 -3.2136 2.2995
3.3578 -3.1327 2.2995
3.4315 -3.0500 2.2995
3.5031 -2.9655 2.2995
3.5727 -2.8794 2.2995
3.6401 -2.7916 2.2995
3.7053 -2.7022 2.2995
3.7683 -2.6113 2.2995
3.8291 -2.5189 2.2995
3.8876 -2.4251 2.2995
3.9438 -2.3299 2.2995
3.9976 -2.2334 2.2995
4.0491 -2.1356 2.2995
4.0982 -2.0366 2.2995
4.1448 -1.9365 2.2995
4.1890 -1.8353 2.2995
4.2307 -1.7331 2.2995
4.2699 -1.6299 2.2995
4.3066 -1.5259 2.2995
4.3407 -1.4210 2.2995
4.3723 -1.3154 2.2995
4.4012 -1.2090 2.2995
4.4277 -1.1020 2.2995
4.4514 -0.9944 2.2995
4.4726 -0.8863 2.2995
4.4912 -0.7778 2.2995
4.5071 -0.6689 2.2995
4.5203 -0.5596 2.2995
4.5310 -0.4501 2.2995
4.5389 -0.3404 2.2995
4.5442 -0.2306 2.2995
4.5469 -0.1206 2.2995
4.5469 -0.0107 2.2995
4.5442 0.0991 2.2995
4.5389 0.2088 2.2995
4.5309 0.3183 2.2995
4.5203 0.4276 2.2995
4.5071 0.5366 2.2995
4.4913 0.6451 2.2995
4.4728 0.7533 2.2995
4.4518 0.8609 2.2995
4.4281 0.9679 2.2995
4.4019 1.0744 2.2995
4.3732 1.1801 2.2995
4.3419 1.2851 2.2995
4.3081 1.3892 2.2995
4.2718 1.4925 2.2995
4.2331 1.5949 2.2995
4.1919 1.6963 2.2995
4.1483 1.7966 2.2995
4.1023 1.8958 2.2995
4.0540 1.9939 2.2995
4.0033 2.0908 2.2995
3.9503 2.1864 2.2995
3.8951 2.2806 2.2995
3.8376 2.3735 2.2995
3.7779 2.4650 2.2995
3.7161 2.5549 2.2995
3.6521 2.6434 2.2995
3.5861 2.7303 2.2995
3.5180 2.8155 2.2995
3.4478 2.8991 2.2995
3.3758 2.9809 2.2995
3.3017 3.0610 2.2995
3.2258 3.1392 2.2995
3.1481 3.2156 2.2995
3.0686 3.2901 2.2995
2.9873 3.3627 2.2995
2.9043 3.4333 2.2995
2.8197 3.5019 2.2995
2.7335 3.5684 2.2995
2.6457 3.6328 2.2995
2.5564 3.6950 2.2995
2.5305 3.8539 2.3600
2.4800 3.9840 2.4026
2.3823 4.0422 2.4026
2.2833 4.0980 2.4026
2.1830 4.1515 2.4026
2.0814 4.2025 2.4026
1.9787 4.2510 2.4026
1.8748 4.2971 2.4026
1.7699 4.3407 2.4026
1.6640 4.3818 2.4026
1.5572 4.4203 2.4026
1.4495 4.4562 2.4026
1.3409 4.4896 2.4026
1.2316 4.5204 2.4026
1.1216 4.5485 2.4026
1.0110 4.5740 2.4026
0.8998 4.5968 2.4026
0.7880 4.6170 2.4026
0.6759 4.6345 2.4026
0.5633 4.6493 2.4026
0.4505 4.6614 2.4026
0.3374 4.6708 2.4026
0.2241 4.6776 2.4026
0.1106 4.6816 2.4026
-0.0029 4.6829 2.4026
-0.1164 4.6814 2.4026
-0.2298 4.6773 2.4026
-0.3431 4.6705 2.4026
-0.4562 4.6609 2.4026
-0.5690 4.6487 2.4026
-0.6816 4.6338 2.4026
-0.7937 4.6162 2.4026
-0.9054 4.5959 2.4026
-1.0166 4.5729 2.4026
-1.1272 4.5473 2.4026
-1.2372 4.5190 2.4026
-1.3465 4.4882 2.4026
-1.4550 4.4547 2.4026
-1.5627 4.4186 2.4026
-1.6695 4.3800 2.4026
-1.7753 4.3388 2.4026
-1.8802 4.2951 2.4026
-1.9840 4.2489 2.4026
-2.0867 4.2003 2.4026
-2.1882 4.1491 2.4026
-2.2885 4.0956 2.4026
-2.3874 4.0397 2.4026
-2.4850 3.9814 2.4026
-2.5812 3.9207 2.4026
-2.6760 3.8578 2.4026
-2.7692 3.7926 2.4026
-2.8609 3.7253 2.4026
-2.9509 3.6557 2.4026
-3.0392 3.5839 2.4026
-3.1259 3.5101 2.4026
-3.2107 3.4342 2.4026
-3.2937 3.3562 2.4026
-3.3749 3.2763 2.4026
-3.4541 3.1944 2.4026
-3.5313 3.1107 2.4026
-3.6066 3.0251 2.4026
-3.6797 2.9377 2.4026
-3.7508 2.8485 2.4026
-3.8197 2.7577 2.4026
-3.8865 2.6652 2.4026
-3.9510 2.5711 2.4026
-4.0132 2.4754 2.4026
-4.0732 2.3783 2.4026
-4.1308 2.2798 2.4026
-4.1861 2.1798 2.4026
-4.2389 2.0785 2.4026
-4.2893 1.9760 2.4026
-4.3372 1.8722 2.4026
-4.3827 1.7673 2.4026
-4.4256 1.6614 2.4026
-4.4660 1.5543 2.4026
-4.5037 1.4464 2.4026
-4.5389 1.3375 2.4026
-4.5715 1.2277 2.4026
-4.6014 1.1172 2.4026
-4.6286 1.0060 2.4026
-4.6532 0.8941 2.4026
-4.6751 0.7816 2.4026
-4.6942 0.6686 2.4026
-4.7107 0.5551 2.4026
-4.7243 0.4412 2.4026
-4.7353 0.3270 2.4026
-4.7435 0.2126 2.4026
-4.7489 0.0979 2.4026
-4.7515 -0.0169 2.4026
-4.7514 -0.1317 2.4026
-4.7485 -0.2466 2.4026
-4.7428 -0.3613 2.4026
-4.7343 -0.4760 2.4026
-4.7231 -0.5904 2.4026
-4.7091 -0.7045 2.4026
-4.6924 -0.8183 2.4026
-4.6728 -0.9317 2.4026
-4.6506 -1.0447 2.4026
-4.6256 -1.1571 2.4026
-4.5978 -1.2688 2.4026
-4.5674 -1.3799 2.4026
-4.5343 -1.4903 2.4026
-4.4985 -1.5998 2.4026
-4.4600 -1.7085 2.4026
-4.4189 -1.8163 2.4026
-4.3752 -1.9230 2.4026
-4.3289 -2.0287 2.4026
-4.2800 -2.1333 2.4026
-4.2286 -2.2366 2.4026
-4.1747 -2.3387 2.4026
-4.1183 -2.4395 2.4026
-4.0595 -2.5389 2.4026
-3.9983 -2.6369 2.4026
-3.9346 -2.7334 2.4026
-3.8687 -2.8283 2.4026
-3.8004 -2.9216 2.4026
-3.7298 -3.0132 2.4026
-3.5579 -3.0194 2.4026
-3.4849 -3.1051 2.4026
-3.4099 -3.1890 2.4026
-3.3328 -3.2712 2.4026
-3.2538 -3.3514 2.4026
-3.1728 -3.4297 2.4026
-3.0899 -3.5060 2.4026
-3.0052 -3.5803 2.4026
-2.9186 -3.6525 2.4026
-2.8303 -3.7225 2.4026
-2.7403 -3.7905 2.4026
-2.6487 -3.8562 2.4026
-2.5555 -3.9197 2.4026
-2.4607 -3.9808 2.4026
-2.3645 -4.0397 2.4026
-2.2668 -4.0962 2.4026
-2.1678 -4.1503 2.4026
-2.0675 -4.2020 2.4026
-1.9659 -4.2513 2.4026
-1.8632 -4.2980 2.4026
-1.7593 -4.3422 2.4026
-1.6544 -4.3839 2.4026
-1.5484 -4.4230 2.4026
-1.4416 -4.4595 2.4026
-1.3338 -4.4934 2.4026
-1.2253 -4.5247 2.4026
-1.1160 -4.5533 2.4026
-1.0061 -4.5792 2.4026
-0.8955 -4.6024 2.4026
-0.7844 -4.6229 2.4026
-0.6729 -4.6407 2.4026
-0.5609 -4.6558 2.4026
-0.4486 -4.6681 2.4026
-0.3360 -4.6777 2.4026
-0.2232 -4.6845 2.4026
-0.1103 -4.6886 2.4026
0.0027 -4.6899 2.4026
0.1157 -4.6884 2.4026
0.4539 -4.6675 2.4026
0.2286 -4.6842 2.4026
0.5662 -4.6551 2.4026
0.3414 -4.6773 2.4026
0.6782 -4.6398 2.4026
1.5534 -4.4210 2.4026
0.7897 -4.6219 2.4026
1.6593 -4.3817 2.4026
0.9008 -4.6012 2.4026
1.7642 -4.3399 2.4026
1.0113 -4.5778 2.4026
1.8680 -4.2956 2.4026
1.1212 -4.5518 2.4026
1.9707 -4.2487 2.4026
1.2304 -4.5231 2.4026
2.0722 -4.1993 2.4026
1.3389 -4.4917 2.4026
2.1724 -4.1475 2.4026
1.4466 -4.4576 2.4026
2.2714 -4.0933 2.4026
2.4499 -3.7483 2.2995
2.3689 -4.0366 2.4026
2.5391 -3.6874 2.2995
2.4353 -3.9295 2.3735
2.6310 -3.6304 2.3032
3.2667 -3.0480 2.2995
2.7127 -3.5593 2.2995
3.3384 -2.9676 2.2995
2.7971 -3.4921 2.2995
3.4081 -2.8855 2.2995
2.8799 -3.4229 2.2995
3.4758 -2.8017 2.2995
2.9609 -3.3517 2.2995
3.5414 -2.7163 2.2995
3.0401 -3.2786 2.2995
3.6049 -2.6294 2.2995
3.1175 -3.2036 2.2995
3.6662 -2.5409 2.2995
3.1931 -3.1267 2.2995
3.7253 -2.4510 2.2995
3.7823 -2.3597 2.2995
3.8894 -2.1733 2.2995
3.8370 -2.2671 2.2995
3.9395 -2.0781 2.2995
4.2824 -1.1767 2.2995
3.9872 -1.9819 2.2995
4.3081 -1.0726 2.2995
4.0327 -1.8845 2.2995
4.3313 -0.9680 2.2995
4.0757 -1.7860 2.2995
4.3519 -0.8628 2.2995
4.1163 -1.6866 2.2995
4.3700 -0.7572 2.2995
4.1544 -1.5862 2.2995
4.3855 -0.6512 2.2995
4.1902 -1.4850 2.2995
4.2234 -1.3830 2.2995
4.3985 -0.5449 2.2995
4.2541 -1.2802 2.2995
4.4088 -0.4383 2.2995
4.4244 -0.1178 2.2995
4.4166 -0.3316 2.2995
4.4218 -0.2247 2.2995
4.4244 -0.0108 2.2995
4.3092 0.9416 2.2995
4.4219 0.0961 2.2995
4.2837 1.0451 2.2995
4.4167 0.2028 2.2995
4.4090 0.3094 2.2995
4.2558 1.1480 2.2995
4.3988 0.4157 2.2995
4.2254 1.2502 2.2995
4.3859 0.5218 2.2995
4.1925 1.3516 2.2995
4.3705 0.6274 2.2995
4.1572 1.4521 2.2995
4.3526 0.7326 2.2995
4.1196 1.5518 2.2995
4.0795 1.6504 2.2995
4.3322 0.8374 2.2995
3.9454 1.9401 2.2995
4.0371 1.7481 2.2995
3.8961 2.0344 2.2995
3.9924 1.8447 2.2995
3.3557 2.8212 2.2995
3.8446 2.1274 2.2995
3.7908 2.2192 2.2995
3.2855 2.9009 2.2995
3.7349 2.3096 2.2995
3.2135 2.9788 2.2995
3.6768 2.3986 2.2995
3.1397 3.0550 2.2995
3.6167 2.4862 2.2995
3.0640 3.1294 2.2995
3.5544 2.5723 2.2995
2.9866 3.2019 2.2995
3.4902 2.6569 2.2995
2.9075 3.2726 2.2995
3.4239 2.7399 2.2995
2.8268 3.3413 2.2995
2.5751 3.5355 2.2995
2.7444 3.4080 2.2995
2.5306 3.6574 2.3387
2.6605 3.4728 2.2995
2.5075 3.8185 2.4026
1.7228 4.2247 2.4026
2.4138 3.8774 2.4026
1.6197 4.2646 2.4026
2.3188 3.9340 2.4026
1.5157 4.3021 2.4026
2.2224 3.9884 2.4026
1.4108 4.3371 2.4026
2.1248 4.0404 2.4026
