ply
format ascii 1.0
element vertex 2174
property float32 x
property float32 y
property float32 z
end_header
-4.0129 8.0984 2.4028
-4.2080 8.0000 2.4028
-4.4008 7.8968 2.4028
-4.5910 7.7891 2.4028
-4.7786 7.6768 2.4028
-4.9634 7.5601 2.4028
-5.1455 7.4389 2.4028
-5.3246 7.3134 2.4028
-5.5007 7.1836 2.4028
-5.6736 7.0496 2.4028
-5.7311 6.7787 2.3567
-5.7549 6.4823 2.3010
-5.9074 6.3385 2.2996
-6.0599 6.1950 2.2996
-6.2090 6.0477 2.2996
-6.3545 5.8969 2.2996
-6.4964 5.7426 2.2996
-6.6346 5.5849 2.2996
-6.7689 5.4240 2.2996
-6.8994 5.2598 2.2996
-7.0260 5.0925 2.2996
-7.1484 4.9222 2.2996
-6.2511 4.0851 1.9781
-6.3882 3.9577 1.9903
-7.4910 4.3940 2.2996
-7.5966 4.2125 2.2996
-7.6979 4.0286 2.2996
-7.7947 3.8422 2.2996
-7.8871 3.6535 2.2996
-7.9748 3.4625 2.2996
-8.0580 3.2695 2.2996
-8.1366 3.0745 2.2996
-8.2104 2.8776 2.2996
-8.2794 2.6790 2.2996
-8.3437 2.4787 2.2996
-8.4032 2.2768 2.2996
-8.4577 2.0736 2.2996
-8.5074 1.8690 2.2996
-8.5522 1.6633 2.2996
-8.5919 1.4565 2.2996
-8.6267 1.2487 2.2996
-8.6564 1.0401 2.2996
-8.6812 0.8308 2.2996
-8.7008 0.6210 2.2996
-8.7154 0.4107 2.2996
-8.7249 0.2000 2.2996
-8.7293 -0.0109 2.2996
-8.7286 -0.2219 2.2996
-8.7228 -0.4328 2.2996
-8.7120 -0.6436 2.2996
-8.6960 -0.8541 2.2996
-8.6749 -1.0642 2.2996
-8.6487 -1.2738 2.2996
-8.6175 -1.4828 2.2996
-8.5812 -1.6910 2.2996
-8.5399 -1.8983 2.2996
-8.4935 -2.1045 2.2996
-8.4422 -2.3096 2.2996
-8.3859 -2.5135 2.2996
-8.3246 -2.7160 2.2996
-8.2585 -2.9170 2.2996
-8.1875 -3.1163 2.2996
-8.1116 -3.3140 2.2996
-8.0310 -3.5097 2.2996
-7.9456 -3.7035 2.2996
-7.8556 -3.8952 2.2996
-7.7608 -4.0847 2.2996
-7.6615 -4.2719 2.2996
-7.5577 -4.4567 2.2996
-7.4494 -4.6389 2.2996
-7.3366 -4.8184 2.2996
-7.2195 -4.9953 2.2996
-7.0982 -5.1692 2.2996
-6.9726 -5.3402 2.2996
-6.8429 -5.5081 2.2996
-6.4178 -5.4267 2.2996
-6.2859 -5.5811 2.2996
-6.2199 -5.7971 2.3256
-6.2250 -6.0894 2.3814
-5.1960 -5.3343 2.0361
-4.9568 -5.3411 1.9921
-4.7276 -5.3475 1.9510
-4.5075 -5.3537 1.9127
-4.2957 -5.3597 1.8769
-4.0915 -5.3654 1.8435
-3.8942 -5.3710 1.8123
-3.7034 -5.3763 1.7832
-3.5184 -5.3815 1.7560
-3.3388 -5.3866 1.7306
-3.2379 -5.5169 1.7467
-3.2473 -5.8523 1.8273
-3.1926 -6.0962 1.8786
-3.0741 -6.2316 1.8967
-3.2818 -7.0786 2.1295
-3.5093 -8.0749 2.4028
-3.3136 -8.1580 2.4028
-3.1159 -8.2363 2.4028
-1.0426 -2.9709 0.8591
-0.9706 -2.9951 0.8590
-0.8979 -3.0175 0.8589
-0.8247 -3.0381 0.8588
-0.7511 -3.0570 0.8587
-0.6770 -3.0740 0.8586
-0.6025 -3.0892 0.8585
-0.5277 -3.1026 0.8584
-0.4526 -3.1142 0.8583
-0.3772 -3.1240 0.8582
-0.3017 -3.1319 0.8581
-0.2259 -3.1380 0.8580
-0.1501 -3.1422 0.8579
-0.0741 -3.1446 0.8578
0.0018 -3.1451 0.8577
0.0777 -3.1438 0.8576
0.1536 -3.1406 0.8575
0.2294 -3.1356 0.8575
0.3050 -3.1288 0.8574
0.3804 -3.1201 0.8573
0.4556 -3.1096 0.8572
0.5305 -3.0972 0.8571
0.6050 -3.0831 0.8570
0.6792 -3.0671 0.8570
2.0208 -8.1840 2.2997
2.2177 -8.1323 2.2997
2.4132 -8.0758 2.2997
2.6073 -8.0146 2.2997
2.7999 -7.9487 2.2997
2.9908 -7.8780 2.2997
3.1798 -7.8028 2.2997
3.3670 -7.7230 2.2997
3.5522 -7.6386 2.2997
3.7352 -7.5498 2.2997
3.9160 -7.4566 2.2997
4.0944 -7.3590 2.2997
4.2704 -7.2570 2.2997
4.4439 -7.1509 2.2997
4.6147 -7.0406 2.2997
4.7827 -6.9261 2.2997
4.9479 -6.8076 2.2997
5.1101 -6.6852 2.2997
5.2693 -6.5588 2.2997
5.4253 -6.4286 2.2997
5.5781 -6.2947 2.2997
5.7276 -6.1572 2.2997
5.9964 -6.1418 2.3478
6.1420 -5.9942 2.3478
6.2839 -5.8431 2.3478
6.4220 -5.6886 2.3478
6.5563 -5.5308 2.3478
6.6868 -5.3698 2.3478
6.8132 -5.2058 2.3478
6.7771 -4.9235 2.2941
6.7451 -4.6556 2.2450
6.7853 -4.4452 2.2224
6.8259 -4.2398 2.2020
6.9480 -4.0865 2.2093
7.0430 -3.9165 2.2093
7.1026 -3.7279 2.1995
7.2548 -3.5870 2.2196
7.4098 -3.4434 2.2414
7.6395 -3.3282 2.2864
7.9232 -3.2264 2.3478
7.9971 -3.0334 2.3478
8.0662 -2.8386 2.3478
8.1306 -2.6424 2.3478
8.1902 -2.4446 2.3478
8.2450 -2.2455 2.3478
8.2949 -2.0452 2.3478
8.3211 -1.8396 2.3425
8.3291 -1.6313 2.3335
8.3370 -1.4246 2.3259
8.3449 -1.2193 2.3198
8.3527 -1.0149 2.3150
8.3605 -0.8114 2.3116
8.3683 -0.6085 2.3096
8.3761 -0.4059 2.3089
8.3839 -0.2034 2.3095
8.3917 -0.0008 2.3115
8.3994 0.2023 2.3149
8.4073 0.4059 2.3196
8.4151 0.6104 2.3257
8.4230 0.8160 2.3332
8.4309 1.0230 2.3421
8.4223 1.2291 2.3478
8.3882 1.4320 2.3478
8.3492 1.6339 2.3478
8.3054 1.8348 2.3478
8.2568 2.0345 2.3478
8.2034 2.2330 2.3478
8.1452 2.4301 2.3478
8.0823 2.6256 2.3478
8.0147 2.8196 2.3478
7.9425 3.0118 2.3478
7.8657 3.2022 2.3478
7.7843 3.3907 2.3478
7.6984 3.5771 2.3478
7.6082 3.7613 2.3478
7.5135 3.9433 2.3478
7.4144 4.1229 2.3478
7.3112 4.3001 2.3478
7.2037 4.4747 2.3478
7.0920 4.6466 2.3478
6.9763 4.8158 2.3478
6.8566 4.9821 2.3478
6.7329 5.1454 2.3478
6.6053 5.3057 2.3478
6.4740 5.4629 2.3478
6.2091 5.5018 2.2997
6.0733 5.6493 2.2997
5.9339 5.7936 2.2997
5.7912 5.9344 2.2997
5.6452 6.0717 2.2997
5.4959 6.2055 2.2997
5.3435 6.3356 2.2997
5.1880 6.4620 2.2997
5.0295 6.5846 2.2997
4.8682 6.7034 2.2997
4.7041 6.8182 2.2997
4.5373 6.9291 2.2997
4.3679 7.0359 2.2997
4.1960 7.1387 2.2997
4.0218 7.2372 2.2997
3.8452 7.3316 2.2997
3.6664 7.4217 2.2997
3.4856 7.5074 2.2997
3.3027 7.5888 2.2997
3.1180 7.6658 2.2997
2.9315 7.7384 2.2997
2.7434 7.8064 2.2997
2.5556 7.8759 2.3015
2.3753 7.9719 2.3122
2.2672 8.3411 2.4028
2.0647 8.3930 2.4028
1.8611 8.4401 2.4028
1.6564 8.4822 2.4028
1.4508 8.5195 2.4028
1.2443 8.5518 2.4028
1.0371 8.5792 2.4028
0.8293 8.6016 2.4028
0.6211 8.6190 2.4028
0.4125 8.6315 2.4028
0.2037 8.6389 2.4028
-0.0053 8.6413 2.4028
-0.2142 8.6387 2.4028
-0.4231 8.6312 2.4028
-0.6317 8.6186 2.4028
-0.8399 8.6010 2.4028
-1.0477 8.5785 2.4028
-1.2548 8.5509 2.4028
-1.4613 8.5185 2.4028
-1.6669 8.4810 2.4028
-1.8716 8.4387 2.4028
-2.0752 8.3915 2.4028
-2.2777 8.3394 2.4028
-2.4788 8.2824 2.4028
-2.6785 8.2207 2.4028
-2.8768 8.1542 2.4028
-3.0733 8.0829 2.4028
-3.2682 8.0070 2.4028
-3.4612 7.9264 2.4028
-3.6522 7.8412 2.4028
-3.8411 7.7514 2.4028
-4.0278 7.6571 2.4028
-4.2123 7.5584 2.4028
-4.3943 7.4552 2.4028
-4.5739 7.3477 2.4028
-4.7508 7.2359 2.4028
-4.9250 7.1199 2.4028
-5.0964 6.9997 2.4028
-5.2649 6.8755 2.4028
-5.4304 6.7472 2.4028
-5.5928 6.6149 2.4028
-5.7430 6.4686 2.3990
-5.7563 6.1762 2.3412
-5.8000 5.9290 2.2996
-5.9427 5.7880 2.2996
-6.0819 5.6437 2.2996
-6.2177 5.4959 2.2996
-6.3498 5.3450 2.2996
-6.4784 5.1909 2.2996
-6.6032 5.0337 2.2996
-6.7243 4.8736 2.2996
-6.8414 4.7105 2.2996
-6.2475 4.0825 2.0657
-6.3822 3.9538 2.0776
-7.1691 4.2049 2.2996
-7.2701 4.0312 2.2996
-7.3670 3.8551 2.2996
-7.4596 3.6767 2.2996
-7.5479 3.4961 2.2996
-7.6318 3.3133 2.2996
-7.7113 3.1286 2.2996
-7.7864 2.9420 2.2996
-7.8570 2.7535 2.2996
-7.9230 2.5634 2.2996
-7.9845 2.3717 2.2996
-8.0413 2.1785 2.2996
-8.0934 1.9840 2.2996
-8.1409 1.7882 2.2996
-8.1836 1.5914 2.2996
-8.2216 1.3934 2.2996
-8.2547 1.1946 2.2996
-8.2831 0.9950 2.2996
-8.3067 0.7948 2.2996
-8.3254 0.5939 2.2996
-8.3393 0.3927 2.2996
-8.3483 0.1911 2.2996
-8.3525 -0.0107 2.2996
-8.3517 -0.2125 2.2996
-8.3461 -0.4144 2.2996
-8.3356 -0.6161 2.2996
-8.3202 -0.8175 2.2996
-8.3000 -1.0185 2.2996
-8.2749 -1.2190 2.2996
-8.2449 -1.4189 2.2996
-8.2101 -1.6181 2.2996
-8.1705 -1.8164 2.2996
-8.1261 -2.0137 2.2996
-8.0769 -2.2099 2.2996
-8.0229 -2.4050 2.2996
-7.9643 -2.5987 2.2996
-7.9009 -2.7909 2.2996
-7.8329 -2.9816 2.2996
-7.7603 -3.1707 2.2996
-7.6831 -3.3579 2.2996
-7.6013 -3.5433 2.2996
-7.5151 -3.7266 2.2996
-7.4244 -3.9079 2.2996
-7.3293 -4.0869 2.2996
-7.2299 -4.2636 2.2996
-7.1262 -4.4379 2.2996
-7.0183 -4.6097 2.2996
-6.9063 -4.7787 2.2996
-6.7901 -4.9451 2.2996
-6.6699 -5.1086 2.2996
-6.5458 -5.2692 2.2996
-6.2004 -5.2432 2.3188
-6.2027 -5.5074 2.3683
-6.1574 -5.7391 2.4028
-6.0180 -5.8871 2.4028
-5.1958 -5.3343 2.1250
-4.9567 -5.3411 2.0791
-4.7275 -5.3475 2.0362
-4.5073 -5.3537 1.9963
-4.2955 -5.3597 1.9590
-4.0913 -5.3654 1.9241
-3.8941 -5.3710 1.8916
-3.7032 -5.3763 1.8612
-3.5183 -5.3815 1.8328
-3.3387 -5.3866 1.8063
-3.2379 -5.5171 1.8231
-3.2473 -5.8525 1.9073
-3.1772 -6.0669 1.9514
-3.0578 -6.1987 1.9692
-3.5476 -7.6522 2.4028
-3.3621 -7.7363 2.4028
-3.1746 -7.8159 2.4028
-2.9852 -7.8909 2.4028
-1.0413 -2.9672 0.8955
-0.9617 -2.9678 0.8884
-0.8833 -2.9685 0.8819
-0.8060 -2.9691 0.8760
-0.7296 -2.9698 0.8707
-0.6542 -2.9704 0.8659
-0.5794 -2.9710 0.8618
-0.5056 -2.9726 0.8584
-0.4336 -2.9837 0.8583
-0.3614 -2.9931 0.8582
-0.2890 -3.0007 0.8581
-0.2165 -3.0065 0.8580
-0.1438 -3.0106 0.8580
-0.0710 -3.0129 0.8579
0.0017 -3.0134 0.8578
0.0745 -3.0122 0.8577
0.1472 -3.0091 0.8576
0.2198 -3.0044 0.8575
0.2922 -2.9978 0.8574
0.3645 -2.9895 0.8574
0.4365 -2.9794 0.8573
0.5104 -2.9800 0.8608
0.5849 -2.9806 0.8648
0.6601 -2.9812 0.8694
1.9476 -7.8879 2.3135
2.1246 -7.7913 2.2997
2.3120 -7.7372 2.2997
2.4979 -7.6785 2.2997
2.6824 -7.6154 2.2997
2.8653 -7.5478 2.2997
3.0464 -7.4757 2.2997
3.2258 -7.3993 2.2997
3.4032 -7.3185 2.2997
3.5785 -7.2334 2.2997
3.7518 -7.1441 2.2997
3.9228 -7.0506 2.2997
4.0914 -6.9530 2.2997
4.2576 -6.8513 2.2997
4.4212 -6.7457 2.2997
4.5822 -6.6361 2.2997
4.7405 -6.5226 2.2997
4.8960 -6.4053 2.2997
5.0485 -6.2843 2.2997
5.1980 -6.1596 2.2997
5.3445 -6.0313 2.2997
5.4877 -5.8996 2.2997
5.6277 -5.7644 2.2997
5.7643 -5.6259 2.2997
6.0208 -5.5987 2.3478
6.1532 -5.4508 2.3478
6.2820 -5.2996 2.3478
6.4070 -5.1454 2.3478
6.5282 -4.9882 2.3478
6.6456 -4.8282 2.3478
6.7590 -4.6654 2.3478
6.7852 -4.4455 2.3194
6.8259 -4.2400 2.2981
6.9479 -4.0866 2.3057
7.0429 -3.9167 2.3056
7.1025 -3.7281 2.2954
7.2546 -3.5872 2.3163
7.4373 -3.4565 2.3478
7.5171 -3.2751 2.3478
7.5924 -3.0919 2.3478
7.6633 -2.9070 2.3478
7.7296 -2.7204 2.3478
7.7914 -2.5324 2.3478
7.8486 -2.3429 2.3478
7.9011 -2.1521 2.3478
7.9491 -1.9601 2.3478
7.9923 -1.7671 2.3478
8.0309 -1.5732 2.3478
8.0648 -1.3784 2.3478
8.0939 -1.1828 2.3478
8.1183 -0.9867 2.3478
8.1379 -0.7901 2.3478
8.1528 -0.5931 2.3478
8.1629 -0.3958 2.3478
8.1682 -0.1984 2.3478
8.1688 -0.0010 2.3478
8.1646 0.1964 2.3478
8.1556 0.3935 2.3478
8.1419 0.5904 2.3478
8.1234 0.7868 2.3478
8.1002 0.9826 2.3478
8.0723 1.1778 2.3478
8.0397 1.3723 2.3478
8.0024 1.5658 2.3478
7.9605 1.7584 2.3478
7.9139 1.9498 2.3478
7.8628 2.1400 2.3478
7.8071 2.3290 2.3478
7.7469 2.5164 2.3478
7.6821 2.7023 2.3478
7.6130 2.8866 2.3478
7.5394 3.0692 2.3478
7.4615 3.2498 2.3478
7.3793 3.4285 2.3478
7.2928 3.6052 2.3478
7.2021 3.7797 2.3478
7.1072 3.9519 2.3478
7.0083 4.1217 2.3478
6.9053 4.2891 2.3478
6.7983 4.4539 2.3478
6.6874 4.6161 2.3478
6.5727 4.7756 2.3478
6.4542 4.9322 2.3478
6.2023 4.9817 2.2997
6.0790 5.1293 2.2997
5.9522 5.2739 2.2997
5.8220 5.4154 2.2997
5.6885 5.5537 2.2997
5.5517 5.6887 2.2997
5.4117 5.8204 2.2997
5.2686 5.9487 2.2997
5.1226 6.0734 2.2997
4.9735 6.1947 2.2997
4.8217 6.3122 2.2997
4.6670 6.4261 2.2997
4.5097 6.5363 2.2997
4.3498 6.6426 2.2997
4.1875 6.7451 2.2997
4.0227 6.8436 2.2997
3.8557 6.9381 2.2997
3.6864 7.0286 2.2997
3.5150 7.1150 2.2997
3.3417 7.1972 2.2997
3.1664 7.2753 2.2997
2.9893 7.3491 2.2997
2.8105 7.4187 2.2997
2.6301 7.4839 2.2997
2.4482 7.5448 2.2997
2.3653 7.9382 2.4016
2.1736 7.9966 2.4028
1.9795 8.0464 2.4028
1.7843 8.0915 2.4028
1.5880 8.1320 2.4028
1.3909 8.1677 2.4028
1.1929 8.1987 2.4028
0.9943 8.2250 2.4028
0.7951 8.2464 2.4028
0.5955 8.2632 2.4028
0.3955 8.2751 2.4028
0.1953 8.2822 2.4028
-0.0051 8.2845 2.4028
-0.2054 8.2820 2.4028
-0.4056 8.2748 2.4028
-0.6056 8.2627 2.4028
-0.8052 8.2458 2.4028
-1.0044 8.2242 2.4028
-1.2030 8.1978 2.4028
-1.4010 8.1667 2.4028
-1.5981 8.1308 2.4028
-1.7944 8.0902 2.4028
-1.9896 8.0449 2.4028
-2.1836 7.9949 2.4028
-2.3765 7.9403 2.4028
-2.5680 7.8811 2.4028
-2.7580 7.8173 2.4028
-2.9465 7.7490 2.4028
-3.1332 7.6761 2.4028
-3.3182 7.5988 2.4028
-3.5013 7.5171 2.4028
-3.6825 7.4310 2.4028
-3.8615 7.3406 2.4028
-4.0383 7.2459 2.4028
-4.2128 7.1470 2.4028
-4.3849 7.0439 2.4028
-4.5545 6.9367 2.4028
-4.7215 6.8254 2.4028
-4.8858 6.7102 2.4028
-5.0473 6.5910 2.4028
-5.2059 6.4680 2.4028
-5.3616 6.3411 2.4028
-5.5141 6.2106 2.4028
-5.6635 6.0764 2.4028
-5.7651 5.8930 2.3844
-5.7795 5.6288 2.3329
-5.8302 5.4099 2.2996
-5.9603 5.2682 2.2996
-6.0870 5.1235 2.2996
-6.2102 4.9757 2.2996
-6.3298 4.8250 2.2996
-6.4458 4.6715 2.2996
-6.5580 4.5151 2.2996
-6.2438 4.0799 2.1538
-6.3762 3.9498 2.1654
-6.8720 4.0304 2.2996
-6.9688 3.8639 2.2996
-7.0615 3.6951 2.2996
-7.1502 3.5240 2.2996
-7.2348 3.3508 2.2996
-7.3152 3.1756 2.2996
-7.3914 2.9985 2.2996
-7.4633 2.8196 2.2996
-7.5309 2.6390 2.2996
-7.5941 2.4567 2.2996
-7.6529 2.2730 2.2996
-7.7073 2.0878 2.2996
-7.7572 1.9014 2.2996
-7.8026 1.7137 2.2996
-7.8435 1.5250 2.2996
-7.8798 1.3353 2.2996
-7.9116 1.1447 2.2996
-7.9387 0.9534 2.2996
-7.9612 0.7615 2.2996
-7.9791 0.5690 2.2996
-7.9923 0.3761 2.2996
-8.0009 0.1829 2.2996
-8.0048 -0.0105 2.2996
-8.0040 -0.2039 2.2996
-7.9985 -0.3974 2.2996
-7.9884 -0.5906 2.2996
-7.9736 -0.7837 2.2996
-7.9541 -0.9763 2.2996
-7.9300 -1.1685 2.2996
-7.9012 -1.3600 2.2996
-7.8678 -1.5509 2.2996
-7.8297 -1.7409 2.2996
-7.7871 -1.9299 2.2996
-7.7399 -2.1180 2.2996
-7.6881 -2.3048 2.2996
-7.6318 -2.4904 2.2996
-7.5711 -2.6746 2.2996
-7.5058 -2.8573 2.2996
-7.4362 -3.0385 2.2996
-7.3621 -3.2179 2.2996
-7.2837 -3.3955 2.2996
-7.2010 -3.5712 2.2996
-7.1141 -3.7448 2.2996
-7.0230 -3.9163 2.2996
-6.9277 -4.0856 2.2996
-6.8283 -4.2526 2.2996
-6.7248 -4.4171 2.2996
-6.6174 -4.5791 2.2996
-6.5060 -4.7384 2.2996
-6.3928 -4.8966 2.3003
-6.2718 -5.0489 2.2996
-6.1655 -5.2139 2.4028
-6.0388 -5.3621 2.4028
-5.9084 -5.5073 2.4028
-5.7746 -5.6492 2.4028
-5.6373 -5.7879 2.4028
-4.9565 -5.3411 2.1667
-4.7273 -5.3475 2.1220
-4.5072 -5.3537 2.0804
-4.2954 -5.3597 2.0415
-4.0912 -5.3654 2.0052
-3.8939 -5.3710 1.9713
-3.7031 -5.3763 1.9396
-3.5182 -5.3815 1.9101
-3.3386 -5.3866 1.8825
-3.2379 -5.5173 1.9001
-3.2473 -5.8527 1.9878
-3.1697 -6.0529 2.0290
-3.0512 -6.1856 2.0479
-3.4039 -7.3425 2.4028
-3.2259 -7.4232 2.4028
-3.0460 -7.4995 2.4028
-2.8642 -7.5714 2.4028
-1.0413 -2.9672 0.9333
-0.9617 -2.9679 0.9259
-0.8833 -2.9685 0.9191
-0.8060 -2.9691 0.9130
-0.7296 -2.9698 0.9074
-0.6541 -2.9704 0.9025
-0.5794 -2.9710 0.8981
-0.5054 -2.9716 0.8943
-0.4319 -2.9722 0.8911
-0.3590 -2.9728 0.8884
-0.2864 -2.9734 0.8862
-0.2141 -2.9740 0.8846
-0.1421 -2.9746 0.8835
-0.0702 -2.9752 0.8829
0.0017 -2.9758 0.8828
0.0736 -2.9764 0.8833
0.1456 -2.9770 0.8843
0.2178 -2.9776 0.8858
0.2903 -2.9782 0.8878
0.3632 -2.9788 0.8904
0.4365 -2.9794 0.8935
0.5103 -2.9800 0.8971
0.5849 -2.9806 0.9013
0.6601 -2.9812 0.9061
1.8575 -7.5233 2.2997
2.0385 -7.4758 2.2997
2.2183 -7.4239 2.2997
2.3967 -7.3677 2.2997
2.5737 -7.3071 2.2997
2.7492 -7.2422 2.2997
2.9230 -7.1731 2.2997
3.0951 -7.0998 2.2997
3.2653 -7.0223 2.2997
3.4336 -6.9407 2.2997
3.5998 -6.8550 2.2997
3.7639 -6.7654 2.2997
3.9257 -6.6717 2.2997
4.0852 -6.5742 2.2997
4.2423 -6.4729 2.2997
4.3968 -6.3677 2.2997
4.5487 -6.2589 2.2997
4.6979 -6.1463 2.2997
4.8443 -6.0303 2.2997
4.9878 -5.9107 2.2997
5.1283 -5.7876 2.2997
5.2658 -5.6612 2.2997
5.4001 -5.5315 2.2997
5.5313 -5.3986 2.2997
5.6591 -5.2626 2.2997
5.7836 -5.1235 2.2997
6.0281 -5.0857 2.3478
6.1481 -4.9378 2.3478
6.2645 -4.7870 2.3478
6.3771 -4.6334 2.3478
6.4860 -4.4772 2.3478
6.5910 -4.3185 2.3478
6.6922 -4.1572 2.3478
6.7894 -3.9936 2.3478
6.8825 -3.8277 2.3478
6.9716 -3.6596 2.3478
7.0566 -3.4895 2.3478
7.1374 -3.3173 2.3478
7.2140 -3.1433 2.3478
7.2863 -2.9675 2.3478
7.3543 -2.7900 2.3478
7.4181 -2.6110 2.3478
7.4774 -2.4305 2.3478
7.5324 -2.2487 2.3478
7.5829 -2.0656 2.3478
7.6289 -1.8814 2.3478
7.6705 -1.6962 2.3478
7.7076 -1.5101 2.3478
7.7402 -1.3231 2.3478
7.7682 -1.1355 2.3478
7.7917 -0.9472 2.3478
7.8106 -0.7585 2.3478
7.8249 -0.5695 2.3478
7.8347 -0.3801 2.3478
7.8399 -0.1907 2.3478
7.8405 -0.0012 2.3478
7.8365 0.1882 2.3478
7.8279 0.3775 2.3478
7.8148 0.5664 2.3478
7.7972 0.7549 2.3478
7.7750 0.9429 2.3478
7.7482 1.1303 2.3478
7.7170 1.3169 2.3478
7.6813 1.5027 2.3478
7.6411 1.6876 2.3478
7.5965 1.8714 2.3478
7.5474 2.0540 2.3478
7.4940 2.2353 2.3478
7.4363 2.4153 2.3478
7.3742 2.5938 2.3478
7.3079 2.7707 2.3478
7.2373 2.9459 2.3478
7.1626 3.1194 2.3478
7.0837 3.2910 2.3478
7.0007 3.4606 2.3478
6.9137 3.6281 2.3478
6.8227 3.7934 2.3478
6.7278 3.9565 2.3478
6.6289 4.1172 2.3478
6.5263 4.2755 2.3478
6.4199 4.4312 2.3478
6.1805 4.4904 2.2997
6.0691 4.6378 2.2997
5.9543 4.7823 2.2997
5.8359 4.9241 2.2997
5.7143 5.0629 2.2997
5.5893 5.1987 2.2997
5.4612 5.3315 2.2997
5.3299 5.4612 2.2997
5.1955 5.5876 2.2997
5.0582 5.7108 2.2997
4.9179 5.8306 2.2997
4.7749 5.9470 2.2997
4.6291 6.0599 2.2997
4.4807 6.1693 2.2997
4.3297 6.2751 2.2997
4.1762 6.3772 2.2997
4.0203 6.4756 2.2997
3.8622 6.5702 2.2997
3.7018 6.6610 2.2997
3.5393 6.7479 2.2997
3.3748 6.8309 2.2997
3.2083 6.9098 2.2997
3.0401 6.9848 2.2997
2.8700 7.0557 2.2997
2.6984 7.1225 2.2997
2.5291 7.1962 2.3032
2.3506 7.2437 2.2997
2.2721 7.6251 2.4028
2.0869 7.6774 2.4028
1.9006 7.7253 2.4028
1.7131 7.7686 2.4028
1.5247 7.8075 2.4028
1.3354 7.8418 2.4028
1.1454 7.8716 2.4028
0.9546 7.8968 2.4028
0.7634 7.9174 2.4028
0.5717 7.9335 2.4028
0.3797 7.9449 2.4028
0.1875 7.9517 2.4028
-0.0049 7.9540 2.4028
-0.1972 7.9516 2.4028
-0.3894 7.9446 2.4028
-0.5815 7.9330 2.4028
-0.7732 7.9168 2.4028
-0.9644 7.8961 2.4028
-1.1551 7.8707 2.4028
-1.3451 7.8408 2.4028
-1.5344 7.8063 2.4028
-1.7228 7.7673 2.4028
-1.9102 7.7238 2.4028
-2.0966 7.6758 2.4028
-2.2817 7.6234 2.4028
-2.4656 7.5665 2.4028
-2.6480 7.5052 2.4028
-2.8289 7.4396 2.4028
-3.0082 7.3696 2.4028
-3.1858 7.2954 2.4028
-3.3616 7.2169 2.4028
-3.5355 7.1342 2.4028
-3.7074 7.0474 2.4028
-3.8771 6.9564 2.4028
-4.0446 6.8614 2.4028
-4.2098 6.7624 2.4028
-4.3726 6.6595 2.4028
-4.5330 6.5526 2.4028
-4.6907 6.4419 2.4028
-4.8457 6.3275 2.4028
-4.9980 6.2093 2.4028
-5.1474 6.0876 2.4028
-5.2938 5.9622 2.4028
-5.4372 5.8334 2.4028
-5.5775 5.7011 2.4028
-5.7146 5.5654 2.4028
-5.7852 5.3679 2.3768
-5.7994 5.1257 2.3307
-5.8436 4.9184 2.2996
-5.9618 4.7765 2.2996
-6.0766 4.6318 2.2996
-6.1879 4.4843 2.2996
-6.2956 4.3342 2.2996
-6.2402 4.0773 2.2422
-6.3701 3.9458 2.2536
-6.5968 3.8688 2.2996
-6.6897 3.7089 2.2996
-6.7787 3.5468 2.2996
-6.8638 3.3826 2.2996
-6.9449 3.2163 2.2996
-7.0221 3.0482 2.2996
-7.0951 2.8781 2.2996
-7.1641 2.7064 2.2996
-7.2289 2.5329 2.2996
-7.2895 2.3580 2.2996
-7.3459 2.1816 2.2996
-7.3981 2.0038 2.2996
-7.4459 1.8248 2.2996
-7.4894 1.6447 2.2996
-7.5286 1.4635 2.2996
-7.5634 1.2814 2.2996
-7.5938 1.0985 2.2996
-7.6198 0.9149 2.2996
-7.6414 0.7306 2.2996
-7.6585 0.5459 2.2996
-7.6711 0.3608 2.2996
-7.6792 0.1753 2.2996
-7.6829 -0.0103 2.2996
-7.6821 -0.1960 2.2996
-7.6768 -0.3816 2.2996
-7.6670 -0.5671 2.2996
-7.6527 -0.7524 2.2996
-7.6340 -0.9372 2.2996
-7.6108 -1.1216 2.2996
-7.5831 -1.3055 2.2996
-7.5509 -1.4886 2.2996
-7.5144 -1.6710 2.2996
-7.4734 -1.8524 2.2996
-7.4280 -2.0329 2.2996
-7.3783 -2.2122 2.2996
-7.3242 -2.3903 2.2996
-7.2658 -2.5670 2.2996
-7.2032 -2.7424 2.2996
-7.1362 -2.9161 2.2996
-7.0651 -3.0883 2.2996
-6.9899 -3.2587 2.2996
-6.9104 -3.4273 2.2996
-6.8270 -3.5939 2.2996
-6.7394 -3.7585 2.2996
-6.6479 -3.9209 2.2996
-6.5525 -4.0811 2.2996
-6.4532 -4.2389 2.2996
-6.3722 -4.4096 2.3076
-6.2432 -4.5472 2.2996
-6.1812 -4.7347 2.3178
-6.1823 -4.9770 2.3622
-5.9244 -5.0102 2.4028
-5.8026 -5.1527 2.4028
-5.6773 -5.2921 2.4028
-5.5487 -5.4285 2.4028
-5.4168 -5.5617 2.4028
-5.2816 -5.6917 2.4028
-5.1434 -5.8184 2.4028
-4.5070 -5.3537 2.1650
-4.2952 -5.3597 2.1246
-4.0910 -5.3654 2.0868
-3.8938 -5.3710 2.0515
-3.7030 -5.3763 2.0186
-3.5180 -5.3816 1.9878
-3.3385 -5.3866 1.9591
-3.2379 -5.5175 1.9775
-3.2473 -5.8529 2.0688
-3.1708 -6.0552 2.1124
-3.0554 -6.1942 2.1344
-3.2706 -7.0550 2.4028
-3.0995 -7.1325 2.4028
-2.9266 -7.2059 2.4028
-2.7520 -7.2749 2.4028
-1.0413 -2.9672 0.9714
-0.9617 -2.9679 0.9637
-0.8833 -2.9685 0.9566
-0.8059 -2.9692 0.9502
-0.7296 -2.9698 0.9444
-0.6541 -2.9704 0.9393
-0.5794 -2.9710 0.9348
-0.5054 -2.9716 0.9308
-0.4319 -2.9722 0.9274
-0.3590 -2.9728 0.9246
-0.2864 -2.9734 0.9224
-0.2141 -2.9740 0.9207
-0.1421 -2.9746 0.9195
-0.0702 -2.9752 0.9189
0.0017 -2.9758 0.9188
0.0736 -2.9764 0.9193
0.1456 -2.9770 0.9203
0.2178 -2.9776 0.9219
0.2903 -2.9782 0.9240
0.3631 -2.9788 0.9267
0.4365 -2.9794 0.9299
0.5103 -2.9800 0.9337
0.5848 -2.9806 0.9381
0.6601 -2.9812 0.9431
1.7916 -7.2565 2.3086
1.9722 -7.2330 2.3157
2.1313 -7.1332 2.2997
2.3028 -7.0792 2.2997
2.4729 -7.0210 2.2997
2.6415 -6.9587 2.2997
2.8085 -6.8923 2.2997
2.9738 -6.8219 2.2997
3.1374 -6.7474 2.2997
3.2991 -6.6691 2.2997
3.4588 -6.5868 2.2997
3.6165 -6.5007 2.2997
3.7720 -6.4107 2.2997
3.9253 -6.3170 2.2997
4.0762 -6.2197 2.2997
4.2247 -6.1187 2.2997
4.3706 -6.0141 2.2997
4.5140 -5.9060 2.2997
4.6547 -5.7945 2.2997
4.7926 -5.6796 2.2997
4.9276 -5.5614 2.2997
5.0598 -5.4400 2.2997
5.1889 -5.3154 2.2997
5.3149 -5.1877 2.2997
5.4378 -5.0571 2.2997
5.5575 -4.9235 2.2997
5.6738 -4.7870 2.2997
5.7868 -4.6478 2.2997
5.8964 -4.5059 2.2997
6.1280 -4.4526 2.3478
6.2326 -4.3026 2.3478
6.3336 -4.1500 2.3478
6.4308 -3.9951 2.3478
6.5242 -3.8379 2.3478
6.6138 -3.6785 2.3478
6.6995 -3.5170 2.3478
6.7812 -3.3535 2.3478
6.8589 -3.1881 2.3478
6.9325 -3.0209 2.3478
7.0021 -2.8520 2.3478
7.0675 -2.6815 2.3478
7.1288 -2.5094 2.3478
7.1859 -2.3360 2.3478
7.2388 -2.1613 2.3478
7.2874 -1.9854 2.3478
7.3317 -1.8084 2.3478
7.3717 -1.6304 2.3478
7.4074 -1.4515 2.3478
7.4388 -1.2718 2.3478
7.4658 -1.0915 2.3478
7.4884 -0.9106 2.3478
7.5066 -0.7292 2.3478
7.5205 -0.5475 2.3478
7.5299 -0.3656 2.3478
7.5349 -0.1835 2.3478
7.5356 -0.0014 2.3478
7.5318 0.1807 2.3478
7.5237 0.3626 2.3478
7.5111 0.5442 2.3478
7.4942 0.7254 2.3478
7.4729 0.9061 2.3478
7.4473 1.0862 2.3478
7.4173 1.2656 2.3478
7.3830 1.4442 2.3478
7.3445 1.6218 2.3478
7.3016 1.7985 2.3478
7.2546 1.9741 2.3478
7.2033 2.1484 2.3478
7.1478 2.3214 2.3478
7.0882 2.4930 2.3478
7.0245 2.6630 2.3478
6.9567 2.8315 2.3478
6.8849 2.9983 2.3478
6.8092 3.1632 2.3478
6.7294 3.3262 2.3478
6.6458 3.4873 2.3478
6.5584 3.6463 2.3478
6.4672 3.8031 2.3478
6.3722 3.9576 2.3478
6.1451 4.0256 2.2997
6.0449 4.1722 2.2997
5.9413 4.3164 2.2997
5.8343 4.4580 2.2997
5.7238 4.5970 2.2997
5.6101 4.7333 2.2997
5.4932 4.8668 2.2997
5.3731 4.9974 2.2997
5.2499 5.1251 2.2997
5.1238 5.2498 2.2997
4.9946 5.3714 2.2997
4.8626 5.4898 2.2997
4.7278 5.6050 2.2997
4.5903 5.7170 2.2997
4.4502 5.8255 2.2997
4.3075 5.9307 2.2997
4.1624 6.0324 2.2997
4.0149 6.1306 2.2997
3.8650 6.2252 2.2997
3.7130 6.3162 2.2997
3.5588 6.4035 2.2997
3.4026 6.4871 2.2997
3.2445 6.5669 2.2997
3.0844 6.6428 2.2997
2.9227 6.7149 2.2997
2.7592 6.7831 2.2997
2.5942 6.8474 2.2997
2.4277 6.9076 2.2997
2.3370 7.2017 2.3783
2.1844 7.3306 2.4028
2.0064 7.3809 2.4028
1.8272 7.4269 2.4028
1.6470 7.4686 2.4028
1.4659 7.5059 2.4028
1.2839 7.5390 2.4028
1.1012 7.5676 2.4028
0.9178 7.5918 2.4028
0.7339 7.6117 2.4028
0.5496 7.6271 2.4028
0.3650 7.6381 2.4028
0.1802 7.6447 2.4028
-0.0047 7.6468 2.4028
-0.1896 7.6445 2.4028
-0.3744 7.6378 2.4028
-0.5590 7.6267 2.4028
-0.7433 7.6111 2.4028
-0.9272 7.5911 2.4028
-1.1105 7.5667 2.4028
-1.2932 7.5380 2.4028
-1.4752 7.5048 2.4028
-1.6563 7.4673 2.4028
-1.8365 7.4254 2.4028
-2.0156 7.3793 2.4028
-2.1936 7.3288 2.4028
-2.3704 7.2742 2.4028
-2.5458 7.2152 2.4028
-2.7197 7.1521 2.4028
-2.8921 7.0848 2.4028
-3.0628 7.0135 2.4028
-3.2318 6.9380 2.4028
-3.3990 6.8585 2.4028
-3.5642 6.7749 2.4028
-3.7273 6.6875 2.4028
-3.8884 6.5961 2.4028
-4.0472 6.5009 2.4028
-4.2037 6.4019 2.4028
-4.3578 6.2992 2.4028
-4.5094 6.1927 2.4028
-4.6584 6.0827 2.4028
-4.8047 5.9691 2.4028
-4.9483 5.8520 2.4028
-5.0891 5.7314 2.4028
-5.2270 5.6075 2.4028
-5.3618 5.4803 2.4028
-5.4936 5.3499 2.4028
-5.6222 5.2164 2.4028
-5.7476 5.0797 2.4028
-5.8038 4.8846 2.3759
-5.8164 4.6598 2.3338
-5.8413 4.4523 2.2996
-5.9483 4.3105 2.2996
-6.0518 4.1662 2.2996
-6.1518 4.0194 2.2996
-6.2483 3.8702 2.2996
-6.3412 3.7187 2.2996
-6.4305 3.5650 2.2996
-6.5160 3.4091 2.2996
-6.5977 3.2513 2.2996
-6.6757 3.0914 2.2996
-6.7498 2.9297 2.2996
-6.8200 2.7663 2.2996
-6.8862 2.6012 2.2996
-6.9484 2.4344 2.2996
-7.0067 2.2662 2.2996
-7.0608 2.0967 2.2996
-7.1109 1.9258 2.2996
-7.1568 1.7537 2.2996
-7.1986 1.5806 2.2996
-7.2362 1.4065 2.2996
-7.2696 1.2314 2.2996
-7.2988 1.0556 2.2996
-7.3237 0.8791 2.2996
-7.3443 0.7020 2.2996
-7.3607 0.5245 2.2996
-7.3728 0.3465 2.2996
-7.3806 0.1683 2.2996
-7.3840 -0.0101 2.2996
-7.3832 -0.1886 2.2996
-7.3780 -0.3670 2.2996
-7.3686 -0.5452 2.2996
-7.3548 -0.7233 2.2996
-7.3367 -0.9010 2.2996
-7.3143 -1.0782 2.2996
-7.2877 -1.2549 2.2996
-7.2567 -1.4309 2.2996
-7.2215 -1.6061 2.2996
-7.1821 -1.7804 2.2996
-7.1384 -1.9538 2.2996
-7.0906 -2.1261 2.2996
-7.0386 -2.2973 2.2996
-6.9824 -2.4671 2.2996
-6.9222 -2.6356 2.2996
-6.8578 -2.8026 2.2996
-6.7894 -2.9680 2.2996
-6.7170 -3.1317 2.2996
-6.6407 -3.2937 2.2996
-6.5604 -3.4538 2.2996
-6.4763 -3.6119 2.2996
-6.3883 -3.7680 2.2996
-6.2965 -3.9219 2.2996
-6.2011 -4.0735 2.2996
-6.1620 -4.2644 2.3222
-6.1636 -4.4895 2.3626
-6.1575 -4.7168 2.4028
-6.0427 -4.8649 2.4028
-5.7000 -4.8207 2.4028
-5.5828 -4.9577 2.4028
-5.4622 -5.0918 2.4028
-5.3384 -5.2230 2.4028
-5.2115 -5.3511 2.4028
-5.0815 -5.4762 2.4028
-4.9484 -5.5981 2.4028
-4.8124 -5.7167 2.4028
-4.6735 -5.8320 2.4028
-4.0909 -5.3654 2.1690
-3.8937 -5.3710 2.1323
-3.7028 -5.3764 2.0981
-3.5179 -5.3816 2.0661
-3.3384 -5.3866 2.0363
-3.2379 -5.5177 2.0555
-3.2473 -5.8531 2.1504
-3.1831 -6.0790 2.2043
-3.0773 -6.2390 2.2345
-3.1464 -6.7875 2.4028
-2.9819 -6.8620 2.4028
-2.8155 -6.9325 2.4028
-2.6475 -6.9990 2.4028
-1.0412 -2.9673 1.0097
-0.9616 -2.9679 1.0017
-0.8832 -2.9686 0.9943
-0.8059 -2.9692 0.9877
-0.7296 -2.9698 0.9817
-0.6541 -2.9704 0.9764
-0.5794 -2.9710 0.9716
-0.5054 -2.9716 0.9675
-0.4319 -2.9723 0.9640
-0.3590 -2.9729 0.9611
-0.2864 -2.9734 0.9588
-0.2141 -2.9740 0.9570
-0.1421 -2.9746 0.9558
-0.0702 -2.9752 0.9552
0.0017 -2.9758 0.9551
0.0736 -2.9764 0.9556
0.1456 -2.9770 0.9566
0.2178 -2.9776 0.9583
0.2903 -2.9782 0.9604
0.3631 -2.9788 0.9632
0.4364 -2.9794 0.9666
0.5103 -2.9800 0.9705
0.5848 -2.9806 0.9751
0.6601 -2.9813 0.9803
1.7833 -7.2233 2.3887
1.8842 -6.9105 2.2997
2.0504 -6.8626 2.2997
2.2154 -6.8106 2.2997
2.3790 -6.7547 2.2997
2.5412 -6.6948 2.2997
2.7019 -6.6309 2.2997
2.8610 -6.5632 2.2997
3.0184 -6.4916 2.2997
3.1739 -6.4162 2.2997
3.3276 -6.3371 2.2997
3.4793 -6.2542 2.2997
3.6289 -6.1677 2.2997
3.7764 -6.0777 2.2997
3.9216 -5.9840 2.2997
4.0644 -5.8868 2.2997
4.2049 -5.7863 2.2997
4.3428 -5.6823 2.2997
4.4782 -5.5750 2.2997
4.6109 -5.4645 2.2997
4.7409 -5.3508 2.2997
4.8680 -5.2341 2.2997
4.9923 -5.1142 2.2997
5.1136 -4.9914 2.2997
5.2318 -4.8657 2.2997
5.3470 -4.7372 2.2997
5.4590 -4.6060 2.2997
5.5677 -4.4720 2.2997
5.6732 -4.3356 2.2997
5.7752 -4.1966 2.2997
5.8739 -4.0552 2.2997
6.0939 -3.9932 2.3478
6.1875 -3.8442 2.3478
6.2774 -3.6929 2.3478
6.3637 -3.5396 2.3478
6.4461 -3.3842 2.3478
6.5248 -3.2269 2.3478
6.5996 -3.0678 2.3478
6.6705 -2.9069 2.3478
6.7375 -2.7444 2.3478
6.8005 -2.5804 2.3478
6.8595 -2.4149 2.3478
6.9145 -2.2480 2.3478
6.9654 -2.0799 2.3478
7.0122 -1.9106 2.3478
7.0549 -1.7403 2.3478
7.0935 -1.5691 2.3478
7.1279 -1.3969 2.3478
7.1581 -1.2241 2.3478
7.1841 -1.0505 2.3478
7.2059 -0.8765 2.3478
7.2235 -0.7020 2.3478
7.2369 -0.5271 2.3478
7.2461 -0.3520 2.3478
7.2510 -0.1768 2.3478
7.2516 -0.0015 2.3478
7.2481 0.1737 2.3478
7.2403 0.3487 2.3478
7.2283 0.5234 2.3478
7.2120 0.6978 2.3478
7.1916 0.8717 2.3478
7.1670 1.0451 2.3478
7.1382 1.2177 2.3478
7.1052 1.3896 2.3478
7.0682 1.5606 2.3478
7.0270 1.7306 2.3478
6.9817 1.8996 2.3478
6.9324 2.0674 2.3478
6.8791 2.2339 2.3478
6.8218 2.3991 2.3478
6.7605 2.5628 2.3478
6.6954 2.7249 2.3478
6.6263 2.8854 2.3478
6.5534 3.0442 2.3478
6.4767 3.2011 2.3478
6.3963 3.3561 2.3478
6.1829 3.4373 2.2997
6.0969 3.5851 2.2997
6.0074 3.7308 2.2997
5.9145 3.8743 2.2997
5.8181 4.0155 2.2997
5.7184 4.1543 2.2997
5.6154 4.2906 2.2997
5.5092 4.4244 2.2997
5.3998 4.5556 2.2997
5.2873 4.6841 2.2997
5.1717 4.8099 2.2997
5.0532 4.9328 2.2997
4.9317 5.0528 2.2997
4.8075 5.1699 2.2997
4.6804 5.2839 2.2997
4.5507 5.3948 2.2997
4.4184 5.5026 2.2997
4.2835 5.6071 2.2997
4.1462 5.7084 2.2997
4.0065 5.8063 2.2997
3.8645 5.9009 2.2997
3.7203 5.9920 2.2997
3.5740 6.0795 2.2997
3.4256 6.1636 2.2997
3.2752 6.2441 2.2997
3.1230 6.3209 2.2997
2.9690 6.3940 2.2997
2.8133 6.4634 2.2997
2.6560 6.5291 2.2997
2.5057 6.6134 2.3076
2.3369 6.6490 2.2997
2.2728 7.0036 2.4028
2.1026 7.0561 2.4028
1.9313 7.1046 2.4028
1.7588 7.1489 2.4028
1.5854 7.1890 2.4028
1.4110 7.2250 2.4028
1.2358 7.2568 2.4028
1.0600 7.2843 2.4028
0.8835 7.3077 2.4028
0.7065 7.3268 2.4028
0.5291 7.3416 2.4028
0.3514 7.3522 2.4028
0.1735 7.3586 2.4028
-0.0045 7.3606 2.4028
-0.1825 7.3584 2.4028
-0.3604 7.3519 2.4028
-0.5381 7.3412 2.4028
-0.7155 7.3262 2.4028
-0.8925 7.3070 2.4028
-1.0690 7.2835 2.4028
-1.2449 7.2558 2.4028
-1.4200 7.2238 2.4028
-1.5944 7.1877 2.4028
-1.7678 7.1474 2.4028
-1.9402 7.1030 2.4028
-2.1116 7.0544 2.4028
-2.2817 7.0018 2.4028
-2.4505 6.9450 2.4028
-2.6179 6.8843 2.4028
-2.7839 6.8195 2.4028
-2.9482 6.7507 2.4028
-3.1109 6.6781 2.4028
-3.2717 6.6015 2.4028
-3.4307 6.5211 2.4028
-3.5878 6.4369 2.4028
-3.7428 6.3489 2.4028
-3.8956 6.2572 2.4028
-4.0463 6.1619 2.4028
-4.1946 6.0630 2.4028
-4.3405 5.9605 2.4028
-4.4839 5.8546 2.4028
-4.6247 5.7452 2.4028
-4.7629 5.6324 2.4028
-4.8984 5.5164 2.4028
-5.0310 5.3971 2.4028
-5.1608 5.2747 2.4028
-5.2876 5.1491 2.4028
-5.4114 5.0205 2.4028
-5.5320 4.8890 2.4028
-5.6495 4.7546 2.4028
-5.7637 4.6173 2.4028
-5.8210 4.4365 2.3809
-5.8310 4.2253 2.3421
-5.8473 4.0252 2.3085
-5.9209 3.8683 2.2996
-6.0138 3.7247 2.2996
-6.1031 3.5788 2.2996
-6.1890 3.4309 2.2996
-6.2712 3.2809 2.2996
-6.3499 3.1289 2.2996
-6.4249 2.9751 2.2996
-6.4961 2.8194 2.2996
-6.5636 2.6621 2.2996
-6.6273 2.5032 2.2996
-6.6872 2.3427 2.2996
-6.7432 2.1808 2.2996
-6.7952 2.0176 2.2996
-6.8434 1.8531 2.2996
-6.8875 1.6876 2.2996
-6.9277 1.5209 2.2996
-6.9638 1.3533 2.2996
-6.9959 1.1849 2.2996
-7.0239 1.0157 2.2996
-7.0479 0.8458 2.2996
-7.0677 0.6754 2.2996
-7.0834 0.5045 2.2996
-7.0950 0.3332 2.2996
-7.1024 0.1617 2.2996
-7.1057 -0.0099 2.2996
-7.1048 -0.1817 2.2996
-7.0998 -0.3533 2.2996
-7.0907 -0.5249 2.2996
-7.0774 -0.6962 2.2996
-7.0599 -0.8672 2.2996
-7.0383 -1.0377 2.2996
-7.0126 -1.2077 2.2996
-6.9828 -1.3771 2.2996
-6.9489 -1.5457 2.2996
-6.9109 -1.7134 2.2996
-6.8688 -1.8802 2.2996
-6.8227 -2.0460 2.2996
-6.7726 -2.2107 2.2996
-6.7186 -2.3741 2.2996
-6.6605 -2.5362 2.2996
-6.5986 -2.6969 2.2996
-6.5327 -2.8560 2.2996
-6.4630 -3.0135 2.2996
-6.3895 -3.1693 2.2996
-6.3311 -3.3333 2.3065
-6.2312 -3.4755 2.2996
-6.1465 -3.6256 2.2996
-6.1427 -3.8263 2.3316
-6.1463 -4.0377 2.3689
-6.1345 -4.2456 2.4028
-6.0312 -4.3933 2.4028
-5.9243 -4.5384 2.4028
-5.8139 -4.6809 2.4028
-5.4905 -4.6437 2.4028
-5.3776 -4.7757 2.4028
-5.2614 -4.9049 2.4028
-5.1422 -5.0312 2.4028
-5.0199 -5.1546 2.4028
-4.8946 -5.2750 2.4028
-4.7664 -5.3924 2.4028
-4.6354 -5.5066 2.4028
-4.5016 -5.6177 2.4028
-4.3652 -5.7254 2.4028
-4.2261 -5.8298 2.4028
-3.7027 -5.3763 2.1782
-3.5178 -5.3815 2.1450
-3.3383 -5.3866 2.1141
-3.2379 -5.5179 2.1340
-3.3772 -6.0874 2.3218
-3.2187 -6.1471 2.3141
-3.1873 -6.4622 2.4028
-3.0306 -6.5378 2.4028
-2.8721 -6.6096 2.4028
-2.7118 -6.6775 2.4028
-2.5500 -6.7415 2.4028
-1.0412 -2.9673 1.0483
-0.9616 -2.9679 1.0399
-0.8832 -2.9686 1.0323
-0.8059 -2.9692 1.0254
-0.7296 -2.9698 1.0192
-0.6541 -2.9704 1.0137
-0.5794 -2.9711 1.0088
-0.5054 -2.9717 1.0045
-0.4319 -2.9723 1.0009
-0.3589 -2.9729 0.9978
-0.2864 -2.9735 0.9954
-0.2141 -2.9741 0.9936
-0.1421 -2.9747 0.9923
-0.0702 -2.9753 0.9917
0.0017 -2.9758 0.9916
0.0736 -2.9764 0.9921
0.1456 -2.9770 0.9932
0.2178 -2.9776 0.9949
0.2903 -2.9782 0.9972
0.3631 -2.9788 1.0000
0.4364 -2.9794 1.0035
0.5103 -2.9800 1.0076
0.5848 -2.9806 1.0123
0.6601 -2.9813 1.0177
1.7278 -6.9987 2.4028
1.8161 -6.6609 2.3013
1.9749 -6.6101 2.2997
2.1338 -6.5600 2.2997
2.2914 -6.5061 2.2997
2.4476 -6.4484 2.2997
2.6024 -6.3870 2.2997
2.7556 -6.3217 2.2997
2.9072 -6.2528 2.2997
3.0571 -6.1802 2.2997
3.2051 -6.1040 2.2997
3.3512 -6.0243 2.2997
3.4954 -5.9410 2.2997
3.6374 -5.8542 2.2997
3.7773 -5.7640 2.2997
3.9149 -5.6705 2.2997
4.0502 -5.5736 2.2997
4.1831 -5.4735 2.2997
4.3135 -5.3702 2.2997
4.4414 -5.2638 2.2997
4.5666 -5.1543 2.2997
4.6891 -5.0418 2.2997
4.8088 -4.9264 2.2997
4.9256 -4.8082 2.2997
5.0396 -4.6871 2.2997
5.1505 -4.5633 2.2997
5.2584 -4.4369 2.2997
5.3632 -4.3080 2.2997
5.4648 -4.1765 2.2997
5.5631 -4.0427 2.2997
5.6582 -3.9065 2.2997
5.7500 -3.7680 2.2997
5.8383 -3.6274 2.2997
5.9232 -3.4847 2.2997
6.1301 -3.4099 2.3478
6.2096 -3.2603 2.3478
6.2854 -3.1088 2.3478
6.3575 -2.9555 2.3478
6.4259 -2.8005 2.3478
6.4904 -2.6440 2.3478
6.5512 -2.4860 2.3478
6.6081 -2.3266 2.3478
6.6611 -2.1658 2.3478
6.7102 -2.0039 2.3478
6.7553 -1.8409 2.3478
6.7965 -1.6768 2.3478
6.8337 -1.5118 2.3478
6.8669 -1.3460 2.3478
6.8960 -1.1795 2.3478
6.9212 -1.0123 2.3478
6.9422 -0.8446 2.3478
6.9592 -0.6765 2.3478
6.9722 -0.5080 2.3478
6.9810 -0.3394 2.3478
6.9858 -0.1705 2.3478
6.9865 -0.0017 2.3478
6.9831 0.1671 2.3478
6.9756 0.3357 2.3478
6.9641 0.5041 2.3478
6.9485 0.6721 2.3478
6.9289 0.8397 2.3478
6.9052 1.0067 2.3478
6.8775 1.1730 2.3478
6.8458 1.3387 2.3478
6.8101 1.5034 2.3478
6.7705 1.6673 2.3478
6.7270 1.8301 2.3478
6.6795 1.9917 2.3478
6.6282 2.1522 2.3478
6.5730 2.3113 2.3478
6.5140 2.4691 2.3478
6.4512 2.6253 2.3478
6.3847 2.7800 2.3478
6.1852 2.8729 2.2997
6.1129 3.0211 2.2997
6.0370 3.1674 2.2997
5.9576 3.3118 2.2997
5.8748 3.4543 2.2997
5.7886 3.5947 2.2997
5.6991 3.7330 2.2997
5.6063 3.8690 2.2997
5.5102 4.0028 2.2997
5.4110 4.1342 2.2997
5.3087 4.2632 2.2997
5.2033 4.3896 2.2997
5.0949 4.5135 2.2997
4.9835 4.6347 2.2997
4.8693 4.7532 2.2997
4.7523 4.8688 2.2997
4.6326 4.9817 2.2997
4.5102 5.0916 2.2997
4.3852 5.1985 2.2997
4.2577 5.3023 2.2997
4.1278 5.4031 2.2997
3.9955 5.5007 2.2997
3.8609 5.5951 2.2997
3.7241 5.6862 2.2997
3.5851 5.7740 2.2997
3.4441 5.8584 2.2997
3.3011 5.9395 2.2997
3.1563 6.0170 2.2997
3.0096 6.0910 2.2997
2.8612 6.1615 2.2997
2.7111 6.2285 2.2997
2.5595 6.2917 2.2997
2.4065 6.3514 2.2997
2.3132 6.5814 2.3622
2.1903 6.7491 2.4028
2.0263 6.7997 2.4028
1.8612 6.8464 2.4028
1.6950 6.8891 2.4028
1.5278 6.9278 2.4028
1.3598 6.9624 2.4028
1.1910 6.9931 2.4028
1.0215 7.0197 2.4028
0.8514 7.0422 2.4028
0.6808 7.0606 2.4028
0.5099 7.0749 2.4028
0.3386 7.0851 2.4028
0.1672 7.0912 2.4028
-0.0044 7.0932 2.4028
-0.1759 7.0911 2.4028
-0.3473 7.0848 2.4028
-0.5186 7.0745 2.4028
-0.6896 7.0600 2.4028
-0.8601 7.0415 2.4028
-1.0302 7.0188 2.4028
-1.1997 6.9921 2.4028
-1.3685 6.9613 2.4028
-1.5365 6.9265 2.4028
-1.7036 6.8877 2.4028
-1.8698 6.8448 2.4028
-2.0349 6.7980 2.4028
-2.1988 6.7473 2.4028
-2.3615 6.6926 2.4028
-2.5229 6.6340 2.4028
-2.6827 6.5715 2.4028
-2.8411 6.5053 2.4028
-2.9978 6.4352 2.4028
-3.1529 6.3614 2.4028
-3.3061 6.2839 2.4028
-3.4574 6.2027 2.4028
-3.6068 6.1180 2.4028
-3.7541 6.0296 2.4028
-3.8992 5.9377 2.4028
-4.0421 5.8424 2.4028
-4.1827 5.7436 2.4028
-4.3208 5.6415 2.4028
-4.4566 5.5361 2.4028
-4.5897 5.4274 2.4028
-4.7202 5.3155 2.4028
-4.8480 5.2006 2.4028
-4.9730 5.0825 2.4028
-5.0952 4.9615 2.4028
-5.2144 4.8376 2.4028
-5.3307 4.7108 2.4028
-5.4438 4.5813 2.4028
-5.5539 4.4490 2.4028
-5.6607 4.3141 2.4028
-5.7643 4.1767 2.4028
-5.8370 4.0179 2.3916
-5.8447 3.8183 2.3558
-5.8583 3.6282 2.3248
-5.8807 3.4482 2.2996
-5.9634 3.3056 2.2996
-6.0427 3.1611 2.2996
-6.1184 3.0146 2.2996
-6.1906 2.8664 2.2996
-6.2592 2.7164 2.2996
-6.3242 2.5648 2.2996
-6.3856 2.4116 2.2996
-6.4432 2.2570 2.2996
-6.4971 2.1010 2.2996
-6.5472 1.9437 2.2996
-6.5936 1.7853 2.2996
-6.6361 1.6257 2.2996
-6.6747 1.4652 2.2996
-6.7095 1.3037 2.2996
-6.7404 1.1414 2.2996
-6.7673 0.9783 2.2996
-6.7903 0.8147 2.2996
-6.8094 0.6505 2.2996
-6.8245 0.4858 2.2996
-6.8356 0.3209 2.2996
-6.8427 0.1556 2.2996
-6.8458 -0.0098 2.2996
-6.8449 -0.1752 2.2996
-6.8401 -0.3406 2.2996
-6.8312 -0.5059 2.2996
-6.8183 -0.6709 2.2996
-6.8015 -0.8356 2.2996
-6.7806 -0.9999 2.2996
-6.7558 -1.1637 2.2996
-6.7270 -1.3268 2.2996
-6.6943 -1.4892 2.2996
-6.6577 -1.6508 2.2996
-6.6171 -1.8115 2.2996
-6.5727 -1.9712 2.2996
-6.5243 -2.1299 2.2996
-6.4722 -2.2873 2.2996
-6.4163 -2.4434 2.2996
-6.3565 -2.5981 2.2996
-6.3093 -2.7586 2.3055
-6.2259 -2.9032 2.2996
-6.1550 -3.0532 2.2996
-6.1237 -3.2243 2.3159
-6.1233 -3.4155 2.3459
-6.1301 -3.6161 2.3808
-6.0978 -3.7985 2.4028
-6.0053 -3.9453 2.4028
-5.9092 -4.0899 2.4028
-5.8096 -4.2321 2.4028
-5.7066 -4.3719 2.4028
-5.6002 -4.5091 2.4028
-5.2945 -4.4781 2.4028
-5.1856 -4.6053 2.4028
-5.0735 -4.7299 2.4028
-4.9585 -4.8517 2.4028
-4.8406 -4.9707 2.4028
-4.7197 -5.0868 2.4028
-4.5961 -5.1999 2.4028
-4.4697 -5.3101 2.4028
-4.3407 -5.4171 2.4028
-4.2091 -5.5210 2.4028
-4.0751 -5.6216 2.4028
-3.9386 -5.7190 2.4028
-3.7997 -5.8130 2.4028
-3.3382 -5.3866 2.1924
-3.5153 -5.9909 2.4028
-3.3700 -6.0746 2.4028
-3.2226 -6.1547 2.4028
-3.0733 -6.2312 2.4028
-2.9222 -6.3041 2.4028
-2.7693 -6.3733 2.4028
-2.6148 -6.4388 2.4028
-2.4588 -6.5005 2.4028
-1.0412 -2.9673 1.0871
-0.9616 -2.9679 1.0785
-0.8832 -2.9686 1.0706
-0.8059 -2.9692 1.0635
-0.7296 -2.9698 1.0570
-0.6541 -2.9705 1.0513
-0.5794 -2.9711 1.0462
-0.5054 -2.9717 1.0418
-0.4319 -2.9723 1.0380
-0.3589 -2.9729 1.0349
-0.2864 -2.9735 1.0323
-0.2141 -2.9741 1.0304
-0.1421 -2.9747 1.0291
-0.0702 -2.9753 1.0285
0.0017 -2.9759 1.0284
0.0736 -2.9764 1.0289
0.1456 -2.9770 1.0300
0.2178 -2.9776 1.0318
0.2903 -2.9782 1.0341
0.3631 -2.9788 1.0371
0.4364 -2.9794 1.0407
0.5103 -2.9801 1.0450
0.5848 -2.9807 1.0499
0.6600 -2.9813 1.0555
1.6660 -6.7485 2.4028
1.8063 -6.6251 2.3738
1.9042 -6.3738 2.2997
2.0574 -6.3255 2.2997
2.2094 -6.2736 2.2997
2.3601 -6.2180 2.2997
2.5093 -6.1587 2.2997
2.6571 -6.0958 2.2997
2.8032 -6.0294 2.2997
2.9477 -5.9594 2.2997
3.0905 -5.8860 2.2997
3.2314 -5.8091 2.2997
3.3704 -5.7288 2.2997
3.5074 -5.6451 2.2997
3.6423 -5.5582 2.2997
3.7750 -5.4680 2.2997
3.9055 -5.3746 2.2997
4.0336 -5.2781 2.2997
4.1594 -5.1786 2.2997
4.2827 -5.0760 2.2997
4.4034 -4.9704 2.2997
4.5216 -4.8620 2.2997
4.6370 -4.7507 2.2997
4.7497 -4.6367 2.2997
4.8596 -4.5200 2.2997
4.9666 -4.4006 2.2997
5.0707 -4.2788 2.2997
5.1718 -4.1544 2.2997
5.2698 -4.0277 2.2997
5.3647 -3.8986 2.2997
5.4564 -3.7673 2.2997
5.5449 -3.6338 2.2997
5.6301 -3.4983 2.2997
5.7120 -3.3607 2.2997
5.7905 -3.2212 2.2997
5.8656 -3.0799 2.2997
5.9372 -2.9368 2.2997
6.1310 -2.8504 2.3478
6.1969 -2.7010 2.3478
6.2592 -2.5500 2.3478
6.3178 -2.3977 2.3478
6.3727 -2.2439 2.3478
6.4239 -2.0889 2.3478
6.4713 -1.9328 2.3478
6.5149 -1.7755 2.3478
6.5546 -1.6173 2.3478
6.5905 -1.4582 2.3478
6.6226 -1.2983 2.3478
6.6507 -1.1377 2.3478
6.6750 -0.9765 2.3478
6.6954 -0.8148 2.3478
6.7118 -0.6526 2.3478
6.7243 -0.4902 2.3478
6.7329 -0.3275 2.3478
6.7375 -0.1647 2.3478
6.7383 -0.0018 2.3478
6.7350 0.1610 2.3478
6.7279 0.3236 2.3478
6.7168 0.4860 2.3478
6.7018 0.6480 2.3478
6.6829 0.8097 2.3478
6.6601 0.9708 2.3478
6.6334 1.1312 2.3478
6.6029 1.2910 2.3478
6.5686 1.4499 2.3478
6.5304 1.6079 2.3478
6.4884 1.7650 2.3478
6.4427 1.9209 2.3478
6.3932 2.0757 2.3478
6.3400 2.2292 2.3478
6.1544 2.3326 2.2997
6.0952 2.4802 2.2997
6.0324 2.6264 2.2997
5.9661 2.7710 2.2997
5.8963 2.9139 2.2997
5.8232 3.0550 2.2997
5.7467 3.1944 2.2997
5.6668 3.3318 2.2997
5.5837 3.4673 2.2997
5.4974 3.6007 2.2997
5.4079 3.7319 2.2997
5.3153 3.8610 2.2997
5.2196 3.9878 2.2997
5.1209 4.1122 2.2997
5.0192 4.2342 2.2997
4.9147 4.3537 2.2997
4.8073 4.4706 2.2997
4.6972 4.5849 2.2997
4.5843 4.6965 2.2997
4.4689 4.8054 2.2997
4.3508 4.9114 2.2997
4.2303 5.0146 2.2997
4.1073 5.1148 2.2997
3.9820 5.2120 2.2997
3.8543 5.3062 2.2997
3.7245 5.3972 2.2997
3.5925 5.4852 2.2997
3.4585 5.5699 2.2997
3.3225 5.6513 2.2997
3.1846 5.7295 2.2997
3.0448 5.8043 2.2997
2.9033 5.8758 2.2997
2.7601 5.9438 2.2997
2.6154 6.0084 2.2997
2.4847 6.1075 2.3142
2.3215 6.1270 2.2997
2.2699 6.4580 2.4028
2.1130 6.5107 2.4028
1.9548 6.5595 2.4028
1.7955 6.6045 2.4028
1.6352 6.6458 2.4028
1.4739 6.6831 2.4028
1.3118 6.7166 2.4028
1.1489 6.7461 2.4028
0.9854 6.7718 2.4028
0.8213 6.7935 2.4028
0.6568 6.8112 2.4028
0.4919 6.8251 2.4028
0.3267 6.8349 2.4028
0.1613 6.8408 2.4028
-0.0042 6.8427 2.4028
-0.1697 6.8407 2.4028
-0.3351 6.8346 2.4028
-0.5003 6.8247 2.4028
-0.6652 6.8107 2.4028
-0.8298 6.7928 2.4028
-0.9938 6.7709 2.4028
-1.1573 6.7452 2.4028
-1.3202 6.7155 2.4028
-1.4823 6.6819 2.4028
-1.6435 6.6444 2.4028
-1.8038 6.6031 2.4028
-1.9631 6.5579 2.4028
-2.1212 6.5089 2.4028
-2.2782 6.4561 2.4028
-2.4338 6.3996 2.4028
-2.5880 6.3393 2.4028
-2.7408 6.2754 2.4028
-2.8920 6.2078 2.4028
-3.0415 6.1366 2.4028
-3.1893 6.0618 2.4028
-3.3353 5.9835 2.4028
-3.4794 5.9016 2.4028
-3.6215 5.8164 2.4028
-3.7614 5.7277 2.4028
-3.8993 5.6357 2.4028
-4.0349 5.5404 2.4028
-4.1682 5.4419 2.4028
-4.2991 5.3402 2.4028
-4.4275 5.2353 2.4028
-4.5534 5.1274 2.4028
-4.6766 5.0165 2.4028
-4.7972 4.9026 2.4028
-4.9150 4.7859 2.4028
-5.0300 4.6663 2.4028
-5.1421 4.5440 2.4028
-5.2513 4.4190 2.4028
-5.3574 4.2914 2.4028
-5.4604 4.1613 2.4028
-5.5603 4.0287 2.4028
-5.6570 3.8937 2.4028
-5.7504 3.7564 2.4028
-5.8405 3.6169 2.4028
-5.8594 3.4355 2.3753
-5.8674 3.2522 2.3456
-5.8807 3.0762 2.3201
-5.9016 2.9076 2.2996
-5.9712 2.7646 2.2996
-6.0374 2.6199 2.2996
-6.1090 2.4773 2.3030
-6.1592 2.3259 2.2996
-6.2147 2.1768 2.2996
-6.2667 2.0263 2.2996
-6.3150 1.8746 2.2996
-6.3597 1.7218 2.2996
-6.4006 1.5678 2.2996
-6.4379 1.4130 2.2996
-6.4714 1.2572 2.2996
-6.5011 1.1006 2.2996
-6.5270 0.9434 2.2996
-6.5492 0.7855 2.2996
-6.5675 0.6272 2.2996
-6.5820 0.4684 2.2996
-6.5927 0.3093 2.2996
-6.5995 0.1499 2.2996
-6.6025 -0.0096 2.2996
-6.6016 -0.1692 2.2996
-6.5969 -0.3287 2.2996
-6.5883 -0.4881 2.2996
-6.5758 -0.6473 2.2996
-6.5595 -0.8061 2.2996
-6.5394 -0.9646 2.2996
-6.5154 -1.1225 2.2996
-6.4876 -1.2798 2.2996
-6.4560 -1.4364 2.2996
-6.4206 -1.5923 2.2996
-6.3815 -1.7472 2.2996
-6.3386 -1.9012 2.2996
-6.2920 -2.0542 2.2996
-6.2416 -2.2060 2.2996
-6.1876 -2.3565 2.2996
-6.1300 -2.5058 2.2996
-6.1032 -2.6686 2.3126
-6.1036 -2.8463 2.3377
-6.1076 -3.0299 2.3662
-6.1149 -3.2198 2.3981
-6.0483 -3.3739 2.4028
-5.9661 -3.5196 2.4028
-5.8803 -3.6632 2.4028
-5.7910 -3.8048 2.4028
-5.6983 -3.9441 2.4028
-5.6023 -4.0813 2.4028
-5.5029 -4.2160 2.4028
-5.4003 -4.3483 2.4028
-5.1106 -4.3228 2.4028
-5.0054 -4.4456 2.4028
-4.8973 -4.5658 2.4028
-4.7862 -4.6833 2.4028
-4.6724 -4.7982 2.4028
-4.5557 -4.9102 2.4028
-4.4364 -5.0194 2.4028
-4.3144 -5.1257 2.4028
-4.1898 -5.2290 2.4028
-4.0628 -5.3292 2.4028
-3.9334 -5.4264 2.4028
-3.8016 -5.5203 2.4028
-3.6676 -5.6111 2.4028
-3.5314 -5.6986 2.4028
-3.3931 -5.7827 2.4028
-3.2528 -5.8635 2.4028
-3.1105 -5.9408 2.4028
-2.9664 -6.0147 2.4028
-2.8205 -6.0850 2.4028
-2.6730 -6.1518 2.4028
-2.5239 -6.2150 2.4028
-2.3732 -6.2745 2.4028
-1.0412 -2.9673 1.1263
-0.9616 -2.9680 1.1174
-0.8832 -2.9686 1.1092
-0.8059 -2.9692 1.1018
-0.7295 -2.9699 1.0951
-0.6541 -2.9705 1.0892
-0.5794 -2.9711 1.0839
-0.5053 -2.9717 1.0793
-0.4319 -2.9723 1.0754
-0.3589 -2.9729 1.0722
-0.2864 -2.9735 1.0695
-0.2141 -2.9741 1.0676
-0.1421 -2.9747 1.0662
-0.0702 -2.9753 1.0655
0.0017 -2.9759 1.0655
0.0736 -2.9765 1.0660
0.1456 -2.9771 1.0672
0.2178 -2.9777 1.0690
0.2902 -2.9783 1.0714
0.3631 -2.9789 1.0745
0.4364 -2.9795 1.0782
0.5103 -2.9801 1.0826
0.5848 -2.9807 1.0877
0.6600 -2.9813 1.0935
1.6080 -6.5138 2.4028
1.7647 -6.4728 2.4028
1.8380 -6.1522 2.2997
1.9858 -6.1056 2.2997
2.1325 -6.0555 2.2997
2.2779 -6.0018 2.2997
2.4220 -5.9446 2.2997
2.5646 -5.8840 2.2997
2.7057 -5.8199 2.2997
2.8452 -5.7523 2.2997
2.9830 -5.6815 2.2997
3.1190 -5.6072 2.2997
3.2532 -5.5298 2.2997
3.3854 -5.4490 2.2997
3.5156 -5.3651 2.2997
3.6437 -5.2781 2.2997
3.7697 -5.1880 2.2997
3.8934 -5.0949 2.2997
4.0148 -4.9988 2.2997
4.1338 -4.8998 2.2997
4.2504 -4.7979 2.2997
4.3645 -4.6932 2.2997
4.4759 -4.5859 2.2997
4.5847 -4.4758 2.2997
4.6908 -4.3632 2.2997
4.7941 -4.2480 2.2997
4.8946 -4.1304 2.2997
4.9922 -4.0104 2.2997
5.0868 -3.8881 2.2997
5.1785 -3.7635 2.2997
5.2670 -3.6368 2.2997
5.3525 -3.5079 2.2997
5.4347 -3.3771 2.2997
5.5138 -3.2443 2.2997
5.5896 -3.1097 2.2997
5.6622 -2.9733 2.2997
5.7314 -2.8351 2.2997
5.7972 -2.6954 2.2997
5.8596 -2.5541 2.2997
5.9185 -2.4114 2.2997
5.9740 -2.2674 2.2997
6.1520 -2.1664 2.3478
6.2014 -2.0168 2.3478
6.2471 -1.8660 2.3478
6.2893 -1.7143 2.3478
6.3277 -1.5615 2.3478
6.3624 -1.4079 2.3478
6.3934 -1.2536 2.3478
6.4206 -1.0985 2.3478
6.4440 -0.9429 2.3478
6.4637 -0.7868 2.3478
6.4796 -0.6303 2.3478
6.4918 -0.4734 2.3478
6.5001 -0.3164 2.3478
6.5046 -0.1592 2.3478
6.5053 -0.0020 2.3478
6.5023 0.1552 2.3478
6.4954 0.3122 2.3478
6.4847 0.4690 2.3478
6.4703 0.6255 2.3478
6.4521 0.7815 2.3478
6.4301 0.9370 2.3478
6.4044 1.0919 2.3478
6.3750 1.2462 2.3478
6.3418 1.3996 2.3478
6.3050 1.5522 2.3478
6.1362 1.6690 2.2997
6.0930 1.8165 2.2997
6.0462 1.9628 2.2997
5.9960 2.1080 2.2997
5.9422 2.2520 2.2997
5.8850 2.3945 2.2997
5.8244 2.5356 2.2997
5.7604 2.6753 2.2997
5.6931 2.8133 2.2997
5.6225 2.9496 2.2997
5.5487 3.0841 2.2997
5.4716 3.2168 2.2997
5.3914 3.3477 2.2997
5.3081 3.4765 2.2997
5.2217 3.6032 2.2997
5.1323 3.7279 2.2997
5.0399 3.8503 2.2997
4.9446 3.9705 2.2997
4.8465 4.0883 2.2997
4.7456 4.2037 2.2997
4.6419 4.3166 2.2997
4.5356 4.4270 2.2997
4.4266 4.5348 2.2997
4.3152 4.6399 2.2997
4.2012 4.7423 2.2997
4.0848 4.8419 2.2997
3.9661 4.9387 2.2997
3.8451 5.0326 2.2997
3.7218 5.1236 2.2997
3.5965 5.2115 2.2997
3.4690 5.2964 2.2997
3.3396 5.3783 2.2997
3.2083 5.4569 2.2997
3.0751 5.5324 2.2997
2.9402 5.6047 2.2997
2.8036 5.6737 2.2997
2.6653 5.7394 2.2997
2.5256 5.8018 2.2997
2.3843 5.8608 2.2997
2.2928 6.0511 2.3521
2.1919 6.2360 2.4028
2.0404 6.2868 2.4028
1.8876 6.3340 2.4028
1.7338 6.3775 2.4028
1.5790 6.4173 2.4028
1.4233 6.4534 2.4028
1.2667 6.4857 2.4028
1.1095 6.5143 2.4028
0.9516 6.5390 2.4028
0.7931 6.5600 2.4028
0.6342 6.5772 2.4028
0.4750 6.5905 2.4028
0.3155 6.6000 2.4028
0.1557 6.6057 2.4028
-0.0041 6.6076 2.4028
-0.1639 6.6056 2.4028
-0.3236 6.5998 2.4028
-0.4831 6.5901 2.4028
-0.6424 6.5766 2.4028
-0.8013 6.5593 2.4028
-0.9597 6.5382 2.4028
-1.1176 6.5133 2.4028
-1.2748 6.4846 2.4028
-1.4314 6.4522 2.4028
-1.5871 6.4160 2.4028
-1.7419 6.3761 2.4028
-1.8957 6.3324 2.4028
-2.0484 6.2851 2.4028
-2.1999 6.2341 2.4028
-2.3502 6.1795 2.4028
-2.4991 6.1213 2.4028
-2.6466 6.0596 2.4028
-2.7926 5.9943 2.4028
-2.9370 5.9255 2.4028
-3.0797 5.8533 2.4028
-3.2207 5.7776 2.4028
-3.3598 5.6986 2.4028
-3.4970 5.6163 2.4028
-3.6321 5.5306 2.4028
-3.7652 5.4418 2.4028
-3.8961 5.3497 2.4028
-4.0248 5.2546 2.4028
-4.1512 5.1563 2.4028
-4.2752 5.0551 2.4028
-4.3967 4.9508 2.4028
-4.5157 4.8437 2.4028
-4.6322 4.7337 2.4028
-4.7459 4.6210 2.4028
-4.8569 4.5055 2.4028
-4.9651 4.3874 2.4028
-5.0705 4.2667 2.4028
-5.1729 4.1434 2.4028
-5.2724 4.0178 2.4028
-5.3688 3.8897 2.4028
-5.4621 3.7594 2.4028
-5.5523 3.6268 2.4028
-5.6393 3.4921 2.4028
-5.7230 3.3553 2.4028
-5.8034 3.2165 2.4028
-5.8734 3.0721 2.3999
-5.8801 2.8968 2.3730
-5.8870 2.7254 2.3481
-5.8988 2.5596 2.3270
-5.9101 2.3964 2.3075
-5.9467 2.2455 2.2996
-6.0003 2.1015 2.2996
-6.0505 1.9562 2.2996
-6.0971 1.8097 2.2996
-6.1411 1.6624 2.2999
-6.1797 1.5135 2.2996
-6.2156 1.3640 2.2996
-6.2479 1.2136 2.2996
-6.2766 1.0624 2.2996
-6.3016 0.9106 2.2996
-6.3229 0.7582 2.2996
-6.3406 0.6053 2.2996
-6.3546 0.4520 2.2996
-6.3648 0.2984 2.2996
-6.3714 0.1445 2.2996
-6.3742 -0.0095 2.2996
-6.3733 -0.1635 2.2996
-6.3687 -0.3175 2.2996
-6.3603 -0.4714 2.2996
-6.3483 -0.6251 2.2996
-6.3325 -0.7784 2.2996
-6.3130 -0.9314 2.2996
-6.2899 -1.0838 2.2996
-6.2630 -1.2357 2.2996
-6.2561 -1.3922 2.3083
-6.1983 -1.5373 2.2996
-6.1604 -1.6869 2.2996
-6.1190 -1.8356 2.2996
-6.0797 -1.9851 2.3018
-6.0811 -2.1494 2.3209
-6.0822 -2.3166 2.3416
-6.0868 -2.4883 2.3654
-6.0936 -2.6646 2.3919
-6.0560 -2.8243 2.4028
-5.9870 -2.9703 2.4028
-5.9145 -3.1145 2.4028
-5.8385 -3.2570 2.4028
-5.7590 -3.3976 2.4028
-5.6762 -3.5363 2.4028
-5.5900 -3.6729 2.4028
-5.5005 -3.8074 2.4028
-5.4078 -3.9398 2.4028
-5.3119 -4.0698 2.4028
-5.2128 -4.1975 2.4028
-4.9378 -4.1768 2.4028
-4.8361 -4.2954 2.4028
-4.7316 -4.4115 2.4028
-4.6243 -4.5251 2.4028
-4.5143 -4.6360 2.4028
-4.4015 -4.7442 2.4028
-4.2862 -4.8497 2.4028
-4.1683 -4.9524 2.4028
-4.0480 -5.0522 2.4028
-3.9253 -5.1490 2.4028
-3.8002 -5.2428 2.4028
-3.6729 -5.3336 2.4028
-3.5434 -5.4213 2.4028
-3.4118 -5.5058 2.4028
-3.2781 -5.5870 2.4028
-3.1426 -5.6650 2.4028
-3.0051 -5.7397 2.4028
-2.8659 -5.8111 2.4028
-2.7250 -5.8790 2.4028
