ply
format ascii 1.0
element vertex 2010
property float32 x
property float32 y
property float32 z
end_header
6.9908 -16.0079 -2.5771
7.0603 -15.1568 -2.4659
7.2690 -14.6673 -2.4132
6.6131 -12.5704 -2.0930
6.6389 -11.9111 -2.0084
6.8039 -11.5417 -1.9724
7.0459 -11.3176 -1.9617
7.3235 -11.1530 -1.9623
7.6660 -11.0810 -1.9806
8.0334 -11.0321 -2.0049
8.0532 -10.5152 -1.9447
7.9890 -9.9247 -1.8695
8.0065 -9.4683 -1.8184
8.0493 -9.0650 -1.7767
8.0647 -8.6516 -1.7323
8.0815 -8.2600 -1.6914
8.0978 -7.8858 -1.6533
8.1133 -7.5274 -1.6177
7.9157 -6.9957 -1.5430
8.1400 -6.8507 -1.5528
7.3462 -5.8852 -1.3728
6.9255 -5.2784 -1.2690
6.8325 -4.9511 -1.2287
6.8003 -4.6812 -1.2013
6.8353 -4.4657 -1.1871
6.8763 -4.2589 -1.1750
6.9553 -4.0785 -1.1704
7.0503 -3.9084 -1.1691
7.1628 -3.7473 -1.1714
7.3164 -3.6052 -1.1809
7.4796 -3.4635 -1.1924
7.7220 -3.3515 -1.2167
7.9749 -3.2345 -1.2427
7.9833 -3.0153 -1.2312
8.2808 -2.9010 -1.2647
8.2893 -2.6808 -1.2546
8.2976 -2.4637 -1.2453
8.3058 -2.2492 -1.2369
8.3244 -2.0396 -1.2308
8.4253 -1.8497 -1.2376
8.4458 -1.6413 -1.2332
8.4539 -1.4318 -1.2278
8.4618 -1.2236 -1.2231
8.4698 -1.0164 -1.2192
8.4082 -0.8035 -1.2060
8.3691 -0.5960 -1.1968
8.3769 -0.3934 -1.1950
8.3846 -0.1909 -1.1939
8.3924 0.0117 -1.1936
8.4002 0.2148 -1.1939
8.4080 0.4185 -1.1949
8.4158 0.6230 -1.1966
8.4817 0.8344 -1.2073
8.5489 1.0501 -1.2190
8.5570 1.2616 -1.2229
8.5652 1.4751 -1.2276
8.5734 1.6907 -1.2331
8.5691 1.9061 -1.2375
8.4724 2.1006 -1.2294
8.4808 2.3215 -1.2372
8.4894 2.5459 -1.2458
8.4981 2.7739 -1.2554
8.5070 3.0061 -1.2659
8.5161 3.2428 -1.2773
8.5502 3.4945 -1.2935
8.6535 3.7832 -1.3214
8.6634 4.0395 -1.3362
8.6734 4.3023 -1.3522
8.6837 4.5720 -1.3694
8.5875 4.7897 -1.3709
8.5858 5.0645 -1.3885
8.5970 5.3551 -1.4096
8.6085 5.6553 -1.4323
8.3192 5.7577 -1.4057
8.3311 6.0686 -1.4309
8.6012 6.5892 -1.5030
8.9170 7.1794 -1.5868
8.9314 7.5537 -1.6201
9.0672 8.0521 -1.6782
9.0831 8.4673 -1.7172
9.0868 8.8904 -1.7567
8.9959 9.2371 -1.7805
9.0141 9.7146 -1.8288
9.0335 10.2197 -1.8810
9.1632 10.8852 -1.9608
9.1853 11.4623 -2.0229
9.0992 11.9344 -2.0656
9.1241 12.5862 -2.1383
9.1510 13.2871 -2.2179
9.1799 14.0434 -2.3052
9.2113 14.8631 -2.4012
9.1173 15.5372 -2.4725
8.9691 16.1668 -2.5362
9.3252 17.8093 -2.7564
9.3708 18.9990 -2.9033
9.3927 20.2625 -3.0595
9.4785 21.8133 -3.2568
9.6720 23.8159 -3.5185
9.5174 25.1614 -3.6809
9.8319 28.0196 -4.0617
9.9187 30.6136 -4.4003
9.5775 32.1918 -4.5911
10.3508 38.1368 -5.4003
9.3775 38.1741 -5.3706
8.5193 38.6906 -5.4115
13.5382 69.4261 -9.6597
11.8217 69.5191 -9.6284
8.1912 56.3746 -7.7770
6.9761 57.7853 -7.9450
5.5646 57.7886 -7.9238
4.2921 59.6346 -8.1596
3.2119 67.2811 -9.1920
-0.0489 82.8071 -11.2998
-1.8936 76.5277 -10.4463
-3.7903 77.4729 -10.5851
-4.6342 63.3408 -8.6676
-5.8792 60.3069 -8.2702
-7.3436 60.2304 -8.2825
-8.8598 60.4729 -8.3440
-11.6044 67.7558 -9.3864
-12.8113 65.2867 -9.0862
-8.0042 36.1473 -5.0573
-9.1126 36.9071 -5.1941
-8.6873 31.8587 -4.5130
-9.1769 30.7120 -4.3819
-9.8129 30.1652 -4.3377
-10.6110 30.1256 -4.3691
-10.7667 28.3630 -4.1514
-9.2322 22.6561 -3.3490
-12.2088 28.0058 -4.1838
-18.5694 39.9351 -6.0338
-20.2248 40.8832 -6.2518
-16.0973 30.6541 -4.7478
-11.4123 20.5133 -3.2205
-11.8061 20.0650 -3.1956
-12.1965 19.6280 -3.1736
-12.5840 19.2014 -3.1546
-12.8835 18.6595 -3.1176
-13.0998 18.0257 -3.0654
-13.3136 17.4192 -3.0180
-13.5253 16.8374 -2.9748
-13.4470 15.9359 -2.8739
-13.2165 14.9164 -2.7486
-16.7202 17.9768 -3.3883
-18.1789 18.6223 -3.5942
-26.4594 25.8264 -5.1102
-27.2501 25.3423 -5.1469
-27.4563 24.3243 -5.0772
-20.8343 17.5782 -3.7759
-21.9484 17.6286 -3.9025
-30.7522 23.5007 -5.3696
-16.9986 12.3515 -2.9175
-16.9718 11.7164 -2.8659
-16.9479 11.1052 -2.8181
-16.9268 10.5159 -2.7738
-16.9081 9.9465 -2.7329
-16.8919 9.3953 -2.6952
-16.8780 8.8607 -2.6604
-16.8662 8.3412 -2.6283
-16.8564 7.8354 -2.5989
-16.8486 7.3422 -2.5719
-16.8427 6.8605 -2.5473
-16.8386 6.3890 -2.5249
-16.8363 5.9270 -2.5047
-16.8357 5.4734 -2.4866
-16.8367 5.0274 -2.4704
-16.8394 4.5882 -2.4562
-16.8437 4.1549 -2.4438
-16.8496 3.7270 -2.4332
-16.8571 3.3036 -2.4244
-16.8662 2.8841 -2.4173
-72.3776 10.5836 -10.3439
-43.8132 -35.1850 -8.1966
-42.7661 -36.0826 -7.5357
-39.1684 -34.7023 -7.0531
-36.9279 -34.3462 -6.8024
-36.3532 -35.4891 -6.8577
-35.1805 -36.0460 -6.8039
-34.8062 -37.4318 -6.9095
-34.3636 -38.7959 -7.0107
-36.9701 -43.8295 -7.7617
-37.0984 -48.5634 -8.2830
-35.5648 -48.9662 -8.2076
-31.9976 -46.3728 -7.6455
-30.2218 -46.1477 -7.4900
-28.8009 -46.3878 -7.4178
-27.6926 -47.1077 -7.4276
-25.6519 -46.1557 -7.1812
-24.5192 -46.7450 -7.1820
-22.8389 -46.2255 -7.0185
-18.5430 -39.9342 -5.9961
-17.1589 -39.4218 -5.8576
-15.8314 -38.9177 -5.7264
-14.6744 -38.7314 -5.6472
-13.8881 -39.5145 -5.7127
-13.7063 -42.2355 -6.0584
-12.4206 -41.6807 -5.9357
-12.2698 -45.1351 -6.3853
-13.2057 -53.6733 -7.5477
-12.6170 -57.2101 -8.0017
-12.0380 -61.6361 -8.5793
-12.3028 -72.2356 -10.0121
4.2901 -58.5453 -8.0246
4.6191 -47.3068 -6.4970
4.5629 -37.3641 -5.1446
5.1520 -35.1092 -4.8492
2.1404 -12.4774 -1.7297
4.9424 -25.1466 -3.5009
5.2930 -23.8651 -3.3386
5.5708 -22.5263 -3.1685
5.8341 -21.3607 -3.0227
6.0509 -20.2175 -2.8800
6.2697 -19.2418 -2.7610
6.4806 -18.3689 -2.6566
6.6559 -17.5046 -2.5532
6.8252 -16.7211 -2.4614
6.9906 -16.0087 -2.3797
7.0605 -15.1582 -2.2771
7.2688 -14.6680 -2.2282
6.4700 -12.2993 -1.8907
6.5855 -11.8161 -1.8395
6.7822 -11.5058 -1.8152
7.0235 -11.2823 -1.8053
7.3003 -11.1185 -1.8058
7.6046 -10.9930 -1.8137
7.9509 -10.9196 -1.8317
8.0005 -10.4473 -1.7833
8.0186 -9.9623 -1.7320
8.0356 -9.5036 -1.6845
8.0518 -9.0686 -1.6403
8.0672 -8.6550 -1.5992
8.0839 -8.2631 -1.5613
8.1001 -7.8888 -1.5260
8.1141 -7.5289 -1.4928
7.9389 -7.0168 -1.4278
8.1401 -6.8514 -1.4327
8.1524 -6.5317 -1.4055
6.9259 -5.2793 -1.1708
6.8326 -4.9516 -1.1335
6.7470 -4.6451 -1.0994
6.7885 -4.4356 -1.0874
6.8291 -4.2302 -1.0763
6.9550 -4.0789 -1.0793
7.0501 -3.9088 -1.0781
7.1138 -3.7222 -1.0728
7.2662 -3.5810 -1.0814
7.4216 -3.4371 -1.0908
7.6577 -3.3241 -1.1123
7.9749 -3.2350 -1.1455
7.9833 -3.0158 -1.1348
8.2808 -2.9016 -1.1657
8.2893 -2.6814 -1.1562
8.2976 -2.4642 -1.1476
8.3058 -2.2497 -1.1397
8.3242 -2.0401 -1.1340
8.4253 -1.8502 -1.1402
8.4458 -1.6418 -1.1361
8.4538 -1.4323 -1.1310
8.4618 -1.2241 -1.1266
8.4697 -1.0170 -1.1229
8.4084 -0.8040 -1.1107
8.3691 -0.5966 -1.1021
8.3768 -0.3940 -1.1003
8.3846 -0.1915 -1.0993
8.3924 0.0112 -1.0988
8.4001 0.2143 -1.0990
8.4079 0.4179 -1.0999
8.4158 0.6225 -1.1014
8.4814 0.8338 -1.1111
8.5489 1.0495 -1.1217
8.5570 1.2611 -1.1253
8.5651 1.4745 -1.1295
8.5734 1.6902 -1.1345
8.5691 1.9055 -1.1385
8.4723 2.1000 -1.1308
8.4808 2.3210 -1.1379
8.4894 2.5453 -1.1458
8.4981 2.7734 -1.1545
8.5070 3.0055 -1.1641
8.5161 3.2422 -1.1745
8.5499 3.4938 -1.1893
8.6535 3.7826 -1.2148
8.6633 4.0389 -1.2283
8.6734 4.3016 -1.2429
8.6837 4.5713 -1.2586
8.5877 4.7892 -1.2599
8.5858 5.0638 -1.2760
8.5969 5.3544 -1.2953
8.6084 5.6547 -1.3161
8.3192 5.7570 -1.2916
8.3311 6.0680 -1.3146
8.6012 6.5885 -1.3807
8.9170 7.1787 -1.4576
8.9314 7.5529 -1.4881
9.0672 8.0513 -1.5414
9.0831 8.4665 -1.5771
9.0873 8.8901 -1.6134
8.9958 9.2362 -1.6350
9.0141 9.7137 -1.6793
9.0335 10.2188 -1.7271
9.1763 10.8999 -1.8029
9.1984 11.4777 -1.8599
9.0991 11.9334 -1.8963
9.1241 12.5852 -1.9630
9.2031 13.3617 -2.0475
9.2085 14.0860 -2.1225
9.2113 14.8620 -2.2039
9.1180 15.5372 -2.2695
8.9691 16.1656 -2.3276
9.3252 17.8079 -2.5296
9.3707 18.9976 -2.6644
9.4215 20.3233 -2.8162
9.4785 21.8116 -2.9885
9.5526 23.5203 -3.1887
9.5180 25.1614 -3.3777
9.8318 28.0175 -3.7267
9.9329 30.6553 -4.0431
10.0384 33.7385 -4.4150
10.3515 38.1368 -4.9549
9.3781 38.1741 -4.9275
8.6103 39.1014 -5.0176
8.5115 43.6456 -5.5715
15.0576 88.5423 -11.2508
8.0354 55.2983 -6.9987
6.7815 56.1703 -7.0852
5.4451 56.5444 -7.1129
4.2971 59.7013 -7.4941
3.1728 66.4572 -8.3296
1.9581 83.1080 -10.4072
-0.0475 80.4390 -10.0700
-1.9059 77.0210 -9.6452
-3.7129 75.8874 -9.5121
-4.4850 61.2971 -7.6952
-5.9382 60.9087 -7.6629
-7.4007 60.6941 -7.6571
-8.8103 60.1311 -7.6119
-11.2647 65.7682 -8.3589
-13.2176 67.3525 -8.6001
-9.9208 44.7999 -5.7507
-15.9286 64.5086 -8.3296
-8.6162 31.5958 -4.1066
-9.1580 30.6469 -4.0121
-9.7675 30.0238 -3.9615
-10.4460 29.6551 -3.9465
-11.2099 29.5284 -3.9660
-12.2974 30.1760 -4.0933
-9.3569 21.4624 -2.9424
-9.5610 20.5606 -2.8509
-10.0898 20.3945 -2.8622
-10.6050 20.1938 -2.8706
-10.9773 19.7300 -2.8430
-11.3455 19.2808 -2.8185
-11.7107 18.8448 -2.7969
-12.0573 18.3964 -2.7744
-12.2772 17.7800 -2.7271
-12.4935 17.1900 -2.6838
-12.7068 16.6240 -2.6444
-12.5895 15.6711 -2.5421
-16.4913 19.5420 -3.2360
-17.1122 19.3115 -3.2677
-15.2145 16.3565 -2.8312
-17.3679 17.7900 -3.1534
-18.0091 17.5767 -3.1942
-18.6740 17.3651 -3.2394
-19.3653 17.1547 -3.2891
-19.7599 16.6701 -3.2895
-19.9323 16.0077 -3.2556
-16.7538 12.8019 -2.6875
-16.7297 12.1549 -2.6381
-16.7083 11.5332 -2.5923
-16.6893 10.9345 -2.5499
-16.6727 10.3568 -2.5107
-16.6582 9.7983 -2.4745
-16.6458 9.2572 -2.4410
-16.6354 8.7322 -2.4101
-16.6269 8.2217 -2.3817
-16.6201 7.7244 -2.3556
-16.6150 7.2393 -2.3317
-16.6116 6.7652 -2.3099
-16.6098 6.3011 -2.2902
-16.6095 5.8460 -2.2723
-16.6107 5.3991 -2.2562
-16.6134 4.9596 -2.2420
-16.6176 4.5266 -2.2294
-16.6231 4.0994 -2.2186
-16.6301 3.6773 -2.2093
-16.6385 3.2597 -2.2016
-16.6482 2.8458 -2.1955
-16.6594 2.4350 -2.1909
-24.8797 3.0245 -3.2648
-24.9004 2.4181 -3.2624
-24.9233 1.8137 -3.2621
-24.9485 1.2104 -3.2641
-24.9758 0.6074 -3.2683
-25.0055 0.0037 -3.2747
-25.0375 -0.6015 -3.2833
-25.0719 -1.2090 -3.2942
-25.1087 -1.8198 -3.3073
-25.1481 -2.4348 -3.3228
-30.7231 -22.3210 -5.1019
-42.6141 -35.9579 -6.8810
-39.3911 -34.9030 -6.5005
-37.2490 -34.6481 -6.2887
-36.4196 -35.5571 -6.2971
-34.9054 -35.7673 -6.1879
-36.4039 -39.1534 -6.6246
-34.5531 -39.0131 -6.4625
-36.4419 -43.2068 -7.0142
-39.5455 -49.2551 -7.8442
-36.9511 -48.3744 -7.5646
-35.7591 -49.2376 -7.5672
-33.4128 -48.4276 -7.3211
-30.2205 -46.1492 -6.8684
-29.1730 -46.9908 -6.8908
-27.7213 -47.1599 -6.8192
-25.7839 -46.3967 -6.6204
-24.3903 -46.5026 -6.5528
-23.3536 -47.2706 -6.5829
-18.6574 -40.1834 -5.5341
-17.5289 -40.2747 -5.4892
-15.8369 -38.9338 -5.2549
-15.0593 -39.7500 -5.3165
-18.5631 -52.8194 -7.0051
-13.6543 -42.0780 -5.5371
-12.4764 -41.8706 -5.4703
-12.3846 -45.5602 -5.9133
-13.2573 -53.8862 -6.9522
-12.6692 -57.4505 -7.3722
-12.1794 -62.3639 -7.9643
-13.2262 -77.6626 -9.8763
-12.4005 -85.2177 -10.7976
4.2959 -58.6276 -7.3733
4.6189 -47.3078 -5.9614
4.5627 -37.3652 -4.7204
5.1478 -35.0833 -4.4459
2.1402 -12.4771 -1.5870
4.9421 -25.1465 -3.2120
5.2928 -23.8659 -3.0632
5.5706 -22.5270 -2.9070
5.8340 -21.3615 -2.7733
6.0536 -20.2279 -2.6435
6.2715 -19.2488 -2.5338
6.4805 -18.3696 -2.4371
6.6557 -17.5053 -2.3422
6.8250 -16.7218 -2.2579
6.9905 -16.0094 -2.1829
7.0606 -15.1595 -2.0888
7.2687 -14.6688 -2.0438
6.4698 -12.2997 -1.7341
6.6087 -11.8587 -1.6931
6.8032 -11.5422 -1.6700
7.0452 -11.3181 -1.6607
7.3226 -11.1533 -1.6611
7.6315 -11.0328 -1.6691
7.9824 -10.9637 -1.6862
7.6929 -10.0463 -1.5722
8.0207 -9.9657 -1.5884
8.0382 -9.5074 -1.5448
8.0543 -9.0722 -1.5042
8.0696 -8.6584 -1.4664
8.0860 -8.2659 -1.4315
8.1004 -7.8898 -1.3988
8.1496 -7.5625 -1.3741
8.1634 -7.2160 -1.3455
8.1767 -6.8829 -1.3188
8.2042 -6.5738 -1.2961
6.9263 -5.2801 -1.0728
6.7756 -4.9108 -1.0298
6.7469 -4.6455 -1.0071
6.8427 -4.4715 -1.0040
6.8290 -4.2307 -0.9858
6.9548 -4.0793 -0.9885
7.0499 -3.9092 -0.9873
7.1134 -3.7225 -0.9823
7.3681 -3.6317 -1.0040
7.4614 -3.4561 -1.0040
7.6571 -3.3244 -1.0182
7.9748 -3.2356 -1.0486
7.9832 -3.0164 -1.0387
8.2808 -2.9021 -1.0669
8.2892 -2.6820 -1.0582
8.2976 -2.4648 -1.0501
8.3058 -2.2503 -1.0428
8.3240 -2.0406 -1.0375
8.4252 -1.8508 -1.0431
8.4458 -1.6424 -1.0392
8.4538 -1.4329 -1.0345
8.4618 -1.2247 -1.0303
8.4697 -1.0175 -1.0268
8.4086 -0.8046 -1.0156
8.3691 -0.5971 -1.0076
8.3768 -0.3945 -1.0060
8.3846 -0.1920 -1.0049
8.3923 0.0107 -1.0044
8.4001 0.2137 -1.0045
8.4079 0.4174 -1.0051
8.4157 0.6219 -1.0064
8.4812 0.8332 -1.0152
8.5488 1.0490 -1.0248
8.5569 1.2605 -1.0279
8.5651 1.4740 -1.0317
8.5734 1.6896 -1.0361
8.5690 1.9049 -1.0397
8.4723 2.0995 -1.0326
8.4808 2.3204 -1.0390
8.4894 2.5447 -1.0461
8.4981 2.7728 -1.0539
8.5070 3.0050 -1.0625
8.5160 3.2416 -1.0720
8.5496 3.4931 -1.0853
8.6535 3.7820 -1.1086
8.6633 4.0383 -1.1208
8.6734 4.3010 -1.1340
8.6837 4.5707 -1.1482
8.5879 4.7887 -1.1493
8.5858 5.0632 -1.1639
8.5969 5.3538 -1.1814
8.6084 5.6540 -1.2002
8.3191 5.7563 -1.1777
8.3310 6.0673 -1.1987
8.6012 6.5878 -1.2588
8.9170 7.1779 -1.3288
8.9313 7.5521 -1.3565
9.0672 8.0505 -1.4050
9.0831 8.4657 -1.4374
9.0880 8.8900 -1.4705
8.9958 9.2354 -1.4900
9.0141 9.7128 -1.5302
9.0334 10.2179 -1.5736
9.1763 10.8990 -1.6426
9.1984 11.4768 -1.6944
9.0991 11.9324 -1.7275
9.1240 12.5841 -1.7881
9.2020 13.3590 -1.8648
9.2905 14.2104 -1.9504
9.2112 14.8608 -2.0073
9.1186 15.5371 -2.0670
8.9690 16.1643 -2.1197
9.3251 17.8065 -2.3035
9.3707 18.9961 -2.4261
9.4214 20.3217 -2.5642
9.4784 21.8100 -2.7210
9.5429 23.4949 -2.9002
9.5186 25.1613 -3.0753
9.8318 28.0154 -3.3927
9.9328 30.6530 -3.6806
10.0383 33.7360 -4.0190
10.3522 38.1368 -4.5107
9.3787 38.1740 -4.4857
8.8052 39.9837 -4.6707
8.9726 46.0066 -5.3460
15.1172 88.8870 -10.2811
6.9954 57.9375 -6.6522
5.5370 57.4951 -6.5833
4.1951 58.2805 -6.6590
3.1132 65.2056 -7.4389
1.6555 70.2604 -8.0084
-0.0490 82.8348 -9.4389
-1.8986 76.7197 -8.7449
-3.7412 76.4594 -8.7234
-4.6042 62.9230 -7.1902
-5.9251 60.7702 -6.9592
-7.4128 60.7896 -6.9809
-8.7615 59.7941 -6.8900
-11.0047 64.2462 -7.4329
-12.8165 65.3047 -7.5906
-7.7465 34.9789 -4.0873
-7.7768 31.4928 -3.7019
-8.3915 30.7697 -3.6407
-8.9751 30.0328 -3.5794
-9.5858 29.4633 -3.5393
-10.1766 28.8884 -3.5002
-10.7562 28.3312 -3.4646
-11.9414 29.3003 -3.6189
-13.1981 30.2709 -3.7788
-9.1505 19.6763 -2.4844
-9.6550 19.5144 -2.4940
-10.1660 19.3565 -2.5058
-10.5296 18.9240 -2.4835
-10.8870 18.5001 -2.4631
-14.2127 22.8694 -3.0916
-11.5076 17.5563 -2.4118
-11.7269 16.9817 -2.3727
-11.9423 16.4303 -2.3369
-14.8284 19.3980 -2.8112
-15.4822 19.2704 -2.8482
-15.9537 18.9034 -2.8523
-16.6153 18.7492 -2.8910
-17.0739 18.3539 -2.8951
-15.1234 15.4895 -2.5023
-28.2176 27.5375 -4.5613
-17.2067 15.9991 -2.7205
-17.7037 15.6813 -2.7408
-18.2181 15.3678 -2.7647
-16.5061 13.2547 -2.4578
-16.4887 12.5980 -2.4115
-16.4700 11.9649 -2.3681
-16.4536 11.3561 -2.3278
-16.4392 10.7694 -2.2906
-16.4268 10.2028 -2.2561
-16.4163 9.6547 -2.2242
-16.4075 9.1235 -2.1948
-16.4004 8.6076 -2.1677
-16.3950 8.1058 -2.1427
-16.3910 7.6168 -2.1198
-16.3885 7.1394 -2.0988
-16.3874 6.6727 -2.0797
-16.3877 6.2157 -2.0623
-16.3894 5.7674 -2.0466
-16.3923 5.3270 -2.0326
-16.3966 4.8938 -2.0202
-16.4021 4.4668 -2.0092
-16.4088 4.0455 -1.9998
-16.4168 3.6291 -1.9917
-16.4260 3.2170 -1.9851
-16.4365 2.8085 -1.9799
-16.4481 2.4031 -1.9760
-16.4610 2.0000 -1.9734
-24.5741 2.3848 -2.9417
-24.5971 1.7884 -2.9419
-24.6221 1.1930 -2.9440
-24.6490 0.5979 -2.9480
-24.6780 0.0021 -2.9540
-24.7090 -0.5951 -2.9620
-24.7422 -1.1947 -2.9721
-24.7776 -1.7974 -2.9841
-24.8154 -2.4042 -2.9982
-35.2141 -31.2048 -5.2828
-37.3169 -34.7145 -5.7278
-36.4670 -35.6066 -5.7329
-35.5221 -36.4025 -5.7260
-36.2527 -38.9942 -5.9992
-34.7441 -39.2322 -5.9096
-36.0094 -42.6976 -6.3037
-39.2372 -48.8751 -7.0791
-37.1302 -48.6128 -6.9142
-35.8955 -49.4293 -6.9099
-33.6549 -48.7823 -6.7085
-32.0000 -48.8704 -6.6168
-28.9889 -46.6977 -6.2299
-27.7499 -47.2121 -6.2111
-25.9206 -46.6460 -6.0561
-24.5768 -46.8615 -6.0086
-23.4004 -47.3688 -6.0027
-18.0612 -38.9019 -4.8755
-17.4771 -40.1587 -4.9811
-16.6841 -41.0195 -5.0387
-15.9824 -42.1892 -5.1357
-16.4876 -46.9170 -5.6633
-13.5984 -41.9085 -5.0195
-11.9530 -40.1169 -4.7707
-11.0102 -40.5068 -4.7855
-10.7248 -43.5955 -5.1199
-13.3919 -60.7315 -7.0941
-12.0517 -61.7145 -7.1746
-14.2715 -83.8057 -9.7019
-12.5297 -86.1110 -9.9327
4.3105 -58.8318 -6.7359
4.6187 -47.3087 -5.4272
4.5624 -37.3657 -4.2974
5.1384 -35.0215 -4.0402
2.1400 -12.4769 -1.4446
4.9417 -25.1465 -2.9240
5.2926 -23.8667 -2.7885
5.5704 -22.5278 -2.6463
5.8338 -21.3623 -2.5244
6.0563 -20.2384 -2.4074
6.2734 -19.2557 -2.3071
6.4803 -18.3704 -2.2182
6.6556 -17.5061 -2.1318
6.8249 -16.7226 -2.0550
6.8547 -15.6996 -1.9481
7.0297 -15.0944 -1.8926
6.1229 -12.3574 -1.5667
6.4697 -12.3004 -1.5780
6.6084 -11.8591 -1.5405
6.8028 -11.5425 -1.5194
7.0449 -11.3184 -1.5109
7.3222 -11.1535 -1.5111
7.6309 -11.0328 -1.5183
7.9825 -10.9647 -1.5339
7.7168 -10.0784 -1.4346
8.0208 -9.9667 -1.4447
8.0384 -9.5084 -1.4050
8.0902 -9.1134 -1.3740
8.1067 -8.6990 -1.3396
8.1225 -8.3041 -1.3075
8.1518 -7.9406 -1.2798
8.1657 -7.5782 -1.2518
8.1335 -7.1903 -1.2187
8.1918 -6.8963 -1.2010
7.1463 -5.7267 -1.0261
6.9267 -5.2810 -0.9750
6.8997 -5.0013 -0.9529
6.9225 -4.7670 -0.9390
6.9316 -4.5302 -0.9241
6.8290 -4.2311 -0.8956
6.9546 -4.0797 -0.8979
7.0497 -3.9096 -0.8967
7.1131 -3.7228 -0.8921
7.4172 -3.6564 -0.9179
7.6117 -3.5262 -0.9301
7.8117 -3.3920 -0.9431
7.9748 -3.2361 -0.9520
7.9832 -3.0169 -0.9429
8.2808 -2.9027 -0.9683
8.2892 -2.6825 -0.9603
8.2975 -2.4653 -0.9530
8.3057 -2.2508 -0.9462
8.3238 -2.0411 -0.9412
8.4252 -1.8513 -0.9462
8.4458 -1.6429 -0.9426
8.4538 -1.4334 -0.9382
8.4618 -1.2252 -0.9343
8.4697 -1.0180 -0.9311
8.4088 -0.8051 -0.9208
8.3690 -0.5976 -0.9134
8.3768 -0.3950 -0.9118
8.3846 -0.1925 -0.9107
8.3923 0.0101 -0.9102
8.4001 0.2132 -0.9101
8.4079 0.4169 -0.9106
8.4157 0.6214 -0.9117
8.4809 0.8327 -0.9195
8.5488 1.0484 -0.9281
8.5569 1.2600 -0.9309
8.5651 1.4734 -0.9342
8.5734 1.6891 -0.9380
8.5690 1.9044 -0.9411
8.4723 2.0989 -0.9346
8.4808 2.3198 -0.9403
8.4893 2.5442 -0.9466
8.4981 2.7722 -0.9536
8.5070 3.0044 -0.9613
8.5160 3.2410 -0.9697
8.5493 3.4924 -0.9816
8.6535 3.7814 -1.0026
8.6633 4.0377 -1.0135
8.6733 4.3004 -1.0253
8.6837 4.5701 -1.0381
8.5881 4.7882 -1.0390
8.5858 5.0625 -1.0520
8.5969 5.3531 -1.0677
8.6084 5.6533 -1.0846
8.3191 5.7557 -1.0642
8.3310 6.0666 -1.0830
8.6012 6.5871 -1.1373
8.9170 7.1772 -1.2004
8.9313 7.5513 -1.2252
9.0671 8.0497 -1.2689
9.0830 8.4648 -1.2981
9.0888 8.8900 -1.3280
8.9958 9.2345 -1.3453
9.0140 9.7119 -1.3815
9.0334 10.2170 -1.4206
9.1762 10.8980 -1.4828
9.1983 11.4758 -1.5294
9.0990 11.9314 -1.5591
9.1240 12.5831 -1.6137
9.2008 13.3563 -1.6826
9.3038 14.2296 -1.7624
9.2112 14.8596 -1.8111
9.1193 15.5371 -1.8650
8.9690 16.1630 -1.9123
9.3874 17.9241 -2.0919
9.3706 18.9946 -2.1884
9.4214 20.3202 -2.3129
9.4784 21.8083 -2.4542
9.5429 23.4931 -2.6157
9.5193 25.1613 -2.7737
9.6708 27.5550 -3.0095
9.9184 30.6067 -3.3143
10.0382 33.7334 -3.6241
10.3529 38.1367 -4.0677
9.3793 38.1740 -4.0449
9.1791 41.6790 -4.3902
9.0708 46.5075 -4.8730
9.1138 53.5844 -5.5885
8.4670 58.2611 -6.0519
6.8049 56.3563 -5.8342
5.4640 56.7329 -5.8570
4.0866 56.7691 -5.8482
2.6950 56.4433 -5.8057
1.8410 78.1272 -8.0289
-0.0485 82.0738 -8.4320
-1.9203 77.5921 -7.9742
-3.6790 75.1823 -7.7338
-4.6600 63.6816 -6.5610
-5.8916 60.4224 -6.2387
-7.4799 61.3357 -6.3508
-9.2980 63.4515 -6.5924
-11.4517 66.8517 -6.9739
-13.3595 68.0669 -7.1340
-6.8727 31.0314 -3.2697
-7.4833 30.3022 -3.2120
-10.1111 37.0727 -3.9557
-9.3032 31.1286 -3.3457
-9.2127 28.3145 -3.0675
-9.7779 27.7548 -3.0329
-11.5979 30.5464 -3.3691
-12.7347 31.2448 -3.4808
-12.4323 28.5124 -3.2106
-13.7719 29.6115 -3.3727
-17.1773 34.7154 -4.0025
-9.7455 18.5545 -2.1670
-10.1181 18.1831 -2.1530
-14.4324 24.5228 -2.9460
-13.6545 21.9695 -2.6800
-13.5773 20.7122 -2.5677
-11.2130 16.2362 -2.0473
-13.3171 18.3202 -2.3518
-14.3919 18.8256 -2.4626
-15.0507 18.7317 -2.4992
-15.6313 18.5198 -2.5227
-16.1653 18.2399 -2.5392
-16.6152 17.8592 -2.5437
-16.8831 17.2903 -2.5223
-22.3062 21.7666 -3.2560
-23.4837 21.8335 -3.3532
-16.9171 14.9830 -2.3655
-29.2897 24.7047 -4.0149
-16.2482 13.0463 -2.1856
-16.2325 12.4009 -2.1448
-16.2189 11.7812 -2.1070
-16.2071 11.1847 -2.0720
-16.1971 10.6095 -2.0396
-16.1887 10.0537 -2.0096
-16.1819 9.5157 -1.9818
-16.1765 8.9939 -1.9562
-16.1726 8.4869 -1.9326
-16.1700 7.9935 -1.9109
-16.1687 7.5124 -1.8909
-16.1686 7.0425 -1.8727
-16.1698 6.5830 -1.8561
-16.1721 6.1328 -1.8411
-16.1756 5.6911 -1.8275
-16.1802 5.2570 -1.8154
-16.1859 4.8298 -1.8046
-16.1927 4.4087 -1.7952
-16.2005 3.9931 -1.7871
-16.2095 3.5822 -1.7803
-16.2195 3.1755 -1.7747
-16.2306 2.7723 -1.7703
-16.2427 2.3720 -1.7671
-16.2559 1.9741 -1.7650
-16.2674 1.5777 -1.7639
-24.2801 1.7638 -2.6307
-24.3049 1.1761 -2.6329
-24.3314 0.5886 -2.6368
-24.3597 0.0005 -2.6425
-24.3899 -0.5890 -2.6499
-24.4219 -1.1808 -2.6591
-24.4560 -1.7756 -2.6701
-24.4922 -2.3745 -2.6829
-78.1967 -41.0451 -9.8154
-78.6061 -43.7153 -10.0075
-30.7094 -22.3158 -4.2459
-45.7322 -38.5965 -6.0421
-39.8424 -35.3096 -5.3807
-38.9085 -36.1985 -5.3767
-36.4471 -35.5904 -5.1591
-37.7690 -38.7085 -5.4824
-36.0930 -38.8257 -5.3788
-33.7427 -38.1047 -5.1691
-32.6788 -38.7516 -5.1527
-34.9736 -43.5679 -5.6839
-37.2044 -48.7138 -6.2413
-35.9038 -49.4446 -6.2269
-36.8032 -53.3497 -6.6099
-31.9187 -48.7499 -5.9471
-30.5237 -49.1737 -5.9113
-27.7785 -47.2643 -5.6033
-26.1579 -47.0764 -5.5081
-24.5084 -46.7344 -5.4006
-19.5127 -39.5017 -4.5117
-18.4945 -39.8382 -4.5004
-17.4145 -40.0175 -4.4742
-16.9223 -41.6079 -4.6073
-15.8860 -41.9378 -4.6022
-15.7711 -44.8811 -4.8842
-17.0098 -52.4255 -5.6612
-11.8780 -39.8677 -4.2746
-10.9570 -40.3138 -4.2943
-10.8262 -44.0105 -4.6604
-9.9888 -45.3016 -4.7716
-13.9859 -71.6230 -7.5083
-14.3158 -84.0714 -8.7765
-12.6624 -87.0280 -9.0524
4.3114 -58.8465 -6.0760
4.6185 -47.3097 -4.8943
4.5622 -37.3662 -3.8753
5.1499 -35.1022 -3.6517
2.1398 -12.4766 -1.3027
4.9414 -25.1464 -2.6366
5.2924 -23.8675 -2.5145
5.5703 -22.5286 -2.3862
5.8336 -21.3631 -2.2762
6.0590 -20.2488 -2.1717
6.2752 -19.2626 -2.0807
6.3544 -18.0148 -1.9611
6.5617 -17.2605 -1.8948
6.8012 -16.6658 -1.8462
6.9584 -15.9383 -1.7827
7.1055 -15.2580 -1.7244
6.1181 -12.3485 -1.4111
6.4695 -12.3010 -1.4222
6.6091 -11.8612 -1.3885
6.8286 -11.5870 -1.3745
7.0715 -11.3620 -1.3667
7.3496 -11.1961 -1.3667
7.6627 -11.0796 -1.3737
8.0172 -11.0132 -1.3880
7.7731 -10.1527 -1.3018
8.0571 -10.0126 -1.3073
8.0894 -9.5696 -1.2735
8.1062 -9.1322 -1.2399
8.0808 -8.6719 -1.2025
8.0951 -8.2767 -1.1734
8.1518 -7.9413 -1.1523
8.1657 -7.5788 -1.1269
8.1438 -7.2001 -1.0985
8.1918 -6.8969 -1.0810
8.2041 -6.5751 -1.0602
6.9271 -5.2818 -0.8775
6.8990 -5.0014 -0.8574
6.9225 -4.7675 -0.8448
6.9316 -4.5307 -0.8313
6.8289 -4.2316 -0.8056
6.9544 -4.0801 -0.8076
7.0494 -3.9100 -0.8064
7.1127 -3.7232 -0.8021
7.4168 -3.6567 -0.8252
7.6112 -3.5266 -0.8360
7.8115 -3.3925 -0.8477
7.9748 -3.2367 -0.8556
7.9832 -3.0175 -0.8473
8.2808 -2.9032 -0.8701
8.2892 -2.6830 -0.8627
8.2975 -2.4659 -0.8560
8.3057 -2.2513 -0.8498
8.3236 -2.0416 -0.8452
8.4252 -1.8519 -0.8496
8.3908 -1.6328 -0.8407
8.3972 -1.4244 -0.8365
8.4037 -1.2173 -0.8328
8.4104 -1.0115 -0.8297
8.4090 -0.8057 -0.8262
8.3690 -0.5982 -0.8195
8.3768 -0.3956 -0.8179
8.3845 -0.1931 -0.8168
8.3923 0.0096 -0.8162
8.4001 0.2127 -0.8160
8.4079 0.4163 -0.8164
8.4157 0.6209 -0.8172
8.4787 0.8319 -0.8238
8.4874 1.0404 -0.8257
8.4964 1.2505 -0.8281
8.5056 1.4626 -0.8310
8.5152 1.6771 -0.8345
8.5250 1.8940 -0.8385
8.4723 2.0983 -0.8369
8.4807 2.3193 -0.8419
8.4893 2.5436 -0.8474
8.4981 2.7716 -0.8535
8.5069 3.0038 -0.8603
8.5160 3.2404 -0.8677
8.5490 3.4917 -0.8782
8.6407 3.7752 -0.8955
8.6505 4.0311 -0.9052
8.6605 4.2934 -0.9156
8.6836 4.5694 -0.9282
8.5882 4.7876 -0.9289
8.5857 5.0619 -0.9404
8.5969 5.3524 -0.9543
8.6084 5.6526 -0.9693
8.3191 5.7550 -0.9510
8.3310 6.0660 -0.9676
8.6011 6.5864 -1.0160
8.9169 7.1764 -1.0722
8.9313 7.5506 -1.0943
9.0671 8.0489 -1.1332
9.0830 8.4640 -1.1591
9.0896 8.8900 -1.1858
8.9957 9.2337 -1.2010
9.0140 9.7111 -1.2332
9.0333 10.2161 -1.2680
9.1762 10.8971 -1.3233
9.1983 11.4748 -1.3648
9.0990 11.9304 -1.3911
9.1240 12.5821 -1.4397
9.1996 13.3536 -1.5008
9.3038 14.2285 -1.5721
9.2111 14.8584 -1.6154
9.1199 15.5371 -1.6635
8.9690 16.1618 -1.7054
9.4510 18.0442 -1.8780
9.3706 18.9932 -1.9514
9.5070 20.5034 -2.0810
9.4783 21.8067 -2.1880
9.5428 23.4913 -2.3319
9.5199 25.1613 -2.4728
9.7006 27.6378 -2.6909
9.8002 30.2399 -2.9190
9.9573 33.4592 -3.2042
10.3535 38.1367 -3.6256
9.3799 38.1740 -3.6052
9.1790 41.6758 -3.9125
9.2450 47.3976 -4.4261
9.5712 56.2704 -5.2301
8.7732 60.3648 -5.5880
6.9753 57.7642 -5.3291
5.5348 57.4649 -5.2868
3.9378 54.6993 -5.0215
2.7366 57.3106 -5.2532
1.6450 69.8100 -6.3930
-0.0485 81.9378 -7.5015
-2.3024 93.0254 -8.5193
-3.8842 79.3714 -7.2758
-4.6156 63.0704 -5.7906
-6.0049 61.5806 -5.6662
-7.5031 61.5225 -5.6768
-9.2978 63.4457 -5.8745
-14.0510 82.0202 -7.6254
-12.9773 66.1155 -6.1757
-6.5831 29.7218 -2.7912
-9.0613 36.6897 -3.4663
-8.1625 29.9260 -2.8462
-9.0827 30.3888 -2.9114
-9.8295 30.2083 -2.9173
-10.6141 30.1262 -2.9347
-11.3474 29.8845 -2.9386
-12.2526 30.0599 -2.9857
-15.6653 35.9246 -3.6068
-12.7800 27.4768 -2.7906
-14.1655 28.6265 -2.9432
-15.1493 28.8406 -3.0040
-13.3951 24.0704 -2.5419
-13.0838 22.2298 -2.3820
-13.0947 21.0672 -2.2924
-13.1990 20.1336 -2.2267
-13.7911 19.9676 -2.2464
-14.3951 19.8017 -2.2682
-14.1333 18.4858 -2.1578
-14.3906 17.9088 -2.1324
-15.2224 18.0338 -2.1925
-15.5293 17.5207 -2.1772
-15.7923 16.9732 -2.1581
-15.8875 16.2692 -2.1190
-15.9585 15.5711 -2.0799
-15.8772 14.7602 -2.0244
-29.1879 25.8484 -3.6448
-16.0075 13.5004 -1.9598
-15.9953 12.8419 -1.9220
-15.9848 12.2104 -1.8869
-15.9759 11.6034 -1.8544
-15.9685 11.0188 -1.8243
-15.9626 10.4547 -1.7964
-15.9580 9.9092 -1.7706
-15.9546 9.3809 -1.7468
-15.9525 8.8682 -1.7248
-15.9515 8.3697 -1.7045
-15.9517 7.8844 -1.6858
-15.9529 7.4110 -1.6688
-15.9551 6.9484 -1.6531
-15.9584 6.4958 -1.6389
-15.9626 6.0523 -1.6261
-15.9678 5.6169 -1.6145
-15.9739 5.1889 -1.6042
-15.9810 4.7676 -1.5950
-15.9890 4.3522 -1.5871
-15.9980 3.9421 -1.5803
-16.0078 3.5366 -1.5745
-16.0186 3.1351 -1.5699
-16.0302 2.7370 -1.5663
-16.0428 2.3418 -1.5638
-16.0564 1.9488 -1.5623
-16.0708 1.5576 -1.5618
-23.9720 1.7399 -2.3282
-23.9965 1.1597 -2.3304
-24.0227 0.5796 -2.3343
-24.0503 -0.0010 -2.3396
-24.0796 -0.5830 -2.3465
-24.1106 -1.1672 -2.3549
-24.1433 -1.7545 -2.3649
-24.1781 -2.3455 -2.3765
-79.9000 -39.5117 -8.8970
-76.2183 -40.0121 -8.6028
-76.5816 -42.5950 -8.7682
-76.9687 -45.2801 -8.9459
-38.8472 -34.4309 -4.6661
-38.7500 -36.0543 -4.7631
-38.6314 -37.7268 -4.8646
-38.2119 -39.1659 -4.9350
-33.4983 -37.8318 -4.5668
-32.5345 -38.5837 -4.5658
-33.8425 -42.1623 -4.8957
-34.5120 -45.1921 -5.1540
-35.6403 -49.0856 -5.5031
-33.9014 -49.1471 -5.4213
-31.8379 -48.6302 -5.2822
-30.4202 -49.0107 -5.2464
-27.1396 -46.1805 -4.8756
-25.5333 -45.9557 -4.7889
-24.8250 -47.3416 -4.8728
-19.6530 -39.7886 -4.0481
-18.6826 -40.2461 -4.0501
-17.3524 -39.8776 -3.9721
-16.8252 -41.3719 -4.0816
-15.7910 -41.6898 -4.0763
-14.5586 -41.4332 -4.0177
-17.0268 -52.4815 -5.0500
-11.9782 -40.2065 -3.8416
-10.8932 -40.0817 -3.8050
-10.7103 -43.5421 -4.1092
-9.6809 -43.9079 -4.1218
-13.5476 -69.3833 -6.4826
-14.0252 -82.3698 -7.6641
-12.5945 -86.5670 -8.0258
-2.7133 -56.7654 -5.2169
-1.3423 -56.9054 -5.2256
4.3111 -58.8474 -5.4160
4.5854 -46.9744 -4.3316
4.5620 -37.3672 -3.4543
5.1512 -35.1129 -3.2558
2.1396 -12.4763 -1.1610
4.9411 -25.1463 -2.3499
5.2923 -23.8683 -2.2411
5.5701 -22.5294 -2.1266
5.8334 -21.3639 -2.0286
5.9759 -19.9722 -1.9088
6.2539 -19.1986 -1.8479
6.4506 -18.2886 -1.7740
6.6323 -17.4474 -1.7066
6.8011 -16.6666 -1.6449
6.9583 -15.9390 -1.5883
7.1053 -15.2587 -1.5362
6.1311 -12.3757 -1.2597
6.5160 -12.3902 -1.2759
6.6439 -11.9245 -1.2433
6.8349 -11.5986 -1.2252
7.0780 -11.3734 -1.2182
7.3562 -11.2070 -1.2181
7.6703 -11.0915 -1.2243
8.0333 -11.0362 -1.2382
8.0531 -10.5192 -1.2006
8.0717 -10.0316 -1.1657
8.0894 -9.5704 -1.1334
8.0713 -9.0937 -1.0987
8.1221 -8.7170 -1.0755
8.0986 -8.2811 -1.0444
8.1114 -7.9026 -1.0200
8.1637 -7.5777 -1.0022
8.1409 -7.1981 -0.9766
8.1918 -6.8976 -0.9613
8.2041 -6.5758 -0.9427
6.9275 -5.2827 -0.7801
6.8984 -5.0015 -0.7621
6.9225 -4.7680 -0.7508
6.9315 -4.5312 -0.7388
6.8288 -4.2320 -0.7158
6.9542 -4.0805 -0.7174
7.0492 -3.9104 -0.7163
7.1124 -3.7235 -0.7124
7.4163 -3.6570 -0.7327
7.6108 -3.5269 -0.7422
7.8110 -3.3928 -0.7525
7.9748 -3.2372 -0.7594
7.9832 -3.0180 -0.7519
8.2807 -2.9038 -0.7720
8.2892 -2.6836 -0.7654
8.2975 -2.4664 -0.7593
8.3057 -2.2519 -0.7537
8.3234 -2.0421 -0.7494
8.3469 -1.8352 -0.7462
8.3533 -1.6260 -0.7419
8.3597 -1.4185 -0.7380
8.3663 -1.2125 -0.7347
8.3731 -1.0075 -0.7317
8.3800 -0.8034 -0.7293
8.3690 -0.5987 -0.7257
8.3768 -0.3961 -0.7242
8.3845 -0.1936 -0.7231
8.3923 0.0091 -0.7224
8.4000 0.2121 -0.7221
8.4078 0.4158 -0.7223
8.4157 0.6203 -0.7229
8.4409 0.8277 -0.7254
8.4494 1.0352 -0.7269
8.4582 1.2444 -0.7289
8.4672 1.4555 -0.7313
8.4765 1.6689 -0.7342
8.4861 1.8848 -0.7376
8.4723 2.0978 -0.7394
8.4807 2.3187 -0.7436
8.4893 2.5430 -0.7484
8.4980 2.7711 -0.7536
8.5069 3.0032 -0.7595
8.5160 3.2399 -0.7659
8.5487 3.4910 -0.7750
8.5751 3.7460 -0.7842
8.5882 4.0015 -0.7928
8.6018 4.2637 -0.8021
8.6160 4.5332 -0.8122
8.5884 4.7871 -0.8191
8.5857 5.0613 -0.8291
8.5968 5.3518 -0.8412
8.6083 5.6520 -0.8543
8.3191 5.7544 -0.8379
8.3310 6.0653 -0.8525
8.6011 6.5857 -0.8950
8.9169 7.1757 -0.9444
8.9312 7.5498 -0.9637
9.0671 8.0481 -0.9978
9.0830 8.4632 -1.0204
9.0904 8.8899 -1.0438
8.9957 9.2328 -1.0570
9.0140 9.7102 -1.0852
9.0333 10.2152 -1.1156
9.1761 10.8961 -1.1641
9.1983 11.4738 -1.2005
9.0990 11.9294 -1.2235
9.1239 12.5810 -1.2661
9.1985 13.3509 -1.3196
9.3037 14.2274 -1.3823
9.2111 14.8572 -1.4201
9.1206 15.5371 -1.4623
8.9689 16.1605 -1.4989
9.4509 18.0429 -1.6505
9.3705 18.9917 -1.7148
9.5485 20.5915 -1.8365
9.4782 21.8050 -1.9224
9.6578 23.7727 -2.0734
9.5205 25.1613 -2.1724
9.7005 27.6357 -2.3638
9.8001 30.2376 -2.5639
9.9184 33.3266 -2.8033
10.3542 38.1367 -3.1845
9.3805 38.1740 -3.1664
9.1789 41.6726 -3.4358
9.2456 47.3976 -3.8870
9.6609 56.7938 -4.6356
8.2412 56.7007 -4.6092
6.8142 56.4261 -4.5712
5.3918 55.9764 -4.5220
3.9534 54.9120 -4.4264
2.6378 55.2371 -4.4457
1.9193 81.4432 -6.5489
-0.0407 68.7623 -5.5276
-2.2573 91.1947 -7.3333
-3.8840 79.3625 -6.3879
-6.3245 86.4158 -6.9667
-6.0439 61.9764 -5.0075
-7.5565 61.9560 -5.0201
-8.9780 61.2600 -4.9809
-14.5501 84.9276 -6.9338
-15.8843 80.9202 -6.6380
-15.5560 70.2285 -5.7922
-8.6113 34.8654 -2.8930
-8.6037 31.5414 -2.6348
-9.0679 30.3372 -2.5530
-9.3012 28.5829 -2.4248
-10.3871 29.4801 -2.5229
-11.0634 29.1345 -2.5169
-10.4165 25.5537 -2.2300
-11.0033 25.2319 -2.2260
-11.5898 24.9163 -2.2238
-12.0056 24.2601 -2.1921
-12.3485 23.5069 -2.1520
-8.5459 15.3554 -1.4254
-9.0498 15.3747 -1.4483
-9.5696 15.3946 -1.4728
-12.8420 19.5876 -1.9048
-13.4151 19.4219 -1.9215
-13.9667 19.2110 -1.9354
-14.3645 18.7868 -1.9290
-14.2260 17.7024 -1.8543
-14.3066 16.9475 -1.8129
-14.3892 16.2330 -1.7751
-14.4738 15.5548 -1.7406
-14.5605 14.9091 -1.7092
-14.6495 14.2926 -1.6806
-20.5675 19.1187 -2.3087
-15.7661 13.9609 -1.7335
-15.7577 13.2884 -1.6989
-15.7507 12.6442 -1.6669
-15.7450 12.0259 -1.6372
-15.7406 11.4312 -1.6097
-15.7373 10.8581 -1.5843
-15.7352 10.3046 -1.5607
-15.7342 9.7691 -1.5389
-15.7341 9.2501 -1.5187
-15.7350 8.7461 -1.5001
-15.7369 8.2560 -1.4830
-15.7396 7.7784 -1.4673
-15.7432 7.3124 -1.4529
-15.7476 6.8570 -1.4397
-15.7528 6.4111 -1.4278
-15.7589 5.9740 -1.4170
-15.7657 5.5448 -1.4073
-15.7733 5.1227 -1.3987
-15.7817 4.7071 -1.3911
-15.7909 4.2973 -1.3846
-15.8008 3.8925 -1.3790
-15.8115 3.4922 -1.3743
-15.8230 3.0958 -1.3706
-15.8352 2.7027 -1.3678
-15.8482 2.3124 -1.3658
-15.8620 1.9242 -1.3648
-15.8767 1.5377 -1.3647
-15.8921 1.1524 -1.3654
-23.6966 1.1437 -2.0362
-23.7223 0.5709 -2.0399
-23.7493 -0.0025 -2.0449
-23.7778 -0.5772 -2.0513
-23.8078 -1.1541 -2.0589
-23.8392 -1.7339 -2.0680
-23.8726 -2.3174 -2.0784
-53.7176 -26.5679 -5.3117
-75.5707 -39.6775 -7.5757
-74.6628 -41.5331 -7.5935
-75.0044 -44.1300 -7.7449
-75.3678 -46.8322 -7.9075
-40.4929 -34.1815 -4.1664
-39.8018 -35.2804 -4.1874
-38.5691 -35.8894 -4.1531
-38.3940 -37.4984 -4.2360
-36.7596 -37.6806 -4.1601
-33.7032 -38.0664 -4.0275
-32.1394 -38.1183 -3.9541
-34.1511 -42.5501 -4.3316
-33.1903 -43.4649 -4.3464
-41.2485 -56.8138 -5.5857
-36.9025 -53.5019 -5.1760
-32.6702 -49.9053 -4.7548
-28.1845 -45.4120 -4.2645
-26.6303 -45.3172 -4.1976
-25.7647 -46.3756 -4.2403
-25.1250 -47.9170 -4.3280
-19.9422 -40.3770 -3.6052
-18.6723 -40.2266 -3.5530
-17.2909 -39.7390 -3.4744
-16.8066 -41.3289 -3.5792
-15.4797 -40.8706 -3.5083
-14.6210 -41.6137 -3.5428
-13.0127 -40.1114 -3.3890
-11.9201 -40.0143 -3.3571
-10.8424 -39.8973 -3.3259
-10.2658 -41.7379 -3.4591
-9.6543 -43.7904 -3.6102
-11.4009 -58.3927 -4.7916
-13.9299 -81.8156 -6.6860
-14.1190 -97.0516 -7.9030
0.0338 -56.9461 -4.5922
4.3109 -58.8484 -4.7573
4.6126 -47.2561 -3.8275
4.5619 -37.3682 -3.0341
5.1510 -35.1139 -2.8597
2.1394 -12.4757 -1.0197
4.9407 -25.1462 -2.0638
5.1894 -23.4060 -1.9300
5.5508 -22.4527 -1.8612
5.8068 -21.2678 -1.7733
6.0401 -20.1882 -1.6942
6.2538 -19.1994 -1.6226
6.4504 -18.2894 -1.5575
6.6322 -17.4482 -1.4982
6.8009 -16.6673 -1.4440
6.9581 -15.9398 -1.3942
7.1051 -15.2594 -1.3483
7.2430 -14.6212 -1.3061
6.4775 -12.3179 -1.1131
6.6437 -11.9249 -1.0909
6.8076 -11.5532 -1.0707
7.0498 -11.3289 -1.0645
7.3270 -11.1635 -1.0643
7.6698 -11.0916 -1.0737
8.0332 -11.0370 -1.0858
8.0530 -10.5201 -1.0527
8.0315 -9.9824 -1.0170
8.1433 -9.6350 -1.0002
8.1602 -9.1946 -0.9736
8.1221 -8.7177 -0.9425
8.0970 -8.2802 -0.9150
8.2061 -7.9957 -0.9041
8.2201 -7.6308 -0.8839
8.1408 -7.1988 -0.8553
8.1917 -6.8983 -0.8418
8.2041 -6.5764 -0.8254
6.9279 -5.2835 -0.6830
6.8868 -4.9936 -0.6659
6.9224 -4.7685 -0.6571
6.9315 -4.5317 -0.6464
6.8287 -4.2325 -0.6261
6.9540 -4.0809 -0.6274
7.0490 -3.9108 -0.6263
7.1120 -3.7238 -0.6228
7.4159 -3.6573 -0.6404
7.6103 -3.5272 -0.6486
7.8105 -3.3931 -0.6574
7.9748 -3.2377 -0.6634
7.9832 -3.0185 -0.6567
8.2807 -2.9043 -0.6741
8.2892 -2.6841 -0.6682
8.2729 -2.4596 -0.6607
8.2741 -2.2438 -0.6552
8.2758 -2.0309 -0.6501
8.2779 -1.8206 -0.6455
8.2806 -1.6124 -0.6413
8.2837 -1.4062 -0.6376
8.2874 -1.2015 -0.6343
8.2915 -0.9982 -0.6315
8.2962 -0.7959 -0.6290
8.3024 -0.5945 -0.6271
8.3101 -0.3935 -0.6256
8.3845 -0.1941 -0.6295
8.3923 0.0085 -0.6288
8.4000 0.2116 -0.6284
8.3410 0.4120 -0.6234
8.3488 0.6149 -0.6238
8.3566 0.8189 -0.6245
8.3644 1.0242 -0.6256
8.3724 1.2312 -0.6271
8.3818 1.4403 -0.6291
8.3931 1.6519 -0.6316
8.4051 1.8663 -0.6345
8.4178 2.0837 -0.6379
8.4312 2.3046 -0.6418
8.4893 2.5425 -0.6495
8.4980 2.7705 -0.6540
8.4763 2.9918 -0.6565
8.4930 3.2305 -0.6625
8.5108 3.4749 -0.6690
8.5295 3.7255 -0.6762
8.5457 3.9811 -0.6837
8.5587 4.2417 -0.6916
8.5722 4.5096 -0.7001
8.5863 4.7853 -0.7093
8.5857 5.0606 -0.7180
8.5968 5.3511 -0.7283
8.6083 5.6513 -0.7394
8.3190 5.7537 -0.7252
8.3309 6.0646 -0.7376
8.6011 6.5850 -0.7742
8.9169 7.1749 -0.8167
8.9312 7.5491 -0.8333
9.0540 8.0358 -0.8613
9.0829 8.4624 -0.8820
9.0912 8.8899 -0.9022
8.9957 9.2320 -0.9133
9.0139 9.7093 -0.9374
9.0333 10.2143 -0.9636
9.1761 10.8952 -1.0053
9.1982 11.4729 -1.0365
9.0989 11.9284 -1.0563
9.1239 12.5800 -1.0928
9.1973 13.3482 -1.1387
9.3037 14.2262 -1.1927
9.2111 14.8561 -1.2252
9.1212 15.5370 -1.2616
8.9689 16.1593 -1.2929
9.4509 18.0415 -1.4234
9.3705 18.9903 -1.4787
9.5485 20.5900 -1.5835
9.4782 21.8034 -1.6574
9.6716 23.8051 -1.7899
9.5212 25.1612 -1.8726
9.7617 27.8083 -2.0501
9.8000 30.2353 -2.2096
9.9183 33.3240 -2.4156
10.3549 38.1367 -2.7441
9.3811 38.1739 -2.7283
9.1787 41.6693 -2.9601
9.2462 47.3976 -3.3488
9.7316 57.2063 -4.0227
8.6235 59.3270 -4.1547
6.7635 56.0032 -3.9083
5.4932 57.0259 -3.9684
4.1389 57.4850 -3.9916
2.7242 57.0448 -3.9548
1.5364 65.1899 -4.5153
-0.0353 59.5797 -4.1255
-2.1807 88.0970 -6.1022
-3.8838 79.3536 -5.5019
-4.7069 64.3094 -4.4660
-6.1327 62.8831 -4.3767
-7.7243 63.3281 -4.4203
-8.9794 61.2653 -4.2914
-14.4249 84.1915 -5.9218
-6.7850 34.5629 -2.4428
-15.5552 70.2203 -4.9900
-7.7699 31.4565 -2.2491
-8.4000 30.7929 -2.2166
-8.9550 29.9575 -2.1726
-9.6251 29.5762 -2.1625
-10.2306 29.0340 -2.1416
-10.8253 28.5055 -2.1228
-9.9843 24.4917 -1.8426
-10.3805 23.8021 -1.8105
-10.7330 23.0727 -1.7757
-19.2741 38.9446 -3.0347
-16.1879 30.8134 -2.4331
-8.5521 15.3655 -1.2304
-9.0564 15.3848 -1.2503
-9.5765 15.4047 -1.2717
-10.1140 15.4253 -1.2945
-10.6632 15.4365 -1.3181
-13.4494 18.4979 -1.6087
-13.9158 18.1984 -1.6133
-14.3929 17.9087 -1.6199
-14.8822 17.6280 -1.6286
-16.4546 18.5616 -1.7533
-17.3940 18.6915 -1.8071
-24.2671 24.8456 -2.4614
-24.9082 24.2990 -2.4695
-15.5234 14.4285 -1.5062
-15.5191 13.7409 -1.4752
-15.5160 13.0833 -1.4466
-15.5139 12.4529 -1.4200
-15.5127 11.8473 -1.3954
-15.5125 11.2644 -1.3727
-15.5132 10.7022 -1.3516
-15.5147 10.1590 -1.3320
-15.5170 9.6331 -1.3140
-15.5200 9.1231 -1.2973
-15.5238 8.6276 -1.2820
-15.5283 8.1455 -1.2678
-15.5335 7.6755 -1.2549
-15.5393 7.2167 -1.2430
-15.5458 6.7680 -1.2322
-15.5529 6.3287 -1.2224
-15.5606 5.8978 -1.2136
-15.5690 5.4746 -1.2057
-15.5780 5.0583 -1.1988
-15.5877 4.6482 -1.1926
-15.5979 4.2437 -1.1874
-15.6088 3.8442 -1.1829
-15.6203 3.4490 -1.1793
-15.6324 3.0575 -1.1764
-15.6452 2.6693 -1.1743
-15.6586 2.2837 -1.1730
-15.6727 1.9002 -1.1725
-15.6875 1.5184 -1.1726
-15.7030 1.1377 -1.1735
-15.7191 0.7577 -1.1752
-23.4299 0.5623 -1.7534
-23.4564 -0.0040 -1.7581
-23.4840 -0.5716 -1.7639
-23.5130 -1.1413 -1.7709
-23.5432 -1.7138 -1.7790
-23.5752 -2.2901 -1.7883
-42.7760 -5.2013 -3.2593
-42.8704 -6.2675 -3.2830
-42.9712 -7.3469 -3.3093
-43.1610 -8.4576 -3.3447
-43.2615 -9.5684 -3.3754
-43.3672 -10.6972 -3.4088
-79.8788 -39.5125 -6.9045
-75.5611 -39.6779 -6.6227
-74.2225 -41.2936 -6.6012
-74.3158 -43.7303 -6.7119
-74.4120 -46.2438 -6.8299
-70.2307 -51.0517 -6.7984
-66.4690 -50.8173 -6.5605
-62.9775 -50.6059 -6.3435
-40.9197 -34.5451 -3.6139
-39.8078 -35.2890 -3.5955
-38.3902 -35.7262 -3.5498
-37.8373 -36.9580 -3.5855
-36.8979 -37.8257 -3.5872
-39.6208 -42.6317 -3.9565
-33.6835 -38.0474 -3.4591
-32.2506 -38.2533 -3.4105
-33.2129 -41.3845 -3.6216
-33.8726 -44.3620 -3.8141
-37.9460 -52.2692 -4.4191
-39.4907 -57.2587 -4.7643
-32.5275 -49.6910 -4.0725
-28.1415 -45.3460 -3.6635
-26.9972 -45.9450 -3.6619
-26.0000 -46.8024 -3.6827
-25.0689 -47.8134 -3.7170
-20.1171 -40.7339 -3.1307
-18.6620 -40.2072 -3.0573
-17.2300 -39.6015 -2.9811
-16.3920 -40.3122 -3.0062
-15.5457 -41.0476 -3.0344
-14.1664 -40.3225 -2.9566
-13.1546 -40.5516 -2.9511
-11.9490 -40.1140 -2.8990
-10.7494 -39.5577 -2.8408
-9.9993 -40.6567 -2.9029
-9.7926 -44.4201 -3.1552
-10.9278 -55.9734 -3.9575
-9.9140 -58.2324 -4.1005
-14.2526 -97.9763 -6.8749
4.6784 -95.5086 -6.6448
4.3021 -58.7318 -4.0917
4.6178 -47.3125 -3.3024
4.5617 -37.3693 -2.6147
5.1508 -35.1148 -2.4643
2.1391 -12.4750 -0.8786
4.9550 -25.2203 -1.7834
5.2679 -23.7616 -1.6881
5.5506 -22.4535 -1.6035
5.8066 -21.2686 -1.5277
6.0399 -20.1890 -1.4594
6.2536 -19.2002 -1.3976
6.4502 -18.2901 -1.3415
6.6320 -17.4489 -1.2903
6.8008 -16.6681 -1.2434
6.9580 -15.9405 -1.2004
7.1050 -15.2602 -1.1608
7.2429 -14.6219 -1.1243
6.6227 -12.5950 -0.9796
6.6434 -11.9254 -0.9388
6.8073 -11.5535 -0.9213
7.1364 -11.4689 -0.9271
7.4077 -11.2872 -0.9256
7.6692 -11.0917 -0.9235
8.0332 -11.0379 -0.9338
8.0530 -10.5208 -0.9052
8.0307 -9.9822 -0.8742
8.1433 -9.6357 -0.8597
8.1602 -9.1953 -0.8367
8.1220 -8.7184 -0.8098
8.0970 -8.2810 -0.7860
8.2061 -7.9964 -0.7765
8.2336 -7.6440 -0.7603
8.1407 -7.1994 -0.7343
8.1917 -6.8989 -0.7225
8.2040 -6.5770 -0.7083
6.9283 -5.2844 -0.5860
6.8971 -5.0016 -0.5720
6.9224 -4.7690 -0.5634
6.9315 -4.5322 -0.5541
6.8286 -4.2329 -0.5366
6.9538 -4.0813 -0.5376
7.0488 -3.9111 -0.5365
7.1117 -3.7241 -0.5333
7.4154 -3.6576 -0.5483
7.6098 -3.5275 -0.5552
7.8100 -3.3935 -0.5626
7.9747 -3.2383 -0.5675
7.9831 -3.0191 -0.5617
8.2807 -2.9049 -0.5764
8.2891 -2.6847 -0.5711
8.2872 -2.4644 -0.5656
8.3006 -2.2516 -0.5615
8.3135 -2.0407 -0.5577
8.3218 -1.8308 -0.5540
8.3298 -1.6225 -0.5506
8.3377 -1.4159 -0.5476
8.3456 -1.2105 -0.5449
8.3534 -1.0062 -0.5425
8.3612 -0.8027 -0.5404
8.3690 -0.5998 -0.5387
8.3767 -0.3972 -0.5373
8.3845 -0.1946 -0.5361
8.3922 0.0080 -0.5353
8.4000 0.2111 -0.5349
8.4078 0.4147 -0.5347
8.4156 0.6193 -0.5348
8.4235 0.8249 -0.5353
8.4314 1.0319 -0.5360
8.4394 1.2405 -0.5371
8.4475 1.4510 -0.5386
8.4556 1.6637 -0.5403
8.4639 1.8788 -0.5424
8.4722 2.0967 -0.5449
8.4807 2.3176 -0.5477
8.4893 2.5419 -0.5509
8.4980 2.7699 -0.5545
8.5057 3.0017 -0.5584
8.5096 3.2363 -0.5624
8.5130 3.4753 -0.5668
8.5162 3.7190 -0.5717
8.5190 3.9680 -0.5770
8.5214 4.2226 -0.5827
8.5235 4.4833 -0.5889
8.5252 4.7506 -0.5956
8.5265 5.0251 -0.6028
8.5968 5.3505 -0.6156
8.6083 5.6506 -0.6248
8.3190 5.7531 -0.6126
8.3309 6.0639 -0.6229
8.6011 6.5842 -0.6536
8.9168 7.1742 -0.6893
8.9312 7.5483 -0.7031
8.9820 7.9711 -0.7208
9.0044 8.3884 -0.7374
9.0280 8.8274 -0.7553
8.9956 9.2311 -0.7698
9.0139 9.7085 -0.7900
9.0332 10.2134 -0.8118
9.1629 10.8786 -0.8456
9.1850 11.4554 -0.8716
9.0989 11.9274 -0.8893
9.1238 12.5790 -0.9199
9.1962 13.3455 -0.9581
9.3036 14.2251 -1.0035
9.2110 14.8549 -1.0307
9.1219 15.5370 -1.0611
8.9688 16.1580 -1.0871
9.4508 18.0401 -1.1967
9.3704 18.9888 -1.2430
9.5484 20.5884 -1.3308
9.4781 21.8017 -1.3927
9.6715 23.8033 -1.5039
9.5218 25.1612 -1.5733
9.8314 28.0049 -1.7344
9.9323 30.6415 -1.8808
9.9844 33.5438 -2.0422
10.3555 38.1366 -2.3044
9.3817 38.1739 -2.2909
9.1786 41.6661 -2.4852
9.2468 47.3976 -2.8115
9.7323 57.2063 -3.3770
8.4167 57.9008 -3.4038
6.9501 57.5448 -3.3709
5.5326 57.4306 -3.3546
4.1802 58.0556 -3.3836
2.8339 59.3383 -3.4528
1.4347 60.8741 -3.5389
-0.0361 60.9405 -3.5417
-2.1161 85.4819 -4.9696
-3.8836 79.3446 -4.6174
-4.4914 61.3610 -3.5766
-6.1191 62.7395 -3.6653
-7.6714 62.8899 -3.6848
-9.0334 61.6297 -3.6238
-5.6711 33.0975 -1.9544
-6.5003 33.1108 -1.9647
-6.9068 31.1769 -1.8602
-7.5318 30.4909 -1.8306
-8.1380 29.8304 -1.8033
-9.6499 32.2801 -1.9662
-9.3322 28.6741 -1.7610
-9.9209 28.1531 -1.7445
-8.5024 22.3875 -1.4007
-9.1619 22.4727 -1.4207
-9.8411 22.5637 -1.4424
-13.7642 29.5866 -1.9139
-11.0850 22.3966 -1.4672
-11.5725 22.0266 -1.4624
-8.5528 15.3655 -1.0347
-9.0571 15.3848 -1.0517
-9.5773 15.4047 -1.0698
-10.1147 15.4253 -1.0893
-10.6641 15.4365 -1.1094
-15.5838 21.4318 -1.5690
-16.0763 21.0221 -1.5692
-23.9277 29.7701 -2.2679
-25.2461 29.9012 -2.3271
-15.8411 17.8679 -1.4221
-16.8093 18.0615 -1.4717
-17.7114 18.1322 -1.5143
-15.2788 14.9037 -1.2772
-15.2791 14.2001 -1.2503
-15.2801 13.5280 -1.2253
-15.2820 12.8847 -1.2022
-15.2844 12.2675 -1.1809
-15.2876 11.6741 -1.1611
-15.2913 11.1026 -1.1427
-15.2957 10.5510 -1.1257
-15.3006 10.0176 -1.1101
-15.3060 9.5010 -1.0956
-15.3120 8.9997 -1.0822
-15.3185 8.5124 -1.0699
-15.3255 8.0380 -1.0586
-15.3330 7.5754 -1.0483
-15.3409 7.1235 -1.0388
-15.3494 6.6815 -1.0303
-15.3583 6.2484 -1.0225
-15.3677 5.8236 -1.0156
-15.3775 5.4062 -1.0094
-15.3878 4.9955 -1.0040
-15.3986 4.5908 -0.9993
-15.4099 4.1916 -0.9953
-15.4217 3.7971 -0.9919
-15.4340 3.4068 -0.9892
-15.4468 3.0202 -0.9872
-15.4600 2.6367 -0.9858
-15.4738 2.2558 -0.9851
-15.4882 1.8769 -0.9849
-15.5031 1.4996 -0.9854
-15.5186 1.1234 -0.9865
-15.5346 0.7478 -0.9882
-15.5990 0.3734 -0.9936
-23.1710 -0.0054 -1.4787
-23.1979 -0.5661 -1.4840
-23.2259 -1.1288 -1.4903
-23.2550 -1.6943 -1.4976
-23.2855 -2.2634 -1.5059
-41.5975 -5.0607 -2.7029
-41.8203 -6.1166 -2.7320
-42.0500 -7.1921 -2.7633
-42.2592 -8.2836 -2.7952
-42.3510 -9.3698 -2.8213
-42.4473 -10.4731 -2.8496
-42.5481 -11.5956 -2.8802
-42.6745 -12.7456 -2.9147
-90.7497 -36.9758 -6.4638
-91.0098 -39.6727 -6.5613
-79.8683 -39.5129 -5.9112
-75.5516 -39.6782 -5.6715
-24.4687 -13.6149 -1.8644
-74.3160 -43.7359 -5.7516
-64.1819 -39.8910 -5.0493
-61.1767 -40.1047 -4.8962
-60.1493 -41.5437 -4.9013
-60.2354 -43.7906 -5.0014
-64.2391 -49.1175 -5.4398
-63.0936 -50.7043 -5.4537
-41.5425 -35.0743 -3.0642
-39.7393 -35.2317 -2.9987
-38.2132 -35.5648 -2.9528
-37.5857 -36.7156 -2.9773
-36.6916 -37.6176 -2.9827
-36.4769 -39.2522 -3.0466
-33.5970 -37.9529 -2.8865
-32.1107 -38.0905 -2.8416
-34.8096 -43.3776 -3.1772
-38.6959 -50.6828 -3.6480
-37.4045 -51.5272 -3.6479
-39.8872 -57.8381 -4.0307
-31.5441 -48.1923 -3.3088
-30.0013 -48.3465 -3.2728
-27.3740 -46.5897 -3.1120
-26.3465 -47.4295 -3.1284
-25.0131 -47.7104 -3.1096
-24.3653 -49.3394 -3.1798
-20.0135 -43.1221 -2.7500
-17.6127 -40.4840 -2.5563
-16.4615 -40.4858 -2.5329
-15.6121 -41.2258 -2.5570
-14.4681 -41.1840 -2.5340
-15.2401 -46.9837 -2.8695
-11.8919 -39.9249 -2.4218
-10.7503 -39.5638 -2.3850
-10.2688 -41.7553 -2.5029
-10.0896 -45.7703 -2.7296
-10.8769 -55.7162 -3.3077
-10.1125 -59.4025 -3.5124
-12.7948 -87.9604 -5.1831
4.6780 -95.5086 -5.5808
4.3105 -58.8503 -3.4433
4.6176 -47.3135 -2.7735
4.5615 -37.3703 -2.1959
5.1506 -35.1157 -2.0694
2.1389 -12.4744 -0.7377
4.9548 -25.2212 -1.4975
5.2678 -23.7624 -1.4173
5.5504 -22.4543 -1.3462
5.8065 -21.2694 -1.2824
5.9242 -19.8036 -1.2016
6.1338 -18.8337 -1.1506
6.4501 -18.2909 -1.1257
6.6319 -17.4497 -1.0826
6.8006 -16.6688 -1.0432
6.9578 -15.9412 -1.0069
7.1048 -15.2609 -0.9736
7.2427 -14.6227 -0.9428
6.6227 -12.5958 -0.8213
6.6432 -11.9258 -0.7869
6.8070 -11.5538 -0.7721
7.1360 -11.4691 -0.7768
7.4073 -11.2875 -0.7754
7.6687 -11.0917 -0.7734
8.0332 -11.0387 -0.7819
8.0530 -10.5216 -0.7578
8.0307 -9.9830 -0.7317
8.1510 -9.6456 -0.7201
8.1602 -9.1961 -0.6999
8.1220 -8.7192 -0.6773
8.0971 -8.2817 -0.6572
8.2196 -8.0102 -0.6501
8.2336 -7.6447 -0.6353
8.1407 -7.2000 -0.6134
8.1917 -6.8996 -0.6034
8.2040 -6.5777 -0.5913
6.9287 -5.2852 -0.4891
6.8965 -5.0017 -0.4772
6.9224 -4.7695 -0.4699
6.9315 -4.5327 -0.4620
6.8285 -4.2334 -0.4473
6.9535 -4.0816 -0.4479
7.0486 -3.9115 -0.4469
7.1113 -3.7245 -0.4440
7.4150 -3.6579 -0.4563
7.6093 -3.5278 -0.4619
7.8095 -3.3938 -0.4678
7.9747 -3.2388 -0.4718
7.9831 -3.0196 -0.4668
8.2807 -2.9054 -0.4788
8.2891 -2.6852 -0.4742
8.2974 -2.4680 -0.4700
8.3056 -2.2535 -0.4661
8.3138 -2.0413 -0.4626
8.3218 -1.8313 -0.4593
8.3298 -1.6231 -0.4563
8.3377 -1.4164 -0.4535
8.3456 -1.2110 -0.4511
8.3534 -1.0067 -0.4489
8.3612 -0.8032 -0.4470
8.3689 -0.6003 -0.4454
8.3767 -0.3977 -0.4440
8.3845 -0.1952 -0.4429
8.3922 0.0075 -0.4420
8.4000 0.2105 -0.4414
8.4078 0.4142 -0.4411
8.4156 0.6187 -0.4410
8.4235 0.8244 -0.4412
8.4314 1.0314 -0.4416
8.4394 1.2400 -0.4423
8.4475 1.4505 -0.4433
8.4556 1.6631 -0.4445
8.4638 1.8783 -0.4460
8.4722 2.0961 -0.4478
8.4806 2.3170 -0.4499
8.4892 2.5413 -0.4524
8.4980 2.7694 -0.4551
8.5069 3.0015 -0.4581
8.5159 3.2381 -0.4615
8.5252 3.4796 -0.4653
8.5346 3.7265 -0.4694
8.5443 3.9792 -0.4739
8.5542 4.2383 -0.4788
8.5644 4.5042 -0.4842
8.5749 4.7777 -0.4899
8.5856 5.0593 -0.4962
8.5968 5.3498 -0.5030
8.6083 5.6500 -0.5103
8.3190 5.7524 -0.5001
8.3309 6.0633 -0.5083
8.6010 6.5835 -0.5332
8.9168 7.1734 -0.5621
8.8622 7.4893 -0.5687
8.8807 7.8805 -0.5807
8.9147 8.3042 -0.5946
8.9512 8.7514 -0.6097
8.9903 9.2248 -0.6262
9.0139 9.7076 -0.6427
9.0332 10.2125 -0.6602
9.0740 10.7722 -0.6808
9.1045 11.3541 -0.7022
9.0989 11.9264 -0.7225
9.1238 12.5779 -0.7471
9.1950 13.3429 -0.7778
9.2902 14.2035 -0.8134
9.2110 14.8537 -0.8364
9.1225 15.5370 -0.8609
8.9688 16.1568 -0.8817
9.4508 18.0387 -0.9703
9.3703 18.9874 -1.0076
9.5483 20.5869 -1.0786
9.4780 21.8001 -1.1285
9.6714 23.8015 -1.2183
9.5224 25.1612 -1.2744
9.8313 28.0028 -1.4045
9.9323 30.6392 -1.5228
10.0377 33.7207 -1.6620
10.3562 38.1366 -1.8653
9.3823 38.1739 -1.8541
9.1785 41.6628 -2.0109
9.2473 47.3976 -2.2749
9.3848 55.1607 -2.6345
8.1978 56.3909 -2.6818
6.7835 56.1616 -2.6613
5.5310 57.4114 -2.7126
4.1649 57.8392 -2.7266
2.7636 57.8611 -2.7232
1.3756 58.3598 -2.7440
-0.0343 57.9358 -2.7233
-1.5046 60.7727 -2.8576
-3.8834 79.3356 -3.7342
-4.8475 66.2220 -3.1221
-6.5555 67.2092 -3.1760
-7.6201 62.4651 -2.9606
-9.4815 64.6826 -3.0769
-10.9556 63.9349 -3.0545
-5.9675 30.3948 -1.4593
-6.6523 30.0265 -1.4498
-7.1196 28.8200 -1.4004
-8.9173 32.6848 -1.5994
-9.1142 30.4860 -1.5033
-9.0203 27.7139 -1.3782
-9.5925 27.2195 -1.3660
-11.4518 30.1511 -1.5281
-8.7733 21.5181 -1.1021
-9.4180 21.5920 -1.1185
-9.9961 21.4856 -1.1265
-10.5249 21.2635 -1.1293
-11.0571 21.0440 -1.1330
-8.5534 15.3655 -0.8393
-9.0577 15.3848 -0.8533
-9.5780 15.4048 -0.8683
-10.1155 15.4253 -0.8843
-10.6649 15.4366 -0.9009
-15.5814 21.4269 -1.2742
-16.0724 21.0154 -1.2747
-25.3951 31.5931 -1.9563
-25.7412 30.4852 -1.9292
-25.9599 29.2789 -1.8955
-16.2633 17.4734 -1.1585
-17.0520 17.4555 -1.1867
-15.0370 14.6665 -1.0235
-15.0427 13.9791 -1.0026
-15.0487 13.3219 -0.9834
-15.0552 12.6922 -0.9655
-15.0620 12.0877 -0.9490
