ply
format ascii 1.0
element vertex 2108
property float32 x
property float32 y
property float32 z
end_header
-17.0228 24.6389 2.3241
-15.5553 21.3909 2.0539
-16.0315 20.9617 2.0506
-18.0533 22.4593 2.2407
-18.5656 21.9870 2.2393
-19.4295 21.9134 2.2806
-20.3182 21.8298 2.3241
-14.7845 15.1342 1.6501
-14.8118 14.4468 1.6149
-14.8379 13.7887 1.5823
-14.8630 13.1574 1.5519
-14.8872 12.5505 1.5235
-14.9104 11.9660 1.4972
-14.9328 11.4019 1.4726
-14.9545 10.8568 1.4497
-14.9755 10.3289 1.4284
-6.3462 4.1545 0.5961
-15.0156 9.3195 1.3902
-15.0349 8.8355 1.3731
-15.0536 8.3640 1.3572
-15.0719 7.9038 1.3426
-15.0898 7.4540 1.3290
-10.1592 4.7165 0.8853
-10.1878 4.4338 0.8791
-10.4886 4.2664 0.8968
-15.1578 5.7429 1.2851
-15.1741 5.3335 1.2765
-15.1901 4.9301 1.2687
-15.2060 4.5322 1.2618
-15.5860 4.2383 1.2858
-15.6277 3.8466 1.2826
-15.6434 3.4519 1.2780
-15.6590 3.0605 1.2742
-15.6744 2.6721 1.2712
-15.2976 2.2289 1.2372
-15.3124 1.8544 1.2357
-15.3273 1.4814 1.2350
-15.3421 1.1094 1.2350
-15.3568 0.7381 1.2357
-15.3716 0.3668 1.2371
-15.4907 -0.0048 1.2477
-15.5063 -0.3796 1.2507
-15.5219 -0.7556 1.2544
-15.5375 -1.1333 1.2588
-15.5532 -1.5130 1.2640
-15.5691 -1.8953 1.2700
-15.5854 -2.2808 1.2768
-15.6016 -2.6697 1.2844
-15.6180 -3.0627 1.2928
-15.6346 -3.4603 1.3020
-15.6515 -3.8630 1.3122
-15.6685 -4.2714 1.3232
-15.6858 -4.6862 1.3352
-15.7069 -5.1090 1.3485
-15.7257 -5.5389 1.3625
-15.7450 -5.9771 1.3777
-15.7646 -6.4246 1.3939
-15.7847 -6.8822 1.4114
-15.8004 -7.3485 1.4296
-15.8216 -7.8288 1.4496
-15.8433 -8.3221 1.4710
-15.8657 -8.8295 1.4938
-15.8887 -9.3523 1.5182
-15.9100 -9.8901 1.5440
-15.9346 -10.4476 1.5718
-15.9601 -11.0249 1.6015
-15.9865 -11.6237 1.6332
-16.0094 -12.2426 1.6667
-16.0372 -12.8898 1.7029
-16.0661 -13.5642 1.9765
-16.0964 -14.2702 2.0234
-16.1275 -15.0094 2.0738
-13.9521 -13.6288 1.8371
-13.6026 -13.9456 1.8361
-13.2538 -14.2618 1.8361
-16.1489 -18.2423 2.2991
-15.6940 -18.6163 2.2991
-15.2308 -18.9792 2.2991
-14.2967 -18.7251 2.2270
-14.2801 -19.6715 2.2991
-13.7933 -20.0005 2.2991
-13.2992 -20.3179 2.2991
-12.7981 -20.6234 2.2991
-12.2901 -20.9170 2.2991
-11.7757 -21.1986 2.2991
-11.2551 -21.4679 2.2991
-10.7286 -21.7248 2.2991
-10.2041 -21.9861 2.3008
-9.6662 -22.2182 2.3008
-9.1232 -22.4376 2.3008
-8.5754 -22.6442 2.3008
-8.0231 -22.8379 2.3008
-7.8017 -24.0516 2.4041
-7.2162 -24.2268 2.4041
-6.6269 -24.3883 2.4041
-6.0341 -24.5360 2.4041
-5.4382 -24.6698 2.4041
-4.8395 -24.7896 2.4041
-1.4357 -8.4333 0.8144
-1.2275 -8.4386 0.8119
-1.0205 -8.4439 0.8099
-0.8145 -8.4492 0.8083
-0.6091 -8.4544 0.8072
-0.4043 -8.4597 0.8066
-0.1996 -8.4649 0.8064
0.0050 -8.4701 0.8067
0.2100 -8.4754 0.8074
0.4154 -8.4806 0.8086
1.7651 -24.0975 2.3010
2.3473 -24.0498 2.3010
2.9282 -23.9886 2.3010
3.5077 -23.9139 2.3010
2.1342 -12.4468 1.2021
4.6608 -23.7240 2.3010
5.2744 -23.7918 2.3188
5.5505 -22.4538 2.2004
5.4208 -19.8560 1.9576
5.6708 -18.9558 1.8813
6.1035 -18.7402 1.8735
6.4584 -18.3142 1.8454
6.6938 -17.6123 1.7899
6.7979 -16.6619 1.7090
7.0228 -16.0898 1.6666
7.1712 -15.4031 1.6124
7.2399 -14.6165 1.5473
6.6221 -12.5944 1.3492
6.6378 -11.9158 1.2928
6.7996 -11.5410 1.2690
6.3407 -10.1906 1.1365
6.6016 -10.0594 1.1388
6.9651 -10.0739 1.1585
7.3421 -10.0887 1.1797
6.4394 -8.4132 1.0011
6.6745 -8.2970 1.0056
7.0569 -8.3507 1.0319
7.4231 -8.3652 1.0549
7.8065 -8.3802 1.0796
6.7187 -6.8717 0.9054
7.0085 -6.8298 0.9213
7.3708 -6.8434 0.9463
7.7533 -6.8572 0.9731
8.1589 -6.8718 1.0022
7.2274 -5.7945 0.8697
6.9428 -5.2958 0.8192
6.8733 -4.9847 0.7960
6.9218 -4.7689 0.7874
6.9308 -4.5321 0.7751
6.8251 -4.2311 0.7511
6.9454 -4.0767 0.7526
7.0403 -3.9068 0.7519
7.0979 -3.7172 0.7476
7.3982 -3.6495 0.7691
7.5921 -3.5196 0.7795
7.7918 -3.3859 0.7907
7.9893 -3.2445 0.8019
8.2715 -3.1285 0.8217
8.2800 -2.9050 0.8146
8.2885 -2.6848 0.8081
8.2968 -2.4676 0.8021
8.3050 -2.2531 0.7967
8.3131 -2.0410 0.7918
8.3212 -1.8309 0.7874
8.3291 -1.6227 0.7835
8.3370 -1.4161 0.7801
8.3449 -1.2107 0.7771
8.3527 -1.0064 0.7746
8.3605 -0.8030 0.7726
8.3683 -0.6000 0.7711
8.3760 -0.3974 0.7699
8.3838 -0.1949 0.7693
8.3916 0.0077 0.7691
8.3993 0.2107 0.7693
8.4071 0.4144 0.7700
8.4150 0.6189 0.7711
8.4228 0.8245 0.7727
8.4308 1.0315 0.7748
8.4387 1.2401 0.7773
8.4468 1.4506 0.7803
8.4549 1.6633 0.7838
8.4632 1.8783 0.7878
8.4715 2.0962 0.7924
8.4800 2.3171 0.7974
8.4886 2.5414 0.8030
8.4973 2.7694 0.8092
8.5062 3.0015 0.8160
8.5152 3.2381 0.8234
8.5245 3.4796 0.8315
8.5339 3.7265 0.8402
8.4890 3.9537 0.8442
8.5272 4.2252 0.8572
8.5374 4.4903 0.8681
8.5478 4.7629 0.8799
8.5586 5.0437 0.8925
8.5961 5.3497 0.9089
8.6076 5.6498 0.9236
8.6195 5.9605 0.9393
8.8892 6.4699 0.9846
8.9024 6.8146 1.0033
8.9161 7.1732 1.0233
8.9305 7.5473 1.0448
8.9454 7.9383 1.0679
8.9611 8.3477 1.0928
8.9776 8.7776 1.1195
8.9949 9.2300 1.1484
9.0132 9.7073 1.1796
9.0325 10.2121 1.2133
9.0530 10.7477 1.2497
9.0749 11.3176 1.2893
9.0982 11.9259 1.3324
9.1231 12.5775 1.3794
9.1499 13.2779 1.4308
9.1515 13.9919 1.4826
9.1828 14.8088 1.5444
9.2444 15.7452 1.6175
9.2830 16.7234 1.6937
9.3241 17.7976 1.7783
9.3696 18.9866 1.8731
9.4204 20.3117 1.9800
9.4773 21.7992 2.1012
9.4953 23.3689 2.2290
9.2120 24.3418 2.2991
8.6241 24.5652 2.2991
8.0307 24.7739 2.2991
7.4320 24.9677 2.2991
6.8285 25.1465 2.2991
6.2256 25.3311 2.3010
5.6131 25.4795 2.3010
4.8514 24.8664 2.2339
4.3775 25.7301 2.3010
3.7552 25.8321 2.3010
3.1305 25.9184 2.3010
2.6159 27.1534 2.4041
1.9594 27.2106 2.4041
1.3016 27.2514 2.4041
0.6429 27.2756 2.4041
-0.0161 27.2833 2.4041
-0.6751 27.2744 2.4041
-1.3337 27.2489 2.4041
-1.9915 27.2069 2.4041
-2.6479 27.1484 2.4041
-3.3025 27.0734 2.4041
-3.9550 26.9820 2.4041
-4.6049 26.8743 2.4041
-5.0262 25.6014 2.3008
-5.6420 25.4672 2.3008
-6.2541 25.3177 2.3008
-6.8621 25.1529 2.3008
-7.4656 24.9728 2.3008
-8.0643 24.7779 2.3008
-8.6577 24.5680 2.3008
-9.3389 24.5893 2.3241
-9.9266 24.3476 2.3241
-10.5078 24.0914 2.3241
-11.0822 23.8209 2.3241
-11.6494 23.5362 2.3241
-12.2091 23.2374 2.3241
-12.7609 22.9249 2.3241
-9.1421 15.5288 1.5970
-13.8395 22.2596 2.3241
-14.3655 21.9072 2.3241
-14.8824 21.5420 2.3241
-15.3897 21.1641 2.3241
-15.8872 20.7740 2.3241
-16.0481 19.9659 2.2777
-16.5155 19.5602 2.2777
-16.9724 19.1433 2.2777
-17.4185 18.7154 2.2777
-14.7844 15.1350 1.8862
-14.8117 14.4476 1.8459
-14.8379 13.7895 1.8083
-14.8630 13.1582 1.7734
-14.8871 12.5512 1.7409
-14.9104 11.9667 1.7105
-14.9328 11.4027 1.6823
-14.9545 10.8575 1.6560
-14.9755 10.3296 1.6315
-6.3458 4.1545 0.6807
-15.0156 9.3202 1.5875
-15.0349 8.8362 1.5677
-15.0536 8.3646 1.5495
-15.0719 7.9044 1.5325
-15.0898 7.4546 1.5169
-10.1593 4.7171 1.0104
-10.1876 4.4342 1.0031
-10.4874 4.2664 1.0231
-15.1578 5.7436 1.4660
-15.1741 5.3341 1.4560
-15.1901 4.9308 1.4470
-15.2059 4.5328 1.4390
-15.2216 4.1398 1.4319
-15.2370 3.7511 1.4257
-15.2523 3.3662 1.4204
-15.2675 2.9846 1.4160
-15.2826 2.6059 1.4125
-15.2975 2.2295 1.4098
-15.3124 1.8550 1.4079
-15.3272 1.4820 1.4069
-15.3420 1.1100 1.4067
-15.3568 0.7387 1.4073
-15.3716 0.3674 1.4088
-15.4904 -0.0042 1.4206
-15.5060 -0.3790 1.4238
-15.5215 -0.7550 1.4278
-15.5372 -1.1326 1.4327
-15.5529 -1.5124 1.4384
-15.5688 -1.8947 1.4451
-15.5854 -2.2801 1.4526
-15.6017 -2.6691 1.4611
-15.6181 -3.0621 1.4705
-15.6347 -3.4597 1.4808
-15.6515 -3.8624 1.4922
-15.6686 -4.2708 1.5045
-15.6859 -4.6856 1.5180
-15.7068 -5.1084 1.5329
-15.7257 -5.5382 1.5487
-15.7449 -5.9765 1.5657
-15.7646 -6.4239 1.5840
-15.7846 -6.8815 1.6036
-15.8007 -7.3479 1.6242
-15.8219 -7.8282 1.6467
-15.8436 -8.3215 1.6708
-15.8660 -8.8289 1.6965
-15.8890 -9.3517 1.7240
-15.9100 -9.8893 1.7531
-15.9346 -10.4468 1.7845
-15.9600 -11.0240 1.8181
-15.9864 -11.6229 1.8539
-16.0094 -12.2418 1.8917
-16.0372 -12.8890 1.9326
-16.0661 -13.5634 2.2117
-16.0963 -14.2693 2.2641
-15.9802 -14.8714 2.2991
-15.6069 -15.2444 2.2991
-15.2252 -15.6081 2.2991
-14.8351 -15.9626 2.2991
-14.4371 -16.3077 2.2991
-14.0313 -16.6430 2.2991
-13.6179 -16.9686 2.2991
-13.1972 -17.2842 2.2991
-9.9499 -13.7057 1.7914
-9.6316 -13.9653 1.7952
-9.3169 -14.2333 1.8010
-9.0055 -14.5112 1.8089
-10.9922 -18.7072 2.2991
-10.5406 -18.9743 2.3008
-10.0751 -19.2162 2.3008
-9.6041 -19.4471 2.3008
-9.1281 -19.6668 2.3008
-8.6472 -19.8751 2.3008
-8.1618 -20.0722 2.3008
-7.6719 -20.2577 2.3008
-7.1781 -20.4316 2.3008
-6.9319 -21.3691 2.3874
-6.4565 -21.6755 2.4041
-5.9294 -21.8205 2.4041
-5.3991 -21.9531 2.4041
-4.8660 -22.0733 2.4041
-4.3304 -22.1809 2.4041
-1.4357 -8.4333 0.9101
-1.2275 -8.4386 0.9073
-1.0206 -8.4439 0.9051
-0.8145 -8.4492 0.9034
-0.6092 -8.4544 0.9021
-0.4043 -8.4597 0.9014
-0.1996 -8.4649 0.9012
0.0051 -8.4701 0.9015
0.2100 -8.4754 0.9024
0.4154 -8.4806 0.9037
1.5795 -21.5628 2.3010
2.1004 -21.5200 2.3010
2.6203 -21.4650 2.3010
3.1387 -21.3978 2.3010
2.1342 -12.4461 1.3433
4.1705 -21.2272 2.3010
4.6832 -21.1238 2.3010
5.0290 -20.3434 2.2281
5.3218 -19.4925 2.1479
5.5722 -18.6257 2.0662
6.1038 -18.7402 2.0941
6.4587 -18.3142 2.0628
6.6939 -17.6118 2.0008
6.7980 -16.6614 1.9104
7.0229 -16.0893 1.8631
7.1713 -15.4027 1.8025
7.2400 -14.6161 1.7298
6.6221 -12.5938 1.5084
6.6379 -11.9156 1.4454
6.7998 -11.5408 1.4189
6.2271 -10.0077 1.2480
6.6020 -10.0595 1.2735
6.9655 -10.0739 1.2956
6.2749 -8.6219 1.1275
6.4296 -8.4000 1.1180
6.7070 -8.3369 1.1302
7.0573 -8.3508 1.1543
7.4235 -8.3652 1.1801
6.4429 -6.9160 0.9968
6.6266 -6.7772 0.9990
7.0089 -6.8298 1.0309
7.3711 -6.8433 1.0588
7.7539 -6.8573 1.0890
8.1595 -6.8718 1.1216
7.2261 -5.7931 0.9732
6.9425 -5.2953 0.9169
6.7786 -4.9157 0.8787
6.7957 -4.6817 0.8654
6.9116 -4.5192 0.8654
6.8252 -4.2308 0.8409
6.9455 -4.0764 0.8428
7.0404 -3.9065 0.8420
7.0981 -3.7170 0.8373
7.3985 -3.6493 0.8614
7.5248 -3.4881 0.8654
7.6322 -3.3162 0.8676
7.9899 -3.2444 0.8984
8.2715 -3.1281 0.9206
8.2800 -2.9046 0.9127
8.2885 -2.6845 0.9055
8.2968 -2.4673 0.8990
8.3050 -2.2528 0.8930
8.3131 -2.0406 0.8876
8.3212 -1.8306 0.8827
8.3291 -1.6224 0.8784
8.3371 -1.4158 0.8747
8.3449 -1.2104 0.8715
8.3527 -1.0061 0.8688
8.3605 -0.8026 0.8666
8.3683 -0.5997 0.8649
8.3761 -0.3971 0.8637
8.3838 -0.1946 0.8631
8.3916 0.0080 0.8629
8.3993 0.2111 0.8633
8.4071 0.4147 0.8641
8.4150 0.6192 0.8655
8.4228 0.8249 0.8674
8.4308 1.0318 0.8698
8.4388 1.2404 0.8727
8.4468 1.4509 0.8762
8.4550 1.6636 0.8802
8.4632 1.8787 0.8848
8.4715 2.0965 0.8900
8.4800 2.3174 0.8958
8.4886 2.5417 0.9022
8.4973 2.7697 0.9092
8.5062 3.0019 0.9169
8.5153 3.2385 0.9253
8.5245 3.4800 0.9344
8.5340 3.7269 0.9443
8.4888 3.9540 0.9489
8.5273 4.2256 0.9636
8.5374 4.4907 0.9760
8.5478 4.7633 0.9893
8.5586 5.0441 1.0036
8.5961 5.3501 1.0222
8.6076 5.6502 1.0387
8.6195 5.9609 1.0565
8.8892 6.4704 1.1076
8.9024 6.8150 1.1287
8.9162 7.1737 1.1513
8.9305 7.5478 1.1756
8.9455 7.9387 1.2017
8.9611 8.3482 1.2297
8.9776 8.7781 1.2600
8.9949 9.2305 1.2925
9.0132 9.7078 1.3277
9.0326 10.2127 1.3657
9.0531 10.7483 1.4069
9.0749 11.3182 1.4516
9.0982 11.9266 1.5002
9.1231 12.5781 1.5532
9.1500 13.2786 1.6111
9.1515 13.9926 1.6696
9.1828 14.8095 1.7393
9.2445 15.7459 1.8217
9.2830 16.7242 1.9076
9.3241 17.7984 2.0030
9.3697 18.9875 2.1099
9.4204 20.3126 2.2304
9.2050 21.1737 2.2991
8.6937 21.3969 2.2991
8.1769 21.6074 2.2991
7.6548 21.8049 2.2991
7.1278 21.9894 2.2991
6.5962 22.1607 2.2991
6.0654 22.3373 2.3010
5.5252 22.4820 2.3010
4.9815 22.6132 2.3010
4.4345 22.7308 2.3010
3.8848 22.8347 2.3010
3.3325 22.9248 2.3010
2.9025 24.0316 2.4041
2.3214 24.0968 2.4041
1.7387 24.1474 2.4041
1.1550 24.1834 2.4041
0.5705 24.2049 2.4041
-0.0143 24.2117 2.4041
-0.5991 24.2038 2.4041
-1.1835 24.1813 2.4041
-1.7672 24.1442 2.4041
-2.3497 24.0926 2.4041
-2.9307 24.0263 2.4041
-3.5097 23.9456 2.4041
-4.0866 23.8504 2.4041
-4.6607 23.7408 2.4041
-5.1092 23.0633 2.3477
-5.5505 22.4705 2.3008
-6.0903 22.3248 2.3008
-6.6262 22.1658 2.3008
-7.1578 21.9934 2.3008
-7.6847 21.8079 2.3008
-8.2068 21.6093 2.3008
-8.7236 21.3978 2.3008
-9.3281 21.3876 2.3241
-9.8384 21.1484 2.3241
-10.3424 20.8966 2.3241
-10.8399 20.6324 2.3241
-11.1046 19.9503 2.2777
-11.5782 19.6677 2.2777
-9.6783 15.5676 1.8303
-12.5030 19.0679 2.2777
-12.9537 18.7512 2.2777
-13.3961 18.4235 2.2777
-13.8300 18.0851 2.2777
-14.3742 17.8842 2.2968
-14.9698 17.7304 2.3241
-15.3850 17.3537 2.3241
-15.4533 16.6048 2.2744
-14.7844 15.1358 2.1228
-14.8117 14.4484 2.0773
-14.8379 13.7903 2.0349
-14.8630 13.1589 1.9954
-14.8871 12.5520 1.9586
-14.9104 11.9674 1.9244
-14.9328 11.4034 1.8924
-14.9545 10.8582 1.8627
-14.9755 10.3303 1.8349
-6.3454 4.1546 0.7655
-15.0156 9.3209 1.7851
-15.0348 8.8369 1.7628
-15.0536 8.3653 1.7421
-15.0719 7.9051 1.7229
-15.0898 7.4553 1.7051
-10.1595 4.7176 1.1357
-10.1874 4.4345 1.1274
-10.4862 4.2663 1.1496
-15.1578 5.7442 1.6473
-15.1741 5.3348 1.6359
-15.1901 4.9314 1.6256
-15.2059 4.5335 1.6164
-15.2215 4.1404 1.6083
-15.2370 3.7517 1.6012
-15.2523 3.3668 1.5951
-15.2675 2.9852 1.5900
-15.2825 2.6065 1.5859
-15.2975 2.2301 1.5827
-15.3124 1.8556 1.5804
-15.3272 1.4826 1.5791
-15.3420 1.1107 1.5788
-15.3568 0.7393 1.5793
-15.3715 0.3680 1.5808
-15.4901 -0.0036 1.5939
-15.5056 -0.3784 1.5973
-15.5212 -0.7543 1.6016
-15.5369 -1.1320 1.6069
-15.5526 -1.5117 1.6132
-15.5684 -1.8940 1.6205
-15.5855 -2.2795 1.6288
-15.6018 -2.6685 1.6382
-15.6182 -3.0615 1.6485
-15.6348 -3.4591 1.6600
-15.6516 -3.8618 1.6725
-15.6686 -4.2702 1.6862
-15.6860 -4.6849 1.7011
-15.7068 -5.1077 1.7177
-15.7256 -5.5375 1.7352
-15.7449 -5.9758 1.7541
-15.7645 -6.4232 1.7744
-15.7846 -6.8808 1.7963
-15.8010 -7.3473 1.8192
-15.8221 -7.8277 1.8442
-15.8439 -8.3210 1.8711
-15.8662 -8.8284 1.8997
-15.8893 -9.3511 1.9304
-15.9099 -9.8885 1.9627
-15.9345 -10.4460 1.9977
-15.9599 -11.0232 2.0351
-15.9864 -11.6221 2.0750
-16.0094 -12.2410 2.1172
-16.0371 -12.8882 2.1628
-15.0916 -12.7399 2.2991
-14.7710 -13.0936 2.2991
-14.4423 -13.4395 2.2991
-14.1058 -13.7773 2.2991
-13.7615 -14.1069 2.2991
-13.4097 -14.4281 2.2991
-13.0505 -14.7407 2.2991
-12.6844 -15.0446 2.2991
-12.3113 -15.3397 2.2991
-11.9315 -15.6257 2.2991
-9.9391 -13.6902 1.9792
-5.1438 -7.4578 1.0604
-4.9600 -7.5769 1.0604
-4.7735 -7.6916 1.0604
-4.5845 -7.8018 1.0604
-9.5321 -17.1581 2.3008
-9.1114 -17.3775 2.3008
-8.6858 -17.5868 2.3008
-8.2556 -17.7861 2.3008
-7.8209 -17.9751 2.3008
-7.3820 -18.1538 2.3008
-6.9392 -18.3221 2.3008
-6.7242 -19.1388 2.3828
-6.3139 -19.4631 2.4041
-5.8403 -19.6058 2.4041
-5.3636 -19.7374 2.4041
-4.8840 -19.8578 2.4041
-4.4018 -19.9668 2.4041
-3.9173 -20.0645 2.4041
-1.4358 -8.4333 1.0061
-1.2276 -8.4386 1.0030
-1.0206 -8.4439 1.0005
-0.8145 -8.4492 0.9986
-0.6092 -8.4544 0.9972
-0.4043 -8.4597 0.9965
-0.1996 -8.4649 0.9962
0.0051 -8.4701 0.9966
0.2100 -8.4754 0.9975
0.4154 -8.4806 0.9990
1.4289 -19.5062 2.3010
1.9002 -19.4673 2.3010
2.3704 -19.4174 2.3010
2.8394 -19.3564 2.3010
2.1341 -12.4454 1.4850
3.7726 -19.2016 2.3010
4.2364 -19.1077 2.3010
4.6979 -19.0031 2.3010
5.1568 -18.8876 2.3010
5.5724 -18.6254 2.2843
6.1041 -18.7403 2.3153
6.4557 -18.3050 2.2796
6.6315 -17.4467 2.1915
6.7981 -16.6609 2.1122
7.0230 -16.0889 2.0600
7.1714 -15.4022 1.9931
7.2401 -14.6156 1.9128
6.6221 -12.5933 1.6680
6.6381 -11.9153 1.5984
5.9662 -10.1256 1.3768
6.2509 -10.0454 1.3855
6.6023 -10.0596 1.4085
6.9659 -10.0739 1.4331
6.1418 -8.4386 1.2207
6.3409 -8.2837 1.2195
6.7074 -8.3369 1.2503
7.0577 -8.3508 1.2770
7.4239 -8.3653 1.3056
6.4919 -6.9682 1.1112
6.6270 -6.7772 1.1054
7.0093 -6.8298 1.1407
7.3715 -6.8433 1.1717
7.7544 -6.8574 1.2052
8.1601 -6.8719 1.2414
8.2025 -6.5754 1.2226
6.9423 -5.2947 1.0148
6.7786 -4.9154 0.9726
6.7466 -4.6476 0.9510
6.7846 -4.4359 0.9404
6.8252 -4.2306 0.9310
6.9456 -4.0762 0.9331
7.0406 -3.9063 0.9323
7.0983 -3.7168 0.9271
7.2504 -3.5759 0.9348
7.4054 -3.4324 0.9432
7.6325 -3.3160 0.9610
7.9906 -3.2444 0.9952
8.2715 -3.1278 1.0198
8.2801 -2.9043 1.0111
8.2885 -2.6841 1.0032
8.2968 -2.4669 0.9960
8.3050 -2.2524 0.9895
8.3131 -2.0403 0.9835
8.3212 -1.8303 0.9783
8.3292 -1.6221 0.9736
8.3371 -1.4154 0.9695
8.3449 -1.2101 0.9660
8.3527 -1.0058 0.9631
8.3605 -0.8023 0.9608
8.3683 -0.5994 0.9590
8.3761 -0.3968 0.9578
8.3838 -0.1943 0.9571
8.3916 0.0084 0.9570
8.3994 0.2114 0.9575
8.4072 0.4150 0.9585
8.4150 0.6196 0.9601
8.4229 0.8252 0.9623
8.4308 1.0322 0.9650
8.4388 1.2408 0.9683
8.4468 1.4513 0.9723
8.4550 1.6639 0.9768
8.4632 1.8790 0.9820
8.4715 2.0969 0.9878
8.4800 2.3178 0.9943
8.4886 2.5421 1.0015
8.4973 2.7701 1.0094
8.5062 3.0022 1.0180
8.5153 3.2388 1.0274
8.5245 3.4804 1.0377
8.5340 3.7272 1.0487
8.4885 3.9543 1.0539
8.5273 4.2260 1.0703
8.5374 4.4911 1.0841
8.5479 4.7637 1.0990
8.5586 5.0445 1.1150
8.5961 5.3505 1.1357
8.6076 5.6507 1.1541
8.6195 5.9614 1.1740
8.8892 6.4708 1.2309
8.9024 6.8155 1.2543
8.9162 7.1742 1.2796
8.9305 7.5483 1.3066
8.9455 7.9392 1.3357
8.9612 8.3487 1.3670
8.9776 8.7786 1.4007
8.9950 9.2310 1.4370
9.0132 9.7083 1.4762
9.0326 10.2133 1.5185
9.0531 10.7489 1.5644
9.0749 11.3188 1.6142
9.0982 11.9272 1.6683
9.1232 12.5787 1.7273
9.1500 13.2793 1.7918
9.1515 13.9933 1.8570
9.1828 14.8102 1.9346
9.2445 15.7467 2.0264
9.2830 16.7250 2.1220
9.3242 17.7993 2.2282
9.1774 18.5986 2.2991
8.7283 18.8211 2.2991
8.2738 19.0324 2.2991
7.8139 19.2324 2.2991
7.3492 19.4209 2.2991
6.8797 19.5979 2.2991
6.4059 19.7632 2.2991
5.9329 19.9332 2.3010
5.4508 20.0749 2.3010
4.9653 20.2045 2.3010
4.4766 20.3220 2.3010
3.9850 20.4273 2.3010
3.4909 20.5204 2.3010
2.9946 20.6011 2.3010
2.6082 21.5955 2.4041
2.0860 21.6538 2.4041
1.5624 21.6992 2.4041
1.0379 21.7315 2.4041
0.5127 21.7507 2.4041
-0.0128 21.7568 2.4041
-0.5383 21.7498 2.4041
-1.0635 21.7297 2.4041
-1.5880 21.6965 2.4041
-2.1114 21.6502 2.4041
-2.6335 21.5909 2.4041
-3.1539 21.5186 2.4041
-3.6723 21.4334 2.4041
-4.1883 21.3353 2.4041
-4.7016 21.2244 2.4041
-5.1874 21.0011 2.3927
-5.4733 20.0640 2.3008
-5.9550 19.9216 2.3008
-6.4330 19.7672 2.3008
-6.9068 19.6010 2.3008
-7.3762 19.4231 2.3008
-7.8409 19.2337 2.3008
-8.3007 19.0328 2.3008
-8.7551 18.8206 2.3008
-9.1297 18.4471 2.2822
-9.5503 18.1788 2.2777
-9.9829 17.9360 2.2777
-10.4375 17.7309 2.2839
-9.6392 15.5054 2.0275
-11.4703 17.4937 2.3241
-11.8843 17.2040 2.3241
-12.2908 16.9042 2.3241
-12.6896 16.5945 2.3241
-13.0804 16.2753 2.3241
-13.4630 15.9466 2.3241
-13.8372 15.6087 2.3241
-14.0500 15.0977 2.2991
-14.4028 14.7460 2.2991
-14.7467 14.3858 2.2991
-14.8378 13.7910 2.2619
-14.8630 13.1597 2.2179
-14.8871 12.5527 2.1769
-12.4893 10.0248 1.7914
-14.9328 11.4041 2.1030
-14.9544 10.8589 2.0698
-14.9754 10.3310 2.0389
-6.3450 4.1546 0.8505
-15.0156 9.3215 1.9832
-15.0348 8.8376 1.9583
-15.0536 8.3660 1.9351
-15.0718 7.9058 1.9137
-15.0897 7.4560 1.8938
-10.1597 4.7181 1.2613
-10.1872 4.4349 1.2519
-10.4851 4.2663 1.2764
-15.1578 5.7448 1.8290
-15.1740 5.3354 1.8162
-15.1901 4.9320 1.8047
-15.2059 4.5341 1.7943
-15.2215 4.1410 1.7852
-15.2370 3.7523 1.7771
-15.2523 3.3674 1.7702
-15.2675 2.9858 1.7644
-15.2825 2.6071 1.7597
-15.2975 2.2307 1.7560
-15.3124 1.8562 1.7534
-15.3272 1.4832 1.7518
-15.3420 1.1113 1.7512
-15.3568 0.7399 1.7517
-15.3715 0.3686 1.7532
-15.4898 -0.0030 1.7675
-15.5053 -0.3777 1.7711
-15.5209 -0.7537 1.7758
-15.5365 -1.1313 1.7816
-15.5523 -1.5111 1.7884
-15.5681 -1.8934 1.7963
-15.5856 -2.2789 1.8055
-15.6018 -2.6679 1.8156
-15.6182 -3.0609 1.8270
-15.6348 -3.4584 1.8395
-15.6517 -3.8611 1.8533
-15.6687 -4.2696 1.8683
-15.6860 -4.6843 1.8847
-15.7067 -5.1071 1.9028
-15.7256 -5.5368 1.9222
-15.7448 -5.9751 1.9430
-15.7645 -6.4226 1.9653
-15.7845 -6.8801 1.9894
-15.8012 -7.3468 2.0146
-15.8224 -7.8271 2.0422
-15.8441 -8.3204 2.0718
-15.8665 -8.8278 2.1034
-15.8896 -9.3506 2.1371
-13.9351 -8.6605 1.9031
-13.6316 -8.9357 1.8918
-13.3318 -9.2074 1.8817
-13.0354 -9.4761 1.8727
-15.7077 -12.0095 2.2991
-15.4039 -12.3785 2.2991
-13.7624 -11.6171 2.2991
-13.4707 -11.9402 2.2991
-13.1715 -12.2562 2.2991
-12.8652 -12.5649 2.2991
-12.5517 -12.8661 2.2991
-12.2314 -13.1596 2.2991
-11.9044 -13.4453 2.2991
-11.5708 -13.7231 2.2991
-5.1797 -6.4535 1.0603
-5.0201 -6.5742 1.0603
-4.8578 -6.6909 1.0603
-4.6929 -6.8038 1.0603
-4.5253 -6.9126 1.0603
-4.3554 -7.0175 1.0603
-4.1830 -7.1182 1.0603
-4.0084 -7.2149 1.0603
-3.8316 -7.3074 1.0603
-3.6527 -7.3956 1.0603
-3.4719 -7.4796 1.0603
-3.2951 -7.5730 1.0622
-6.7368 -16.5663 2.3008
-6.6170 -17.4707 2.4041
-6.1914 -17.6216 2.4041
-5.7623 -17.7623 2.4041
-5.3302 -17.8929 2.4041
-4.8953 -18.0133 2.4041
-4.4576 -18.1234 2.4041
-4.0176 -18.2232 2.4041
-3.5754 -18.3126 2.4041
-1.1183 -6.5681 0.8586
-0.9588 -6.5910 0.8584
-0.7990 -6.6102 0.8582
-0.6388 -6.6256 0.8580
-0.4783 -6.6372 0.8578
-0.3176 -6.6451 0.8576
-0.1568 -6.6492 0.8574
0.0040 -6.6496 0.8572
0.1647 -6.6461 0.8570
0.3252 -6.6390 0.8568
0.4856 -6.6280 0.8566
0.6456 -6.6134 0.8564
2.1636 -17.7224 2.3010
2.5916 -17.6666 2.3010
2.1291 -12.4155 1.6231
3.4434 -17.5249 2.3010
3.8666 -17.4390 2.3010
4.2877 -17.3432 2.3010
4.7065 -17.2375 2.3010
5.1228 -17.1219 2.3010
5.6521 -17.3518 2.3491
6.0712 -17.2139 2.3491
6.4871 -17.0662 2.3491
6.8094 -16.6880 2.3184
6.9609 -15.9458 2.2374
7.1023 -15.2531 2.1631
7.2402 -14.6152 2.0962
6.6221 -12.5928 1.8280
6.6382 -11.9150 1.7518
5.9459 -10.0906 1.5038
6.2513 -10.0455 1.5186
6.6026 -10.0596 1.5438
6.9662 -10.0740 1.5708
6.1782 -8.4882 1.3459
6.3717 -8.3235 1.3433
6.7078 -8.3370 1.3707
7.0581 -8.3508 1.4000
7.2781 -8.2005 1.4033
6.3982 -6.8673 1.2007
6.6665 -6.8172 1.2192
7.0098 -6.8299 1.2508
7.3719 -6.8432 1.2849
7.7550 -6.8575 1.3217
8.1607 -6.8720 1.3614
7.3429 -5.8860 1.2003
6.9420 -5.2942 1.1129
6.8356 -4.9564 1.0757
6.7268 -4.6336 1.0401
6.8314 -4.4661 1.0386
6.8723 -4.2594 1.0283
6.9458 -4.0759 1.0237
7.0407 -3.9060 1.0228
7.1472 -3.7421 1.0242
7.3004 -3.6003 1.0328
7.4564 -3.4558 1.0421
7.6965 -3.3435 1.0634
7.9913 -3.2443 1.0922
8.2715 -3.1274 1.1192
8.2801 -2.9039 1.1098
8.2885 -2.6838 1.1012
8.2968 -2.4666 1.0933
8.3050 -2.2521 1.0862
8.3131 -2.0400 1.0798
8.3212 -1.8299 1.0740
8.3292 -1.6217 1.0690
8.3371 -1.4151 1.0646
8.3449 -1.2097 1.0608
8.3528 -1.0054 1.0577
8.3606 -0.8020 1.0552
8.3683 -0.5990 1.0533
8.3761 -0.3965 1.0520
8.3838 -0.1940 1.0514
8.3916 0.0087 1.0513
8.3994 0.2117 1.0519
8.4072 0.4154 1.0531
8.4150 0.6199 1.0549
8.4229 0.8255 1.0574
8.4308 1.0325 1.0605
8.4388 1.2411 1.0642
8.4468 1.4516 1.0686
8.4550 1.6643 1.0737
8.4632 1.8794 1.0794
8.4716 2.0972 1.0859
8.4800 2.3181 1.0931
8.4886 2.5424 1.1011
8.4973 2.7705 1.1098
8.5062 3.0026 1.1194
8.5153 3.2392 1.1298
8.5245 3.4807 1.1411
8.5340 3.7276 1.1534
8.4883 3.9545 1.1591
8.5273 4.2263 1.1772
8.5374 4.4915 1.1925
8.5479 4.7641 1.2090
8.5586 5.0449 1.2266
8.5961 5.3509 1.2494
8.6076 5.6511 1.2698
8.6195 5.9618 1.2917
8.8893 6.4713 1.3544
8.9025 6.8159 1.3803
8.9162 7.1746 1.4082
8.9305 7.5487 1.4380
8.9455 7.9397 1.4701
8.9612 8.3492 1.5047
8.9776 8.7792 1.5418
8.9950 9.2316 1.5818
9.0133 9.7089 1.6251
9.0326 10.2138 1.6718
9.0531 10.7495 1.7223
9.0749 11.3194 1.7772
9.0982 11.9278 1.8369
9.1232 12.5794 1.9019
9.1500 13.2799 1.9731
9.1516 13.9940 2.0449
9.1829 14.8109 2.1304
9.2445 15.7475 2.2316
9.1327 16.4549 2.2991
8.7355 16.6762 2.2991
8.3328 16.8877 2.2991
7.9248 17.0892 2.2991
7.5119 17.2805 2.2991
7.0942 17.4617 2.2991
6.6721 17.6324 2.2991
6.2457 17.7926 2.2991
5.8203 17.9572 2.3010
5.3859 18.0962 2.3010
4.9482 18.2245 2.3010
4.5074 18.3419 2.3010
4.0636 18.4483 2.3010
3.6174 18.5436 2.3010
3.1688 18.6278 2.3010
2.7972 19.2437 2.3678
2.3675 19.6034 2.4041
1.8935 19.6562 2.4041
1.4182 19.6973 2.4041
0.9421 19.7265 2.4041
0.4654 19.7439 2.4041
-0.0116 19.7494 2.4041
-0.4887 19.7431 2.4041
-0.9653 19.7249 2.4041
-1.4414 19.6949 2.4041
-1.9166 19.6530 2.4041
-2.3905 19.5993 2.4041
-2.8629 19.5340 2.4041
-3.3335 19.4568 2.4041
-3.8019 19.3680 2.4041
-4.2680 19.2676 2.4041
-4.7313 19.1557 2.4041
-5.1917 19.0323 2.4041
-5.4061 18.0859 2.3008
-5.8401 17.9462 2.3008
-6.2704 17.7957 2.3008
-6.6967 17.6347 2.3008
-7.1188 17.4632 2.3008
-7.5364 17.2812 2.3008
-7.9493 17.0891 2.3008
-8.3571 16.8868 2.3008
-8.7597 16.6746 2.3008
-9.1568 16.4525 2.3008
-9.6446 16.3846 2.3241
-9.6198 15.4749 2.2282
-10.4167 15.8876 2.3241
-10.7931 15.6251 2.3241
-11.1628 15.3535 2.3241
-11.4015 14.9108 2.2991
-11.7532 14.6246 2.2991
-12.0975 14.3299 2.2991
-12.4343 14.0270 2.2991
-12.7634 13.7159 2.2991
-13.0846 13.3971 2.2991
-13.3976 13.0705 2.2991
-13.7024 12.7365 2.2991
-13.9987 12.3952 2.2991
-14.2864 12.0470 2.2991
-12.3281 9.8961 1.9459
-14.8352 11.3303 2.2991
-14.9544 10.8596 2.2775
-14.9754 10.3317 2.2433
-6.3446 4.1546 0.9357
-15.0155 9.3222 2.1818
-15.0348 8.8383 2.1543
-15.0535 8.3667 2.1287
-15.0718 7.9064 2.1049
-15.0897 7.4566 2.0830
-10.1599 4.7187 1.3872
-10.1869 4.4353 1.3767
-10.4839 4.2663 1.4034
-15.1577 5.7455 2.0112
-15.1740 5.3360 1.9970
-15.1901 4.9326 1.9842
-13.8088 4.1181 1.7914
-15.2215 4.1417 1.9624
-15.2370 3.7529 1.9535
-15.2523 3.3680 1.9458
-15.2674 2.9865 1.9393
-15.2825 2.6077 1.9339
-15.2975 2.2313 1.9298
-15.3123 1.8569 1.9267
-15.3272 1.4838 1.9249
-15.3420 1.1119 1.9241
-15.3567 0.7405 1.9245
-15.3715 0.3692 1.9260
-15.4895 -0.0023 1.9416
-15.5050 -0.3771 1.9454
-15.5206 -0.7531 1.9504
-15.5362 -1.1307 1.9566
-15.5520 -1.5104 1.9640
-15.5678 -1.8927 1.9725
-15.5856 -2.2783 1.9825
-15.6019 -2.6672 1.9936
-15.6183 -3.0602 2.0059
-15.6349 -3.4578 2.0195
-13.7815 -3.3992 1.7914
-13.6862 -3.7288 1.7914
-13.5831 -4.0558 1.7914
-15.7067 -5.1064 2.0885
-15.7256 -5.5362 2.1096
-15.7448 -5.9744 2.1323
-15.7644 -6.4219 2.1567
-15.7845 -6.8794 2.1829
-15.8015 -7.3462 2.2106
-15.8227 -7.8266 2.2407
-15.8444 -8.3198 2.2730
-15.8086 -8.7949 2.2991
-15.5822 -9.1690 2.2991
-15.3471 -9.5373 2.2991
-15.1035 -9.8998 2.2991
-14.8515 -10.2562 2.2991
-14.5912 -10.6063 2.2991
-14.3228 -10.9499 2.2991
-14.0465 -11.2869 2.2991
-12.6455 -10.6736 2.2991
-9.8635 -8.7423 1.8320
-9.6266 -8.9571 1.8286
-9.3907 -9.1709 1.8262
-9.1554 -9.3842 1.8248
-5.1843 -5.5774 1.0603
-5.0459 -5.6987 1.0603
-4.9046 -5.8167 1.0603
-4.7607 -5.9312 1.0603
-4.6142 -6.0423 1.0603
-4.4652 -6.1498 1.0603
-4.3137 -6.2537 1.0603
-4.1598 -6.3539 1.0603
-4.0037 -6.4505 1.0603
-3.8453 -6.5433 1.0603
-3.6849 -6.6324 1.0603
-3.5225 -6.7175 1.0603
-3.3581 -6.7988 1.0603
-3.2806 -7.0672 1.0898
-3.2951 -7.5726 1.1554
-6.4719 -15.9142 2.4041
-6.0839 -16.0624 2.4041
-5.6926 -16.2014 2.4041
-5.2983 -16.3311 2.4041
-4.9010 -16.4515 2.4041
-4.5011 -16.5624 2.4041
-4.0988 -16.6639 2.4041
-3.6942 -16.7558 2.4041
-3.2877 -16.8382 2.4041
-1.0285 -6.0405 0.8587
-0.8819 -6.0617 0.8585
-0.7349 -6.0795 0.8583
-0.5875 -6.0938 0.8582
-0.4399 -6.1047 0.8580
-0.2921 -6.1120 0.8578
-0.1442 -6.1159 0.8576
0.0037 -6.1163 0.8574
0.1515 -6.1133 0.8573
0.2992 -6.1068 0.8571
0.4467 -6.0968 0.8569
0.5938 -6.0834 0.8568
1.9895 -16.2958 2.3010
2.3831 -16.2444 2.3010
2.1218 -12.3726 1.7591
3.1662 -16.1138 2.3010
3.5553 -16.0346 2.3010
3.9425 -15.9463 2.3010
4.3276 -15.8489 2.3010
4.7103 -15.7424 2.3010
5.0904 -15.6269 2.3010
5.4678 -15.5025 2.3010
5.9644 -15.6903 2.3491
6.3434 -15.5452 2.3491
6.7190 -15.3911 2.3491
7.0910 -15.2281 2.3491
7.2495 -14.6334 2.2831
6.6221 -12.5922 1.9884
5.5601 -9.9794 1.5961
5.8883 -9.9924 1.6200
6.2517 -10.0456 1.6521
5.6434 -8.5977 1.4355
6.0263 -8.7144 1.4784
6.0805 -8.3536 1.4412
6.3721 -8.3236 1.4616
6.7081 -8.3370 1.4914
7.0585 -8.3509 1.5234
6.1296 -6.9061 1.2860
6.3069 -6.7689 1.2879
6.6669 -6.8172 1.3268
7.0102 -6.8299 1.3612
7.3723 -6.8432 1.3984
7.7556 -6.8575 1.4385
8.1613 -6.8721 1.4818
7.2221 -5.7887 1.2849
6.9418 -5.2936 1.2113
6.8356 -4.9560 1.1709
6.7268 -4.6333 1.1322
6.8315 -4.4659 1.1307
6.8724 -4.2591 1.1195
6.9459 -4.0757 1.1145
7.0408 -3.9058 1.1136
7.1475 -3.7419 1.1152
7.3006 -3.6001 1.1246
7.4567 -3.4555 1.1348
7.6969 -3.3433 1.1580
7.9919 -3.2442 1.1896
8.2715 -3.1271 1.2189
8.2801 -2.9036 1.2087
8.2885 -2.6834 1.1994
8.2968 -2.4663 1.1909
8.3050 -2.2518 1.1832
8.3132 -2.0396 1.1763
8.3212 -1.8296 1.1701
8.3292 -1.6214 1.1646
8.3371 -1.4148 1.1599
8.3450 -1.2094 1.1558
8.3528 -1.0051 1.1525
8.3606 -0.8016 1.1498
8.3683 -0.5987 1.1479
8.3761 -0.3961 1.1465
8.3838 -0.1936 1.1459
8.3916 0.0090 1.1459
8.3994 0.2121 1.1466
8.4072 0.4157 1.1480
8.4150 0.6202 1.1500
8.4229 0.8259 1.1528
8.4308 1.0329 1.1562
8.4388 1.2415 1.1603
8.4469 1.4520 1.1652
8.4550 1.6646 1.1708
8.4632 1.8797 1.1771
8.4716 2.0976 1.1843
8.4800 2.3185 1.1922
8.4886 2.5428 1.2010
8.4974 2.7708 1.2106
8.5062 3.0030 1.2211
8.5153 3.2396 1.2325
8.5246 3.4811 1.2449
8.5340 3.7280 1.2583
8.4881 3.9548 1.2646
8.5273 4.2267 1.2845
8.5374 4.4919 1.3013
8.5479 4.7645 1.3193
8.5586 5.0453 1.3386
8.5962 5.3513 1.3635
8.6077 5.6515 1.3859
8.6196 5.9622 1.4098
8.8893 6.4717 1.4783
8.9025 6.8164 1.5067
8.9162 7.1751 1.5371
8.9305 7.5492 1.5698
8.9455 7.9402 1.6049
8.9612 8.3497 1.6427
8.9777 8.7797 1.6833
8.9950 9.2321 1.7271
9.0133 9.7094 1.7743
9.0326 10.2144 1.8254
9.0531 10.7501 1.8807
9.0750 11.3200 1.9407
9.0983 11.9284 2.0059
9.1232 12.5800 2.0770
9.1500 13.2806 2.1548
9.1516 13.9947 2.2333
9.1555 14.7675 2.3199
8.7202 14.8550 2.2991
8.3615 15.0661 2.2991
7.9976 15.2683 2.2991
7.6287 15.4615 2.2991
7.2550 15.6456 2.2991
6.8768 15.8204 2.2991
6.4943 15.9858 2.2991
6.1128 16.1552 2.3010
5.7221 16.3017 2.3010
5.3278 16.4385 2.3010
4.9301 16.5655 2.3010
4.5294 16.6826 2.3010
4.1258 16.7898 2.3010
3.7196 16.8870 2.3010
3.3111 16.9741 2.3010
2.9065 17.0863 2.3057
2.5995 17.8846 2.4041
2.1670 17.9437 2.4041
1.7331 17.9920 2.4041
1.2981 18.0294 2.4041
0.8623 18.0562 2.4041
0.4259 18.0720 2.4041
-0.0106 18.0771 2.4041
-0.4472 18.0713 2.4041
-0.8835 18.0547 2.4041
-1.3193 18.0273 2.4041
-1.7542 17.9891 2.4041
-2.1880 17.9401 2.4041
-2.6204 17.8804 2.4041
-3.0512 17.8099 2.4041
-3.4800 17.7288 2.4041
-3.9067 17.6372 2.4041
-4.3308 17.5350 2.4041
-4.7523 17.4223 2.4041
-5.1707 17.2993 2.4041
-5.3699 16.5019 2.3111
-5.7400 16.2913 2.3008
-6.1304 16.1442 2.3008
-6.5170 15.9875 2.3008
-6.8994 15.8213 2.3008
-7.2776 15.6458 2.3008
-7.6512 15.4610 2.3008
-8.0200 15.2671 2.3008
-8.3838 15.0642 2.3008
-8.7423 14.8524 2.3008
-9.0954 14.6319 2.3008
-9.4356 14.3919 2.2991
-9.7769 14.1546 2.2991
-10.1121 13.9091 2.2991
-10.4410 13.6554 2.2991
-10.7634 13.3938 2.2991
-8.6328 10.2264 1.7914
-8.8923 10.0318 1.7952
-11.6900 12.5631 2.2991
-11.9846 12.2715 2.2991
-12.2718 11.9729 2.2991
-12.5516 11.6674 2.2991
-12.8235 11.3553 2.2991
-13.0876 11.0368 2.2991
-12.5147 10.0466 2.1562
-13.5916 10.3812 2.2991
-13.8312 10.0447 2.2991
-14.0624 9.7025 2.2991
-6.3442 4.1547 1.0211
-14.4988 9.0021 2.2991
-14.7039 8.6444 2.2991
-14.9000 8.2820 2.2991
-15.0718 7.9071 2.2967
-15.0897 7.4573 2.2726
-10.1601 4.7192 1.5135
-10.1867 4.4356 1.5019
-10.4828 4.2663 1.5308
-15.1577 5.7461 2.1939
-15.1740 5.3367 2.1783
-15.1900 4.9333 2.1642
-12.9931 3.8754 1.8384
-12.7407 3.4672 1.7914
-12.8128 3.1564 1.7914
-15.2522 3.3686 2.1218
-15.2674 2.9871 2.1146
-15.2825 2.6083 2.1087
-15.2974 2.2319 2.1040
-15.3123 1.8575 2.1006
-15.3271 1.4845 2.0984
-15.3419 1.1125 2.0975
-15.3567 0.7411 2.0978
-15.3715 0.3698 2.0993
-15.4892 -0.0017 2.1161
-15.5047 -0.3765 2.1202
-15.5203 -0.7524 2.1255
-15.5359 -1.1301 2.1322
-15.5516 -1.5098 2.1401
-15.5675 -1.8920 2.1493
-15.5857 -2.2777 2.1601
-15.6020 -2.6666 2.1720
-15.6184 -3.0596 2.1853
-15.6350 -3.4572 2.2000
-13.6772 -3.3729 1.9367
-13.3779 -3.6442 1.9074
-13.0877 -3.9073 1.8801
-12.8059 -4.1628 1.8546
-13.0473 -4.5928 1.9062
-15.5885 -5.9144 2.2991
-15.4320 -6.2858 2.2991
-15.2667 -6.6531 2.2991
-15.0928 -7.0161 2.2991
-14.9104 -7.3746 2.2991
-14.7196 -7.7285 2.2991
-14.5205 -8.0776 2.2991
-14.3132 -8.4216 2.2991
-14.0979 -8.7604 2.2991
-13.8748 -9.0938 2.2991
-13.6438 -9.4216 2.2991
-13.4053 -9.7437 2.2991
-13.1593 -10.0598 2.2991
-12.9060 -10.3699 2.2991
-11.6936 -9.8696 2.2991
-11.4466 -10.1449 2.2991
-5.1622 -4.8030 1.0603
-5.0425 -4.9243 1.0603
-4.9200 -5.0427 1.0603
-4.7948 -5.1581 1.0603
-4.6669 -5.2705 1.0603
-4.5364 -5.3797 1.0603
-4.4035 -5.4858 1.0603
-4.2681 -5.5887 1.0603
-4.1303 -5.6883 1.0603
-3.9903 -5.7846 1.0603
-3.8480 -5.8774 1.0603
-3.7037 -5.9669 1.0603
-3.5573 -6.0529 1.0603
-3.4090 -6.1354 1.0603
-3.2588 -6.2144 1.0603
-3.2676 -6.6153 1.1152
-3.2806 -7.0668 1.1779
-3.2951 -7.5722 1.2488
-5.9879 -14.7234 2.4041
-5.6290 -14.8608 2.4041
-5.2671 -14.9897 2.4041
-4.9023 -15.1099 2.4041
-4.5348 -15.2214 2.4041
-4.1648 -15.3243 2.4041
-3.7926 -15.4183 2.4041
-3.4183 -15.5036 2.4041
-1.0870 -5.5671 0.8590
-0.9518 -5.5900 0.8589
-0.8162 -5.6098 0.8587
-0.6801 -5.6264 0.8585
-0.5438 -5.6397 0.8583
-0.4072 -5.6499 0.8582
-0.2704 -5.6568 0.8580
-0.1335 -5.6605 0.8578
0.0034 -5.6610 0.8577
0.1402 -5.6583 0.8575
0.2769 -5.6523 0.8574
0.4134 -5.6431 0.8572
0.5497 -5.6308 0.8570
1.8410 -15.0783 2.3010
2.2051 -15.0306 2.3010
2.1209 -12.3666 1.9003
2.9297 -14.9095 2.3010
3.2897 -14.8361 2.3010
3.6479 -14.7543 2.3010
4.0042 -14.6640 2.3010
4.3582 -14.5653 2.3010
4.7099 -14.4582 2.3010
5.0590 -14.3428 2.3010
5.4054 -14.2192 2.3010
5.8690 -14.3819 2.3491
6.2164 -14.2390 2.3491
6.5604 -14.0880 2.3491
6.9008 -13.9288 2.3491
6.6222 -12.5917 2.1494
5.5823 -10.0187 1.7322
5.9119 -10.0319 1.7582
6.2520 -10.0457 1.7860
5.7210 -8.7155 1.5732
5.9290 -8.5732 1.5724
6.0206 -8.2709 1.5427
6.3725 -8.3236 1.5802
6.7085 -8.3370 1.6125
6.9161 -8.1819 1.6138
6.1772 -6.9594 1.4012
6.3039 -6.7653 1.3918
6.6673 -6.8172 1.4347
7.0106 -6.8299 1.4720
7.3728 -6.8433 1.5122
7.7561 -6.8576 1.5557
8.1620 -6.8722 1.6026
8.2027 -6.5743 1.5782
6.9415 -5.2931 1.3099
6.7784 -4.9142 1.2558
6.7465 -4.6465 1.2281
6.7848 -4.4350 1.2146
6.8254 -4.2297 1.2026
6.9460 -4.0755 1.2056
7.0410 -3.9055 1.2047
7.1107 -3.7224 1.2003
7.2511 -3.5753 1.2084
7.4061 -3.4318 1.2194
7.6336 -3.3155 1.2426
7.9926 -3.2441 1.2872
8.2715 -3.1267 1.3188
8.2801 -2.9032 1.3079
8.2885 -2.6831 1.2979
8.2968 -2.4659 1.2888
8.3051 -2.2514 1.2805
8.3132 -2.0393 1.2730
8.3212 -1.8293 1.2664
8.3292 -1.6211 1.2606
8.3371 -1.4144 1.2555
8.3450 -1.2091 1.2512
8.3528 -1.0048 1.2476
8.3606 -0.8013 1.2448
8.3683 -0.5984 1.2427
8.3761 -0.3958 1.2413
8.3839 -0.1933 1.2407
8.3916 0.0094 1.2408
8.3994 0.2124 1.2416
8.4072 0.4160 1.2431
8.4150 0.6206 1.2454
8.4229 0.8262 1.2484
8.4308 1.0332 1.2522
8.4388 1.2418 1.2568
8.4469 1.4523 1.2621
8.4550 1.6650 1.2682
8.4632 1.8801 1.2751
8.4716 2.0979 1.2829
8.4800 2.3188 1.2916
8.4886 2.5432 1.3011
8.4974 2.7712 1.3116
8.5063 3.0033 1.3230
8.5153 3.2399 1.3355
8.5246 3.4815 1.3490
8.5340 3.7284 1.3636
8.4879 3.9551 1.3704
8.5273 4.2271 1.3921
8.5375 4.4923 1.4103
8.5479 4.7649 1.4299
8.5587 5.0457 1.4509
8.5962 5.3518 1.4780
8.6077 5.6519 1.5023
8.6196 5.9626 1.5283
8.8893 6.4722 1.6026
8.9025 6.8168 1.6334
8.9162 7.1756 1.6665
8.9306 7.5497 1.7020
8.9455 7.9407 1.7401
8.9612 8.3502 1.7811
8.9777 8.7802 1.8252
8.9950 9.2326 1.8728
9.0133 9.7100 1.9241
9.0326 10.2149 1.9795
9.0532 10.7506 2.0395
9.0750 11.3206 2.1047
9.0983 11.9290 2.1755
9.1232 12.5807 2.2527
9.1501 13.2813 2.3370
8.8750 13.5724 2.3491
8.5473 13.7872 2.3491
8.2143 13.9939 2.3491
7.8763 14.1924 2.3491
7.5333 14.3825 2.3491
7.1857 14.5642 2.3491
6.8336 14.7373 2.3491
6.3446 14.5966 2.3010
5.9916 14.7489 2.3010
5.6348 14.8925 2.3010
5.2746 15.0273 2.3010
4.9110 15.1532 2.3010
4.5444 15.2700 2.3010
4.1750 15.3778 2.3010
3.8029 15.4764 2.3010
3.4285 15.5658 2.3010
3.0519 15.6459 2.3010
2.6737 15.7182 2.3012
2.3960 16.4850 2.4041
1.9973 16.5393 2.4041
1.5974 16.5837 2.4041
1.1964 16.6182 2.4041
0.7948 16.6427 2.4041
0.3926 16.6574 2.4041
-0.0098 16.6620 2.4041
-0.4122 16.6567 2.4041
-0.8143 16.6415 2.4041
-1.2160 16.6162 2.4041
-1.6169 16.5811 2.4041
-2.0167 16.5360 2.4041
-2.4152 16.4811 2.4041
-2.8123 16.4163 2.4041
-3.2076 16.3418 2.4041
-3.6009 16.2574 2.4041
-3.9919 16.1634 2.4041
-4.3804 16.0598 2.4041
-4.7662 15.9466 2.4041
-5.1490 15.8239 2.4041
-5.4044 15.3393 2.3501
-5.6511 14.8826 2.3008
-6.0076 14.7384 2.3008
-6.3603 14.5855 2.3008
-6.7090 14.4240 2.3008
-7.0535 14.2540 2.3008
-7.3937 14.0755 2.3008
-7.7292 13.8888 2.3008
-8.0600 13.6939 2.3008
-8.3857 13.4910 2.3008
-8.7063 13.2802 2.3008
-9.0215 13.0616 2.3008
-9.3310 12.8353 2.3008
-9.6275 12.5920 2.2991
-9.9251 12.3512 2.2991
-8.1960 9.7094 1.8444
-8.7583 9.8811 1.9174
-10.7805 11.5863 2.2991
-11.0526 11.3178 2.2991
-11.3179 11.0428 2.2991
-11.5763 10.7615 2.2991
-11.8276 10.4741 2.2991
-12.0717 10.1807 2.2991
-12.3083 9.8815 2.2991
-12.5375 9.5767 2.2991
-12.7590 9.2666 2.2991
-12.9727 8.9513 2.2991
-6.3437 4.1547 1.1067
-13.3765 8.3059 2.2991
-13.5663 7.9763 2.2991
-13.7478 7.6422 2.2991
-13.9211 7.3040 2.2991
-14.0860 6.9619 2.2991
-10.1603 4.7197 1.6401
-10.1865 4.4360 1.6275
-10.4817 4.2663 1.6586
-14.6599 5.5580 2.2991
-14.7816 5.1993 2.2991
-14.8945 4.8379 2.2991
-13.4850 4.0226 2.0671
-12.4588 3.3910 1.8977
-12.6588 3.1190 1.9173
-15.2522 3.3693 2.2984
-15.2674 2.9877 2.2904
-15.2824 2.6089 2.2839
-15.2974 2.2326 2.2788
-15.3123 1.8581 2.2750
-15.3271 1.4851 2.2725
-15.3419 1.1131 2.2714
-15.3567 0.7417 2.2716
-15.3714 0.3705 2.2731
-15.4888 -0.0011 2.2912
-15.5044 -0.3759 2.2955
-15.5057 -0.7511 2.2991
-15.4739 -1.1249 2.2991
-15.4332 -1.4977 2.2991
-15.3835 -1.8691 2.2991
-15.3249 -2.2389 2.2991
-15.2575 -2.6071 2.2991
-15.1812 -2.9734 2.2991
-15.0963 -3.3375 2.2991
-15.0027 -3.6992 2.2991
-14.9004 -4.0584 2.2991
-14.7897 -4.4148 2.2991
-13.0529 -4.2425 2.0456
-14.5429 -5.1186 2.2991
-14.4071 -5.4656 2.2991
-14.2630 -5.8090 2.2991
-14.1109 -6.1487 2.2991
-13.9507 -6.4845 2.2991
-13.7827 -6.8163 2.2991
-13.6069 -7.1437 2.2991
-13.4234 -7.4667 2.2991
-13.2323 -7.7850 2.2991
-13.0338 -8.0986 2.2991
-12.8280 -8.4071 2.2991
-12.6150 -8.7105 2.2991
-12.3949 -9.0087 2.2991
-12.1679 -9.3013 2.2991
-11.9341 -9.5883 2.2991
-5.0143 -4.2319 1.0603
-4.9085 -4.3501 1.0603
-4.8000 -4.4657 1.0603
-4.6888 -4.5786 1.0603
-4.5750 -4.6888 1.0603
-4.4587 -4.7963 1.0603
-4.3399 -4.9009 1.0603
-4.2187 -5.0026 1.0603
-4.0951 -5.1014 1.0603
-3.9693 -5.1972 1.0603
-3.8413 -5.2900 1.0603
-3.7111 -5.3796 1.0603
-3.5789 -5.4662 1.0603
-3.4447 -5.5495 1.0603
-3.3087 -5.6296 1.0603
-3.2454 -5.8407 1.0853
-3.2559 -6.2087 1.1390
-3.2676 -6.6150 1.1989
-3.2806 -7.0665 1.2663
-3.2951 -7.5719 1.3425
-5.5699 -13.6952 2.4041
-5.2362 -13.8232 2.4041
-4.8996 -13.9433 2.4041
-4.5603 -14.0553 2.4041
-4.2185 -14.1592 2.4041
-3.8744 -14.2550 2.4041
-3.5281 -14.3427 2.4041
-3.1800 -14.4221 2.4041
-1.0114 -5.1794 0.8591
-0.8856 -5.2009 0.8590
-0.7594 -5.2194 0.8588
-0.6328 -5.2349 0.8587
-0.5059 -5.2474 0.8585
-0.3788 -5.2570 0.8583
-0.2516 -5.2635 0.8582
-0.1242 -5.2670 0.8580
0.0032 -5.2675 0.8579
0.1305 -5.2650 0.8577
0.2577 -5.2596 0.8576
0.3847 -5.2511 0.8574
0.5115 -5.2396 0.8573
0.6380 -5.2252 0.8571
2.0514 -13.9824 2.3010
2.1199 -12.3605 2.0417
2.7255 -13.8695 2.3010
3.0604 -13.8011 2.3010
3.3936 -13.7249 2.3010
3.7249 -13.6407 2.3010
4.0542 -13.5487 2.3010
4.3813 -13.4490 2.3010
4.7060 -13.3415 2.3010
5.0282 -13.2263 2.3010
5.3475 -13.1035 2.3010
5.7824 -13.2443 2.3491
6.1023 -13.1036 2.3491
6.4188 -12.9553 2.3491
6.4750 -12.3112 2.2594
5.5824 -10.0185 1.8624
5.9122 -10.0320 1.8904
6.2524 -10.0458 1.9204
5.5287 -8.4221 1.6346
5.7117 -8.2586 1.6287
6.0499 -8.3106 1.6668
6.3729 -8.3237 1.6993
6.7089 -8.3371 1.7341
5.8105 -6.8736 1.4579
6.0893 -6.8599 1.4853
6.3414 -6.8052 1.5057
6.6677 -6.8173 1.5430
7.0111 -6.8299 1.5832
7.3733 -6.8433 1.6265
7.7565 -6.8575 1.6732
8.1626 -6.8723 1.7238
8.2029 -6.5740 1.6975
6.9413 -5.2926 1.4089
6.8757 -4.9845 1.3702
6.9218 -4.7670 1.3554
6.7848 -4.4347 1.3066
6.8255 -4.2294 1.2937
6.9462 -4.0752 1.2970
7.0411 -3.9053 1.2961
7.0992 -3.7160 1.2892
7.2513 -3.5751 1.3001
7.4063 -3.4316 1.3120
7.7937 -3.3847 1.3651
7.9932 -3.2440 1.3852
8.2716 -3.1264 1.4192
8.2801 -2.9029 1.4075
8.2885 -2.6827 1.3967
8.2969 -2.4656 1.3870
8.3051 -2.2511 1.3781
8.3132 -2.0389 1.3701
8.3212 -1.8289 1.3631
8.3292 -1.6207 1.3568
8.3371 -1.4141 1.3514
8.3450 -1.2087 1.3468
8.3528 -1.0044 1.3431
8.3606 -0.8010 1.3401
8.3684 -0.5980 1.3379
8.3761 -0.3954 1.3365
8.3839 -0.1929 1.3358
8.3916 0.0097 1.3360
8.3994 0.2127 1.3369
8.4072 0.4164 1.3386
8.4150 0.6209 1.3411
8.4229 0.8265 1.3444
8.4308 1.0335 1.3486
8.4388 1.2422 1.3535
8.4469 1.4527 1.3593
8.4550 1.6653 1.3659
8.4633 1.8804 1.3735
8.4716 2.0983 1.3819
8.4801 2.3192 1.3913
8.4887 2.5435 1.4016
8.4974 2.7715 1.4130
8.5063 3.0037 1.4253
8.5153 3.2403 1.4388
8.5246 3.4818 1.4534
8.5340 3.7287 1.4692
8.4877 3.9553 1.4765
8.5273 4.2275 1.5000
8.5375 4.4927 1.5197
8.5479 4.7653 1.5409
8.5587 5.0461 1.5636
8.5962 5.3522 1.5928
8.6077 5.6523 1.6190
8.6196 5.9631 1.6471
8.8893 6.4726 1.7273
8.9025 6.8173 1.7606
8.9163 7.1760 1.7963
8.9306 7.5502 1.8346
8.9456 7.9412 1.8757
8.9612 8.3508 1.9200
8.9777 8.7807 1.9676
8.9950 9.2332 2.0189
9.0133 9.7105 2.0743
9.0327 10.2155 2.1341
9.0532 10.7512 2.1989
9.0750 11.3212 2.2692
9.0983 11.9297 2.3456
8.8235 12.1680 2.3491
8.5298 12.3815 2.3491
8.2308 12.5878 2.3491
7.9267 12.7867 2.3491
7.6177 12.9781 2.3491
7.3041 13.1619 2.3491
6.9859 13.3380 2.3491
6.5270 13.2297 2.3010
6.2070 13.3867 2.3010
5.8832 13.5357 2.3010
5.5558 13.6768 2.3010
5.2249 13.8097 2.3010
4.8908 13.9345 2.3010
4.5536 14.0510 2.3010
4.2136 14.1592 2.3010
3.8710 14.2590 2.3010
3.5260 14.3502 2.3010
3.1788 14.4330 2.3010
2.8296 14.5071 2.3010
2.5898 15.2255 2.4041
2.2215 15.2849 2.4041
1.8518 15.3352 2.4041
1.4810 15.3763 2.4041
1.1093 15.4082 2.4041
0.7369 15.4310 2.4041
0.3640 15.4445 2.4041
-0.0091 15.4488 2.4041
-0.3822 15.4439 2.4041
-0.7550 15.4298 2.4041
-1.1274 15.4065 2.4041
-1.4991 15.3739 2.4041
-1.8698 15.3322 2.4041
-2.2393 15.2814 2.4041
-2.6075 15.2214 2.4041
-2.9740 15.1524 2.4041
-3.3387 15.0744 2.4041
-3.7013 14.9874 2.4041
-4.0616 14.8914 2.4041
-4.4193 14.7867 2.4041
-4.7743 14.6731 2.4041
-5.1264 14.5508 2.4041
-5.4427 14.3343 2.3898
-5.5707 13.6672 2.3008
-5.8978 13.5256 2.3008
-6.2213 13.3761 2.3008
-6.5409 13.2187 2.3008
-6.8565 13.0535 2.3008
-7.1678 12.8806 2.3008
-7.4747 12.7001 2.3008
-7.7770 12.5122 2.3008
-8.0745 12.3170 2.3008
-8.3669 12.1145 2.3008
-8.6543 11.9050 2.3008
-8.9362 11.6886 2.3008
-9.2128 11.4653 2.3008
-8.3515 9.8942 2.0262
-9.2737 10.4632 2.1887
-10.0000 10.7481 2.2991
-10.2527 10.4993 2.2991
-10.4991 10.2445 2.2991
-10.7392 9.9839 2.2991
-10.9726 9.7175 2.2991
-11.1994 9.4456 2.2991
-11.4193 9.1684 2.2991
-11.6323 8.8859 2.2991
-11.8383 8.5985 2.2991
-12.0370 8.3062 2.2991
-6.3433 4.1547 1.1926
-12.4125 7.7079 2.2991
-12.5891 7.4023 2.2991
-12.7580 7.0926 2.2991
-12.9193 6.7790 2.2991
-13.0728 6.4617 2.2991
-10.1605 4.7203 1.7672
-10.1863 4.4363 1.7534
-10.4806 4.2663 1.7867
-13.6075 5.1596 2.2991
-13.7210 4.8268 2.2991
-13.8264 4.4915 2.2991
-13.4845 4.0231 2.2266
-12.6802 3.4518 2.0805
-14.0928 3.4728 2.2991
-14.1649 3.1297 2.2991
-14.2287 2.7850 2.2991
-14.2841 2.4391 2.2991
-14.3310 2.0921 2.2991
-14.3695 1.7443 2.2991
-14.3996 1.3958 2.2991
-14.4212 1.0469 2.2991
-14.4343 0.6977 2.2991
-14.4390 0.3486 2.2991
-14.4353 -0.0004 2.2991
-14.4231 -0.3491 2.2991
-14.4026 -0.6971 2.2991
-14.3736 -1.0443 2.2991
-14.3364 -1.3906 2.2991
-14.2908 -1.7357 2.2991
-14.2369 -2.0794 2.2991
-14.1749 -2.4216 2.2991
-14.1046 -2.7619 2.2991
-14.0263 -3.1003 2.2991
-13.9398 -3.4366 2.2991
-13.8454 -3.7704 2.2991
-13.7430 -4.1018 2.2991
-13.0522 -4.2418 2.2012
-13.5147 -4.7562 2.2991
-13.3890 -5.0788 2.2991
-13.2556 -5.3982 2.2991
-13.1147 -5.7141 2.2991
-12.9664 -6.0264 2.2991
-12.8106 -6.3350 2.2991
-12.6477 -6.6395 2.2991
-12.4776 -6.9400 2.2991
-12.3004 -7.2361 2.2991
-12.1163 -7.5279 2.2991
-11.9254 -7.8150 2.2991
-11.7277 -8.0973 2.2991
-11.5235 -8.3747 2.2991
-11.3128 -8.6471 2.2991
-5.1172 -4.1111 1.0603
-4.6842 -3.9530 1.0603
-4.5855 -4.0635 1.0603
-4.4842 -4.1716 1.0603
-4.3805 -4.2773 1.0603
-4.2743 -4.3803 1.0603
-4.1657 -4.4808 1.0603
-4.0548 -4.5787 1.0603
-3.9416 -4.6739 1.0603
-3.8263 -4.7663 1.0603
-3.7088 -4.8559 1.0603
-3.5892 -4.9426 1.0603
-3.4677 -5.0265 1.0603
-3.3442 -5.1074 1.0603
-3.2269 -5.1984 1.0630
-3.2357 -5.5053 1.1097
-3.2454 -5.8405 1.1614
-3.2559 -6.2084 1.2188
-3.2676 -6.6147 1.2830
-3.2805 -7.0662 1.3550
-3.2950 -7.5715 1.4365
-5.2054 -12.7983 2.4041
-4.8935 -12.9180 2.4041
-4.5790 -13.0304 2.4041
-4.2619 -13.1352 2.4041
-3.9425 -13.2325 2.4041
-3.6210 -13.3221 2.4041
-3.2974 -13.4041 2.4041
-1.0624 -4.8181 0.8594
-0.9453 -4.8411 0.8592
-0.8278 -4.8612 0.8591
-0.7098 -4.8786 0.8589
-0.5915 -4.8932 0.8588
-0.4729 -4.9050 0.8586
-0.3541 -4.9140 0.8585
-0.2352 -4.9201 0.8583
-0.1161 -4.9235 0.8582
0.0029 -4.9240 0.8581
0.1220 -4.9218 0.8579
0.2409 -4.9167 0.8578
0.3597 -4.9088 0.8576
0.4782 -4.8981 0.8575
0.5964 -4.8847 0.8574
1.9173 -13.0677 2.3010
2.1190 -12.3544 2.1836
2.5473 -12.9621 2.3010
2.8602 -12.8981 2.3010
3.1716 -12.8267 2.3010
3.4813 -12.7479 2.3010
3.7890 -12.6618 2.3010
4.0947 -12.5685 2.3010
4.3981 -12.4679 2.3010
4.6991 -12.3601 2.3010
4.9975 -12.2452 2.3010
5.2931 -12.1232 2.3010
5.5859 -11.9942 2.3010
5.9983 -12.1061 2.3491
6.2907 -11.9604 2.3491
5.5826 -10.0184 1.9931
5.9125 -10.0320 2.0231
6.2527 -10.0459 2.0553
5.5694 -8.4837 1.7622
5.7394 -8.2981 1.7515
6.0502 -8.3107 1.7840
6.3733 -8.3238 1.8188
6.7093 -8.3371 1.8560
5.8108 -6.8736 1.5605
6.0034 -6.7629 1.5674
6.3418 -6.8053 1.6117
6.6681 -6.8173 1.6517
7.0115 -6.8300 1.6947
7.3737 -6.8433 1.7411
7.7569 -6.8575 1.7912
8.1632 -6.8723 1.8454
8.2030 -6.5737 1.8172
6.9410 -5.2920 1.5083
6.8761 -4.9844 1.4670
6.9219 -4.7666 1.4511
6.9309 -4.5299 1.4290
6.8255 -4.2291 1.3852
6.9463 -4.0750 1.3887
7.0413 -3.9050 1.3878
7.0994 -3.7158 1.3805
7.4002 -3.6482 1.4208
7.5942 -3.5182 1.4406
7.7940 -3.3845 1.4619
7.9939 -3.2440 1.4835
8.2716 -3.1260 1.5198
8.2801 -2.9026 1.5074
8.2886 -2.6824 1.4959
8.2969 -2.4652 1.4855
8.3051 -2.2507 1.4761
8.3132 -2.0386 1.4676
8.3212 -1.8286 1.4601
8.3292 -1.6204 1.4534
8.3371 -1.4137 1.4477
8.3450 -1.2084 1.4428
8.3528 -1.0041 1.4388
8.3606 -0.8006 1.4357
8.3684 -0.5977 1.4334
8.3761 -0.3951 1.4319
8.3839 -0.1926 1.4313
8.3916 0.0100 1.4315
8.3994 0.2131 1.4326
8.4072 0.4167 1.4344
8.4150 0.6212 1.4372
8.4229 0.8269 1.4408
8.4308 1.0339 1.4452
8.4388 1.2425 1.4506
8.4469 1.4530 1.4568
8.4550 1.6657 1.4640
8.4633 1.8808 1.4721
8.4716 2.0986 1.4812
8.4801 2.3196 1.4913
8.4887 2.5439 1.5025
8.4974 2.7719 1.5147
8.5063 3.0040 1.5280
8.5153 3.2407 1.5425
8.5246 3.4822 1.5582
8.5340 3.7291 1.5752
8.4874 3.9556 1.5830
8.5273 4.2279 1.6083
8.5375 4.4931 1.6295
8.5479 4.7657 1.6522
8.5587 5.0465 1.6766
8.5962 5.3526 1.7081
8.6077 5.6528 1.7362
8.6196 5.9635 1.7664
8.8893 6.4731 1.8524
8.9025 6.8178 1.8882
8.9163 7.1765 1.9265
8.9306 7.5507 1.9677
8.9456 7.9417 2.0119
8.9613 8.3513 2.0594
8.9777 8.7812 2.1105
8.9951 9.2337 2.1656
9.0133 9.7111 2.2250
9.0327 10.2161 2.2893
9.0158 10.7073 2.3491
8.7574 10.9255 2.3491
8.4937 11.1374 2.3491
8.2248 11.3428 2.3491
7.9508 11.5416 2.3491
7.6719 11.7336 2.3491
7.3883 11.9188 2.3491
7.1002 12.0970 2.3491
6.8078 12.2681 2.3491
6.3778 12.1775 2.3010
6.0833 12.3309 2.3010
5.7850 12.4769 2.3010
5.4831 12.6157 2.3010
5.1779 12.7470 2.3010
4.8694 12.8707 2.3010
4.5580 12.9868 2.3010
4.2437 13.0953 2.3010
3.9268 13.1959 2.3010
3.6075 13.2888 2.3010
3.2860 13.3737 2.3010
2.9624 13.4507 2.3010
2.6369 13.5197 2.3010
2.4134 14.1891 2.4041
2.0702 14.2444 2.4041
1.7257 14.2911 2.4041
1.3801 14.3294 2.4041
1.0337 14.3591 2.4041
0.6867 14.3803 2.4041
0.3392 14.3929 2.4041
-0.0085 14.3969 2.4041
-0.3561 14.3924 2.4041
-0.7036 14.3792 2.4041
-1.0506 14.3575 2.4041
-1.3970 14.3273 2.4041
-1.7424 14.2885 2.4041
-2.0868 14.2412 2.4041
-2.4299 14.1854 2.4041
-2.7715 14.1212 2.4041
-3.1114 14.0485 2.4041
-3.4493 13.9676 2.4041
-3.7851 13.8783 2.4041
-4.1185 13.7808 2.4041
-4.4494 13.6751 2.4041
-4.7776 13.5614 2.4041
-5.1027 13.4395 2.4041
-5.4247 13.3098 2.4041
-5.5176 12.6542 2.3095
-5.7983 12.4673 2.3008
-6.0963 12.3208 2.3008
-6.3905 12.1670 2.3008
-6.6808 12.0060 2.3008
-6.9670 11.8381 2.3008
-7.2489 11.6631 2.3008
-7.5263 11.4814 2.3008
-7.7991 11.2929 2.3008
-8.0671 11.0979 2.3008
-8.3301 10.8963 2.3008
-8.5881 10.6885 2.3008
-8.3513 9.8945 2.1734
-9.0880 10.2543 2.3008
-9.3298 10.0282 2.3008
-9.5585 9.7890 2.2991
-9.7885 9.5517 2.2991
-10.0125 9.3089 2.2991
-10.2305 9.0608 2.2991
-10.4422 8.8076 2.2991
-10.6476 8.5493 2.2991
-10.8465 8.2862 2.2991
-11.0388 8.0184 2.2991
-11.2245 7.7461 2.2991
-6.3429 4.1547 1.2788
-11.5754 7.1886 2.2991
-11.7404 6.9038 2.2991
-11.8983 6.6152 2.2991
-12.0491 6.3230 2.2991
-12.1927 6.0272 2.2991
-10.1607 4.7208 1.8947
-10.1861 4.4367 1.8798
-10.4794 4.2663 1.9153
-12.6931 4.8134 2.2991
-12.7994 4.5032 2.2991
-12.8981 4.1906 2.2991
