ply
format ascii 1.0
element vertex 2169
property float32 x
property float32 y
property float32 z
end_header
5.1457 9.8121 2.2997
4.9062 9.9321 2.2997
4.6640 10.0464 2.2997
4.4191 10.1548 2.2997
4.1718 10.2573 2.2997
3.9221 10.3539 2.2997
3.6702 10.4445 2.2997
3.4162 10.5290 2.2997
3.1604 10.6075 2.2997
2.9027 10.6798 2.2997
2.6642 10.8303 2.3177
2.4895 11.2902 2.4028
2.2156 11.3463 2.4028
1.9406 11.3959 2.4028
1.6644 11.4388 2.4028
1.3873 11.4752 2.4028
1.1094 11.5050 2.4028
0.8309 11.5281 2.4028
0.5519 11.5445 2.4028
0.2726 11.5543 2.4028
-0.0068 11.5575 2.4028
-0.2862 11.5540 2.4028
-0.5655 11.5438 2.4028
-0.8445 11.5269 2.4028
-1.1230 11.5035 2.4028
-1.4008 11.4733 2.4028
-1.6778 11.4366 2.4028
-1.9540 11.3933 2.4028
-2.2290 11.3433 2.4028
-2.5027 11.2869 2.4028
-2.7751 11.2239 2.4028
-3.0459 11.1544 2.4028
-3.3150 11.0785 2.4028
-3.5822 10.9962 2.4028
-3.8474 10.9075 2.4028
-4.1104 10.8125 2.4028
-4.3712 10.7113 2.4028
-4.6294 10.6038 2.4028
-4.8851 10.4902 2.4028
-5.1380 10.3705 2.4028
-5.3880 10.2448 2.4028
-5.6059 10.0608 2.3903
-5.6366 9.5645 2.3038
-5.8564 9.4097 2.2995
-6.0832 9.2670 2.2995
-6.3066 9.1189 2.2995
-6.5265 8.9655 2.2995
-6.7427 8.8069 2.2995
-6.9550 8.6431 2.2995
-7.1634 8.4742 2.2995
-7.3678 8.3003 2.2995
-7.5680 8.1216 2.2995
-7.7638 7.9381 2.2995
-7.9553 7.7499 2.2995
-8.1423 7.5572 2.2995
-8.3247 7.3599 2.2995
-8.5023 7.1584 2.2995
-8.6750 6.9525 2.2995
-8.8429 6.7426 2.2995
-9.0057 6.5286 2.2995
-9.1634 6.3107 2.2995
-9.3158 6.0891 2.2995
-9.4629 5.8638 2.2995
-9.6046 5.6349 2.2995
-9.7334 5.3986 2.2978
-9.8639 5.1633 2.2978
-9.9888 4.9248 2.2978
-10.1080 4.6834 2.2978
-10.2213 4.4390 2.2978
-8.6035 3.4918 1.9139
-8.3215 3.1453 1.8332
-8.4783 2.9724 1.8508
-10.6154 3.4359 2.2978
-10.6987 3.1794 2.2978
-10.7759 2.9208 2.2978
-10.8469 2.6604 2.2978
-10.9116 2.3983 2.2978
-10.9699 2.1346 2.2978
-11.0220 1.8695 2.2978
-11.0676 1.6031 2.2978
-11.1068 1.3356 2.2978
-11.1395 1.0672 2.2978
-11.1658 0.7980 2.2978
-11.1856 0.5281 2.2978
-11.1988 0.2577 2.2978
-11.2056 -0.0130 2.2978
-11.2058 -0.2838 2.2978
-11.1994 -0.5547 2.2978
-11.1865 -0.8254 2.2978
-11.1670 -1.0958 2.2978
-11.1410 -1.3658 2.2978
-11.1085 -1.6351 2.2978
-11.0694 -1.9037 2.2978
-11.0239 -2.1713 2.2978
-10.9718 -2.4378 2.2978
-10.9133 -2.7031 2.2978
-10.8484 -2.9669 2.2978
-10.7770 -3.2292 2.2978
-10.6993 -3.4898 2.2978
-10.6153 -3.7484 2.2978
-9.5495 -3.6339 2.0848
-10.4284 -4.2595 2.2978
-5.0652 -2.2131 1.1272
-4.7680 -2.2219 1.0723
-4.6558 -2.3082 1.0590
-4.6001 -2.4207 1.0590
-4.5416 -2.5319 1.0590
-4.4804 -2.6416 1.0590
-4.4166 -2.7499 1.0590
-4.3502 -2.8566 1.0590
-4.2811 -2.9617 1.0590
-4.2095 -3.0651 1.0590
-4.1353 -3.1668 1.0590
-4.0587 -3.2666 1.0590
-3.7653 -3.1835 1.0590
-3.6882 -3.2743 1.0590
-3.6089 -3.3632 1.0590
-3.5274 -3.4502 1.0590
-3.4439 -3.5352 1.0590
-3.3582 -3.6182 1.0590
-3.2706 -3.6991 1.0590
-3.1834 -3.7807 1.0598
-3.1893 -3.9790 1.0932
-3.1956 -4.1903 1.1295
-3.2023 -4.4163 1.1691
-3.2095 -4.6590 1.2122
-3.2172 -4.9206 1.2594
-3.2256 -5.2036 1.3113
-3.2348 -5.5113 1.3685
-3.2447 -5.8473 1.4318
-3.2557 -6.2163 1.5023
-4.9663 -10.0669 2.4028
-4.7224 -10.1853 2.4028
-4.4756 -10.2978 2.4028
-4.2262 -10.4042 2.4028
-3.9742 -10.5045 2.4028
-3.7197 -10.5986 2.4028
-3.4631 -10.6865 2.4028
-3.2043 -10.7681 2.4028
-1.0518 -3.8745 0.8586
-0.9579 -3.8985 0.8584
-0.8634 -3.9203 0.8583
-0.7684 -3.9397 0.8582
-0.6730 -3.9568 0.8581
-0.5772 -3.9715 0.8579
-0.4810 -3.9839 0.8578
-0.3846 -3.9939 0.8577
-0.2880 -4.0016 0.8576
-0.1913 -4.0070 0.8575
-0.0945 -4.0099 0.8573
0.0024 -4.0105 0.8572
0.0992 -4.0087 0.8571
0.1960 -4.0046 0.8570
0.2926 -3.9981 0.8569
0.3890 -3.9893 0.8568
0.4851 -3.9781 0.8567
0.5810 -3.9645 0.8566
0.6764 -3.9487 0.8565
2.0717 -10.5550 2.2997
2.3259 -10.5013 2.2997
2.5786 -10.4413 2.2997
2.8298 -10.3751 2.2997
3.0792 -10.3029 2.2997
3.3268 -10.2245 2.2997
3.5724 -10.1402 2.2997
3.8159 -10.0499 2.2997
4.0570 -9.9536 2.2997
4.2956 -9.8515 2.2997
4.5317 -9.7436 2.2997
4.7651 -9.6300 2.2997
4.9955 -9.5107 2.2997
5.2230 -9.3859 2.2997
5.4473 -9.2555 2.2997
5.6683 -9.1198 2.2997
5.5874 -8.5234 2.1831
5.7399 -8.3111 2.1640
6.0513 -8.3245 2.2053
6.1753 -8.0775 2.1792
5.6348 -7.0127 1.9284
5.7365 -6.7964 1.9069
6.0330 -6.8071 1.9506
6.3438 -6.8186 1.9977
6.6700 -6.8307 2.0483
7.0132 -6.8434 2.1028
7.3753 -6.8568 2.1616
7.7581 -6.8710 2.2250
8.1642 -6.8860 2.2936
8.2034 -6.5866 2.2598
6.9389 -5.3009 1.8761
6.8800 -4.9974 1.8275
6.9220 -4.7768 1.8079
6.9310 -4.5399 1.7816
6.8262 -4.2391 1.7283
6.9479 -4.0855 1.7341
7.0429 -3.9156 1.7341
7.1020 -3.7268 1.7265
7.4032 -3.6595 1.7782
7.5972 -3.5297 1.8043
7.7969 -3.3959 1.8323
7.9997 -3.2567 1.8615
8.2717 -3.1366 1.9071
8.2802 -2.9131 1.8929
8.2886 -2.6929 1.8799
8.2970 -2.4756 1.8683
8.3052 -2.2611 1.8579
8.3133 -2.0489 1.8486
8.3213 -1.8388 1.8406
8.3293 -1.6306 1.8337
8.3372 -1.4239 1.8279
8.3451 -1.2185 1.8232
8.3529 -1.0142 1.8196
8.3607 -0.8107 1.8171
8.3685 -0.6078 1.8156
8.3762 -0.4051 1.8152
8.3840 -0.2026 1.8159
8.3918 -0.0000 1.8176
8.3995 0.2030 1.8204
8.4073 0.4067 1.8243
8.4152 0.6112 1.8292
8.4230 0.8168 1.8353
8.4309 1.0237 1.8425
8.4389 1.2323 1.8508
8.4470 1.4428 1.8602
8.4551 1.6554 1.8709
8.4634 1.8704 1.8827
8.4717 2.0882 1.8959
8.4802 2.3091 1.9103
8.4887 2.5333 1.9260
8.4975 2.7613 1.9432
8.5064 2.9933 1.9618
8.5154 3.2298 1.9819
8.5247 3.4712 2.0036
8.5341 3.7180 2.0269
8.4861 3.9438 2.0382
8.5274 4.2165 2.0726
8.5375 4.4816 2.1014
8.5480 4.7540 2.1322
8.5587 5.0346 2.1652
8.5962 5.3405 2.2073
8.6077 5.6405 2.2452
8.6196 5.9510 2.2858
8.7007 6.3229 2.3478
8.5431 6.5297 2.3478
8.3807 6.7326 2.3478
8.2134 6.9315 2.3478
8.0415 7.1263 2.3478
7.8651 7.3168 2.3478
7.6841 7.5031 2.3478
7.4988 7.6849 2.3478
7.3092 7.8622 2.3478
7.1155 8.0349 2.3478
6.9177 8.2028 2.3478
6.7160 8.3660 2.3478
6.3772 8.3496 2.2997
6.1723 8.4997 2.2997
5.9639 8.6448 2.2997
5.7521 8.7849 2.2997
5.5371 8.9199 2.2997
5.3190 9.0497 2.2997
5.0978 9.1741 2.2997
4.8738 9.2933 2.2997
4.6470 9.4070 2.2997
4.4176 9.5153 2.2997
4.1857 9.6181 2.2997
3.9514 9.7152 2.2997
3.7150 9.8068 2.2997
3.4764 9.8926 2.2997
3.2359 9.9728 2.2997
2.9935 10.0471 2.2997
2.7495 10.1157 2.2997
2.5039 10.1784 2.2997
2.3581 10.6940 2.4028
2.0987 10.7471 2.4028
1.8382 10.7941 2.4028
1.5766 10.8349 2.4028
1.3141 10.8693 2.4028
1.0508 10.8975 2.4028
0.7870 10.9194 2.4028
0.5228 10.9350 2.4028
0.2582 10.9443 2.4028
-0.0065 10.9473 2.4028
-0.2711 10.9440 2.4028
-0.5357 10.9343 2.4028
-0.7999 10.9184 2.4028
-1.0637 10.8961 2.4028
-1.3269 10.8676 2.4028
-1.5893 10.8327 2.4028
-1.8508 10.7917 2.4028
-2.1113 10.7443 2.4028
-2.3706 10.6908 2.4028
-2.6286 10.6311 2.4028
-2.8851 10.5653 2.4028
-3.1400 10.4933 2.4028
-3.3931 10.4153 2.4028
-3.6442 10.3313 2.4028
-3.8934 10.2412 2.4028
-4.1403 10.1453 2.4028
-4.3849 10.0434 2.4028
-4.6271 9.9357 2.4028
-4.8666 9.8223 2.4028
-5.1034 9.7031 2.4028
-5.3373 9.5784 2.4028
-5.5681 9.4480 2.4028
-5.6460 9.0714 2.3407
-5.7616 8.7768 2.2995
-5.9732 8.6364 2.2995
-6.1813 8.4910 2.2995
-6.3860 8.3407 2.2995
-6.5870 8.1855 2.2995
-6.7844 8.0254 2.2995
-6.9778 7.8607 2.2995
-7.1673 7.6913 2.2995
-7.3528 7.5175 2.2995
-7.5340 7.3392 2.2995
-7.7110 7.1565 2.2995
-7.8836 6.9697 2.2995
-8.0517 6.7787 2.2995
-8.2152 6.5837 2.2995
-8.3740 6.3847 2.2995
-8.5281 6.1820 2.2995
-8.6773 5.9756 2.2995
-6.2656 4.0951 1.6333
-6.4140 3.9743 1.6460
-9.0947 5.3354 2.2995
-9.2236 5.1155 2.2995
-9.3471 4.8924 2.2995
-9.4653 4.6664 2.2995
-9.5781 4.4375 2.2995
-9.6853 4.2059 2.2995
-9.3708 3.8028 2.2017
-8.3217 3.1451 1.9362
-8.4808 2.9730 1.9554
-10.0504 3.2527 2.2978
-10.1292 3.0098 2.2978
-10.2021 2.7650 2.2978
-10.2691 2.5184 2.2978
-10.3302 2.2702 2.2978
-10.3853 2.0205 2.2978
-10.4343 1.7695 2.2978
-10.4773 1.5173 2.2978
-10.5143 1.2640 2.2978
-10.5451 1.0099 2.2978
-10.5698 0.7550 2.2978
-10.5883 0.4996 2.2978
-10.6007 0.2436 2.2978
-10.6069 -0.0126 2.2978
-10.6069 -0.2690 2.2978
-10.6007 -0.5254 2.2978
-10.5883 -0.7816 2.2978
-10.5697 -1.0376 2.2978
-10.5449 -1.2930 2.2978
-10.5139 -1.5479 2.2978
-10.4768 -1.8021 2.2978
-10.4334 -2.0554 2.2978
-10.3840 -2.3076 2.2978
-10.3285 -2.5586 2.2978
-10.2668 -2.8082 2.2978
-10.1991 -3.0564 2.2978
-10.1254 -3.3029 2.2978
-10.0457 -3.5477 2.2978
-9.5493 -3.6341 2.2030
-9.8761 -4.0342 2.2995
-5.0648 -2.2131 1.1910
-4.7676 -2.2220 1.1331
-4.4977 -2.2300 1.0811
-4.3528 -2.2908 1.0590
-4.2974 -2.3959 1.0590
-4.2395 -2.4997 1.0590
-4.1790 -2.6021 1.0590
-4.1161 -2.7031 1.0590
-4.0507 -2.8025 1.0590
-3.9829 -2.9003 1.0590
-3.9127 -2.9964 1.0590
-3.8401 -3.0908 1.0590
-3.5719 -3.0201 1.0590
-3.4988 -3.1063 1.0590
-3.4235 -3.1906 1.0590
-3.3462 -3.2731 1.0590
-3.2669 -3.3537 1.0590
-3.1856 -3.4323 1.0590
-3.1779 -3.5944 1.0848
-3.1834 -3.7809 1.1173
-3.1893 -3.9791 1.1525
-3.1956 -4.1904 1.1908
-3.2023 -4.4165 1.2325
-3.2095 -4.6592 1.2780
-3.2172 -4.9207 1.3278
-3.2256 -5.2038 1.3825
-3.2348 -5.5115 1.4428
-3.2447 -5.8475 1.5096
-3.2557 -6.2165 1.5838
-4.7105 -9.5487 2.4028
-4.4791 -9.6610 2.4028
-4.2451 -9.7676 2.4028
-4.0084 -9.8685 2.4028
-3.7694 -9.9635 2.4028
-3.5280 -10.0528 2.4028
-3.2846 -10.1361 2.4028
-1.0861 -3.6501 0.8587
-0.9976 -3.6751 0.8586
-0.9085 -3.6979 0.8585
-0.8189 -3.7185 0.8584
-0.7288 -3.7369 0.8582
-0.6383 -3.7531 0.8581
-0.5474 -3.7671 0.8580
-0.4563 -3.7789 0.8579
-0.3648 -3.7885 0.8578
-0.2732 -3.7958 0.8577
-0.1815 -3.8008 0.8576
-0.0896 -3.8037 0.8574
0.0023 -3.8043 0.8573
0.0941 -3.8026 0.8572
0.1859 -3.7987 0.8571
0.2775 -3.7926 0.8570
0.3690 -3.7842 0.8569
0.4602 -3.7736 0.8568
0.5511 -3.7608 0.8567
0.6417 -3.7458 0.8566
1.9649 -10.0111 2.2997
2.2059 -9.9602 2.2997
2.4457 -9.9033 2.2997
2.6839 -9.8406 2.2997
2.9205 -9.7721 2.2997
3.1554 -9.6979 2.2997
3.3883 -9.6179 2.2997
3.6192 -9.5323 2.2997
3.8479 -9.4411 2.2997
4.0743 -9.3443 2.2997
4.2983 -9.2420 2.2997
4.5196 -9.1343 2.2997
4.7382 -9.0212 2.2997
4.9540 -8.9029 2.2997
5.1668 -8.7793 2.2997
5.3765 -8.6506 2.2997
5.5829 -8.5168 2.2997
5.7397 -8.3111 2.2813
5.9987 -8.2525 2.3047
6.1432 -8.0358 2.2854
6.1882 -7.7018 2.2327
5.7364 -6.7965 2.0103
6.0327 -6.8070 2.0563
6.3435 -6.8185 2.1059
6.6696 -6.8306 2.1592
7.0128 -6.8433 2.2166
7.3748 -6.8567 2.2785
7.7577 -6.8709 2.3453
7.9278 -6.6869 2.3478
8.0851 -6.4920 2.3478
6.9391 -5.3013 1.9777
6.8797 -4.9974 1.9263
6.9038 -4.7645 1.9007
6.9310 -4.5401 1.8779
6.8261 -4.2394 1.8217
6.9478 -4.0857 1.8278
7.0427 -3.9158 1.8278
7.1019 -3.7269 1.8197
7.4030 -3.6597 1.8742
7.5931 -3.5280 1.9007
7.7487 -3.3752 1.9192
7.9992 -3.2567 1.9618
8.2716 -3.1369 2.0100
8.2802 -2.9134 1.9949
8.2886 -2.6931 1.9813
8.2970 -2.4759 1.9690
8.3052 -2.2613 1.9579
8.3133 -2.0492 1.9482
8.3213 -1.8391 1.9397
8.3293 -1.6308 1.9324
8.3372 -1.4241 1.9262
8.3451 -1.2188 1.9213
8.3529 -1.0145 1.9174
8.3607 -0.8109 1.9147
8.3685 -0.6080 1.9132
8.3762 -0.4054 1.9127
8.3840 -0.2029 1.9134
8.3917 -0.0003 1.9152
8.3995 0.2028 1.9181
8.4073 0.4064 1.9222
8.4151 0.6109 1.9274
8.4230 0.8165 1.9337
8.4309 1.0235 1.9412
8.4389 1.2320 1.9499
8.4470 1.4425 1.9599
8.4551 1.6551 1.9711
8.4634 1.8702 1.9835
8.4717 2.0880 1.9973
8.4802 2.3088 2.0125
8.4887 2.5330 2.0291
8.4975 2.7610 2.0471
8.5064 2.9930 2.0667
8.5154 3.2295 2.0878
8.5246 3.4709 2.1107
8.5341 3.7177 2.1352
8.4863 3.9436 2.1471
8.5274 4.2162 2.1832
8.5375 4.4812 2.2135
8.5480 4.7537 2.2460
8.5587 5.0343 2.2807
8.5962 5.3402 2.3250
8.5452 5.5992 2.3478
8.4052 5.8026 2.3478
8.2604 6.0026 2.3478
8.1109 6.1990 2.3478
7.9568 6.3917 2.3478
7.7981 6.5807 2.3478
7.6350 6.7657 2.3478
7.4675 6.9467 2.3478
7.2958 7.1236 2.3478
7.1199 7.2963 2.3478
6.9400 7.4648 2.3478
6.7561 7.6288 2.3478
6.5684 7.7883 2.3478
6.2464 7.7806 2.2997
6.0553 7.9278 2.2997
5.8608 8.0704 2.2997
5.6630 8.2083 2.2997
5.4619 8.3414 2.2997
5.2578 8.4696 2.2997
5.0507 8.5929 2.2997
4.8408 8.7112 2.2997
4.6281 8.8244 2.2997
4.4127 8.9325 2.2997
4.1949 9.0354 2.2997
3.9747 9.1330 2.2997
3.7523 9.2253 2.2997
3.5278 9.3123 2.2997
3.3013 9.3939 2.2997
3.0729 9.4700 2.2997
2.8427 9.5407 2.2997
2.6209 9.6424 2.3084
2.4406 9.9206 2.3604
2.2393 10.1551 2.4028
1.9930 10.2056 2.4028
1.7456 10.2502 2.4028
1.4972 10.2889 2.4028
1.2479 10.3217 2.4028
0.9979 10.3485 2.4028
0.7474 10.3693 2.4028
0.4965 10.3841 2.4028
0.2452 10.3930 2.4028
-0.0061 10.3958 2.4028
-0.2575 10.3926 2.4028
-0.5087 10.3835 2.4028
-0.7596 10.3683 2.4028
-1.0101 10.3471 2.4028
-1.2601 10.3200 2.4028
-1.5093 10.2869 2.4028
-1.7576 10.2479 2.4028
-2.0050 10.2029 2.4028
-2.2512 10.1521 2.4028
-2.4962 10.0954 2.4028
-2.7398 10.0328 2.4028
-2.9818 9.9644 2.4028
-3.2221 9.8903 2.4028
-3.4606 9.8104 2.4028
-3.6972 9.7249 2.4028
-3.9317 9.6337 2.4028
-4.1639 9.5369 2.4028
-4.3938 9.4346 2.4028
-4.6212 9.3268 2.4028
-4.8461 9.2136 2.4028
-5.0681 9.0951 2.4028
-5.2873 8.9712 2.4028
-5.5035 8.8421 2.4028
-5.6609 8.6231 2.3794
-5.6874 8.2230 2.3059
-5.8694 8.0622 2.2995
-6.0637 7.9194 2.2995
-6.2545 7.7719 2.2995
-6.4418 7.6199 2.2995
-6.6255 7.4634 2.2995
-6.8053 7.3025 2.2995
-6.9813 7.1374 2.2995
-7.1533 6.9680 2.2995
-7.3213 6.7945 2.2995
-7.4851 6.6170 2.2995
-7.6446 6.4356 2.2995
-7.7997 6.2504 2.2995
-7.9504 6.0615 2.2995
-8.0966 5.8689 2.2995
-8.2381 5.6729 2.2995
-6.2620 4.0926 1.7194
-6.4081 3.9704 1.7322
-8.6341 5.0649 2.2995
-8.7563 4.8560 2.2995
-8.8735 4.6442 2.2995
-8.9856 4.4296 2.2995
-9.0925 4.2122 2.2995
-9.1942 3.9923 2.2995
-9.2906 3.7700 2.2995
-8.5625 3.2358 2.0987
-8.7238 3.0579 2.1189
-9.5475 3.0896 2.2995
-9.6222 2.8588 2.2995
-9.6913 2.6262 2.2995
-9.7548 2.3919 2.2995
-9.8052 2.1545 2.2978
-9.8573 1.9175 2.2978
-9.9038 1.6792 2.2978
-9.9444 1.4398 2.2978
-9.9794 1.1994 2.2978
-10.0085 0.9582 2.2978
-10.0317 0.7163 2.2978
-10.0492 0.4738 2.2978
-10.0608 0.2309 2.2978
-10.0665 -0.0123 2.2978
-10.0663 -0.2556 2.2978
-10.0603 -0.4989 2.2978
-10.0483 -0.7421 2.2978
-10.0305 -0.9850 2.2978
-10.0068 -1.2274 2.2978
-9.9773 -1.4693 2.2978
-9.9419 -1.7104 2.2978
-9.9082 -1.9522 2.2995
-9.8611 -2.1917 2.2995
-9.8082 -2.4300 2.2995
-9.7495 -2.6670 2.2995
-9.6851 -2.9027 2.2995
-9.6149 -3.1367 2.2995
-9.5391 -3.3691 2.2995
-9.4577 -3.5996 2.2995
-9.3706 -3.8281 2.2995
-5.0644 -2.2132 1.2552
-4.7673 -2.2220 1.1942
-4.4974 -2.2300 1.1394
-4.2509 -2.2373 1.0901
-4.0772 -2.2733 1.0590
-4.0222 -2.3717 1.0590
-3.9647 -2.4689 1.0590
-3.9050 -2.5646 1.0590
-3.8429 -2.6588 1.0590
-3.7785 -2.7516 1.0590
-3.7118 -2.8427 1.0590
-3.6430 -2.9323 1.0590
-3.3966 -2.8721 1.0590
-3.3270 -2.9539 1.0590
-3.2554 -3.0341 1.0590
-3.1818 -3.1125 1.0590
-3.1678 -3.2521 1.0799
-3.1727 -3.4186 1.1092
-3.1779 -3.5946 1.1408
-3.1835 -3.7811 1.1750
-3.1893 -3.9793 1.2121
-3.1956 -4.1906 1.2524
-3.2023 -4.4167 1.2962
-3.2095 -4.6594 1.3441
-3.2172 -4.9209 1.3964
-3.2256 -5.2040 1.4540
-3.2348 -5.5117 1.5175
-3.2447 -5.8477 1.5877
-3.2557 -6.2168 1.6658
-4.4787 -9.0791 2.4028
-4.2586 -9.1858 2.4028
-4.0361 -9.2871 2.4028
-3.8111 -9.3829 2.4028
-3.5838 -9.4733 2.4028
-3.3543 -9.5580 2.4028
-3.1228 -9.6372 2.4028
-1.0327 -3.4705 0.8587
-0.9485 -3.4943 0.8586
-0.8638 -3.5160 0.8585
-0.7786 -3.5356 0.8584
-0.6929 -3.5531 0.8583
-0.6069 -3.5686 0.8582
-0.5205 -3.5819 0.8581
-0.4338 -3.5931 0.8580
-0.3469 -3.6022 0.8579
-0.2598 -3.6092 0.8577
-0.1725 -3.6140 0.8576
-0.0852 -3.6167 0.8575
0.0022 -3.6173 0.8574
0.0895 -3.6158 0.8573
0.1768 -3.6121 0.8572
0.2639 -3.6063 0.8571
0.3509 -3.5983 0.8570
0.4376 -3.5883 0.8569
0.5240 -3.5762 0.8568
0.6101 -3.5619 0.8567
1.8823 -9.5906 2.3172
2.0973 -9.4697 2.2997
2.3252 -9.4157 2.2997
2.5517 -9.3562 2.2997
2.7767 -9.2911 2.2997
3.0000 -9.2205 2.2997
3.2214 -9.1445 2.2997
3.4410 -9.0632 2.2997
3.6585 -8.9765 2.2997
3.8737 -8.8845 2.2997
4.0867 -8.7873 2.2997
4.2972 -8.6850 2.2997
4.5050 -8.5775 2.2997
4.7102 -8.4651 2.2997
4.9126 -8.3476 2.2997
5.1120 -8.2253 2.2997
5.3083 -8.0982 2.2997
5.5014 -7.9663 2.2997
5.6912 -7.8298 2.2997
6.0006 -7.8495 2.3478
6.0245 -7.4983 2.2860
5.7363 -6.7967 2.1141
6.0324 -6.8069 2.1624
6.3431 -6.8184 2.2145
6.6692 -6.8305 2.2706
7.0124 -6.8432 2.3309
7.2260 -6.7186 2.3478
7.3845 -6.5407 2.3478
7.5387 -6.3590 2.3478
7.2343 -5.8091 2.2091
6.9393 -5.3017 2.0798
6.8793 -4.9974 2.0255
6.9219 -4.7773 2.0040
6.9310 -4.5404 1.9747
6.8261 -4.2396 1.9156
6.9477 -4.0859 1.9219
7.0426 -3.9160 1.9219
7.1017 -3.7271 1.9134
7.4028 -3.6598 1.9706
7.5967 -3.5300 1.9995
7.7964 -3.3963 2.0304
7.9987 -3.2568 2.0625
8.2716 -3.1372 2.1133
8.2802 -2.9136 2.0975
8.2886 -2.6934 2.0831
8.2969 -2.4762 2.0701
8.3052 -2.2616 2.0585
8.3133 -2.0494 2.0483
8.3213 -1.8394 2.0393
8.3293 -1.6311 2.0315
8.3372 -1.4244 2.0251
8.3451 -1.2190 2.0198
8.3529 -1.0147 2.0158
8.3607 -0.8112 2.0129
8.3685 -0.6083 2.0112
8.3762 -0.4057 2.0108
8.3840 -0.2032 2.0114
8.3917 -0.0005 2.0133
8.3995 0.2025 2.0163
8.4073 0.4061 2.0206
8.4151 0.6106 2.0260
8.4230 0.8162 2.0326
8.4309 1.0232 2.0405
8.4389 1.2318 2.0496
8.4470 1.4422 2.0601
8.4551 1.6548 2.0718
8.4633 1.8699 2.0849
8.4717 2.0877 2.0993
8.4801 2.3085 2.1152
8.4887 2.5327 2.1326
8.4975 2.7607 2.1516
8.5063 2.9927 2.1721
8.5154 3.2292 2.1943
8.5246 3.4707 2.2183
8.5341 3.7174 2.2441
8.4865 3.9434 2.2565
8.5274 4.2159 2.2945
8.5375 4.4809 2.3263
8.5025 4.7281 2.3478
8.3836 4.9310 2.3478
8.2599 5.1309 2.3478
8.1314 5.3278 2.3478
7.9983 5.5214 2.3478
7.8607 5.7118 2.3478
7.7185 5.8988 2.3478
7.5719 6.0822 2.3478
7.4210 6.2621 2.3478
7.2658 6.4382 2.3478
7.1065 6.6106 2.3478
6.9432 6.7790 2.3478
6.7759 6.9434 2.3478
6.6047 7.1038 2.3478
6.2981 7.1113 2.2997
6.1231 7.2600 2.2997
5.9447 7.4046 2.2997
5.7629 7.5448 2.2997
5.5779 7.6806 2.2997
5.3897 7.8119 2.2997
5.1984 7.9386 2.2997
5.0041 8.0607 2.2997
4.8070 8.1781 2.2997
4.6072 8.2907 2.2997
4.4048 8.3985 2.2997
4.1999 8.5014 2.2997
3.9926 8.5994 2.2997
3.7831 8.6924 2.2997
3.5714 8.7803 2.2997
3.3577 8.8631 2.2997
3.1421 8.9408 2.2997
2.9248 9.0133 2.2997
2.7057 9.0806 2.2997
2.4852 9.1426 2.2997
2.3647 9.6118 2.4028
2.1314 9.6655 2.4028
1.8970 9.7136 2.4028
1.6615 9.7561 2.4028
1.4250 9.7930 2.4028
1.1878 9.8242 2.4028
0.9499 9.8497 2.4028
0.7114 9.8695 2.4028
0.4725 9.8836 2.4028
0.2334 9.8920 2.4028
-0.0058 9.8947 2.4028
-0.2451 9.8917 2.4028
-0.4842 9.8830 2.4028
-0.7230 9.8686 2.4028
-0.9615 9.8484 2.4028
-1.1994 9.8226 2.4028
-1.4366 9.7911 2.4028
-1.6730 9.7539 2.4028
-1.9084 9.7111 2.4028
-2.1428 9.6627 2.4028
-2.3759 9.6086 2.4028
-2.6078 9.5490 2.4028
-2.8381 9.4839 2.4028
-3.0668 9.4133 2.4028
-3.2938 9.3373 2.4028
-3.5190 9.2558 2.4028
-3.7421 9.1690 2.4028
-3.9632 9.0768 2.4028
-4.1820 8.9794 2.4028
-4.3984 8.8768 2.4028
-4.6123 8.7690 2.4028
-4.8237 8.6561 2.4028
-5.0323 8.5381 2.4028
-5.2380 8.4152 2.4028
-5.4408 8.2874 2.4028
-5.6404 8.1547 2.4028
-5.6932 7.8199 2.3436
-5.7709 7.5368 2.2995
-5.9525 7.3964 2.2995
-6.1307 7.2516 2.2995
-6.3054 7.1026 2.2995
-6.4766 6.9495 2.2995
-6.6440 6.7922 2.2995
-6.8076 6.6310 2.2995
-6.9674 6.4658 2.2995
-7.1232 6.2968 2.2995
-7.2749 6.1241 2.2995
-7.4225 5.9478 2.2995
-7.5658 5.7679 2.2995
-7.7048 5.5846 2.2995
-7.8394 5.3980 2.2995
-6.2585 4.0900 1.8058
-6.4022 3.9665 1.8186
-8.2160 4.8193 2.2995
-8.3321 4.6205 2.2995
-8.4435 4.4189 2.2995
-8.5501 4.2146 2.2995
-8.6517 4.0077 2.2995
-8.7484 3.7984 2.2995
-8.8400 3.5868 2.2995
-8.5627 3.2356 2.2058
-8.7240 3.0577 2.2271
-9.0841 2.9393 2.2995
-9.1550 2.7197 2.2995
-9.2206 2.4984 2.2995
-9.2809 2.2754 2.2995
-9.3358 2.0510 2.2995
-9.3853 1.8253 2.2995
-9.4294 1.5985 2.2995
-9.4680 1.3705 2.2995
-9.5011 1.1416 2.2995
-9.5287 0.9119 2.2995
-9.5507 0.6816 2.2995
-9.5672 0.4508 2.2995
-9.5781 0.2195 2.2995
-9.5834 -0.0120 2.2995
-9.5831 -0.2436 2.2995
-9.5772 -0.4752 2.2995
-9.5657 -0.7067 2.2995
-9.5486 -0.9379 2.2995
-9.5259 -1.1687 2.2995
-9.4977 -1.3989 2.2995
-9.4638 -1.6285 2.2995
-9.4244 -1.8572 2.2995
-9.3795 -2.0850 2.2995
-9.3291 -2.3116 2.2995
-9.2731 -2.5370 2.2995
-9.2117 -2.7611 2.2995
-9.1449 -2.9837 2.2995
-9.0727 -3.2046 2.2995
-8.9951 -3.4238 2.2995
-8.9122 -3.6411 2.2995
-5.0640 -2.2132 1.3197
-4.7670 -2.2220 1.2555
-4.4971 -2.2300 1.1980
-4.2507 -2.2373 1.1461
-4.0244 -2.2440 1.0991
-3.8251 -2.2557 1.0590
-3.7704 -2.3480 1.0590
-3.7135 -2.4390 1.0590
-3.6544 -2.5286 1.0590
-3.5931 -2.6168 1.0590
-3.5297 -2.7034 1.0590
-3.4642 -2.7885 1.0590
-3.2369 -2.7371 1.0590
-3.1705 -2.8151 1.0590
-3.1586 -2.9440 1.0782
-3.1631 -3.0943 1.1047
-3.1678 -3.2523 1.1332
-3.1727 -3.4188 1.1640
-3.1779 -3.5947 1.1972
-3.1835 -3.7812 1.2331
-3.1893 -3.9795 1.2720
-3.1956 -4.1908 1.3143
-3.2023 -4.4169 1.3603
-3.2095 -4.6596 1.4105
-3.2173 -4.9212 1.4655
-3.2256 -5.2042 1.5259
-3.2348 -5.5119 1.5925
-3.2447 -5.8480 1.6662
-3.2557 -6.2170 1.7482
-4.2675 -8.6513 2.4028
-4.0578 -8.7529 2.4028
-3.8457 -8.8494 2.4028
-3.6313 -8.9407 2.4028
-3.4147 -9.0267 2.4028
-3.1961 -9.1074 2.4028
-1.0636 -3.2824 0.8589
-0.9840 -3.3070 0.8588
-0.9038 -3.3296 0.8587
-0.8231 -3.3503 0.8585
-0.7419 -3.3690 0.8584
-0.6603 -3.3857 0.8583
-0.5783 -3.4004 0.8582
-0.4960 -3.4132 0.8581
-0.4134 -3.4239 0.8580
-0.3305 -3.4326 0.8579
-0.2475 -3.4392 0.8578
-0.1644 -3.4438 0.8577
-0.0812 -3.4464 0.8576
0.0021 -3.4470 0.8575
0.0853 -3.4456 0.8574
0.1684 -3.4421 0.8573
0.2515 -3.4366 0.8572
0.3343 -3.4290 0.8571
0.4170 -3.4195 0.8570
0.4994 -3.4079 0.8569
0.5814 -3.3944 0.8569
0.6631 -3.3788 0.8568
1.9983 -9.0231 2.2997
2.2155 -8.9717 2.2997
2.4313 -8.9150 2.2997
2.6456 -8.8530 2.2997
2.8584 -8.7858 2.2997
3.0695 -8.7134 2.2997
3.2787 -8.6359 2.2997
3.4859 -8.5534 2.2997
3.6910 -8.4658 2.2997
3.8940 -8.3732 2.2997
4.0945 -8.2758 2.2997
4.2927 -8.1734 2.2997
4.4882 -8.0663 2.2997
4.6810 -7.9545 2.2997
4.8711 -7.8380 2.2997
5.0582 -7.7169 2.2997
5.2422 -7.5913 2.2997
5.4231 -7.4613 2.2997
5.6008 -7.3269 2.2997
5.7751 -7.1883 2.2997
5.7362 -6.7968 2.2185
6.0320 -6.8068 2.2691
6.3427 -6.8183 2.3238
6.5714 -6.7306 2.3478
6.7308 -6.5686 2.3478
6.8860 -6.4029 2.3478
7.0372 -6.2334 2.3478
7.1842 -6.0603 2.3478
7.2128 -5.7921 2.3112
6.9395 -5.3021 2.1824
6.8790 -4.9975 2.1253
6.9219 -4.7776 2.1028
6.9310 -4.5406 2.0721
6.8260 -4.2398 2.0099
6.9476 -4.0861 2.0166
7.0425 -3.9162 2.0166
7.1015 -3.7273 2.0076
7.4025 -3.6600 2.0676
7.5965 -3.5301 2.0978
7.7962 -3.3964 2.1302
7.9982 -3.2569 2.1639
8.2716 -3.1375 2.2173
8.2802 -2.9139 2.2006
8.2886 -2.6937 2.1855
8.2969 -2.4764 2.1719
8.3051 -2.2619 2.1597
8.3133 -2.0497 2.1488
8.3213 -1.8396 2.1394
8.3293 -1.6314 2.1313
8.3372 -1.4247 2.1244
8.3451 -1.2193 2.1189
8.3529 -1.0150 2.1146
8.3607 -0.8115 2.1116
8.3684 -0.6086 2.1098
8.3762 -0.4060 2.1093
8.3840 -0.2035 2.1100
8.3917 -0.0008 2.1119
8.3995 0.2022 2.1151
8.4073 0.4058 2.1195
8.4151 0.6104 2.1251
8.4230 0.8159 2.1321
8.4309 1.0229 2.1403
8.4389 1.2315 2.1499
8.4470 1.4419 2.1608
8.4551 1.6546 2.1730
8.4633 1.8696 2.1867
8.4717 2.0874 2.2019
8.4801 2.3082 2.2185
8.4887 2.5324 2.2367
8.4974 2.7604 2.2566
8.5063 2.9924 2.2781
8.5154 3.2289 2.3013
8.5246 3.4704 2.3264
8.5134 3.7081 2.3478
8.4192 3.9118 2.3478
8.3201 4.1131 2.3478
8.2162 4.3120 2.3478
8.1075 4.5082 2.3478
7.9943 4.7017 2.3478
7.8764 4.8924 2.3478
7.7540 5.0802 2.3478
7.6272 5.2649 2.3478
7.4960 5.4465 2.3478
7.3605 5.6249 2.3478
7.2207 5.7999 2.3478
7.0769 5.9714 2.3478
6.9290 6.1395 2.3478
6.7772 6.3039 2.3478
6.6214 6.4646 2.3478
6.3296 6.4858 2.2997
6.1697 6.6356 2.2997
6.0064 6.7816 2.2997
5.8396 6.9236 2.2997
5.6695 7.0615 2.2997
5.4962 7.1952 2.2997
5.3197 7.3248 2.2997
5.1402 7.4500 2.2997
4.9578 7.5710 2.2997
4.7726 7.6875 2.2997
4.5847 7.7995 2.2997
4.3942 7.9069 2.2997
4.2011 8.0098 2.2997
4.0057 8.1080 2.2997
3.8081 8.2015 2.2997
3.6082 8.2902 2.2997
3.4063 8.3741 2.2997
3.2025 8.4532 2.2997
2.9969 8.5273 2.2997
2.7896 8.5965 2.2997
2.5851 8.6753 2.3036
2.4034 8.8415 2.3317
2.2554 9.1674 2.4028
2.0330 9.2186 2.4028
1.8094 9.2645 2.4028
1.5847 9.3051 2.4028
1.3592 9.3403 2.4028
1.1329 9.3701 2.4028
0.9060 9.3944 2.4028
0.6785 9.4134 2.4028
0.4507 9.4268 2.4028
0.2226 9.4349 2.4028
-0.0056 9.4374 2.4028
-0.2338 9.4346 2.4028
-0.4618 9.4262 2.4028
-0.6896 9.4124 2.4028
-0.9171 9.3932 2.4028
-1.1439 9.3686 2.4028
-1.3702 9.3385 2.4028
-1.5957 9.3030 2.4028
-1.8202 9.2622 2.4028
-2.0438 9.2160 2.4028
-2.2662 9.1644 2.4028
-2.4873 9.1075 2.4028
-2.7070 9.0454 2.4028
-2.9251 8.9780 2.4028
-3.1416 8.9055 2.4028
-3.3563 8.8277 2.4028
-3.5692 8.7449 2.4028
-3.7800 8.6569 2.4028
-3.9886 8.5640 2.4028
-4.1950 8.4660 2.4028
-4.3991 8.3632 2.4028
-4.6006 8.2554 2.4028
-4.7995 8.1429 2.4028
-4.9957 8.0256 2.4028
-5.1890 7.9036 2.4028
-5.3794 7.7771 2.4028
-5.5668 7.6459 2.4028
-5.7058 7.4514 2.3839
-5.7264 7.1151 2.3195
-5.8468 6.9156 2.2995
-6.0134 6.7734 2.2995
-6.1766 6.6273 2.2995
-6.3362 6.4773 2.2995
-6.4922 6.3234 2.2995
-6.6445 6.1658 2.2995
-6.7930 6.0046 2.2995
-6.9376 5.8399 2.2995
-7.0783 5.6717 2.2995
-7.2149 5.5001 2.2995
-7.3474 5.3253 2.2995
-7.4757 5.1473 2.2995
-6.2549 4.0874 1.8926
-6.3963 3.9626 1.9054
-7.8345 4.5953 2.2995
-7.9452 4.4056 2.2995
-8.0513 4.2133 2.2995
-8.1528 4.0184 2.2995
-8.2496 3.8212 2.2995
-8.3417 3.6216 2.2995
-8.4290 3.4198 2.2995
-8.5114 3.2159 2.2995
-8.5888 3.0100 2.2995
-8.6614 2.8023 2.2995
-8.7289 2.5928 2.2995
-8.7913 2.3818 2.2995
-8.8487 2.1692 2.2995
-8.9010 1.9552 2.2995
-8.9481 1.7400 2.2995
-8.9900 1.5237 2.2995
-9.0267 1.3063 2.2995
-9.0581 1.0881 2.2995
-9.0843 0.8691 2.2995
-9.1052 0.6495 2.2995
-9.1207 0.4294 2.2995
-9.1310 0.2090 2.2995
-9.1360 -0.0117 2.2995
-9.1356 -0.2325 2.2995
-9.1298 -0.4533 2.2995
-9.1188 -0.6740 2.2995
-9.1023 -0.8944 2.2995
-9.0806 -1.1144 2.2995
-9.0536 -1.3338 2.2995
-9.0212 -1.5526 2.2995
-8.9835 -1.7706 2.2995
-8.9406 -1.9877 2.2995
-8.8924 -2.2037 2.2995
-8.8389 -2.4185 2.2995
-8.7803 -2.6321 2.2995
-8.7165 -2.8442 2.2995
-8.6475 -3.0548 2.2995
-8.5735 -3.2636 2.2995
-8.4944 -3.4707 2.2995
-5.0637 -2.2132 1.3845
-4.7666 -2.2220 1.3172
-4.4968 -2.2300 1.2569
-4.2504 -2.2373 1.2025
-4.0242 -2.2440 1.1532
-3.8156 -2.2502 1.1084
-3.6224 -2.2559 1.0675
-3.5391 -2.3246 1.0590
-3.4827 -2.4099 1.0590
-3.4243 -2.4939 1.0590
-3.3638 -2.5765 1.0590
-3.3013 -2.6576 1.0590
-3.1503 -2.6641 1.0794
-3.1544 -2.8009 1.1034
-3.1586 -2.9442 1.1292
-3.1631 -3.0944 1.1570
-3.1678 -3.2524 1.1869
-3.1727 -3.4189 1.2191
-3.1779 -3.5949 1.2539
-3.1835 -3.7814 1.2915
-3.1893 -3.9796 1.3322
-3.1956 -4.1910 1.3765
-3.2023 -4.4171 1.4247
-3.2095 -4.6598 1.4773
-3.2173 -4.9214 1.5349
-3.2257 -5.2044 1.5982
-3.2348 -5.5121 1.6680
-3.2447 -5.8482 1.7452
-3.2557 -6.2173 1.8311
-4.0743 -8.2600 2.4028
-3.8741 -8.3570 2.4028
-3.6716 -8.4490 2.4028
-3.4669 -8.5361 2.4028
-3.2601 -8.6182 2.4028
-1.0908 -3.1086 0.8590
-1.0154 -3.1339 0.8589
-0.9394 -3.1574 0.8588
-0.8629 -3.1790 0.8587
-0.7858 -3.1988 0.8586
-0.7083 -3.2166 0.8585
-0.6304 -3.2326 0.8584
-0.5521 -3.2467 0.8583
-0.4735 -3.2588 0.8582
-0.3947 -3.2690 0.8581
-0.3156 -3.2773 0.8580
-0.2363 -3.2837 0.8579
-0.1570 -3.2881 0.8578
-0.0775 -3.2906 0.8577
0.0020 -3.2912 0.8576
0.0814 -3.2898 0.8575
0.1608 -3.2865 0.8574
0.2401 -3.2813 0.8573
0.3192 -3.2741 0.8572
0.3981 -3.2650 0.8571
0.4768 -3.2540 0.8570
0.5552 -3.2411 0.8570
0.6332 -3.2263 0.8569
1.9188 -8.6644 2.3130
2.1151 -8.5655 2.2997
2.3211 -8.5114 2.2997
2.5258 -8.4523 2.2997
2.7290 -8.3881 2.2997
2.9305 -8.3191 2.2997
3.1302 -8.2451 2.2997
3.3281 -8.1663 2.2997
3.5239 -8.0828 2.2997
3.7177 -7.9944 2.2997
3.9092 -7.9014 2.2997
4.0984 -7.8038 2.2997
4.2851 -7.7015 2.2997
4.4692 -7.5948 2.2997
4.6507 -7.4836 2.2997
4.8293 -7.3681 2.2997
5.0051 -7.2482 2.2997
5.1779 -7.1241 2.2997
5.3475 -6.9959 2.2997
5.5140 -6.8636 2.2997
5.6772 -6.7272 2.2997
5.9591 -6.7248 2.3478
6.1186 -6.5777 2.3478
6.2745 -6.4268 2.3478
6.4267 -6.2722 2.3478
6.5750 -6.1140 2.3478
6.7194 -5.9522 2.3478
6.8598 -5.7870 2.3478
6.9961 -5.6185 2.3478
6.9397 -5.3026 2.2857
6.8277 -4.9605 2.2091
6.9219 -4.7778 2.2021
6.9310 -4.5409 2.1699
6.8260 -4.2401 2.1049
6.9475 -4.0863 2.1117
7.0424 -3.9164 2.1117
7.1013 -3.7274 2.1023
7.4023 -3.6601 2.1651
7.5962 -3.5303 2.1967
7.7208 -3.3639 2.2091
7.9976 -3.2569 2.2657
8.2716 -3.1378 2.3218
8.2802 -2.9142 2.3043
8.2886 -2.6940 2.2885
8.2969 -2.4767 2.2742
8.3051 -2.2622 2.2614
8.3133 -2.0500 2.2500
8.3213 -1.8399 2.2401
8.3293 -1.6316 2.2315
8.3372 -1.4250 2.2244
8.3451 -1.2196 2.2186
8.3529 -1.0153 2.2141
8.3607 -0.8118 2.2109
8.3684 -0.6088 2.2090
8.3762 -0.4062 2.2084
8.3840 -0.2037 2.2091
8.3917 -0.0011 2.2111
8.3995 0.2019 2.2143
8.4073 0.4056 2.2189
8.4151 0.6101 2.2248
8.4230 0.8157 2.2321
8.4309 1.0226 2.2407
8.4389 1.2312 2.2506
8.4470 1.4417 2.2620
8.4551 1.6543 2.2749
8.4633 1.8693 2.2892
8.4717 2.0871 2.3050
8.4801 2.3079 2.3224
8.4887 2.5322 2.3414
8.4457 2.7433 2.3478
8.3747 2.9458 2.3478
8.2990 3.1466 2.3478
8.2185 3.3454 2.3478
8.1332 3.5422 2.3478
8.0432 3.7369 2.3478
7.9486 3.9292 2.3478
7.8495 4.1192 2.3478
7.7458 4.3067 2.3478
7.6376 4.4917 2.3478
7.5251 4.6739 2.3478
7.4082 4.8533 2.3478
7.2871 5.0299 2.3478
7.1618 5.2034 2.3478
7.0324 5.3739 2.3478
6.8990 5.5411 2.3478
6.7616 5.7051 2.3478
6.6204 5.8657 2.3478
6.4754 6.0229 2.3478
6.1970 6.0499 2.2997
6.0478 6.1968 2.2997
5.8951 6.3400 2.2997
5.7391 6.4795 2.2997
5.5798 6.6152 2.2997
5.4173 6.7470 2.2997
5.2517 6.8749 2.2997
5.0831 6.9987 2.2997
4.9117 7.1185 2.2997
4.7374 7.2341 2.2997
4.5605 7.3454 2.2997
4.3809 7.4525 2.2997
4.1989 7.5553 2.2997
4.0145 7.6536 2.2997
3.8277 7.7475 2.2997
3.6389 7.8368 2.2997
3.4479 7.9217 2.2997
3.2550 8.0019 2.2997
3.0603 8.0774 2.2997
2.8638 8.1483 2.2997
2.6657 8.2145 2.2997
2.4661 8.2759 2.2997
2.3667 8.7060 2.4028
2.1553 8.7601 2.4028
1.9427 8.8091 2.4028
1.7290 8.8530 2.4028
1.5144 8.8918 2.4028
1.2989 8.9254 2.4028
1.0826 8.9539 2.4028
0.8658 8.9771 2.4028
0.6484 8.9952 2.4028
0.4307 9.0081 2.4028
0.2128 9.0158 2.4028
-0.0053 9.0183 2.4028
-0.2234 9.0155 2.4028
-0.4413 9.0075 2.4028
-0.6590 8.9944 2.4028
-0.8764 8.9760 2.4028
-1.0932 8.9524 2.4028
-1.3094 8.9237 2.4028
-1.5248 8.8898 2.4028
-1.7394 8.8507 2.4028
-1.9530 8.8065 2.4028
-2.1656 8.7572 2.4028
-2.3768 8.7029 2.4028
-2.5868 8.6435 2.4028
-2.7952 8.5791 2.4028
-3.0021 8.5097 2.4028
-3.2073 8.4354 2.4028
-3.4106 8.3562 2.4028
-3.6121 8.2721 2.4028
-3.8114 8.1832 2.4028
-4.0086 8.0896 2.4028
-4.2036 7.9912 2.4028
-4.3961 7.8882 2.4028
-4.5862 7.7807 2.4028
-4.7736 7.6686 2.4028
-4.9583 7.5520 2.4028
-5.1402 7.4310 2.4028
-5.3192 7.3056 2.4028
-5.4952 7.1760 2.4028
-5.6680 7.0422 2.4028
-5.7315 6.7789 2.3591
-5.7548 6.4818 2.3031
-5.9017 6.3320 2.2995
-6.0541 6.1886 2.2995
-6.2032 6.0416 2.2995
-6.3486 5.8910 2.2995
-6.4905 5.7369 2.2995
-6.6286 5.5795 2.2995
-6.7629 5.4187 2.2995
-6.8934 5.2547 2.2995
-7.0199 5.0876 2.2995
-7.1424 4.9175 2.2995
-6.2513 4.0848 1.9798
-6.3903 3.9586 1.9925
-7.4850 4.3900 2.2995
-7.5907 4.2088 2.2995
-7.6920 4.0250 2.2995
-7.7889 3.8388 2.2995
-7.8813 3.6503 2.2995
-7.9692 3.4596 2.2995
-8.0525 3.2667 2.2995
-8.1311 3.0719 2.2995
-8.2050 2.8752 2.2995
-8.2742 2.6767 2.2995
-8.3386 2.4766 2.2995
-8.3982 2.2750 2.2995
-8.4529 2.0719 2.2995
-8.5027 1.8674 2.2995
-8.5476 1.6618 2.2995
-8.5876 1.4552 2.2995
-8.6225 1.2476 2.2995
-8.6524 1.0391 2.2995
-8.6773 0.8299 2.2995
-8.6972 0.6201 2.2995
-8.7120 0.4099 2.2995
-8.7217 0.1993 2.2995
-8.7263 -0.0115 2.2995
-8.7258 -0.2224 2.2995
-8.7202 -0.4333 2.2995
-8.7095 -0.6440 2.2995
-8.6938 -0.8545 2.2995
-8.6729 -1.0646 2.2995
-8.6470 -1.2742 2.2995
-8.6159 -1.4831 2.2995
-8.5799 -1.6913 2.2995
-8.5387 -1.8986 2.2995
-8.4926 -2.1049 2.2995
-8.4415 -2.3101 2.2995
-8.3854 -2.5140 2.2995
-8.3244 -2.7165 2.2995
-8.2584 -2.9176 2.2995
-8.1876 -3.1170 2.2995
-8.1120 -3.3147 2.2995
-5.0633 -2.2132 1.4497
-4.7663 -2.2220 1.3793
-4.4965 -2.2300 1.3161
-4.2501 -2.2373 1.2591
-4.0239 -2.2440 1.2075
-3.8153 -2.2502 1.1606
-3.6221 -2.2559 1.1179
-3.4425 -2.2613 1.0787
-3.3256 -2.3013 1.0590
-3.2698 -2.3815 1.0590
-3.2120 -2.4603 1.0590
-3.1523 -2.5377 1.0590
-3.1503 -2.6642 1.1284
-3.1544 -2.8011 1.1535
-3.1586 -2.9443 1.1805
-3.1631 -3.0946 1.2096
-3.1678 -3.2526 1.2408
-3.1727 -3.4191 1.2745
-3.1779 -3.5951 1.3109
-3.1835 -3.7816 1.3502
-3.1893 -3.9798 1.3928
-3.1956 -4.1911 1.4391
-3.2023 -4.4172 1.4895
-3.2095 -4.6600 1.5445
-3.2173 -4.9215 1.6048
-3.2257 -5.2046 1.6710
-3.2348 -5.5123 1.7439
-3.1961 -5.7607 1.7973
-3.2557 -6.2175 1.9145
-3.8969 -7.9006 2.4028
-3.7054 -7.9933 2.4028
-3.5117 -8.0813 2.4028
-3.3159 -8.1646 2.4028
-3.1180 -8.2431 2.4028
-1.0433 -2.9733 0.8590
-0.9712 -2.9975 0.8589
-0.8985 -3.0200 0.8588
-0.8253 -3.0407 0.8587
-0.7516 -3.0596 0.8586
-0.6775 -3.0767 0.8585
-0.6029 -3.0919 0.8584
-0.5281 -3.1054 0.8583
-0.4529 -3.1170 0.8582
-0.3775 -3.1268 0.8581
-0.3018 -3.1348 0.8580
-0.2260 -3.1409 0.8579
-0.1501 -3.1451 0.8578
-0.0741 -3.1475 0.8578
0.0019 -3.1481 0.8577
0.0779 -3.1468 0.8576
0.1538 -3.1436 0.8575
0.2297 -3.1387 0.8574
0.3053 -3.1318 0.8573
0.3808 -3.1231 0.8572
0.4561 -3.1126 0.8571
0.5310 -3.1003 0.8571
0.6056 -3.0861 0.8570
0.6799 -3.0701 0.8569
2.0229 -8.1925 2.2997
2.2200 -8.1407 2.2997
2.4157 -8.0842 2.2997
2.6100 -8.0229 2.2997
2.8028 -7.9569 2.2997
2.9938 -7.8862 2.2997
3.1831 -7.8109 2.2997
3.3704 -7.7310 2.2997
3.5557 -7.6465 2.2997
3.7389 -7.5576 2.2997
3.9199 -7.4642 2.2997
4.0985 -7.3665 2.2997
4.2746 -7.2644 2.2997
4.4482 -7.1581 2.2997
4.6191 -7.0476 2.2997
4.7873 -6.9331 2.2997
4.9526 -6.8144 2.2997
5.1149 -6.6918 2.2997
5.2742 -6.5653 2.2997
5.4303 -6.4349 2.2997
5.5832 -6.3008 2.2997
5.7327 -6.1631 2.2997
6.0018 -6.1477 2.3478
6.1473 -5.9998 2.3478
6.2893 -5.8485 2.3478
6.4275 -5.6938 2.3478
6.5618 -5.5359 2.3478
6.6923 -5.3747 2.3478
6.8187 -5.2104 2.3478
6.7781 -4.9247 2.2926
6.7461 -4.6567 2.2435
6.7853 -4.4457 2.2207
6.8260 -4.2403 2.2003
6.9473 -4.0865 2.2075
7.0423 -3.9166 2.2074
7.1012 -3.7276 2.1975
7.2533 -3.5867 2.2176
7.4082 -3.4432 2.2394
7.6367 -3.3275 2.2841
7.9282 -3.2289 2.3478
8.0019 -3.0357 2.3478
8.0710 -2.8408 2.3478
8.1352 -2.6444 2.3478
8.1947 -2.4465 2.3478
8.2494 -2.2472 2.3478
8.2992 -2.0468 2.3478
8.3213 -1.8402 2.3414
8.3293 -1.6319 2.3324
8.3372 -1.4252 2.3249
8.3450 -1.2199 2.3188
8.3529 -1.0155 2.3141
8.3607 -0.8120 2.3107
8.3684 -0.6091 2.3087
8.3762 -0.4065 2.3081
8.3839 -0.2040 2.3088
8.3917 -0.0014 2.3108
8.3995 0.2017 2.3142
8.4073 0.4053 2.3190
8.4151 0.6098 2.3251
8.4230 0.8154 2.3327
8.4309 1.0224 2.3416
8.4236 1.2287 2.3478
8.3893 1.4316 2.3478
8.3502 1.6335 2.3478
8.3062 1.8343 2.3478
8.2573 2.0340 2.3478
8.2037 2.2324 2.3478
8.1453 2.4294 2.3478
8.0822 2.6249 2.3478
8.0145 2.8188 2.3478
7.9421 3.0110 2.3478
7.8651 3.2013 2.3478
7.7835 3.3896 2.3478
7.6975 3.5760 2.3478
7.6071 3.7601 2.3478
7.5122 3.9420 2.3478
7.4130 4.1215 2.3478
7.3096 4.2985 2.3478
7.2020 4.4730 2.3478
7.0902 4.6447 2.3478
6.9744 4.8137 2.3478
6.8545 4.9799 2.3478
6.7307 5.1430 2.3478
6.6031 5.3032 2.3478
6.4716 5.4602 2.3478
6.2067 5.4989 2.2997
6.0708 5.6463 2.2997
5.9314 5.7903 2.2997
5.7886 5.9309 2.2997
5.6425 6.0681 2.2997
5.4932 6.2017 2.2997
5.3408 6.3316 2.2997
5.1853 6.4578 2.2997
5.0268 6.5802 2.2997
4.8655 6.6988 2.2997
4.7014 6.8135 2.2997
4.5346 6.9241 2.2997
4.3653 7.0308 2.2997
4.1934 7.1333 2.2997
4.0192 7.2317 2.2997
3.8427 7.3259 2.2997
3.6640 7.4158 2.2997
3.4832 7.5013 2.2997
3.3005 7.5826 2.2997
3.1158 7.6594 2.2997
2.9294 7.7318 2.2997
2.7414 7.7996 2.2997
2.5546 7.8718 2.3023
2.3743 7.9674 2.3129
2.2655 8.3335 2.4028
2.0632 8.3853 2.4028
1.8597 8.4322 2.4028
1.6551 8.4743 2.4028
1.4497 8.5114 2.4028
1.2434 8.5436 2.4028
1.0364 8.5709 2.4028
0.8288 8.5932 2.4028
0.6207 8.6105 2.4028
0.4123 8.6229 2.4028
0.2037 8.6302 2.4028
-0.0051 8.6326 2.4028
-0.2138 8.6300 2.4028
-0.4225 8.6223 2.4028
-0.6309 8.6097 2.4028
-0.8389 8.5921 2.4028
-1.0464 8.5695 2.4028
-1.2534 8.5420 2.4028
-1.4597 8.5095 2.4028
-1.6651 8.4721 2.4028
-1.8696 8.4298 2.4028
-2.0730 8.3826 2.4028
-2.2752 8.3306 2.4028
-2.4762 8.2737 2.4028
-2.6757 8.2120 2.4028
-2.8737 8.1455 2.4028
-3.0701 8.0744 2.4028
-3.2648 7.9985 2.4028
-3.4576 7.9180 2.4028
-3.6484 7.8329 2.4028
-3.8372 7.7432 2.4028
-4.0237 7.6491 2.4028
-4.2080 7.5505 2.4028
-4.3899 7.4474 2.4028
-4.5693 7.3401 2.4028
-4.7461 7.2284 2.4028
-4.9202 7.1126 2.4028
-5.0915 6.9926 2.4028
-5.2598 6.8685 2.4028
-5.4252 6.7403 2.4028
-5.5875 6.6083 2.4028
-5.7434 6.4687 2.4014
-5.7562 6.1757 2.3433
-5.7947 5.9232 2.2995
-5.9373 5.7824 2.2995
-6.0765 5.6382 2.2995
-6.2122 5.4907 2.2995
-6.3443 5.3399 2.2995
-6.4729 5.1860 2.2995
-6.5977 5.0290 2.2995
-6.7187 4.8691 2.2995
-6.8359 4.7062 2.2995
-6.2476 4.0822 2.0674
-6.3844 3.9547 2.0799
-7.1636 4.2012 2.2995
-7.2647 4.0277 2.2995
-7.3615 3.8518 2.2995
-7.4542 3.6736 2.2995
-7.5426 3.4931 2.2995
-7.6266 3.3106 2.2995
-7.7062 3.1260 2.2995
-7.7814 2.9395 2.2995
-7.8521 2.7513 2.2995
-7.9182 2.5613 2.2995
-7.9797 2.3698 2.2995
-8.0367 2.1768 2.2995
-8.0890 1.9824 2.2995
-8.1365 1.7867 2.2995
-8.1794 1.5900 2.2995
-8.2175 1.3922 2.2995
-8.2509 1.1935 2.2995
-8.2794 0.9940 2.2995
-8.3032 0.7938 2.2995
-8.3221 0.5931 2.2995
-8.3361 0.3920 2.2995
-8.3453 0.1905 2.2995
-8.3497 -0.0113 2.2995
-8.3491 -0.2131 2.2995
-8.3437 -0.4149 2.2995
-8.3334 -0.6165 2.2995
-8.3182 -0.8179 2.2995
-8.2981 -1.0189 2.2995
-8.2732 -1.2194 2.2995
-8.2435 -1.4193 2.2995
-8.2088 -1.6185 2.2995
-8.1694 -1.8168 2.2995
-8.1252 -2.0141 2.2995
-8.0762 -2.2104 2.2995
-8.0225 -2.4055 2.2995
-7.9640 -2.5992 2.2995
-7.9008 -2.7915 2.2995
-7.8330 -2.9823 2.2995
-7.7605 -3.1714 2.2995
-5.0629 -2.2132 1.5152
-4.7659 -2.2220 1.4416
-4.4962 -2.2300 1.3756
-4.2498 -2.2373 1.3161
-4.0236 -2.2440 1.2622
-3.8151 -2.2502 1.2132
-3.6219 -2.2559 1.1685
-3.4423 -2.2613 1.1276
-3.2747 -2.2662 1.0901
-3.1391 -2.2865 1.0628
-3.1427 -2.4074 1.0832
-3.1464 -2.5332 1.1050
-3.1503 -2.6644 1.1777
-3.1544 -2.8012 1.2040
-3.1586 -2.9445 1.2321
-3.1631 -3.0947 1.2624
-3.1678 -3.2527 1.2951
-3.1727 -3.4192 1.3302
-3.1779 -3.5952 1.3682
-3.1835 -3.7817 1.4093
-3.1893 -3.9800 1.4538
-3.1956 -4.1913 1.5021
-3.2023 -4.4174 1.5547
-3.2095 -4.6602 1.6122
-3.2173 -4.9218 1.6751
-3.2257 -5.2049 1.7441
-3.2348 -5.5126 1.8203
-3.1658 -5.7063 1.8583
-3.0970 -5.9146 1.9009
-3.7333 -7.5692 2.4028
-3.5498 -7.6580 2.4028
-3.3642 -7.7423 2.4028
-3.1766 -7.8220 2.4028
-2.9871 -7.8972 2.4028
-1.0407 -2.9658 0.8944
-0.9611 -2.9664 0.8872
-0.8827 -2.9671 0.8807
-0.8055 -2.9677 0.8748
-0.7292 -2.9683 0.8695
-0.6537 -2.9689 0.8648
-0.5791 -2.9695 0.8606
-0.5059 -2.9752 0.8584
-0.4339 -2.9863 0.8583
-0.3616 -2.9957 0.8582
-0.2892 -3.0033 0.8581
-0.2166 -3.0092 0.8580
-0.1438 -3.0133 0.8579
-0.0710 -3.0156 0.8578
0.0018 -3.0162 0.8577
0.0746 -3.0149 0.8576
0.1474 -3.0119 0.8576
0.2200 -3.0071 0.8575
0.2925 -3.0006 0.8574
0.3649 -2.9923 0.8573
0.4369 -2.9822 0.8572
0.5101 -2.9784 0.8595
0.5846 -2.9790 0.8635
0.6598 -2.9796 0.8681
1.9485 -7.8916 2.3123
2.1267 -7.7990 2.2997
2.3143 -7.7449 2.2997
2.5004 -7.6862 2.2997
2.6851 -7.6230 2.2997
2.8681 -7.5553 2.2997
3.0494 -7.4831 2.2997
3.2289 -7.4066 2.2997
3.4065 -7.3258 2.2997
3.5820 -7.2406 2.2997
3.7554 -7.1512 2.2997
3.9265 -7.0576 2.2997
4.0952 -6.9598 2.2997
4.2616 -6.8580 2.2997
4.4253 -6.7522 2.2997
4.5865 -6.6425 2.2997
4.7448 -6.5289 2.2997
4.9004 -6.4114 2.2997
5.0530 -6.2902 2.2997
5.2026 -6.1654 2.2997
5.3491 -6.0370 2.2997
5.4924 -5.9050 2.2997
5.6325 -5.7697 2.2997
5.7691 -5.6310 2.2997
6.0258 -5.6038 2.3478
6.1583 -5.4556 2.3478
6.2870 -5.3043 2.3478
6.4121 -5.1499 2.3478
6.5333 -4.9926 2.3478
6.6506 -4.8324 2.3478
6.7640 -4.6694 2.3478
6.7853 -4.4459 2.3177
6.8259 -4.2405 2.2964
6.9472 -4.0867 2.3038
7.0422 -3.9168 2.3037
7.1010 -3.7278 2.2933
7.2531 -3.5869 2.3143
7.4421 -3.4592 2.3478
7.5218 -3.2777 2.3478
7.5970 -3.0943 2.3478
7.6677 -2.9092 2.3478
7.7340 -2.7225 2.3478
7.7956 -2.5343 2.3478
7.8527 -2.3447 2.3478
7.9052 -2.1537 2.3478
7.9530 -1.9617 2.3478
7.9961 -1.7685 2.3478
8.0345 -1.5744 2.3478
8.0682 -1.3795 2.3478
8.0972 -1.1839 2.3478
8.1214 -0.9877 2.3478
8.1409 -0.7909 2.3478
8.1556 -0.5939 2.3478
8.1656 -0.3965 2.3478
8.1707 -0.1991 2.3478
8.1711 -0.0016 2.3478
8.1667 0.1958 2.3478
8.1576 0.3930 2.3478
8.1437 0.5899 2.3478
8.1250 0.7863 2.3478
8.1016 0.9822 2.3478
8.0735 1.1774 2.3478
8.0407 1.3718 2.3478
8.0033 1.5653 2.3478
7.9612 1.7579 2.3478
7.9144 1.9493 2.3478
7.8631 2.1395 2.3478
7.8072 2.3283 2.3478
7.7468 2.5157 2.3478
7.6819 2.7016 2.3478
7.6126 2.8858 2.3478
7.5389 3.0683 2.3478
7.4608 3.2488 2.3478
7.3784 3.4274 2.3478
7.2918 3.6040 2.3478
7.2009 3.7784 2.3478
7.1059 3.9505 2.3478
7.0068 4.1202 2.3478
6.9037 4.2874 2.3478
6.7966 4.4521 2.3478
6.6856 4.6142 2.3478
6.5708 4.7735 2.3478
6.4522 4.9300 2.3478
6.2002 4.9794 2.2997
6.0769 5.1268 2.2997
5.9500 5.2712 2.2997
5.8198 5.4125 2.2997
5.6862 5.5507 2.2997
5.5493 5.6855 2.2997
5.4093 5.8170 2.2997
5.2662 5.9451 2.2997
5.1201 6.0697 2.2997
4.9710 6.1907 2.2997
4.8192 6.3082 2.2997
4.6645 6.4219 2.2997
4.5072 6.5318 2.2997
4.3474 6.6380 2.2997
4.1850 6.7403 2.2997
4.0203 6.8386 2.2997
3.8533 6.9329 2.2997
3.6841 7.0233 2.2997
3.5128 7.1095 2.2997
3.3395 7.1916 2.2997
3.1643 7.2695 2.2997
2.9873 7.3431 2.2997
2.8086 7.4125 2.2997
2.6283 7.4777 2.2997
2.4465 7.5384 2.2997
2.3645 7.9344 2.4025
2.1721 7.9896 2.4028
1.9781 8.0392 2.4028
1.7830 8.0843 2.4028
1.5869 8.1246 2.4028
1.3899 8.1602 2.4028
1.1921 8.1911 2.4028
0.9936 8.2173 2.4028
0.7946 8.2387 2.4028
0.5951 8.2553 2.4028
0.3953 8.2671 2.4028
0.1953 8.2742 2.4028
-0.0049 8.2764 2.4028
-0.2050 8.2739 2.4028
-0.4050 8.2666 2.4028
-0.6049 8.2545 2.4028
-0.8043 8.2376 2.4028
-1.0033 8.2160 2.4028
-1.2017 8.1896 2.4028
-1.3995 8.1584 2.4028
-1.5964 8.1225 2.4028
-1.7925 8.0819 2.4028
-1.9875 8.0367 2.4028
-2.1814 7.9867 2.4028
-2.3741 7.9322 2.4028
-2.5654 7.8730 2.4028
-2.7552 7.8093 2.4028
-2.9435 7.7410 2.4028
-3.1301 7.6683 2.4028
-3.3149 7.5911 2.4028
-3.4979 7.5094 2.4028
-3.6788 7.4234 2.4028
-3.8577 7.3331 2.4028
-4.0343 7.2385 2.4028
-4.2087 7.1397 2.4028
-4.3807 7.0368 2.4028
-4.5501 6.9297 2.4028
-4.7170 6.8186 2.4028
-4.8812 6.7035 2.4028
-5.0426 6.5845 2.4028
-5.2011 6.4616 2.4028
-5.3567 6.3350 2.4028
-5.5092 6.2046 2.4028
-5.6585 6.0706 2.4028
-5.7655 5.8930 2.3866
-5.7794 5.6283 2.3349
-5.8252 5.4048 2.2995
-5.9553 5.2633 2.2995
-6.0819 5.1188 2.2995
-6.2051 4.9712 2.2995
-6.3247 4.8207 2.2995
-6.4406 4.6673 2.2995
-6.5529 4.5111 2.2995
-6.2440 4.0796 2.1554
-6.3783 3.9507 2.1677
-6.8669 4.0269 2.2995
-6.9637 3.8606 2.2995
-7.0565 3.6920 2.2995
-7.1453 3.5211 2.2995
-7.2299 3.3481 2.2995
-7.3104 3.1730 2.2995
-7.3867 2.9961 2.2995
-7.4586 2.8173 2.2995
-7.5263 2.6369 2.2995
-7.5896 2.4548 2.2995
-7.6486 2.2712 2.2995
-7.7031 2.0861 2.2995
-7.7531 1.8998 2.2995
-7.7986 1.7123 2.2995
-7.8396 1.5237 2.2995
-7.8761 1.3341 2.2995
-7.9080 1.1437 2.2995
-7.9353 0.9524 2.2995
-7.9579 0.7606 2.2995
-7.9760 0.5682 2.2995
-7.9894 0.3754 2.2995
-7.9981 0.1823 2.2995
-8.0022 -0.0111 2.2995
-8.0016 -0.2045 2.2995
-7.9963 -0.3978 2.2995
-7.9863 -0.5911 2.2995
-7.9717 -0.7841 2.2995
-7.9524 -0.9767 2.2995
-7.9284 -1.1688 2.2995
-7.8998 -1.3604 2.2995
-7.8666 -1.5512 2.2995
-7.8287 -1.7413 2.2995
-7.7863 -1.9304 2.2995
-7.7393 -2.1184 2.2995
-7.6877 -2.3053 2.2995
-7.6316 -2.4910 2.2995
-7.5710 -2.6752 2.2995
-7.5059 -2.8580 2.2995
-7.4364 -3.0392 2.2995
-5.0625 -2.2132 1.5812
-4.7656 -2.2220 1.5044
-4.4958 -2.2300 1.4355
-4.2495 -2.2373 1.3734
-4.0234 -2.2440 1.3172
-3.8148 -2.2502 1.2661
-3.6217 -2.2559 1.2194
-3.4421 -2.2613 1.1768
-3.2745 -2.2662 1.1376
-3.1391 -2.2866 1.1092
-3.1427 -2.4075 1.1305
-3.1464 -2.5333 1.1533
-3.1503 -2.6645 1.2274
-3.1544 -2.8014 1.2547
-3.1586 -2.9446 1.2841
-3.1631 -3.0949 1.3157
-3.1678 -3.2529 1.3497
-3.1727 -3.4194 1.3863
-3.1779 -3.5954 1.4259
-3.1835 -3.7819 1.4687
-3.1893 -3.9802 1.5151
-3.1956 -4.1915 1.5655
-3.2023 -4.4176 1.6204
-3.2095 -4.6604 1.6802
-3.2173 -4.9220 1.7458
-3.2257 -5.2050 1.8178
-3.2348 -5.5128 1.8972
-3.1462 -5.6712 1.9247
-3.0690 -5.8614 1.9633
-3.5820 -7.2627 2.4028
-3.4059 -7.3478 2.4028
-3.2278 -7.4287 2.4028
-3.0478 -7.5052 2.4028
-2.8660 -7.5773 2.4028
-1.0406 -2.9658 0.9321
-0.9611 -2.9665 0.9247
-0.8827 -2.9671 0.9179
-0.8054 -2.9677 0.9118
-0.7291 -2.9683 0.9062
-0.6537 -2.9689 0.9013
-0.5790 -2.9696 0.8969
-0.5050 -2.9702 0.8931
-0.4316 -2.9708 0.8899
-0.3587 -2.9714 0.8872
-0.2861 -2.9719 0.8850
-0.2139 -2.9725 0.8833
-0.1419 -2.9731 0.8822
-0.0700 -2.9737 0.8816
0.0018 -2.9743 0.8816
0.0736 -2.9749 0.8820
0.1456 -2.9755 0.8830
0.2177 -2.9760 0.8845
0.2902 -2.9766 0.8865
0.3630 -2.9772 0.8890
0.4363 -2.9778 0.8921
0.5101 -2.9784 0.8958
0.5846 -2.9790 0.9000
0.6598 -2.9797 0.9048
1.8593 -7.5305 2.2997
2.0405 -7.4830 2.2997
2.2204 -7.4311 2.2997
2.3990 -7.3748 2.2997
2.5762 -7.3141 2.2997
2.7518 -7.2492 2.2997
2.9258 -7.1800 2.2997
3.0980 -7.1066 2.2997
3.2684 -7.0290 2.2997
3.4368 -6.9473 2.2997
3.6031 -6.8616 2.2997
3.7674 -6.7718 2.2997
3.9293 -6.6781 2.2997
4.0889 -6.5804 2.2997
4.2461 -6.4789 2.2997
4.4007 -6.3737 2.2997
4.5527 -6.2647 2.2997
4.7019 -6.1520 2.2997
4.8484 -6.0358 2.2997
4.9920 -5.9160 2.2997
5.1326 -5.7929 2.2997
5.2701 -5.6663 2.2997
5.4045 -5.5365 2.2997
5.5357 -5.4034 2.2997
5.6636 -5.2672 2.2997
5.7881 -5.1280 2.2997
6.0328 -5.0901 2.3478
6.1528 -4.9419 2.3478
6.2692 -4.7910 2.3478
6.3818 -4.6373 2.3478
6.4907 -4.4809 2.3478
6.5957 -4.3220 2.3478
6.6968 -4.1606 2.3478
6.7939 -3.9968 2.3478
6.8871 -3.8307 2.3478
6.9761 -3.6625 2.3478
7.0610 -3.4921 2.3478
7.1417 -3.3198 2.3478
7.2183 -3.1457 2.3478
7.2905 -2.9697 2.3478
7.3585 -2.7921 2.3478
7.4221 -2.6130 2.3478
7.4813 -2.4323 2.3478
7.5362 -2.2504 2.3478
7.5866 -2.0672 2.3478
7.6325 -1.8829 2.3478
7.6740 -1.6975 2.3478
7.7110 -1.5113 2.3478
7.7434 -1.3242 2.3478
7.7713 -1.1365 2.3478
7.7946 -0.9482 2.3478
7.8133 -0.7594 2.3478
7.8275 -0.5702 2.3478
7.8371 -0.3808 2.3478
7.8422 -0.1913 2.3478
7.8426 -0.0018 2.3478
7.8385 0.1877 2.3478
7.8298 0.3770 2.3478
7.8165 0.5659 2.3478
7.7986 0.7544 2.3478
7.7763 0.9425 2.3478
7.7494 1.1299 2.3478
7.7180 1.3165 2.3478
7.6821 1.5023 2.3478
7.6417 1.6871 2.3478
7.5969 1.8708 2.3478
7.5477 2.0534 2.3478
7.4942 2.2347 2.3478
7.4363 2.4146 2.3478
7.3741 2.5931 2.3478
7.3076 2.7699 2.3478
7.2369 2.9451 2.3478
7.1620 3.1184 2.3478
7.0829 3.2899 2.3478
6.9998 3.4594 2.3478
6.9127 3.6268 2.3478
6.8215 3.7921 2.3478
6.7265 3.9551 2.3478
6.6275 4.1156 2.3478
6.5248 4.2738 2.3478
6.4183 4.4294 2.3478
6.1788 4.4885 2.2997
6.0674 4.6357 2.2997
5.9524 4.7801 2.2997
5.8340 4.9217 2.2997
5.7123 5.0604 2.2997
5.5872 5.1961 2.2997
5.4590 5.3287 2.2997
5.3277 5.4582 2.2997
5.1933 5.5845 2.2997
5.0559 5.7075 2.2997
4.9157 5.8271 2.2997
4.7726 5.9434 2.2997
4.6268 6.0561 2.2997
4.4784 6.1654 2.2997
4.3274 6.2710 2.2997
4.1739 6.3729 2.2997
4.0181 6.4711 2.2997
3.8600 6.5656 2.2997
3.6996 6.6562 2.2997
3.5372 6.7429 2.2997
3.3727 6.8257 2.2997
3.2063 6.9046 2.2997
3.0381 6.9794 2.2997
2.8682 7.0502 2.2997
2.6966 7.1168 2.2997
2.5282 7.1926 2.3039
2.3494 7.2389 2.3000
2.2705 7.6188 2.4028
2.0855 7.6709 2.4028
1.8993 7.7186 2.4028
1.7120 7.7619 2.4028
1.5237 7.8006 2.4028
1.3345 7.8348 2.4028
1.1446 7.8645 2.4028
0.9541 7.8896 2.4028
0.7630 7.9102 2.4028
0.5714 7.9261 2.4028
0.3796 7.9375 2.4028
0.1875 7.9443 2.4028
-0.0047 7.9465 2.4028
-0.1969 7.9441 2.4028
-0.3889 7.9370 2.4028
-0.5808 7.9254 2.4028
-0.7723 7.9092 2.4028
-0.9633 7.8884 2.4028
-1.1539 7.8630 2.4028
-1.3437 7.8331 2.4028
-1.5328 7.7986 2.4028
-1.7211 7.7597 2.4028
-1.9083 7.7162 2.4028
-2.0945 7.6682 2.4028
-2.2794 7.6158 2.4028
-2.4631 7.5590 2.4028
-2.6454 7.4978 2.4028
-2.8262 7.4322 2.4028
-3.0053 7.3623 2.4028
-3.1828 7.2882 2.4028
-3.3584 7.2098 2.4028
-3.5321 7.1272 2.4028
-3.7038 7.0405 2.4028
-3.8735 6.9496 2.4028
-4.0408 6.8547 2.4028
-4.2059 6.7558 2.4028
-4.3686 6.6530 2.4028
-4.5288 6.5463 2.4028
-4.6864 6.4358 2.4028
-4.8414 6.3215 2.4028
-4.9935 6.2035 2.4028
-5.1428 6.0818 2.4028
-5.2892 5.9566 2.4028
-5.4325 5.8279 2.4028
-5.5728 5.6958 2.4028
-5.7098 5.5604 2.4028
-5.7856 5.3678 2.3789
-5.7992 5.1252 2.3325
-5.8389 4.9140 2.2995
-5.9571 4.7723 2.2995
-6.0718 4.6277 2.2995
-6.1831 4.4804 2.2995
-6.2909 4.3305 2.2995
-6.2403 4.0770 2.2439
-6.3723 3.9467 2.2559
-6.5921 3.8656 2.2995
-6.6850 3.7059 2.2995
-6.7741 3.5439 2.2995
-6.8592 3.3799 2.2995
-6.9404 3.2138 2.2995
-7.0176 3.0457 2.2995
-7.0907 2.8758 2.2995
-7.1598 2.7042 2.2995
-7.2247 2.5309 2.2995
-7.2854 2.3561 2.2995
-7.3419 2.1798 2.2995
-7.3941 2.0022 2.2995
-7.4421 1.8234 2.2995
-7.4858 1.6433 2.2995
-7.5251 1.4623 2.2995
-7.5600 1.2803 2.2995
-7.5905 1.0975 2.2995
-7.6166 0.9139 2.2995
-7.6383 0.7298 2.2995
-7.6556 0.5451 2.2995
-7.6684 0.3601 2.2995
-7.6767 0.1747 2.2995
-7.6805 -0.0109 2.2995
-7.6798 -0.1965 2.2995
-7.6747 -0.3821 2.2995
-7.6651 -0.5676 2.2995
