ply
format ascii 1.0
element vertex 2109
property float32 x
property float32 y
property float32 z
end_header
-14.7841 13.0724 1.6626
-14.8105 12.4710 1.6291
-14.8359 11.8917 1.5977
-14.8605 11.3325 1.5683
-14.8842 10.7917 1.5407
-14.9072 10.2680 1.5149
-14.9295 9.7599 1.4906
-14.9512 9.2662 1.4679
-14.9723 8.7856 1.4466
-14.9929 8.3172 1.4266
-6.3288 3.3134 0.5935
-15.0326 7.4130 1.3904
-15.0518 6.9755 1.3741
-15.0706 6.5465 1.3589
-15.0891 6.1255 1.3447
-15.1073 5.7116 1.3315
-15.1252 5.3042 1.3192
-15.1428 4.9028 1.3079
-15.1602 4.5067 1.2975
-10.2311 2.7742 0.8682
-10.2921 2.5254 0.8665
-15.3608 3.3777 1.2839
-15.4640 3.0106 1.2839
-15.5585 2.6405 1.2839
-15.6444 2.2676 1.2839
-15.6699 1.8859 1.2797
-15.2937 1.4667 1.2436
-15.3100 1.0957 1.2402
-15.3263 0.7251 1.2376
-15.3426 0.3547 1.2357
-15.3589 -0.0162 1.2346
-15.3752 -0.3878 1.2341
-15.4962 -0.7659 1.2428
-15.5134 -1.1431 1.2439
-15.5307 -1.5224 1.2457
-15.5482 -1.9044 1.2483
-15.5657 -2.2896 1.2516
-15.5835 -2.6783 1.2557
-15.6017 -3.0713 1.2606
-15.6199 -3.4689 1.2663
-15.6384 -3.8717 1.2728
-15.6572 -4.2804 1.2802
-15.6763 -4.6954 1.2885
-15.6956 -5.1176 1.2977
-15.7182 -5.5485 1.3081
-15.7393 -5.9874 1.3193
-15.7608 -6.4356 1.3315
-15.7829 -6.8941 1.3449
-15.8054 -7.3636 1.3594
-15.8285 -7.8452 1.3751
-15.8475 -8.3374 1.3916
-15.8720 -8.8464 1.4099
-15.8973 -9.3708 1.4297
-15.9234 -9.9122 1.4509
-15.9480 -10.4703 1.4736
-15.9760 -11.0501 1.4982
-16.0050 -11.6516 1.5246
-16.0352 -12.2771 1.5531
-16.0622 -12.9249 1.5833
-16.0942 -13.6054 1.8513
-16.1276 -14.3158 1.8922
-16.1626 -15.0604 1.9362
-16.1990 -15.8423 1.9836
-14.2802 -14.6572 1.7895
-13.9370 -15.0140 1.7895
-13.5845 -15.3624 1.7895
-16.3679 -19.4365 2.2151
-16.4148 -20.4762 2.2854
-16.0122 -20.9936 2.2971
-15.5149 -21.3942 2.2971
-15.0071 -21.7823 2.2971
-14.4892 -22.1576 2.2971
-13.9614 -22.5199 2.2971
-13.4242 -22.8689 2.2971
-12.8779 -23.2043 2.2971
-10.2261 -19.5231 1.9063
-9.8170 -19.8971 1.9177
-5.1546 -11.1162 1.0584
-4.8877 -11.2446 1.0584
-4.6175 -11.3661 1.0584
-4.3441 -11.4808 1.0584
-4.0676 -11.5884 1.0584
-3.7884 -11.6889 1.0584
-3.5066 -11.7823 1.0584
-7.3132 -26.9362 2.4021
-6.6630 -27.1151 2.4021
-6.0082 -27.2772 2.4021
-5.3493 -27.4224 2.4021
-4.6866 -27.5507 2.4021
-1.3417 -9.2309 0.8016
-1.1156 -9.2376 0.7995
-0.8905 -9.2443 0.7978
-0.6661 -9.2510 0.7967
-0.4422 -9.2577 0.7961
-0.2184 -9.2643 0.7960
0.0054 -9.2710 0.7963
0.2295 -9.2776 0.7972
0.4543 -9.2843 0.7985
1.9528 -26.6870 2.2990
2.5963 -26.6274 2.2990
3.2379 -26.5513 2.2990
3.8772 -26.4587 2.2990
4.5139 -26.3497 2.2990
4.9866 -25.4059 2.2273
5.3024 -23.9401 2.1102
5.2561 -21.2828 1.8873
5.5014 -20.1700 1.8007
5.8354 -19.5241 1.7560
6.3126 -19.4001 1.7589
6.5702 -18.6485 1.7056
6.6937 -17.6285 1.6276
6.8663 -16.8454 1.5711
7.0272 -16.1153 1.5194
7.1778 -15.4321 1.4720
6.4431 -13.0205 1.2573
6.6407 -12.6422 1.2369
6.8372 -12.2861 1.2188
6.3803 -10.8401 1.0913
6.7727 -10.8960 1.1140
7.1541 -10.9127 1.1341
6.3810 -9.2387 0.9768
6.6330 -9.1242 0.9822
7.0184 -9.1797 1.0072
7.3895 -9.1959 1.0293
6.5300 -7.7359 0.8842
6.7457 -7.6105 0.8892
7.1319 -7.6650 0.9164
7.5002 -7.6802 0.9407
7.8874 -7.6957 0.9668
8.1628 -7.5883 0.9789
6.9167 -6.1252 0.8125
6.8873 -5.8084 0.7933
6.8999 -5.5395 0.7800
6.9110 -5.2790 0.7676
6.8745 -4.9929 0.7509
6.9758 -4.8134 0.7500
7.0766 -4.6347 0.7496
7.2993 -4.5324 0.7624
7.4860 -4.4014 0.7716
7.6887 -4.2741 0.7827
7.7695 -4.0764 0.7818
8.1971 -4.0514 0.8159
8.2593 -3.8367 0.8138
8.2693 -3.6011 0.8071
8.2791 -3.3699 0.8010
8.2888 -3.1426 0.7956
8.2983 -2.9189 0.7906
8.3076 -2.6985 0.7862
8.3169 -2.4810 0.7824
8.3260 -2.2662 0.7790
8.3350 -2.0537 0.7762
8.3439 -1.8432 0.7738
8.3528 -1.6346 0.7719
8.3616 -1.4275 0.7705
8.3703 -1.2216 0.7695
8.3790 -1.0168 0.7690
8.3877 -0.8127 0.7689
8.3963 -0.6092 0.7693
8.4050 -0.4060 0.7702
8.4136 -0.2028 0.7715
8.4222 0.0006 0.7732
8.4309 0.2044 0.7754
8.4395 0.4088 0.7781
8.4483 0.6141 0.7812
8.4570 0.8206 0.7848
8.4658 1.0285 0.7889
8.4747 1.2381 0.7934
8.4837 1.4496 0.7985
8.4928 1.6633 0.8041
8.5020 1.8796 0.8102
8.5113 2.0986 0.8169
8.5207 2.3207 0.8241
8.5303 2.5463 0.8320
8.5400 2.7757 0.8404
8.5499 3.0092 0.8495
8.5338 3.2374 0.8566
8.5441 3.4798 0.8670
8.5546 3.7276 0.8782
8.5654 3.9813 0.8901
8.5764 4.2414 0.9028
8.6141 4.5224 0.9192
8.6258 4.7980 0.9338
8.6379 5.0819 0.9493
8.6503 5.3748 0.9659
8.9206 5.8463 1.0128
8.9343 6.1690 1.0322
8.9485 6.5037 1.0530
8.9633 6.8516 1.0751
8.9787 7.2138 1.0988
8.9947 7.5916 1.1242
9.0115 7.9867 1.1513
9.0290 8.4006 1.1804
9.0475 8.8353 1.2117
9.0669 9.2929 1.2452
9.0874 9.7760 1.2814
9.1091 10.2872 1.3204
9.1322 10.8298 1.3626
9.1567 11.4074 1.4083
9.1829 12.0243 1.4578
9.2110 12.6854 1.5118
9.2137 13.3568 1.5661
9.2421 14.1164 1.6298
9.3091 14.9978 1.7063
9.3488 15.9076 1.7849
9.3911 16.9020 1.8717
9.4375 17.9972 1.9684
9.4891 19.2108 2.0768
9.5465 20.5649 2.1989
9.4455 21.7064 2.2971
8.9133 21.9168 2.2971
8.3766 22.1149 2.2971
7.8359 22.3006 2.2971
7.2913 22.4738 2.2971
6.7432 22.6346 2.2971
6.1969 22.8016 2.2990
5.6419 22.9372 2.2990
5.0707 22.9988 2.2929
4.5241 23.1702 2.2990
3.9617 23.2675 2.2990
3.3973 23.3519 2.2990
2.9582 24.4739 2.4021
2.3654 24.5352 2.4021
1.7713 24.5830 2.4021
1.1764 24.6173 2.4021
0.5809 24.6381 2.4021
-0.0149 24.6453 2.4021
-0.6108 24.6389 2.4021
-1.2064 24.6191 2.4021
-1.8015 24.5856 2.4021
-2.3958 24.5387 2.4021
-2.9889 24.4782 2.4021
-3.5806 24.4042 2.4021
-4.1706 24.3168 2.4021
-4.7587 24.2158 2.4021
-5.1148 23.0656 2.2989
-5.6730 22.9434 2.2989
-6.2284 22.8085 2.2989
-6.7809 22.6609 2.2989
-7.3302 22.5008 2.2989
-7.8759 22.3279 2.2989
-8.4178 22.1427 2.2989
-8.9556 21.9449 2.2989
-9.5851 21.9547 2.3221
-10.1194 21.7301 2.3221
-10.6487 21.4931 2.3221
-11.1729 21.2440 2.3221
-11.6916 20.9827 2.3221
-12.2045 20.7094 2.3221
-9.1460 14.6953 1.6708
-9.6672 14.7268 1.6991
-13.4330 19.4232 2.2758
-13.9106 19.1094 2.2758
-14.3814 18.7843 2.2758
-14.8450 18.4482 2.2758
-15.3011 18.1012 2.2758
-15.7496 17.7434 2.2758
-16.1902 17.3749 2.2758
-14.6982 15.0283 2.0123
-14.7280 14.3480 1.9663
-14.7566 13.6964 1.9232
-14.7841 13.0711 1.8830
-14.8105 12.4698 1.8453
-14.8360 11.8905 1.8100
-14.8605 11.3313 1.7770
-14.8843 10.7906 1.7460
-14.9073 10.2669 1.7170
-14.9296 9.7588 1.6898
-14.9513 9.2650 1.6643
-14.9724 8.7845 1.6404
-14.9929 8.3162 1.6181
-6.3287 3.3129 0.6733
-15.0326 7.4120 1.5776
-15.0519 6.9744 1.5593
-15.0707 6.5455 1.5423
-15.0892 6.1244 1.5265
-15.1074 5.7106 1.5118
-15.1252 5.3032 1.4982
-15.1429 4.9018 1.4857
-15.1603 4.5057 1.4741
-10.2310 2.7734 0.9866
-10.2925 2.5248 0.9849
-15.2113 3.3438 1.4453
-15.2280 2.9636 1.4375
-15.2446 2.5862 1.4306
-15.2611 2.2110 1.4246
-15.2774 1.8377 1.4194
-15.2938 1.4657 1.4151
-15.3101 1.0947 1.4116
-15.3264 0.7242 1.4089
-15.3426 0.3537 1.4071
-15.3589 -0.0172 1.4060
-15.3752 -0.3888 1.4058
-15.4960 -0.7669 1.4160
-15.5132 -1.1441 1.4175
-15.5305 -1.5234 1.4199
-15.5479 -1.9054 1.4231
-15.5655 -2.2905 1.4272
-15.5832 -2.6793 1.4321
-15.6018 -3.0723 1.4381
-15.6201 -3.4699 1.4449
-15.6386 -3.8728 1.4526
-15.6573 -4.2814 1.4614
-15.6764 -4.6965 1.4711
-15.6958 -5.1187 1.4820
-15.7183 -5.5496 1.4941
-15.7393 -5.9885 1.5072
-15.7609 -6.4367 1.5216
-15.7829 -6.8952 1.5371
-15.8054 -7.3647 1.5540
-15.8286 -7.8463 1.5722
-15.8478 -8.3387 1.5915
-15.8724 -8.8477 1.6128
-15.8976 -9.3722 1.6357
-15.9238 -9.9136 1.6603
-15.9480 -10.4715 1.6865
-15.9760 -11.0513 1.7150
-16.0050 -11.6529 1.7456
-16.0352 -12.2783 1.7785
-16.0622 -12.9263 1.8134
-16.0942 -13.6068 2.0870
-16.1276 -14.3172 2.1333
-16.1626 -15.0618 2.1832
-16.1988 -15.8435 2.2369
-16.2378 -16.6679 2.2949
-13.6685 -14.7260 1.9796
-13.3068 -15.0496 1.9775
-15.0444 -17.8664 2.2971
-14.6214 -18.2406 2.2971
-14.1887 -18.6043 2.2971
-13.7466 -18.9572 2.2971
-13.2953 -19.2991 2.2971
-12.8352 -19.6297 2.2971
-12.3665 -19.9487 2.2971
-11.8896 -20.2561 2.2971
-5.2546 -9.4687 1.0584
-5.0276 -9.5992 1.0584
-4.7973 -9.7238 1.0584
-4.5638 -9.8427 1.0584
-4.3272 -9.9556 1.0584
-4.0876 -10.0625 1.0584
-3.8453 -10.1634 1.0584
-3.6004 -10.2580 1.0584
-3.3997 -10.4901 1.0731
-3.4330 -11.5359 1.1708
-6.4724 -23.8407 2.4021
-5.8967 -23.9980 2.4021
-5.3170 -24.1406 2.4021
-4.7337 -24.2683 2.4021
-4.1472 -24.3811 2.4021
-1.3417 -9.2309 0.9058
-1.1156 -9.2376 0.9034
-0.8905 -9.2443 0.9016
-0.6661 -9.2510 0.9004
-0.4422 -9.2577 0.8997
-0.2184 -9.2643 0.8995
0.0054 -9.2710 0.8999
0.2295 -9.2776 0.9009
0.4542 -9.2843 0.9024
1.7279 -23.6156 2.2990
2.2973 -23.5633 2.2990
2.8652 -23.4966 2.2990
3.4310 -23.4152 2.2990
3.9945 -23.3196 2.2990
4.5552 -23.2096 2.2990
5.1127 -23.0853 2.2990
5.1661 -20.9198 2.0959
5.3815 -19.7320 1.9902
5.8349 -19.5240 1.9837
6.3124 -19.4010 1.9870
6.5700 -18.6493 1.9266
6.6935 -17.6293 1.8384
6.9319 -17.0076 1.7915
7.0944 -16.2705 1.7324
7.1776 -15.4329 1.6622
6.5658 -13.2696 1.4468
6.6404 -12.6426 1.3965
6.1731 -11.0935 1.2424
6.4031 -10.8797 1.2363
6.7722 -10.8960 1.2574
6.2101 -9.4735 1.1111
6.3998 -9.2666 1.1055
6.6615 -9.1641 1.1131
7.0179 -9.1797 1.1363
7.3889 -9.1959 1.1611
6.5731 -7.7876 1.0040
6.7805 -7.6505 1.0081
7.1311 -7.6649 1.0334
7.4996 -7.6803 1.0606
7.8867 -7.6958 1.0899
8.1629 -7.5891 1.1035
6.9172 -6.1263 0.9158
6.7477 -5.6913 0.8759
6.7778 -5.4421 0.8634
6.8995 -5.2708 0.8634
6.8743 -4.9932 0.8459
6.9755 -4.8138 0.8448
7.0763 -4.6351 0.8442
7.2989 -4.5327 0.8584
7.4403 -4.3751 0.8634
7.5345 -4.1889 0.8634
7.7689 -4.0767 0.8798
8.1961 -4.0515 0.9180
8.2593 -3.8373 0.9156
8.2693 -3.6017 0.9080
8.2791 -3.3704 0.9010
8.2888 -3.1431 0.8947
8.2983 -2.9194 0.8890
8.3076 -2.6990 0.8839
8.3168 -2.4815 0.8795
8.3260 -2.2667 0.8755
8.3350 -2.0542 0.8722
8.3439 -1.8438 0.8694
8.3528 -1.6351 0.8671
8.3616 -1.4280 0.8654
8.3703 -1.2222 0.8641
8.3790 -1.0173 0.8634
8.3877 -0.8133 0.8632
8.3963 -0.6097 0.8635
8.4049 -0.4065 0.8643
8.4136 -0.2033 0.8656
8.4222 0.0000 0.8674
8.4308 0.2038 0.8697
8.4395 0.4082 0.8726
8.4482 0.6136 0.8760
8.4570 0.8201 0.8798
8.4658 1.0280 0.8843
8.4747 1.2376 0.8893
8.4837 1.4491 0.8948
8.4928 1.6628 0.9009
8.5019 1.8790 0.9076
8.5112 2.0980 0.9150
8.5207 2.3201 0.9229
8.5302 2.5457 0.9316
8.5400 2.7751 0.9409
8.5499 3.0087 0.9509
8.5338 3.2368 0.9587
8.5441 3.4792 0.9702
8.5546 3.7270 0.9826
8.5653 3.9807 0.9958
8.5764 4.2408 1.0099
8.6141 4.5218 1.0281
8.6258 4.7974 1.0442
8.6379 5.0813 1.0614
8.6503 5.3742 1.0798
8.9206 5.8456 1.1321
8.9343 6.1683 1.1537
8.9485 6.5030 1.1767
8.9633 6.8509 1.2014
8.9786 7.2130 1.2277
8.9947 7.5909 1.2559
9.0114 7.9859 1.2861
9.0290 8.3998 1.3184
9.0475 8.8345 1.3532
9.0669 9.2921 1.3905
9.0874 9.7751 1.4308
9.1091 10.2863 1.4742
9.1321 10.8288 1.5211
9.1567 11.4064 1.5720
9.1829 12.0233 1.6272
9.2109 12.6844 1.6873
9.2136 13.3557 1.7477
9.2428 14.1163 1.8187
9.3091 14.9966 1.9039
9.3488 15.9064 1.9914
9.3910 16.9007 2.0881
9.4375 17.9958 2.1959
9.4094 19.0481 2.2971
8.9413 19.2597 2.2971
8.4687 19.4604 2.2971
7.9920 19.6501 2.2971
7.5112 19.8287 2.2971
7.0266 19.9962 2.2971
6.5386 20.1524 2.2971
6.0523 20.3143 2.2990
5.5576 20.4480 2.2990
5.0600 20.5702 2.2990
4.5600 20.6811 2.2990
4.0577 20.7804 2.2990
3.5533 20.8681 2.2990
3.0472 20.9443 2.2990
2.6534 21.9510 2.4021
2.1217 22.0062 2.4021
1.5889 22.0494 2.4021
1.0552 22.0802 2.4021
0.5210 22.0989 2.4021
-0.0134 22.1053 2.4021
-0.5479 22.0995 2.4021
-1.0822 22.0815 2.4021
-1.6159 22.0513 2.4021
-2.1489 22.0088 2.4021
-2.6809 21.9541 2.4021
-3.2115 21.8872 2.4021
-3.7407 21.8082 2.4021
-4.2680 21.7171 2.4021
-4.7932 21.6139 2.4021
-5.0991 20.6212 2.3041
-5.5855 20.4527 2.2989
-6.0807 20.3195 2.2989
-6.5729 20.1748 2.2989
-7.0619 20.0189 2.2989
-7.5474 19.8517 2.2989
-8.0292 19.6733 2.2989
-8.5070 19.4838 2.2989
-8.9806 19.2832 2.2989
-9.3549 18.8803 2.2758
-9.8146 18.6601 2.2758
-10.2695 18.4292 2.2758
-10.7193 18.1878 2.2758
-9.1618 14.7195 1.8677
-9.6571 14.7103 1.8942
-12.0353 17.4009 2.2758
-12.4622 17.1182 2.2758
-13.0853 17.0901 2.3116
-13.5674 16.8591 2.3221
-13.9829 16.5403 2.3221
-14.3913 16.2116 2.3221
-14.7924 15.8733 2.3221
-14.6982 15.0270 2.2476
-14.7281 14.3467 2.1963
-14.7567 13.6952 2.1485
-14.7842 13.0699 2.1038
-14.8106 12.4686 2.0619
-14.8360 11.8893 2.0228
-13.3894 10.2084 1.7895
-14.8843 10.7894 1.9517
-14.9073 10.2657 1.9195
-14.9296 9.7577 1.8894
-14.9513 9.2639 1.8611
-14.9724 8.7834 1.8347
-14.9930 8.3151 1.8099
-6.3285 3.3124 0.7532
-15.0327 7.4109 1.7651
-15.0519 6.9734 1.7450
-15.0707 6.5444 1.7262
-15.0892 6.1234 1.7087
-15.1074 5.7095 1.6925
-15.1253 5.3022 1.6775
-15.1429 4.9008 1.6637
-15.1603 4.5047 1.6511
-10.2309 2.7727 1.1052
-10.2930 2.5242 1.1035
-15.2113 3.3428 1.6195
-15.2280 2.9627 1.6111
-15.2446 2.5852 1.6036
-15.2611 2.2100 1.5971
-15.2775 1.8367 1.5916
-15.2938 1.4647 1.5870
-15.3101 1.0937 1.5833
-15.3264 0.7232 1.5806
-15.3427 0.3527 1.5787
-15.3589 -0.0182 1.5779
-15.3753 -0.3898 1.5779
-15.4957 -0.7679 1.5895
-15.5129 -1.1450 1.5915
-15.5302 -1.5244 1.5944
-15.5477 -1.9064 1.5983
-15.5652 -2.2915 1.6031
-15.5829 -2.6803 1.6090
-15.6020 -3.0734 1.6159
-15.6202 -3.4710 1.6239
-15.6387 -3.8738 1.6329
-15.6575 -4.2825 1.6429
-15.6765 -4.6976 1.6542
-15.6959 -5.1198 1.6666
-15.7183 -5.5507 1.6805
-15.7394 -5.9895 1.6956
-15.7609 -6.4378 1.7120
-15.7829 -6.8963 1.7297
-15.8055 -7.3658 1.7490
-15.8286 -7.8475 1.7698
-15.8482 -8.3401 1.7918
-15.8727 -8.8491 1.8160
-15.8980 -9.3736 1.8421
-15.9241 -9.9150 1.8701
-15.9480 -10.4728 1.8999
-15.9760 -11.0525 1.9322
-16.0051 -11.6542 1.9670
-16.0353 -12.2796 2.0043
-16.0623 -12.9276 2.0439
-15.9137 -13.4555 2.2971
-15.5988 -13.8490 2.2971
-15.2738 -14.2348 2.2971
-14.9391 -14.6128 2.2971
-14.5947 -14.9825 2.2971
-14.2408 -15.3439 2.2971
-13.8777 -15.6965 2.2971
-13.5055 -16.0402 2.2971
-13.1246 -16.3746 2.2971
-12.7351 -16.6996 2.2971
-12.3372 -17.0149 2.2971
-9.9574 -14.4549 1.9171
-9.6404 -14.7447 1.9227
-5.1123 -8.2473 1.0583
-4.9148 -8.3738 1.0583
-4.7140 -8.4952 1.0583
-4.5101 -8.6117 1.0584
-4.3032 -8.7230 1.0584
-4.0935 -8.8290 1.0584
-3.8811 -8.9298 1.0584
-3.6660 -9.0252 1.0584
-3.4485 -9.1152 1.0584
-3.3715 -9.6062 1.1051
-3.3997 -10.4908 1.1966
-3.4331 -11.5367 1.3056
-5.8037 -21.3787 2.4021
-5.2873 -21.5190 2.4021
-4.7673 -21.6461 2.4021
-4.2442 -21.7601 2.4021
-3.7183 -21.8607 2.4021
-1.3416 -9.2309 1.0103
-1.1155 -9.2376 1.0076
-0.8904 -9.2444 1.0056
-0.6661 -9.2510 1.0042
-0.4421 -9.2577 1.0034
-0.2184 -9.2643 1.0033
0.0054 -9.2710 1.0037
0.2295 -9.2776 1.0048
0.4542 -9.2843 1.0065
1.5491 -21.1735 2.2990
2.0596 -21.1270 2.2990
2.5688 -21.0675 2.2990
3.0762 -20.9951 2.2990
3.5815 -20.9099 2.2990
4.0843 -20.8119 2.2990
4.5843 -20.7011 2.2990
5.0749 -20.5521 2.2962
5.2918 -19.4043 2.1823
5.8345 -19.5239 2.2118
6.3162 -19.4141 2.2170
6.5075 -18.4732 2.1278
6.6933 -17.6301 2.0497
6.9317 -17.0084 1.9973
7.0942 -16.2713 1.9313
7.1775 -15.4337 1.8529
6.5466 -13.2317 1.6080
6.6402 -12.6431 1.5565
6.0566 -10.8850 1.3585
6.4026 -10.8798 1.3777
6.7716 -10.8960 1.4010
6.2391 -9.5185 1.2438
6.2922 -9.1117 1.2110
6.6610 -9.1641 1.2400
7.0173 -9.1797 1.2657
7.3883 -9.1959 1.2932
6.4723 -7.6688 1.1010
6.7799 -7.6505 1.1225
7.1305 -7.6649 1.1506
7.4988 -7.6802 1.1808
7.8860 -7.6958 1.2133
8.1629 -7.5899 1.2285
6.9177 -6.1273 1.0195
6.7478 -5.6919 0.9748
6.7328 -5.4065 0.9545
6.7788 -5.1791 0.9439
6.8741 -4.9936 0.9411
6.9753 -4.8142 0.9398
7.0761 -4.6355 0.9390
7.1756 -4.4567 0.9386
7.3327 -4.3124 0.9463
7.5290 -4.1864 0.9594
7.8263 -4.1074 0.9854
8.1952 -4.0516 1.0204
8.2593 -3.8379 1.0177
8.2693 -3.6023 1.0091
8.2791 -3.3710 1.0012
8.2887 -3.1437 0.9941
8.2982 -2.9200 0.9876
8.3076 -2.6996 0.9819
8.3168 -2.4821 0.9767
8.3259 -2.2673 0.9723
8.3350 -2.0548 0.9684
8.3439 -1.8443 0.9652
8.3528 -1.6357 0.9625
8.3615 -1.4286 0.9604
8.3703 -1.2227 0.9590
8.3790 -1.0179 0.9580
8.3876 -0.8138 0.9577
8.3963 -0.6103 0.9579
8.4049 -0.4071 0.9586
8.4135 -0.2039 0.9600
8.4222 -0.0005 0.9619
8.4308 0.2033 0.9643
8.4395 0.4077 0.9673
8.4482 0.6130 0.9709
8.4570 0.8195 0.9751
8.4658 1.0274 0.9799
8.4747 1.2370 0.9853
8.4837 1.4485 0.9913
8.4927 1.6622 0.9980
8.5019 1.8784 1.0053
8.5112 2.0974 1.0133
8.5206 2.3196 1.0220
8.5302 2.5451 1.0314
8.5400 2.7745 1.0416
8.5499 3.0081 1.0525
8.5337 3.2362 1.0611
8.5440 3.4786 1.0737
8.5545 3.7264 1.0872
8.5653 3.9801 1.1017
8.5764 4.2402 1.1172
8.6141 4.5212 1.1372
8.6258 4.7968 1.1549
8.6378 5.0806 1.1738
8.6503 5.3735 1.1940
8.9205 5.8449 1.2517
8.9342 6.1676 1.2755
8.9485 6.5023 1.3008
8.9632 6.8501 1.3279
8.9786 7.2123 1.3569
8.9946 7.5901 1.3879
9.0114 7.9851 1.4211
9.0290 8.3990 1.4567
9.0474 8.8336 1.4950
9.0669 9.2912 1.5362
9.0874 9.7742 1.5805
9.1091 10.2854 1.6283
9.1321 10.8279 1.6800
9.1566 11.4054 1.7360
9.1828 12.0223 1.7969
9.2109 12.6833 1.8631
9.2136 13.3546 1.9297
9.2435 14.1163 2.0081
9.3090 14.9955 2.1019
9.3487 15.9051 2.1983
9.3589 16.8418 2.2971
8.9442 17.0540 2.2971
8.5248 17.2564 2.2971
8.1012 17.4490 2.2971
7.6734 17.6316 2.2971
7.2417 17.8043 2.2971
6.8064 17.9669 2.2971
6.3675 18.1193 2.2971
5.9304 18.2768 2.2990
5.4850 18.4088 2.2990
5.0368 18.5306 2.2990
4.5860 18.6419 2.2990
4.1329 18.7428 2.2990
3.6777 18.8333 2.2990
3.2207 18.9132 2.2990
2.8858 19.8337 2.4021
2.4050 19.8951 2.4021
1.9231 19.9454 2.4021
1.4401 19.9846 2.4021
0.9565 20.0127 2.4021
0.4723 20.0297 2.4021
-0.0122 20.0355 2.4021
-0.4967 20.0301 2.4021
-0.9809 20.0137 2.4021
-1.4647 19.9860 2.4021
-1.9478 19.9473 2.4021
-2.4299 19.8974 2.4021
-2.9108 19.8364 2.4021
-3.3903 19.7644 2.4021
-3.8682 19.6813 2.4021
-4.3441 19.5872 2.4021
-4.8178 19.4822 2.4021
-5.1619 18.9002 2.3443
-5.5104 18.4124 2.2989
-5.9562 18.2806 2.2989
-6.3990 18.1386 2.2989
-6.8387 17.9863 2.2989
-7.2749 17.8238 2.2989
-7.7074 17.6512 2.2989
-8.1361 17.4686 2.2989
-8.5606 17.2760 2.2989
-8.9809 17.0735 2.2989
-9.4341 16.9286 2.3080
-9.9066 16.8076 2.3221
-9.1884 14.7611 2.0682
-9.6544 14.7050 2.0910
-11.1206 16.0771 2.3221
-11.5142 15.8147 2.3221
-11.9019 15.5431 2.3221
-12.2834 15.2622 2.3221
-12.6586 14.9725 2.3221
-13.0272 14.6737 2.3221
-13.2450 14.2116 2.2971
-13.5961 13.8990 2.2971
-13.9401 13.5779 2.2971
-14.2769 13.2486 2.2971
-14.6061 12.9112 2.2971
-14.8106 12.4674 2.2791
-14.8361 11.8881 2.2360
-12.1782 9.2840 1.7994
-12.4287 9.0084 1.8019
-14.9074 10.2646 2.1225
-14.9297 9.7565 2.0894
-14.9514 9.2628 2.0584
-14.9725 8.7823 2.0293
-14.9930 8.3140 2.0022
-6.3283 3.3118 0.8333
-15.0327 7.4099 1.9531
-15.0520 6.9723 1.9310
-15.0708 6.5434 1.9104
-15.0893 6.1224 1.8913
-15.1075 5.7085 1.8736
-15.1253 5.3012 1.8573
-15.1430 4.8998 1.8422
-15.1604 4.5037 1.8284
-10.2308 2.7720 1.2240
-10.2934 2.5236 1.2224
-15.2114 3.3418 1.7942
-15.2281 2.9617 1.7850
-15.2447 2.5842 1.7770
-15.2611 2.2091 1.7700
-15.2775 1.8357 1.7641
-15.2939 1.4637 1.7592
-15.3102 1.0927 1.7554
-15.3264 0.7222 1.7526
-15.3427 0.3517 1.7508
-15.3590 -0.0192 1.7501
-15.3753 -0.3908 1.7503
-15.4955 -0.7689 1.7634
-15.5127 -1.1460 1.7658
-15.5300 -1.5254 1.7693
-15.5474 -1.9074 1.7738
-15.5650 -2.2925 1.7795
-15.5827 -2.6812 1.7862
-15.6021 -3.0744 1.7942
-15.6204 -3.4721 1.8033
-15.6389 -3.8749 1.8135
-15.6576 -4.2836 1.8249
-15.6767 -4.6987 1.8377
-15.6961 -5.1209 1.8517
-15.7183 -5.5517 1.8674
-15.7394 -5.9906 1.8844
-15.7609 -6.4389 1.9028
-15.7830 -6.8974 1.9228
-15.8055 -7.3669 1.9445
-15.8286 -7.8486 1.9679
-15.8485 -8.3414 1.9926
-15.8731 -8.8504 2.0198
-15.8984 -9.3750 2.0490
-15.9245 -9.9164 2.0804
-14.1179 -9.2720 1.8711
-13.8090 -9.5544 1.8583
-13.5034 -9.8337 1.8468
-13.2009 -10.1102 1.8364
-16.0624 -12.9290 2.2750
-14.4417 -12.2120 2.2971
-14.1547 -12.5681 2.2971
-13.8587 -12.9171 2.2971
-13.5538 -13.2590 2.2971
-13.2402 -13.5933 2.2971
-12.9182 -13.9200 2.2971
-12.5878 -14.2388 2.2971
-12.2494 -14.5494 2.2971
-11.9030 -14.8517 2.2971
-11.5489 -15.1454 2.2971
-11.1873 -15.4303 2.2971
-10.0056 -14.5260 2.1245
-5.0121 -7.6664 1.1025
-4.7569 -7.6745 1.0862
-4.5087 -7.6824 1.0710
-4.2733 -7.7015 1.0583
-4.0882 -7.8067 1.0583
-3.9005 -7.9071 1.0583
-3.7102 -8.0029 1.0583
-3.5175 -8.0938 1.0583
-3.3262 -8.1893 1.0595
-3.3473 -8.8481 1.1335
-3.3715 -9.6069 1.2195
-3.3997 -10.4916 1.3205
-3.4331 -11.5375 1.4408
-5.2589 -19.3732 2.4021
-4.7909 -19.4998 2.4021
-4.3196 -19.6145 2.4021
-3.8456 -19.7173 2.4021
-3.3689 -19.8081 2.4021
-1.0306 -7.0917 0.8566
-0.8590 -7.1137 0.8564
-0.6869 -7.1313 0.8562
-0.5144 -7.1445 0.8560
-0.3416 -7.1534 0.8558
-0.1688 -7.1580 0.8555
0.0041 -7.1582 0.8553
0.1769 -7.1540 0.8551
0.3495 -7.1454 0.8549
0.5218 -7.1326 0.8547
1.8661 -19.1429 2.2990
2.3274 -19.0893 2.2990
1.9654 -13.4148 1.6212
3.2451 -18.9473 2.2990
3.7008 -18.8589 2.2990
4.1540 -18.7591 2.2990
4.6044 -18.6478 2.2990
5.0517 -18.5253 2.2990
5.6106 -18.7762 2.3471
6.0601 -18.6283 2.3471
6.5056 -18.4691 2.3471
6.7003 -17.6498 2.2639
6.8673 -16.8516 2.1831
7.0267 -16.1176 2.1104
7.1773 -15.4345 2.0441
6.5648 -13.2696 1.7788
6.6399 -12.6436 1.7169
6.0224 -10.8244 1.4900
6.4022 -10.8799 1.5194
6.7711 -10.8960 1.5450
6.0460 -9.2245 1.3292
6.3174 -9.1489 1.3408
6.6604 -9.1641 1.3672
7.0167 -9.1797 1.3954
6.1981 -7.7152 1.1961
6.4110 -7.5969 1.2023
6.7793 -7.6505 1.2373
7.1298 -7.6649 1.2681
7.4980 -7.6801 1.3013
7.8853 -7.6958 1.3370
8.1630 -7.5907 1.3537
6.9181 -6.1283 1.1234
6.8056 -5.7413 1.0832
6.7539 -5.4240 1.0548
6.8245 -5.2146 1.0468
6.8738 -4.9940 1.0365
6.9751 -4.8146 1.0350
7.0759 -4.6359 1.0340
7.2209 -4.4854 1.0401
7.3790 -4.3402 1.0485
7.5846 -4.2179 1.0640
7.8257 -4.1077 1.0847
8.1942 -4.0517 1.1230
8.2592 -3.8385 1.1200
8.2693 -3.6028 1.1104
8.2791 -3.3716 1.1017
8.2887 -3.1443 1.0937
8.2982 -2.9206 1.0865
8.3076 -2.7001 1.0800
8.3168 -2.4827 1.0743
8.3259 -2.2678 1.0692
8.3349 -2.0553 1.0649
8.3439 -1.8449 1.0612
8.3527 -1.6362 1.0582
8.3615 -1.4291 1.0558
8.3703 -1.2233 1.0540
8.3790 -1.0184 1.0529
8.3876 -0.8144 1.0524
8.3963 -0.6108 1.0525
8.4049 -0.4076 1.0532
8.4135 -0.2044 1.0546
8.4221 -0.0011 1.0565
8.4308 0.2027 1.0591
8.4395 0.4072 1.0623
8.4482 0.6125 1.0661
8.4569 0.8190 1.0706
8.4658 1.0269 1.0758
8.4747 1.2365 1.0816
8.4836 1.4479 1.0881
8.4927 1.6617 1.0952
8.5019 1.8779 1.1032
8.5112 2.0969 1.1118
8.5206 2.3190 1.1212
8.5302 2.5446 1.1315
8.5399 2.7739 1.1425
8.5498 3.0075 1.1544
8.5337 3.2356 1.1637
8.5440 3.4780 1.1774
8.5545 3.7258 1.1921
8.5653 3.9795 1.2079
8.5763 4.2396 1.2247
8.6141 4.5205 1.2466
8.6258 4.7961 1.2659
8.6378 5.0800 1.2865
8.6502 5.3728 1.3085
8.9205 5.8442 1.3717
8.9342 6.1669 1.3975
8.9484 6.5016 1.4252
8.9632 6.8494 1.4548
8.9786 7.2115 1.4864
8.9946 7.5893 1.5202
9.0114 7.9843 1.5565
9.0289 8.3982 1.5954
9.0474 8.8328 1.6372
9.0668 9.2904 1.6821
9.0873 9.7733 1.7306
9.1090 10.2845 1.7828
9.1321 10.8270 1.8393
9.1566 11.4045 1.9005
9.1828 12.0213 1.9670
9.2108 12.6823 2.0394
9.2135 13.3535 2.1122
9.2441 14.1163 2.1981
9.2959 14.9732 2.2971
8.9263 15.1854 2.2971
8.5521 15.3888 2.2971
8.1735 15.5834 2.2971
7.7907 15.7691 2.2971
7.4038 15.9458 2.2971
7.0131 16.1133 2.2971
6.6188 16.2717 2.2971
6.2263 16.4346 2.2990
5.8250 16.5746 2.2990
5.4208 16.7052 2.2990
5.0138 16.8264 2.2990
4.6042 16.9381 2.2990
4.1922 17.0402 2.2990
3.7781 17.1329 2.2990
3.3620 17.2158 2.2990
2.9443 17.2891 2.2990
2.6382 18.1309 2.4021
2.1987 18.1872 2.4021
1.7581 18.2334 2.4021
1.3166 18.2693 2.4021
0.8744 18.2951 2.4021
0.4317 18.3106 2.4021
-0.0112 18.3159 2.4021
-0.4541 18.3110 2.4021
-0.8968 18.2958 2.4021
-1.3391 18.2704 2.4021
-1.7807 18.2347 2.4021
-2.2214 18.1889 2.4021
-2.6611 18.1329 2.4021
-3.0994 18.0667 2.4021
-3.5361 17.9904 2.4021
-3.9711 17.9040 2.4021
-4.4040 17.8075 2.4021
-4.8347 17.7010 2.4021
-5.2223 17.4487 2.3835
-5.4630 16.7657 2.3068
-5.8487 16.5774 2.2989
-6.2503 16.4376 2.2989
-6.6487 16.2884 2.2989
-7.0437 16.1300 2.2989
-7.4351 15.9624 2.2989
-7.8228 15.7857 2.2989
-8.2064 15.5999 2.2989
-8.5858 15.4052 2.2989
-8.9607 15.2016 2.2989
-9.3311 14.9892 2.2989
-9.7947 14.9175 2.3221
-10.1589 14.6855 2.3221
-10.5178 14.4449 2.3221
-10.7542 14.0431 2.2971
-11.0982 13.7885 2.2971
-11.4364 13.5257 2.2971
-11.7687 13.2549 2.2971
-12.0948 12.9763 2.2971
-12.4145 12.6898 2.2971
-12.7277 12.3958 2.2971
-13.0342 12.0942 2.2971
-13.3337 11.7853 2.2971
-13.6262 11.4692 2.2971
-13.9115 11.1460 2.2971
-12.1811 9.2851 1.9720
-12.4414 9.0165 1.9765
-14.7220 10.1357 2.2971
-14.9297 9.7554 2.2899
-14.9514 9.2617 2.2561
-14.9725 8.7812 2.2245
-14.9931 8.3129 2.1949
-6.3282 3.3113 0.9135
-15.0328 7.4088 2.1415
-15.0520 6.9713 2.1175
-15.0708 6.5423 2.0951
-15.0893 6.1213 2.0744
-15.1075 5.7075 2.0552
-15.1254 5.3001 2.0375
-15.1430 4.8987 2.0212
-15.1604 4.5026 2.0062
-10.2307 2.7713 1.3431
-10.2938 2.5230 1.3416
-15.2114 3.3408 1.9692
-15.2281 2.9607 1.9594
-15.2447 2.5832 1.9508
-15.2612 2.2081 1.9433
-15.2776 1.8347 1.9371
-15.2939 1.4627 1.9319
-15.3102 1.0917 1.9279
-15.3265 0.7212 1.9251
-15.3428 0.3507 1.9233
-15.3590 -0.0202 1.9227
-15.3754 -0.3918 1.9232
-15.4952 -0.7698 1.9378
-15.5124 -1.1470 1.9406
-15.5297 -1.5264 1.9447
-15.5472 -1.9083 1.9499
-15.5647 -2.2935 1.9563
-15.5824 -2.6822 1.9639
-15.6023 -3.0755 1.9730
-15.6205 -3.4731 1.9831
-15.6390 -3.8760 1.9946
-15.6578 -4.2847 2.0074
-13.8768 -4.1602 1.7895
-13.7871 -4.4990 1.7895
-15.7184 -5.5528 2.0547
-15.7394 -5.9917 2.0736
-15.7610 -6.4400 2.0941
-15.7830 -6.8985 2.1164
-15.8055 -7.3681 2.1404
-15.8287 -7.8498 2.1664
-15.8489 -8.3427 2.1939
-15.8734 -8.8518 2.2240
-15.8987 -9.3764 2.2564
-15.9249 -9.9179 2.2912
-15.7360 -10.3359 2.2971
-14.1295 -9.7773 2.0945
-15.2470 -11.1046 2.2971
-13.2689 -10.1633 2.0336
-14.7195 -11.8493 2.2971
-13.2158 -11.1765 2.2971
-12.9523 -11.5015 2.2971
-12.6805 -11.8201 2.2971
-9.8056 -9.5932 1.8164
-9.5619 -9.8177 1.8133
-9.3182 -10.0417 1.8113
-9.0742 -10.2652 1.8103
-8.8335 -10.4931 1.8111
-10.8869 -13.5849 2.2971
-10.5624 -13.8528 2.2971
-10.2389 -14.1233 2.2989
-9.9008 -14.3750 2.2989
-5.0117 -7.6664 1.2056
-4.7565 -7.6745 1.1878
-4.5084 -7.6825 1.1712
-4.2667 -7.6902 1.1558
-4.0309 -7.6977 1.1414
-3.8006 -7.7050 1.1280
-3.5752 -7.7122 1.1156
-3.3545 -7.7193 1.1041
-3.3263 -8.1899 1.1591
-3.3473 -8.8487 1.2401
-3.3715 -9.6076 1.3342
-3.3997 -10.4923 1.4448
-3.4331 -11.5383 1.5764
-4.8065 -17.7076 2.4021
-4.3786 -17.8230 2.4021
-3.9479 -17.9275 2.4021
-3.5145 -18.0211 2.4021
-1.0985 -6.4589 0.8570
-0.9421 -6.4830 0.8568
-0.7852 -6.5031 0.8566
-0.6279 -6.5193 0.8564
-0.4702 -6.5315 0.8562
-0.3123 -6.5398 0.8560
-0.1543 -6.5441 0.8558
0.0038 -6.5444 0.8557
0.1617 -6.5407 0.8555
0.3195 -6.5331 0.8553
0.4770 -6.5215 0.8551
0.6342 -6.5059 0.8549
2.1270 -17.4468 2.2990
1.9578 -13.3641 1.7670
2.9657 -17.3176 2.2990
3.3823 -17.2372 2.2990
3.7966 -17.1463 2.2990
4.2083 -17.0450 2.2990
4.6173 -16.9335 2.2990
5.0232 -16.8117 2.2990
5.5393 -17.0287 2.3471
5.9467 -16.8838 2.3471
6.3502 -16.7287 2.3471
6.7495 -16.5636 2.3471
7.0376 -16.1439 2.3121
7.1829 -15.4476 2.2376
5.4170 -10.9502 1.6054
5.6761 -10.8092 1.6052
6.0440 -10.8640 1.6354
5.5567 -9.4438 1.4422
5.7312 -9.2233 1.4301
6.0293 -9.1998 1.4494
6.3170 -9.1489 1.4659
6.6599 -9.1641 1.4947
7.0161 -9.1797 1.5254
6.2357 -7.7626 1.3155
6.4441 -7.6367 1.3210
6.7787 -7.6505 1.3523
7.1292 -7.6649 1.3859
7.4972 -7.6800 1.4221
7.8846 -7.6959 1.4610
8.1631 -7.5915 1.4793
6.9186 -6.1293 1.2276
6.8057 -5.7420 1.1836
6.7646 -5.4331 1.1542
6.8244 -5.2151 1.1436
6.8736 -4.9944 1.1322
6.9749 -4.8150 1.1304
7.0757 -4.6363 1.1293
7.2206 -4.4857 1.1358
7.3786 -4.3405 1.1449
7.5841 -4.2182 1.1617
7.8251 -4.1080 1.1842
8.1932 -4.0518 1.2258
8.2592 -3.8390 1.2227
8.2692 -3.6034 1.2121
8.2790 -3.3721 1.2024
8.2887 -3.1448 1.1936
8.2982 -2.9211 1.1856
8.3075 -2.7007 1.1785
8.3168 -2.4832 1.1721
8.3259 -2.2684 1.1665
8.3349 -2.0559 1.1616
8.3438 -1.8454 1.1575
8.3527 -1.6368 1.1541
8.3615 -1.4297 1.1514
8.3702 -1.2238 1.1494
8.3789 -1.0190 1.1480
8.3876 -0.8149 1.1474
8.3962 -0.6114 1.1474
8.4049 -0.4081 1.1481
8.4135 -0.2050 1.1494
8.4221 -0.0016 1.1514
8.4308 0.2022 1.1542
8.4394 0.4066 1.1575
8.4482 0.6120 1.1616
8.4569 0.8184 1.1664
8.4657 1.0263 1.1719
8.4746 1.2359 1.1781
8.4836 1.4474 1.1851
8.4927 1.6611 1.1928
8.5019 1.8773 1.2013
8.5112 2.0963 1.2106
8.5206 2.3184 1.2208
8.5302 2.5440 1.2318
8.5399 2.7733 1.2437
8.5498 3.0069 1.2566
8.5337 3.2350 1.2666
8.5440 3.4774 1.2814
8.5545 3.7252 1.2973
8.5653 3.9788 1.3144
8.5763 4.2389 1.3326
8.6140 4.5199 1.3563
8.6257 4.7955 1.3772
8.6378 5.0793 1.3995
8.6502 5.3722 1.4234
8.9205 5.8435 1.4919
8.9342 6.1662 1.5199
8.9484 6.5009 1.5499
8.9632 6.8487 1.5820
8.9785 7.2108 1.6162
8.9946 7.5886 1.6529
9.0113 7.9835 1.6923
9.0289 8.3974 1.7345
9.0474 8.8320 1.7798
9.0668 9.2895 1.8285
9.0873 9.7725 1.8811
9.1090 10.2835 1.9377
9.1320 10.8260 1.9990
9.1565 11.4035 2.0655
9.1827 12.0203 2.1376
9.2108 12.6813 2.2162
9.2135 13.3524 2.2951
9.0844 13.8713 2.3471
8.6632 13.9530 2.3260
8.2157 13.9755 2.2971
7.8717 14.1634 2.2971
7.5235 14.3431 2.2971
7.1713 14.5145 2.2971
6.8154 14.6776 2.2971
6.4560 14.8324 2.2971
6.0983 14.9911 2.2990
5.7320 15.1290 2.2990
5.3628 15.2583 2.2990
4.9907 15.3789 2.2990
4.6161 15.4909 2.2990
4.2391 15.5940 2.2990
3.8599 15.6884 2.2990
3.4786 15.7739 2.2990
3.0956 15.8506 2.2990
2.7841 16.3475 2.3610
2.4292 16.6935 2.4021
2.0245 16.7455 2.4021
1.6188 16.7881 2.4021
1.2123 16.8213 2.4021
0.8051 16.8451 2.4021
0.3975 16.8594 2.4021
-0.0103 16.8643 2.4021
-0.4182 16.8597 2.4021
-0.8258 16.8456 2.4021
-1.2330 16.8221 2.4021
-1.6397 16.7891 2.4021
-2.0455 16.7468 2.4021
-2.4502 16.6950 2.4021
-2.8537 16.6338 2.4021
-3.2558 16.5632 2.4021
-3.6562 16.4834 2.4021
-4.0548 16.3942 2.4021
-4.4512 16.2958 2.4021
-4.8454 16.1881 2.4021
-5.2371 16.0714 2.4021
-5.3843 15.2601 2.2989
-5.7538 15.1309 2.2989
-6.1204 14.9931 2.2989
-6.4838 14.8468 2.2989
-6.8439 14.6920 2.2989
-7.2004 14.5287 2.2989
-7.5532 14.3572 2.2989
-7.9021 14.1774 2.2989
-8.2468 13.9894 2.2989
-8.5873 13.7932 2.2989
-8.9232 13.5892 2.2989
-9.2546 13.3772 2.2989
-9.5737 13.1473 2.2971
-9.8949 12.9200 2.2971
-10.2109 12.6850 2.2971
-10.5215 12.4426 2.2971
-8.4339 9.4982 1.7895
-8.6671 9.2980 1.7895
-11.4193 11.6715 2.2971
-11.7067 11.4003 2.2971
-11.9878 11.1222 2.2971
-12.2625 10.8374 2.2971
-12.5307 10.5460 2.2971
-12.7921 10.2481 2.2971
-13.0467 9.9439 2.2971
-13.2942 9.6335 2.2971
-13.5345 9.3171 2.2971
-13.7675 8.9949 2.2971
-13.9931 8.6670 2.2971
-14.2110 8.3335 2.2971
-14.4211 7.9947 2.2971
-6.3280 3.3107 0.9940
-14.8176 7.3016 2.2971
-15.0037 6.9478 2.2971
-15.0709 6.5413 2.2804
-15.0894 6.1203 2.2580
-15.1075 5.7065 2.2373
-15.1254 5.2991 2.2182
-15.1431 4.8977 2.2006
-15.1605 4.5016 2.1845
-10.2150 2.7664 1.4604
-10.2943 2.5224 1.4611
-12.6913 2.7865 1.7895
-12.7678 2.4815 1.7895
-15.2447 2.5822 2.1251
-15.2612 2.2071 2.1172
-15.2776 1.8337 2.1105
-15.2940 1.4618 2.1051
-15.3102 1.0907 2.1009
-15.3265 0.7202 2.0980
-15.3428 0.3497 2.0963
-15.3591 -0.0211 2.0958
-15.3754 -0.3928 2.0965
-15.4950 -0.7708 2.1126
-15.5122 -1.1480 2.1159
-15.5295 -1.5273 2.1205
-15.5469 -1.9093 2.1264
-15.5645 -2.2944 2.1335
-15.5822 -2.6832 2.1420
-15.6024 -3.0765 2.1522
-15.6207 -3.4742 2.1635
-15.6392 -3.8770 2.1762
-15.6579 -4.2857 2.1903
-13.7030 -4.1090 1.9283
-13.4100 -4.3769 1.8995
-13.1248 -4.6375 1.8726
-12.8470 -4.8915 1.8474
-15.7610 -6.4411 2.2860
-15.6919 -6.8598 2.2971
-15.5364 -7.2438 2.2971
-15.3713 -7.6241 2.2971
-15.1968 -8.0006 2.2971
-15.0129 -8.3730 2.2971
-14.8197 -8.7411 2.2971
-14.6173 -9.1046 2.2971
-14.4058 -9.4633 2.2971
-14.1323 -9.7803 2.2885
-13.9559 -10.1654 2.2971
-13.2683 -10.1639 2.2218
-13.4711 -10.8454 2.2971
-12.1789 -10.3007 2.2971
-11.9353 -10.5995 2.2971
-11.6842 -10.8924 2.2971
-9.8143 -9.6025 1.9731
-9.5651 -9.8219 1.9688
-9.3201 -10.0446 1.9665
-9.0755 -10.2675 1.9653
-8.8349 -10.4956 1.9663
-10.0358 -12.5240 2.2989
-9.7362 -12.7702 2.2989
-9.4304 -13.0091 2.2989
-9.1186 -13.2403 2.2989
-5.0113 -7.6664 1.3090
-4.7562 -7.6746 1.2897
-4.5080 -7.6825 1.2718
-4.2664 -7.6902 1.2550
-4.0306 -7.6977 1.2394
-3.8003 -7.7050 1.2250
-3.5750 -7.7122 1.2115
-3.3543 -7.7193 1.1991
-3.3263 -8.1905 1.2590
-3.3473 -8.8493 1.3470
-3.3715 -9.6083 1.4492
-3.3998 -10.4930 1.5694
-3.4331 -11.5391 1.7124
-4.4247 -16.3021 2.4021
-4.0307 -16.4079 2.4021
-3.6341 -16.5038 2.4021
-3.2352 -16.5898 2.4021
-1.0113 -5.9470 0.8572
-0.8674 -5.9692 0.8570
-0.7230 -5.9878 0.8568
-0.5781 -6.0027 0.8566
-0.4329 -6.0140 0.8564
-0.2876 -6.0217 0.8563
-0.1421 -6.0258 0.8561
0.0035 -6.0261 0.8559
0.1489 -6.0229 0.8557
0.2942 -6.0160 0.8556
0.4393 -6.0055 0.8554
0.5839 -5.9913 0.8552
1.9579 -16.0609 2.2990
1.9529 -13.3316 1.9148
2.7300 -15.9423 2.2990
3.1135 -15.8686 2.2990
3.4949 -15.7852 2.2990
3.8741 -15.6924 2.2990
4.2507 -15.5900 2.2990
4.6245 -15.4783 2.2990
4.9953 -15.3573 2.2990
5.3628 -15.2270 2.2990
5.8466 -15.4032 2.3471
6.2144 -15.2517 2.3471
6.5782 -15.0911 2.3471
6.9377 -14.9215 2.3471
5.4563 -11.0306 1.7561
5.6963 -10.8485 1.7493
6.0436 -10.8641 1.7757
5.5751 -9.4758 1.5712
5.7230 -9.2108 1.5505
5.9598 -9.0945 1.5556
6.3165 -9.1490 1.5914
6.6593 -9.1641 1.6225
6.8780 -8.9998 1.6234
6.1414 -7.6459 1.4064
6.4435 -7.6367 1.4338
6.7780 -7.6505 1.4677
7.1285 -7.6648 1.5041
7.4965 -7.6800 1.5432
7.8838 -7.6959 1.5853
8.1632 -7.5923 1.6053
6.9191 -6.1303 1.3321
6.7480 -5.6939 1.2733
6.7325 -5.4080 1.2463
6.7785 -5.1806 1.2323
6.8734 -4.9948 1.2282
6.9746 -4.8154 1.2261
7.0754 -4.6367 1.2248
7.1745 -4.4577 1.2240
7.3316 -4.3134 1.2337
7.5273 -4.1872 1.2503
7.7665 -4.0778 1.2744
8.1922 -4.0519 1.3290
8.2592 -3.8396 1.3256
8.2692 -3.6040 1.3140
8.2790 -3.3727 1.3034
8.2887 -3.1454 1.2938
8.2982 -2.9217 1.2850
8.3075 -2.7013 1.2772
8.3168 -2.4838 1.2702
8.3259 -2.2689 1.2640
8.3349 -2.0564 1.2587
8.3438 -1.8460 1.2541
8.3527 -1.6373 1.2503
8.3615 -1.4302 1.2473
8.3702 -1.2243 1.2450
8.3789 -1.0195 1.2434
8.3876 -0.8155 1.2426
8.3962 -0.6119 1.2425
8.4048 -0.4087 1.2432
8.4135 -0.2055 1.2446
8.4221 -0.0022 1.2467
8.4307 0.2016 1.2495
8.4394 0.4061 1.2531
8.4481 0.6114 1.2574
8.4569 0.8179 1.2625
8.4657 1.0258 1.2683
8.4746 1.2353 1.2749
8.4836 1.4468 1.2824
8.4927 1.6605 1.2906
8.5018 1.8767 1.2998
8.5111 2.0957 1.3097
8.5206 2.3178 1.3206
8.5301 2.5434 1.3325
8.5399 2.7728 1.3453
8.5498 3.0063 1.3591
8.5337 3.2344 1.3698
8.5440 3.4768 1.3857
8.5545 3.7245 1.4028
8.5652 3.9782 1.4212
8.5763 4.2383 1.4408
8.6140 4.5193 1.4663
8.6257 4.7948 1.4888
8.6378 5.0786 1.5128
8.6502 5.3715 1.5385
8.9205 5.8428 1.6125
8.9342 6.1654 1.6427
8.9484 6.5001 1.6750
8.9631 6.8479 1.7095
8.9785 7.2100 1.7465
8.9945 7.5878 1.7860
9.0113 7.9827 1.8284
9.0289 8.3965 1.8739
9.0473 8.8311 1.9228
9.0668 9.2887 1.9754
9.0873 9.7716 2.0320
9.1090 10.2826 2.0931
9.1320 10.8251 2.1592
9.1565 11.4025 2.2309
9.1827 12.0193 2.3087
9.0324 12.4347 2.3471
8.7245 12.6429 2.3471
8.4120 12.8437 2.3471
8.0951 13.0371 2.3471
7.7739 13.2229 2.3471
7.4485 13.4011 2.3471
7.1193 13.5716 2.3471
6.6472 13.4528 2.2990
6.3175 13.6045 2.2990
5.9845 13.7483 2.2990
5.6484 13.8843 2.2990
5.3093 14.0123 2.2990
4.9674 14.1324 2.2990
4.6229 14.2444 2.2990
4.2759 14.3484 2.2990
3.9268 14.4442 2.2990
3.5756 14.5319 2.2990
3.2224 14.6114 2.2990
2.8677 14.6825 2.2990
2.6240 15.4066 2.4021
2.2503 15.4637 2.4021
1.8755 15.5120 2.4021
1.4997 15.5516 2.4021
1.1231 15.5824 2.4021
0.7459 15.6044 2.4021
0.3682 15.6177 2.4021
-0.0096 15.6222 2.4021
-0.3874 15.6179 2.4021
-0.7650 15.6048 2.4021
-1.1423 15.5830 2.4021
-1.5190 15.5523 2.4021
-1.8949 15.5129 2.4021
-2.2698 15.4647 2.4021
-2.6436 15.4079 2.4021
-3.0160 15.3423 2.4021
-3.3869 15.2681 2.4021
-3.7560 15.1852 2.4021
-4.1232 15.0937 2.4021
-4.4882 14.9937 2.4021
-4.8510 14.8852 2.4021
-5.2112 14.7682 2.4021
-5.3716 14.1247 2.3171
-5.6687 13.8854 2.2989
-6.0051 13.7495 2.2989
-6.3383 13.6057 2.2989
-6.6683 13.4540 2.2989
-6.9948 13.2947 2.2989
-7.3176 13.1277 2.2989
-7.6365 12.9531 2.2989
-7.9515 12.7710 2.2989
-8.2623 12.5815 2.2989
-8.5687 12.3847 2.2989
-8.8706 12.1806 2.2989
-9.1677 11.9695 2.2989
-9.4529 11.7423 2.2971
-9.7400 11.5173 2.2971
-8.0496 9.0645 1.8450
-8.2480 8.8475 1.8398
-10.5695 10.8019 2.2971
-10.8349 10.5503 2.2971
-11.0944 10.2924 2.2971
-11.3481 10.0282 2.2971
-11.5955 9.7579 2.2971
-11.8368 9.4817 2.2971
-12.0716 9.1997 2.2971
-12.2999 8.9120 2.2971
-12.5215 8.6188 2.2971
-12.7363 8.3201 2.2971
-12.9441 8.0162 2.2971
-13.1448 7.7073 2.2971
-13.3383 7.3934 2.2971
-6.3279 3.3101 1.0748
-13.7032 6.7515 2.2971
-13.8743 6.4238 2.2971
-14.0377 6.0919 2.2971
-14.1933 5.7558 2.2971
-14.3410 5.4159 2.2971
-14.4807 5.0722 2.2971
-14.6123 4.7250 2.2971
-14.7357 4.3745 2.2971
-10.2305 2.7699 1.5825
-10.2947 2.5219 1.5810
-12.5779 2.7607 1.9191
-12.5834 2.4448 1.9086
-15.2262 2.5781 2.2971
-15.2613 2.2061 2.2915
-15.2777 1.8327 2.2845
-15.2940 1.4608 2.2788
-15.3103 1.0897 2.2745
-15.3266 0.7192 2.2715
-15.3428 0.3487 2.2698
-15.3591 -0.0221 2.2695
-15.3754 -0.3938 2.2704
-15.4947 -0.7718 2.2879
-15.5119 -1.1490 2.2917
-15.5292 -1.5283 2.2969
-15.5044 -1.9051 2.2971
-15.4685 -2.2813 2.2971
-15.4235 -2.6569 2.2971
-15.3694 -3.0316 2.2971
-15.3060 -3.4052 2.2971
-15.2336 -3.7775 2.2971
-15.1520 -4.1483 2.2971
-15.0613 -4.5173 2.2971
-14.9615 -4.8843 2.2971
-14.8527 -5.2490 2.2971
-13.0624 -4.9744 2.0364
-14.6082 -5.9710 2.2971
-14.4725 -6.3278 2.2971
-14.3280 -6.6814 2.2971
-14.1748 -7.0316 2.2971
-14.0129 -7.3783 2.2971
-13.8423 -7.7211 2.2971
-13.6632 -8.0600 2.2971
-13.4757 -8.3945 2.2971
-13.2798 -8.7246 2.2971
-13.0757 -9.0501 2.2971
-12.8634 -9.3706 2.2971
-12.6431 -9.6860 2.2971
-12.4149 -9.9961 2.2971
-11.2902 -9.5499 2.2971
-11.0638 -9.8265 2.2971
-10.8305 -10.0975 2.2971
-9.8746 -9.6625 2.1419
-10.3435 -10.6222 2.2971
-10.0979 -10.8839 2.2989
-9.1270 -10.3267 2.1327
-9.5720 -11.3722 2.2989
-9.2999 -11.6066 2.2989
-9.0219 -11.8343 2.2989
-8.7382 -12.0551 2.2989
-8.4489 -12.2688 2.2989
-5.0109 -7.6664 1.4127
-4.7558 -7.6745 1.3920
-4.5077 -7.6825 1.3726
-4.2661 -7.6902 1.3546
-4.0303 -7.6977 1.3378
-3.8000 -7.7051 1.3222
-3.5747 -7.7122 1.3078
-3.3540 -7.7193 1.2944
-3.3263 -8.1911 1.3592
-3.3473 -8.8500 1.4542
-3.3715 -9.6089 1.5646
-3.3998 -10.4938 1.6944
-3.3504 -11.2616 1.8043
-4.0981 -15.0998 2.4021
-3.7332 -15.1975 2.4021
-3.3658 -15.2861 2.4021
-1.0696 -5.4850 0.8575
-0.9368 -5.5089 0.8573
-0.8035 -5.5295 0.8571
-0.6697 -5.5468 0.8570
-0.5355 -5.5607 0.8568
-0.4010 -5.5712 0.8566
-0.2664 -5.5784 0.8565
-0.1316 -5.5822 0.8563
0.0032 -5.5827 0.8561
0.1379 -5.5798 0.8560
0.2725 -5.5735 0.8558
0.4069 -5.5638 0.8557
0.5410 -5.5509 0.8555
1.8132 -14.8755 2.2990
1.9480 -13.2992 2.0624
2.5284 -14.7660 2.2990
2.8836 -14.6979 2.2990
3.2369 -14.6210 2.2990
3.5881 -14.5352 2.2990
3.9370 -14.4407 2.2990
4.2833 -14.3375 2.2990
4.6269 -14.2258 2.2990
4.9674 -14.1055 2.2990
5.3047 -13.9767 2.2990
5.7566 -14.1291 2.3471
6.0937 -13.9807 2.3471
6.4270 -13.8240 2.3471
5.4622 -11.0432 1.8976
5.6958 -10.8483 1.8880
6.0431 -10.8641 1.9165
5.5227 -9.3876 1.6799
5.6416 -9.0806 1.6497
5.9854 -9.1343 1.6860
6.3160 -9.1491 1.7173
6.6588 -9.1641 1.7508
6.0010 -7.8528 1.5284
6.0910 -7.5838 1.5051
6.4430 -7.6367 1.5470
6.7774 -7.6505 1.5834
7.1279 -7.6648 1.6226
7.4958 -7.6799 1.6647
7.8831 -7.6959 1.7101
8.1632 -7.5931 1.7317
6.9195 -6.1314 1.4370
6.8836 -5.8089 1.4010
6.8998 -5.5429 1.3776
6.9109 -5.2823 1.3549
6.8732 -4.9952 1.3245
6.9744 -4.8158 1.3222
7.0752 -4.6371 1.3207
7.2967 -4.5342 1.3422
7.4890 -4.4066 1.3587
7.6859 -4.2759 1.3764
7.7660 -4.0780 1.3738
8.1912 -4.0521 1.4325
8.2592 -3.8402 1.4289
8.2692 -3.6046 1.4163
8.2790 -3.3733 1.4048
8.2886 -3.1460 1.3943
8.2981 -2.9223 1.3848
8.3075 -2.7018 1.3763
8.3167 -2.4843 1.3686
8.3258 -2.2695 1.3619
8.3349 -2.0570 1.3560
8.3438 -1.8465 1.3510
8.3527 -1.6379 1.3468
8.3615 -1.4308 1.3435
8.3702 -1.2249 1.3409
8.3789 -1.0201 1.3392
8.3875 -0.8160 1.3382
8.3962 -0.6125 1.3380
8.4048 -0.4092 1.3386
8.4134 -0.2061 1.3400
8.4221 -0.0027 1.3422
8.4307 0.2011 1.3452
8.4394 0.4055 1.3489
8.4481 0.6109 1.3535
8.4569 0.8173 1.3588
8.4657 1.0252 1.3650
8.4746 1.2348 1.3721
8.4836 1.4463 1.3800
8.4926 1.6600 1.3888
8.5018 1.8762 1.3985
8.5111 2.0952 1.4092
8.5205 2.3173 1.4208
8.5301 2.5428 1.4335
8.5399 2.7722 1.4472
8.5498 3.0057 1.4619
8.5336 3.2338 1.4733
8.5439 3.4762 1.4904
8.5544 3.7239 1.5087
8.5652 3.9776 1.5283
8.5762 4.2377 1.5493
8.6140 4.5186 1.5767
8.6257 4.7942 1.6008
8.6377 5.0780 1.6265
8.6502 5.3708 1.6541
8.9204 5.8421 1.7335
8.9341 6.1647 1.7659
8.9483 6.4994 1.8005
8.9631 6.8472 1.8376
8.9785 7.2092 1.8772
8.9945 7.5870 1.9196
9.0113 7.9819 1.9651
9.0288 8.3957 2.0139
9.0473 8.8303 2.0663
9.0667 9.2878 2.1227
9.0872 9.7707 2.1835
9.1089 10.2817 2.2490
9.1319 10.8241 2.3200
8.9664 11.1649 2.3471
8.6893 11.3725 2.3471
8.4075 11.5735 2.3471
8.1212 11.7677 2.3471
7.8306 11.9550 2.3471
7.5358 12.1354 2.3471
7.2370 12.3088 2.3471
6.9343 12.4751 2.3471
6.4922 12.3753 2.2990
6.1887 12.5239 2.2990
5.8819 12.6654 2.2990
5.5720 12.7996 2.2990
5.2591 12.9266 2.2990
4.9435 13.0461 2.2990
4.6252 13.1581 2.2990
4.3045 13.2627 2.2990
3.9816 13.3598 2.2990
3.6565 13.4492 2.2990
3.3295 13.5310 2.2990
3.0007 13.6052 2.2990
2.6823 13.7325 2.3093
2.4435 14.3460 2.4021
2.0955 14.3992 2.4021
1.7465 14.4443 2.4021
1.3965 14.4813 2.4021
1.0458 14.5100 2.4021
0.6946 14.5306 2.4021
0.3429 14.5430 2.4021
-0.0089 14.5472 2.4021
-0.3608 14.5431 2.4021
-0.7125 14.5309 2.4021
-1.0638 14.5104 2.4021
-1.4146 14.4818 2.4021
-1.7646 14.4450 2.4021
-2.1137 14.4000 2.4021
-2.4618 14.3469 2.4021
-2.8085 14.2856 2.4021
-3.1538 14.2163 2.4021
-3.4975 14.1389 2.4021
-3.8393 14.0535 2.4021
-4.1792 13.9601 2.4021
-4.5168 13.8588 2.4021
-4.8521 13.7496 2.4021
-5.1848 13.6325 2.4021
-5.4015 13.2299 2.3527
-5.5909 12.8002 2.2989
-5.9010 12.6659 2.2989
-6.2080 12.5244 2.2989
-6.5118 12.3757 2.2989
-6.8121 12.2199 2.2989
-7.1088 12.0570 2.2989
-7.4017 11.8871 2.2989
-7.6907 11.7103 2.2989
-7.9756 11.5266 2.2989
-8.2563 11.3363 2.2989
-8.5326 11.1393 2.2989
-8.8043 10.9357 2.2989
-9.0713 10.7257 2.2989
-9.3335 10.5094 2.2989
-8.4121 9.0227 2.0164
-9.8351 10.0504 2.2971
-10.0816 9.8159 2.2971
-10.3227 9.5754 2.2971
-10.5581 9.3292 2.2971
-10.7879 9.0773 2.2971
-11.0117 8.8199 2.2971
-11.2296 8.5571 2.2971
-11.4414 8.2890 2.2971
-11.6469 8.0158 2.2971
-11.8460 7.7376 2.2971
-12.0386 7.4546 2.2971
-12.2247 7.1668 2.2971
-12.4039 6.8745 2.2971
-6.3277 3.3096 1.1558
-12.7417 6.2769 2.2971
-12.9001 5.9718 2.2971
-13.0513 5.6628 2.2971
-13.1952 5.3501 2.2971
-13.3317 5.0338 2.2971
-13.4607 4.7140 2.2971
-13.5821 4.3910 2.2971
-13.6959 4.0649 2.2971
-10.2304 2.7691 1.7027
-10.2951 2.5213 1.7013
-13.9906 3.0699 2.2971
-12.8595 2.4976 2.0990
-14.1473 2.3945 2.2971
-14.2136 2.0537 2.2971
-14.2717 1.7111 2.2971
-14.3216 1.3669 2.2971
-14.3632 1.0214 2.2971
-14.3965 0.6746 2.2971
-14.4215 0.3268 2.2971
-14.4380 -0.0218 2.2971
-14.4462 -0.3709 2.2971
-14.4459 -0.7205 2.2971
-14.4372 -1.0703 2.2971
-14.4200 -1.4201 2.2971
-14.3942 -1.7696 2.2971
-14.3600 -2.1188 2.2971
-14.3173 -2.4673 2.2971
-14.2661 -2.8149 2.2971
-14.2064 -3.1615 2.2971
-14.1382 -3.5068 2.2971
-14.0615 -3.8507 2.2971
-13.9764 -4.1928 2.2971
-13.8830 -4.5331 2.2971
-13.7811 -4.8713 2.2971
-13.0637 -4.9758 2.1951
-13.5525 -5.5405 2.2971
-13.4258 -5.8710 2.2971
-13.2909 -6.1987 2.2971
-13.1480 -6.5232 2.2971
-12.9970 -6.8443 2.2971
-12.8380 -7.1619 2.2971
-12.6711 -7.4757 2.2971
-12.4965 -7.7855 2.2971
-12.3141 -8.0912 2.2971
-12.1241 -8.3924 2.2971
-11.9266 -8.6891 2.2971
-11.7218 -8.9811 2.2971
-11.5096 -9.2681 2.2971
-10.5198 -8.8992 2.2971
-10.3084 -9.1564 2.2971
-10.0982 -9.4157 2.2989
-9.8737 -9.6624 2.2988
-9.6434 -9.9041 2.2989
-9.4069 -10.1399 2.2989
-9.1266 -10.3270 2.2894
-8.9163 -10.5940 2.2989
-8.6625 -10.8119 2.2989
-8.4032 -11.0236 2.2989
-8.1387 -11.2288 2.2989
-5.2733 -7.6580 1.5406
-5.0106 -7.6664 1.5168
-4.7555 -7.6746 1.4945
-4.5074 -7.6825 1.4738
-4.2658 -7.6902 1.4545
-4.0300 -7.6977 1.4365
-3.7998 -7.7050 1.4198
-3.5745 -7.7122 1.4044
-3.3538 -7.7193 1.3900
-3.3263 -8.1916 1.4597
-3.3473 -8.8506 1.5618
-3.3716 -9.6096 1.6804
-3.3998 -10.4945 1.8198
-3.3150 -11.1436 1.9175
-3.8155 -14.0593 2.4021
-3.4757 -14.1501 2.4021
-1.1189 -5.0821 0.8577
-0.9959 -5.1075 0.8576
-0.8723 -5.1298 0.8574
-0.7481 -5.1490 0.8573
-0.6236 -5.1651 0.8571
-0.4986 -5.1781 0.8570
-0.3734 -5.1880 0.8568
-0.2481 -5.1947 0.8566
-0.1226 -5.1983 0.8565
0.0030 -5.1988 0.8563
0.1284 -5.1962 0.8562
0.2538 -5.1904 0.8560
0.3789 -5.1815 0.8559
0.5038 -5.1695 0.8558
0.6282 -5.1544 0.8556
1.9431 -13.2668 2.2097
2.3539 -13.7482 2.2990
2.6847 -13.6850 2.2990
3.0137 -13.6135 2.2990
3.3407 -13.5338 2.2990
3.6656 -13.4461 2.2990
3.9881 -13.3503 2.2990
4.3081 -13.2465 2.2990
4.6252 -13.1347 2.2990
4.9394 -13.0151 2.2990
5.2505 -12.8878 2.2990
5.6744 -13.0195 2.3471
5.9848 -12.8740 2.3471
5.4680 -11.0559 2.0399
5.6953 -10.8481 2.0272
6.0427 -10.8642 2.0578
5.5281 -9.3974 1.8055
5.6657 -9.1200 1.7788
5.9850 -9.1343 1.8101
6.3155 -9.1491 1.8437
5.5657 -7.6604 1.5711
5.7853 -7.5713 1.5818
6.1224 -7.6236 1.6241
6.4424 -7.6367 1.6605
6.7768 -7.6504 1.6995
7.1272 -7.6648 1.7415
7.4951 -7.6799 1.7866
7.8824 -7.6959 1.8352
8.1633 -7.5939 1.8585
6.9200 -6.1324 1.5423
6.8829 -5.8089 1.5033
6.8998 -5.5435 1.4783
6.9108 -5.2829 1.4539
6.8729 -4.9956 1.4211
6.9742 -4.8162 1.4186
7.0750 -4.6375 1.4169
7.2963 -4.5345 1.4399
7.4885 -4.4069 1.4575
7.6854 -4.2763 1.4764
7.7654 -4.0783 1.4735
8.1902 -4.0522 1.5363
8.2592 -3.8408 1.5325
8.2692 -3.6052 1.5189
8.2790 -3.3739 1.5065
8.2886 -3.1465 1.4952
8.2981 -2.9228 1.4849
8.3075 -2.7024 1.4757
8.3167 -2.4849 1.4674
8.3258 -2.2700 1.4601
8.3348 -2.0575 1.4537
8.3438 -1.8471 1.4483
8.3526 -1.6384 1.4437
8.3614 -1.4313 1.4400
8.3702 -1.2254 1.4372
8.3789 -1.0206 1.4352
8.3875 -0.8165 1.4341
8.3962 -0.6130 1.4339
8.4048 -0.4098 1.4344
8.4134 -0.2066 1.4358
8.4220 -0.0033 1.4381
8.4307 0.2005 1.4411
8.4394 0.4050 1.4451
8.4481 0.6103 1.4499
8.4569 0.8168 1.4556
8.4657 1.0247 1.4621
8.4746 1.2342 1.4696
8.4835 1.4457 1.4780
8.4926 1.6594 1.4873
8.5018 1.8756 1.4977
8.5111 2.0946 1.5090
8.5205 2.3167 1.5214
8.5301 2.5422 1.5348
8.5398 2.7716 1.5494
8.5497 3.0051 1.5651
8.5336 3.2332 1.5772
8.5439 3.4756 1.5954
8.5544 3.7233 1.6149
8.5652 3.9770 1.6359
8.5762 4.2371 1.6583
8.6140 4.5180 1.6874
8.6257 4.7935 1.7132
8.6377 5.0773 1.7407
8.6501 5.3702 1.7700
8.9204 5.8414 1.8550
8.9341 6.1640 1.8895
8.9483 6.4987 1.9265
8.9631 6.8464 1.9660
8.9784 7.2085 2.0083
8.9945 7.5862 2.0536
9.0112 7.9811 2.1022
9.0288 8.3949 2.1543
9.0473 8.8294 2.2103
9.0667 9.2869 2.2705
9.0872 9.7698 2.3355
8.8877 10.0312 2.3471
8.6381 10.2379 2.3471
8.3837 10.4385 2.3471
8.1249 10.6330 2.3471
7.8616 10.8212 2.3471
7.5942 11.0032 2.3471
7.3226 11.1787 2.3471
7.0472 11.3477 2.3471
6.7679 11.5102 2.3471
6.3522 11.4269 2.2990
6.0717 11.5729 2.2990
5.7880 11.7123 2.2990
5.5012 11.8449 2.2990
5.2115 11.9706 2.2990
4.9189 12.0896 2.2990
4.6238 12.2016 2.2990
4.3262 12.3066 2.2990
4.0263 12.4047 2.2990
3.7243 12.4956 2.2990
3.4203 12.5795 2.2990
3.1144 12.6562 2.2990
2.8234 12.8004 2.3125
2.6099 13.3614 2.4021
2.2857 13.4189 2.4021
1.9602 13.4687 2.4021
1.6337 13.5110 2.4021
1.3064 13.5456 2.4021
0.9783 13.5726 2.4021
0.6497 13.5919 2.4021
0.3207 13.6034 2.4021
-0.0084 13.6073 2.4021
-0.3375 13.6035 2.4021
-0.6665 13.5920 2.4021
-0.9951 13.5728 2.4021
-1.3233 13.5460 2.4021
-1.6507 13.5114 2.4021
-1.9772 13.4693 2.4021
-2.3028 13.4194 2.4021
-2.6271 13.3620 2.4021
-2.9501 13.2970 2.4021
-3.2715 13.2244 2.4021
-3.5912 13.1443 2.4021
-3.9090 13.0568 2.4021
-4.2247 12.9618 2.4021
-4.5383 12.8594 2.4021
-4.8494 12.7496 2.4021
-5.1580 12.6326 2.4021
-5.4349 12.4421 2.3894
-5.5189 11.8448 2.2989
-5.8058 11.7122 2.2989
-6.0898 11.5728 2.2989
-6.3704 11.4268 2.2989
-6.6477 11.2741 2.2989
-6.9214 11.1149 2.2989
-7.1915 10.9492 2.2989
-7.4577 10.7772 2.2989
-7.7199 10.5988 2.2989
-7.9779 10.4143 2.2989
-8.2317 10.2236 2.2989
-8.4810 10.0269 2.2989
-8.7258 9.8243 2.2989
-8.4125 9.0223 2.1570
-9.2011 9.4016 2.2989
-9.4313 9.1818 2.2989
-9.6490 8.9497 2.2971
-9.8687 8.7192 2.2971
-10.0830 8.4834 2.2971
-10.2918 8.2424 2.2971
-10.4950 7.9964 2.2971
-10.6924 7.7455 2.2971
-10.8840 7.4899 2.2971
-11.0695 7.2296 2.2971
-11.2490 6.9647 2.2971
-11.4223 6.6955 2.2971
-11.5892 6.4221 2.2971
-6.3275 3.3090 1.2371
-11.9036 5.8631 2.2971
-12.0509 5.5778 2.2971
-12.1915 5.2889 2.2971
-12.3253 4.9965 2.2971
-12.4521 4.7008 2.2971
-12.5719 4.4019 2.2971
-12.6847 4.1000 2.2971
-12.7903 3.7952 2.2971
-10.2303 2.7684 1.8233
-10.2956 2.5207 1.8221
-13.0633 2.8655 2.2971
-12.8601 2.4968 2.2483
-13.2081 2.2346 2.2971
-13.2692 1.9164 2.2971
-13.3227 1.5965 2.2971
-13.3685 1.2751 2.2971
-13.4066 0.9525 2.2971
-13.4369 0.6288 2.2971
