ply
format ascii 1.0
element vertex 2129
property float32 x
property float32 y
property float32 z
end_header
-15.5081 0.7167 2.1281
-15.5228 0.3418 2.1240
-15.5376 -0.0334 2.1211
-15.5523 -0.4093 2.1195
-15.5671 -0.7864 2.1191
-15.5842 -1.1654 2.1203
-15.5993 -1.5463 2.1224
-15.6144 -1.9297 2.1258
-13.7943 -2.0442 1.8803
-13.4764 -2.3310 1.8403
-13.1780 -2.6088 1.8040
-13.0230 -2.9066 1.7882
-12.9754 -3.2269 1.7882
-15.7125 -4.3131 2.1747
-15.7298 -4.7292 2.1878
-15.7474 -5.1524 2.2025
-15.7654 -5.5832 2.2188
-15.7802 -6.0212 2.2363
-15.7989 -6.4696 2.2560
-15.8181 -6.9281 2.2775
-15.8025 -7.3810 2.2958
-15.6496 -7.7753 2.2958
-15.4866 -8.1664 2.2958
-15.3136 -8.5539 2.2958
-15.1306 -8.9377 2.2958
-13.1816 -8.2220 2.0259
-14.7350 -9.6928 2.2958
-14.5225 -10.0636 2.2958
-14.3004 -10.4295 2.2958
-14.0686 -10.7903 2.2958
-13.8275 -11.1457 2.2958
-9.7239 -8.2346 1.7882
-12.2441 -10.8870 2.2958
-11.9954 -11.1959 2.2958
-11.7387 -11.4987 2.2958
-11.4739 -11.7954 2.2958
-11.2013 -12.0855 2.2958
-10.9211 -12.3689 2.2958
-10.6333 -12.6455 2.2958
-10.1117 -12.6318 2.2455
-10.0436 -13.1869 2.2976
-9.7342 -13.4415 2.2976
-9.4179 -13.6884 2.2976
-9.0951 -13.9273 2.2976
-8.7658 -14.1580 2.2976
-8.4305 -14.3804 2.2976
-8.0891 -14.5943 2.2976
-7.7420 -14.7993 2.2976
-7.3894 -14.9956 2.2976
-7.0316 -15.1827 2.2976
-6.6687 -15.3607 2.2976
-6.5843 -16.2271 2.4008
-6.1954 -16.3933 2.4008
-5.8021 -16.5495 2.4008
-5.4047 -16.6954 2.4008
-5.0033 -16.8310 2.4008
-4.5983 -16.9562 2.4008
-4.1900 -17.0708 2.4008
-3.7786 -17.1747 2.4008
-3.3646 -17.2679 2.4008
-1.0780 -6.3441 0.8779
-0.9244 -6.3673 0.8775
-0.7705 -6.3868 0.8771
-0.6161 -6.4027 0.8768
-0.4614 -6.4150 0.8766
-0.3064 -6.4235 0.8764
-0.1514 -6.4284 0.8762
0.0038 -6.4297 0.8761
0.1589 -6.4272 0.8761
0.3138 -6.4211 0.8761
0.4686 -6.4114 0.8762
0.6232 -6.3980 0.8763
2.0377 -16.7273 2.2977
2.4399 -16.6686 2.2977
2.8404 -16.5993 2.2977
2.1949 -11.1953 1.5572
3.6349 -16.4297 2.2977
4.0282 -16.3294 2.2977
4.4187 -16.2189 2.2977
4.8060 -16.0984 2.2977
5.1897 -15.9678 2.2977
5.6863 -16.1587 2.3458
6.0702 -16.0053 2.3458
6.4497 -15.8422 2.3458
6.8063 -15.6276 2.3396
6.9435 -14.9467 2.2640
7.0721 -14.3094 2.1946
7.1953 -13.7152 2.1315
7.3144 -13.1602 2.0741
6.6509 -11.3145 1.8098
6.6407 -10.6976 1.7381
5.8003 -8.8593 1.4634
6.0267 -8.7375 1.4685
6.3810 -8.7895 1.5045
6.7205 -8.8023 1.5359
7.0468 -8.7820 1.5635
6.1988 -7.3542 1.3373
6.2392 -7.0497 1.3107
6.5681 -7.0699 1.3454
6.9058 -7.0826 1.3810
7.2609 -7.0958 1.4194
7.3010 -6.7984 1.3968
6.4073 -5.6837 1.2010
6.5247 -5.5122 1.1995
6.9185 -5.5644 1.2488
7.2879 -5.5772 1.2928
7.6835 -5.5912 1.3408
8.1076 -5.6054 1.3930
8.2145 -5.3910 1.3909
7.1815 -4.4688 1.1994
6.9958 -4.1224 1.1534
6.8625 -3.8237 1.1178
6.8347 -3.5948 1.1007
6.7466 -3.3430 1.0751
6.8448 -3.1882 1.0801
6.8807 -3.0049 1.0759
6.9437 -2.8348 1.0767
7.0326 -2.6749 1.0821
7.1222 -2.5138 1.0882
7.2730 -2.3711 1.1042
7.4298 -2.2252 1.1216
7.6693 -2.0965 1.1520
7.9991 -1.9803 1.1962
8.2796 -1.8388 1.2335
8.2871 -1.6314 1.2307
8.2945 -1.4257 1.2287
8.3019 -1.2213 1.2273
8.3092 -1.0180 1.2268
8.3165 -0.8155 1.2269
8.3238 -0.6136 1.2278
8.3311 -0.4121 1.2294
8.3384 -0.2107 1.2317
8.3456 -0.0091 1.2347
8.3529 0.1928 1.2385
8.3602 0.3952 1.2430
8.3675 0.5985 1.2482
8.3749 0.8029 1.2542
8.3823 1.0086 1.2610
8.3898 1.2158 1.2685
8.3974 1.4249 1.2768
8.4050 1.6361 1.2860
8.4127 1.8497 1.2960
8.4205 2.0660 1.3069
8.4284 2.2853 1.3187
8.4364 2.5079 1.3315
8.4446 2.7342 1.3452
8.4529 2.9645 1.3599
8.4614 3.1993 1.3757
8.4700 3.4388 1.3926
8.4789 3.6837 1.4107
8.4879 3.9342 1.4300
8.4972 4.1910 1.4506
8.5067 4.4546 1.4726
8.5164 4.7256 1.4961
8.5265 5.0046 1.5211
8.4599 5.2447 1.5338
8.5212 5.5724 1.5713
8.5323 5.8791 1.6015
8.5437 6.1970 1.6338
8.5822 6.5474 1.6734
8.5946 6.8921 1.7102
8.6076 7.2515 1.7497
8.8796 7.8556 1.8456
8.8942 8.2606 1.8921
8.9095 8.6857 1.9421
8.9257 9.1328 1.9957
8.9427 9.6045 2.0534
8.9607 10.1033 2.1156
8.9798 10.6323 2.1828
9.0001 11.1950 2.2555
9.0218 11.7954 2.3344
8.7671 12.0562 2.3458
8.4641 12.2522 2.3458
8.1570 12.4410 2.3458
7.8461 12.6227 2.3458
7.5314 12.7972 2.3458
7.2132 12.9643 2.3458
6.8915 13.1240 2.3458
6.4320 13.0041 2.2977
6.1107 13.1459 2.2977
5.7866 13.2804 2.2977
5.4597 13.4073 2.2977
5.1303 13.5269 2.2977
4.7985 13.6389 2.2977
4.4645 13.7433 2.2977
4.1284 13.8401 2.2977
3.7904 13.9293 2.2977
3.4507 14.0109 2.2977
3.1093 14.0848 2.2977
2.7665 14.1509 2.2977
2.5311 14.8468 2.4008
2.1704 14.8997 2.4008
1.8086 14.9445 2.4008
1.4461 14.9812 2.4008
1.0829 15.0097 2.4008
0.7192 15.0301 2.4008
0.3551 15.0423 2.4008
-0.0091 15.0463 2.4008
-0.3733 15.0421 2.4008
-0.7373 15.0298 2.4008
-1.1011 15.0093 2.4008
-1.4643 14.9806 2.4008
-1.8269 14.9438 2.4008
-2.1886 14.8989 2.4008
-2.5493 14.8458 2.4008
-2.9089 14.7846 2.4008
-3.2671 14.7153 2.4008
-3.6238 14.6380 2.4008
-3.9789 14.5526 2.4008
-4.3321 14.4593 2.4008
-4.6833 14.3579 2.4008
-5.0324 14.2486 2.4008
-5.3791 14.1314 2.4008
-5.5505 13.5834 2.3283
-5.8041 13.2768 2.2976
-6.1282 13.1422 2.2976
-6.4495 13.0002 2.2976
-6.7678 12.8508 2.2976
-7.0829 12.6942 2.2976
-7.3947 12.5303 2.2976
-7.7029 12.3592 2.2976
-8.0075 12.1810 2.2976
-8.3083 11.9958 2.2976
-8.6051 11.8036 2.2976
-8.4568 11.0292 2.1837
-9.1863 11.3985 2.2976
-9.4703 11.1858 2.2976
-9.7423 10.9581 2.2958
-10.0168 10.7323 2.2958
-10.2864 10.5000 2.2958
-10.5510 10.2612 2.2958
-10.8104 10.0162 2.2958
-11.0645 9.7649 2.2958
-6.3417 5.3296 1.2870
-11.5560 9.2441 2.2958
-11.7932 8.9748 2.2958
-12.0245 8.6997 2.2958
-12.2497 8.4189 2.2958
-12.4687 8.1326 2.2958
-12.6814 7.8408 2.2958
-12.8876 7.5437 2.2958
-13.0872 7.2414 2.2958
-13.2800 6.9340 2.2958
-13.4659 6.6218 2.2958
-13.6449 6.3047 2.2958
-13.8166 5.9831 2.2958
-13.9812 5.6569 2.2958
-13.5982 5.1230 2.2081
-12.8503 4.4896 2.0648
-14.4298 4.6531 2.2958
-14.5640 4.3106 2.2958
-14.6903 3.9645 2.2958
-14.8087 3.6147 2.2958
-14.9190 3.2617 2.2958
-15.0210 2.9055 2.2958
-15.1148 2.5463 2.2958
-15.2002 2.1843 2.2958
-15.2771 1.8197 2.2958
-15.3454 1.4527 2.2958
-15.4051 1.0835 2.2958
-15.4560 0.7123 2.2958
-15.4981 0.3392 2.2958
-15.5313 -0.0354 2.2958
-15.5521 -0.4113 2.2953
-15.5669 -0.7884 2.2953
-15.5768 -1.1668 2.2958
-15.5738 -1.5457 2.2958
-15.5615 -1.9252 2.2958
-15.5401 -2.3049 2.2958
-13.7864 -2.3865 2.0408
-13.1724 -2.6094 1.9549
-12.8737 -2.8750 1.9167
-12.8839 -3.2058 1.9256
-15.2929 -4.2000 2.2958
-15.2154 -4.5766 2.2958
-15.1285 -4.9519 2.2958
-15.0322 -5.3256 2.2958
-14.9265 -5.6975 2.2958
-14.8114 -6.0673 2.2958
-14.6871 -6.4348 2.2958
-14.5534 -6.7997 2.2958
-14.4104 -7.1617 2.2958
-14.2583 -7.5207 2.2958
-14.0969 -7.8764 2.2958
-13.9265 -8.2285 2.2958
-13.1803 -8.2232 2.2012
-13.5585 -8.9210 2.2958
-13.3611 -9.2609 2.2958
-13.1549 -9.5962 2.2958
-10.0787 -7.7317 1.7882
-9.9046 -7.9852 1.7882
-9.3751 -7.9408 1.8632
-9.1537 -8.1407 1.8551
-8.9334 -8.3395 1.8482
-10.8582 -10.6382 2.2958
-10.6122 -10.9115 2.2958
-10.3591 -11.1787 2.2958
-10.1066 -11.4484 2.2976
-9.8393 -11.7032 2.2976
-9.5654 -11.9513 2.2976
-9.2849 -12.1926 2.2976
-8.9980 -12.4269 2.2976
-8.7049 -12.6540 2.2976
-8.4058 -12.8738 2.2976
-8.1009 -13.0860 2.2976
-7.7903 -13.2905 2.2976
-7.4743 -13.4870 2.2976
-7.1531 -13.6756 2.2976
-6.8269 -13.8559 2.2976
-6.5360 -14.1147 2.3118
-6.4371 -14.8292 2.4008
-6.0819 -14.9910 2.4008
-5.7224 -15.1437 2.4008
-5.3588 -15.2871 2.4008
-4.9915 -15.4212 2.4008
-4.6206 -15.5457 2.4008
-4.2464 -15.6607 2.4008
-3.8692 -15.7659 2.4008
-3.4892 -15.8613 2.4008
-3.1068 -15.9469 2.4008
-1.0026 -5.9016 0.8843
-0.8599 -5.9232 0.8839
-0.7166 -5.9414 0.8836
-0.5730 -5.9563 0.8833
-0.4292 -5.9677 0.8831
-0.2850 -5.9757 0.8829
-0.1408 -5.9803 0.8828
0.0035 -5.9815 0.8827
0.1478 -5.9793 0.8827
0.2919 -5.9736 0.8827
0.4359 -5.9646 0.8827
0.5796 -5.9521 0.8829
1.8814 -15.4467 2.2977
2.2529 -15.3928 2.2977
2.6227 -15.3292 2.2977
2.1811 -11.1262 1.6757
3.3565 -15.1735 2.2977
3.7199 -15.0814 2.2977
4.0806 -14.9800 2.2977
4.4384 -14.8693 2.2977
4.7931 -14.7494 2.2977
5.1443 -14.6205 2.2977
5.4919 -14.4826 2.2977
5.9577 -14.6358 2.3458
6.3044 -14.4771 2.3458
6.6466 -14.3095 2.3458
6.9841 -14.1333 2.3458
7.2068 -13.7392 2.3106
7.3207 -13.1735 2.2466
6.6508 -11.3161 1.9585
5.5428 -8.9304 1.5698
5.7513 -8.7858 1.5699
6.0530 -8.7771 1.5957
6.3800 -8.7896 1.6273
6.7194 -8.8023 1.6611
6.8715 -8.5649 1.6490
6.0144 -7.1367 1.4032
6.2099 -7.0178 1.4107
6.5670 -7.0700 1.4544
6.9045 -7.0826 1.4928
7.1173 -6.9568 1.5041
7.1275 -6.6381 1.4739
6.3229 -5.6099 1.2809
6.5709 -5.5524 1.3055
6.9170 -5.5644 1.3491
7.2863 -5.5772 1.3965
7.6817 -5.5911 1.4481
8.1057 -5.6054 1.5044
8.2145 -5.3923 1.5023
7.1839 -4.4714 1.2957
6.9964 -4.1238 1.2455
6.8067 -3.7936 1.1970
6.8348 -3.5958 1.1882
6.8061 -3.3735 1.1707
6.8447 -3.1891 1.1656
6.8805 -3.0058 1.1610
6.9433 -2.8356 1.1616
7.0322 -2.6757 1.1673
7.1217 -2.5146 1.1738
7.2722 -2.3719 1.1908
7.3714 -2.2088 1.2001
7.5905 -2.0760 1.2293
7.8653 -1.9483 1.2681
8.2796 -1.8399 1.3296
8.2871 -1.6325 1.3265
8.2945 -1.4268 1.3241
8.3018 -1.2224 1.3225
8.3092 -1.0191 1.3217
8.3165 -0.8166 1.3217
8.3238 -0.6147 1.3224
8.3310 -0.4131 1.3240
8.3383 -0.2117 1.3263
8.3456 -0.0102 1.3294
8.3529 0.1917 1.3332
8.3602 0.3941 1.3379
8.3675 0.5974 1.3434
8.3749 0.8018 1.3496
8.3823 1.0075 1.3567
8.3898 1.2147 1.3647
8.3973 1.4238 1.3735
8.4049 1.6350 1.3832
8.4126 1.8486 1.3938
8.4205 2.0649 1.4053
8.4284 2.2842 1.4178
8.4364 2.5068 1.4313
8.4446 2.7331 1.4459
8.4529 2.9634 1.4616
8.4613 3.1981 1.4784
8.4700 3.4376 1.4964
8.4788 3.6824 1.5156
8.4879 3.9330 1.5362
8.4971 4.1898 1.5582
8.5066 4.4534 1.5816
8.5164 4.7243 1.6067
8.5265 5.0033 1.6333
8.4603 5.2436 1.6469
8.5211 5.5710 1.6869
8.5322 5.8777 1.7192
8.5437 6.1956 1.7536
8.5821 6.5460 1.7959
8.5946 6.8906 1.8353
8.6075 7.2500 1.8775
8.8795 7.8540 1.9802
8.8941 8.2590 2.0300
8.9095 8.6840 2.0834
8.9256 9.1311 2.1407
8.9426 9.6027 2.2025
8.9606 10.1015 2.2690
8.9797 10.6304 2.3409
8.7290 10.8560 2.3458
8.4550 11.0526 2.3458
8.1769 11.2428 2.3458
7.8948 11.4264 2.3458
7.6089 11.6033 2.3458
7.3193 11.7735 2.3458
7.0262 11.9369 2.3458
6.7297 12.0935 2.3458
6.2981 11.9922 2.2977
6.0015 12.1320 2.2977
5.7020 12.2650 2.2977
5.3998 12.3910 2.2977
5.0950 12.5101 2.2977
4.7879 12.6221 2.2977
4.4784 12.7272 2.2977
4.1668 12.8251 2.2977
3.8533 12.9159 2.2977
3.5379 12.9996 2.2977
3.2208 13.0761 2.2977
2.9023 13.1453 2.2977
2.5823 13.2074 2.2977
2.3627 13.8572 2.4008
2.0260 13.9068 2.4008
1.6884 13.9489 2.4008
1.3499 13.9833 2.4008
1.0109 14.0100 2.4008
0.6714 14.0291 2.4008
0.3315 14.0405 2.4008
-0.0085 14.0443 2.4008
-0.3485 14.0404 2.4008
-0.6883 14.0288 2.4008
-1.0279 14.0095 2.4008
-1.3670 13.9826 2.4008
-1.7054 13.9481 2.4008
-2.0430 13.9059 2.4008
-2.3797 13.8561 2.4008
-2.7153 13.7987 2.4008
-3.0496 13.7337 2.4008
-3.3825 13.6612 2.4008
-3.7137 13.5811 2.4008
-4.0433 13.4935 2.4008
-4.3710 13.3984 2.4008
-4.6966 13.2959 2.4008
-5.0199 13.1860 2.4008
-5.3409 13.0687 2.4008
-5.5756 12.7523 2.3653
-5.7183 12.2612 2.2976
-6.0177 12.1281 2.2976
-6.3144 11.9881 2.2976
-6.6080 11.8412 2.2976
-6.8984 11.6877 2.2976
-7.1856 11.5274 2.2976
-7.4692 11.3604 2.2976
-7.7493 11.1869 2.2976
-8.0256 11.0069 2.2976
-8.2980 10.8204 2.2976
-8.5664 10.6276 2.2976
-8.8306 10.4284 2.2976
-9.0904 10.2230 2.2976
-9.3458 10.0115 2.2976
-9.5892 9.7865 2.2958
-9.8350 9.5631 2.2958
-10.0760 9.3339 2.2958
-10.3118 9.0989 2.2958
-6.3417 5.3285 1.3810
-10.7679 8.6119 2.2958
-10.9879 8.3602 2.2958
-11.2023 8.1030 2.2958
-11.4110 7.8407 2.2958
-11.6138 7.5732 2.2958
-11.8107 7.3006 2.2958
-12.0014 7.0232 2.2958
-9.4914 5.2504 1.7882
-9.6302 5.0269 1.7882
-12.5359 6.1626 2.2958
-12.7010 5.8668 2.2958
-12.8595 5.5668 2.2958
-13.0111 5.2626 2.2958
-13.1557 4.9545 2.2958
-12.8515 4.4882 2.2195
-13.4238 4.3269 2.2958
-13.5470 4.0078 2.2958
-13.6628 3.6853 2.2958
-13.7712 3.3596 2.2958
-13.8720 3.0309 2.2958
-13.9652 2.6994 2.2958
-14.0506 2.3651 2.2958
-14.1281 2.0284 2.2958
-14.1978 1.6893 2.2958
-14.2594 1.3480 2.2958
-14.3130 1.0048 2.2958
-14.3584 0.6599 2.2958
-14.3956 0.3132 2.2958
-14.4245 -0.0347 2.2958
-14.4451 -0.3839 2.2958
-14.4573 -0.7341 2.2958
-14.4610 -1.0851 2.2958
-14.4562 -1.4367 2.2958
-14.4429 -1.7887 2.2958
-14.4211 -2.1408 2.2958
-13.7883 -2.3886 2.1997
-14.3515 -2.8448 2.2958
-12.9739 -2.8991 2.0824
-14.2473 -3.5470 2.2958
-14.1822 -3.8968 2.2958
-14.1085 -4.2456 2.2958
-14.0260 -4.5930 2.2958
-13.9349 -4.9388 2.2958
-13.8351 -5.2828 2.2958
-13.7267 -5.6249 2.2958
-13.6097 -5.9647 2.2958
-13.4841 -6.3020 2.2958
-13.3499 -6.6366 2.2958
-13.2073 -6.9683 2.2958
-13.0562 -7.2968 2.2958
-12.8967 -7.6220 2.2958
-12.7289 -7.9435 2.2958
-12.5529 -8.2613 2.2958
-12.3686 -8.5749 2.2958
-12.1763 -8.8843 2.2958
-9.8227 -7.5369 1.8830
-9.5980 -7.7397 1.8725
-10.7462 -9.1040 2.2958
-10.5371 -9.3729 2.2958
-8.9962 -8.3997 2.0011
-10.1058 -9.9029 2.2976
-9.8760 -10.1563 2.2976
-9.6396 -10.4041 2.2976
-9.3966 -10.6460 2.2976
-9.1474 -10.8820 2.2976
-8.8920 -11.1118 2.2976
-8.6305 -11.3352 2.2976
-8.3632 -11.5521 2.2976
-8.0902 -11.7623 2.2976
-7.8117 -11.9657 2.2976
-7.5278 -12.1621 2.2976
-7.2387 -12.3512 2.2976
-6.9446 -12.5331 2.2976
-6.6458 -12.7075 2.2976
-6.4980 -13.1903 2.3540
-6.3056 -13.6191 2.4008
-5.9796 -13.7771 2.4008
-5.6493 -13.9267 2.4008
-5.3151 -14.0679 2.4008
-4.9772 -14.2005 2.4008
-4.6358 -14.3244 2.4008
-4.2912 -14.4395 2.4008
-3.9436 -14.5457 2.4008
-3.5931 -14.6429 2.4008
-3.2402 -14.7311 2.4008
-1.0698 -5.4921 0.8903
-0.9369 -5.5156 0.8899
-0.8035 -5.5358 0.8896
-0.6697 -5.5529 0.8892
-0.5355 -5.5668 0.8890
-0.4010 -5.5775 0.8888
-0.2664 -5.5851 0.8886
-0.1316 -5.5894 0.8885
0.0033 -5.5906 0.8884
0.1381 -5.5885 0.8884
0.2728 -5.5832 0.8884
0.4074 -5.5748 0.8884
0.5417 -5.5631 0.8886
1.7470 -14.3449 2.2977
2.0919 -14.2951 2.2977
2.4354 -14.2364 2.2977
2.1797 -11.1207 1.8034
3.1169 -14.0925 2.2977
3.4545 -14.0074 2.2977
3.7896 -13.9137 2.2977
4.1221 -13.8114 2.2977
4.4516 -13.7007 2.2977
4.7781 -13.5815 2.2977
5.1011 -13.4540 2.2977
5.4206 -13.3183 2.2977
5.8564 -13.4503 2.3458
6.1746 -13.2953 2.3458
6.4885 -13.1324 2.3458
6.7979 -12.9616 2.3458
7.1026 -12.7830 2.3458
6.6508 -11.3177 2.1076
5.5247 -8.9026 1.6838
5.7368 -8.7651 1.6850
6.0521 -8.7771 1.7166
6.3790 -8.7896 1.7505
6.6729 -8.7429 1.7746
5.9735 -7.4469 1.5420
6.0186 -7.1429 1.5104
6.2441 -7.0577 1.5255
6.5658 -7.0700 1.5638
6.9032 -7.0825 1.6049
7.0063 -6.8495 1.5920
6.0719 -5.6561 1.3500
6.2403 -5.5378 1.3590
6.5695 -5.5523 1.4030
6.9156 -5.5643 1.4497
7.2847 -5.5772 1.5005
7.6798 -5.5909 1.5558
8.1038 -5.6054 1.6161
8.2146 -5.3936 1.6140
7.6855 -4.7848 1.4891
6.9971 -4.1253 1.3380
6.8068 -3.7947 1.2856
6.7792 -3.5676 1.2657
6.7601 -3.3517 1.2486
6.7961 -3.1675 1.2426
6.8317 -2.9855 1.2375
6.9428 -2.8364 1.2469
7.0317 -2.6765 1.2528
7.1212 -2.5154 1.2596
7.2151 -2.3542 1.2678
7.3706 -2.2095 1.2875
7.7872 -2.1308 1.3530
7.8638 -1.9490 1.3600
8.2795 -1.8409 1.4261
8.2870 -1.6336 1.4226
8.2944 -1.4279 1.4198
8.3018 -1.2235 1.4180
8.3091 -1.0201 1.4170
8.3165 -0.8176 1.4168
8.3237 -0.6157 1.4174
8.3310 -0.4142 1.4189
8.3383 -0.2128 1.4212
8.3455 -0.0113 1.4244
8.3528 0.1906 1.4283
8.3601 0.3930 1.4332
8.3675 0.5963 1.4389
8.3748 0.8007 1.4454
8.3823 1.0064 1.4528
8.3897 1.2136 1.4612
8.3973 1.4227 1.4704
8.4049 1.6339 1.4806
8.4126 1.8475 1.4918
8.4204 2.0638 1.5040
8.4283 2.2830 1.5172
8.4364 2.5056 1.5315
8.4445 2.7319 1.5470
8.4528 2.9622 1.5636
8.4613 3.1969 1.5814
8.4699 3.4364 1.6005
8.4788 3.6812 1.6209
8.4878 3.9318 1.6428
8.4971 4.1885 1.6661
8.5066 4.4521 1.6910
8.5164 4.7231 1.7176
8.5264 5.0020 1.7460
8.4610 5.2428 1.7604
8.5211 5.5697 1.8029
8.5322 5.8763 1.8372
8.5436 6.1942 1.8738
8.5821 6.5446 1.9189
8.5945 6.8891 1.9608
8.6075 7.2485 2.0057
8.8795 7.8524 2.1153
8.8941 8.2573 2.1683
8.9094 8.6823 2.2251
8.9255 9.1294 2.2862
8.9190 9.5757 2.3458
8.6755 9.7784 2.3458
8.4276 9.9752 2.3458
8.1756 10.1661 2.3458
7.9195 10.3509 2.3458
7.6595 10.5296 2.3458
7.3957 10.7022 2.3458
7.1282 10.8686 2.3458
6.8573 11.0287 2.3458
6.5830 11.1824 2.3458
6.1763 11.0974 2.2977
5.9015 11.2353 2.2977
5.6238 11.3668 2.2977
5.3434 11.4919 2.2977
5.0604 11.6105 2.2977
4.7750 11.7225 2.2977
4.4872 11.8280 2.2977
4.1973 11.9268 2.2977
3.9054 12.0190 2.2977
3.6117 12.1045 2.2977
3.3162 12.1832 2.2977
3.0191 12.2553 2.2977
2.7205 12.3205 2.2977
2.4719 12.6407 2.3463
2.2148 12.9882 2.4008
1.8992 13.0349 2.4008
1.5827 13.0745 2.4008
1.2655 13.1068 2.4008
0.9477 13.1320 2.4008
0.6294 13.1500 2.4008
0.3108 13.1607 2.4008
-0.0080 13.1643 2.4008
-0.3267 13.1606 2.4008
-0.6453 13.1497 2.4008
-0.9636 13.1315 2.4008
-1.2814 13.1062 2.4008
-1.5987 13.0737 2.4008
-1.9152 13.0339 2.4008
-2.2307 12.9870 2.4008
-2.5453 12.9330 2.4008
-2.8586 12.8718 2.4008
-3.1705 12.8035 2.4008
-3.4810 12.7281 2.4008
-3.7898 12.6456 2.4008
-4.0967 12.5561 2.4008
-4.4018 12.4596 2.4008
-4.7047 12.3562 2.4008
-5.0054 12.2458 2.4008
-5.3036 12.1285 2.4008
-5.5993 12.0044 2.4008
-5.6389 11.3629 2.2976
-5.9166 11.2312 2.2976
-6.1914 11.0930 2.2976
-6.4632 10.9486 2.2976
-6.7319 10.7978 2.2976
-6.9972 10.6408 2.2976
-7.2592 10.4777 2.2976
-7.5176 10.3084 2.2976
-7.7722 10.1331 2.2976
-8.0231 9.9518 2.2976
-8.2699 9.7646 2.2976
-8.5127 9.5717 2.2976
-8.7512 9.3729 2.2976
-8.9854 9.1685 2.2976
-9.2150 8.9586 2.2976
-9.4400 8.7431 2.2976
-9.6529 8.5158 2.2958
-6.3417 5.3274 1.4754
-10.0782 8.0586 2.2958
-10.2832 7.8223 2.2958
-10.4830 7.5810 2.2958
-10.6773 7.3349 2.2958
-10.8661 7.0839 2.2958
-11.0493 6.8283 2.2958
-11.2268 6.5681 2.2958
-8.8779 4.9097 1.7882
-9.0069 4.7002 1.7882
-11.7233 5.7615 2.2958
-11.8766 5.4843 2.2958
-12.0236 5.2032 2.2958
-12.1641 4.9183 2.2958
-12.2981 4.6298 2.2958
-12.4254 4.3377 2.2958
-12.5461 4.0423 2.2958
-12.6599 3.7436 2.2958
-12.7667 3.4419 2.2958
-12.8666 3.1372 2.2958
-12.9594 2.8298 2.2958
-13.0449 2.5198 2.2958
-13.1233 2.2073 2.2958
-13.1942 1.8926 2.2958
-13.2578 1.5757 2.2958
-13.3138 1.2569 2.2958
-13.3623 0.9363 2.2958
-13.4032 0.6142 2.2958
-13.4364 0.2906 2.2958
-13.4618 -0.0342 2.2958
-13.4795 -0.3600 2.2958
-13.4893 -0.6867 2.2958
-13.4912 -1.0141 2.2958
-13.4852 -1.3419 2.2958
-13.4712 -1.6701 2.2958
-13.4492 -1.9983 2.2958
-13.4193 -2.3264 2.2958
-13.3812 -2.6543 2.2958
-12.9724 -2.9005 2.2334
-13.2810 -3.3082 2.2958
-13.2188 -3.6339 2.2958
-13.1485 -3.9585 2.2958
-13.0702 -4.2818 2.2958
-12.9838 -4.6035 2.2958
-12.8894 -4.9235 2.2958
-12.7869 -5.2415 2.2958
-12.6765 -5.5575 2.2958
-12.5581 -5.8710 2.2958
-12.4318 -6.1820 2.2958
-12.2976 -6.4901 2.2958
-12.1556 -6.7953 2.2958
-12.0058 -7.0973 2.2958
-11.8484 -7.3959 2.2958
-11.6833 -7.6908 2.2958
-11.5106 -7.9819 2.2958
-11.3305 -8.2690 2.2958
-11.1430 -8.5518 2.2958
-10.9482 -8.8302 2.2958
-10.0508 -8.5166 2.2976
-9.8544 -8.7673 2.2976
-8.9961 -8.4012 2.1415
-9.4423 -9.2545 2.2976
-9.2269 -9.4905 2.2976
-9.0053 -9.7212 2.2976
-8.7777 -9.9465 2.2976
-8.5443 -10.1662 2.2976
-8.3051 -10.3801 2.2976
-8.0604 -10.5881 2.2976
-7.8102 -10.7899 2.2976
-7.5547 -10.9855 2.2976
-7.2942 -11.1747 2.2976
-7.0287 -11.3574 2.2976
-6.7584 -11.5334 2.2976
-6.4834 -11.7025 2.2976
-6.4678 -12.3689 2.3952
-6.1866 -12.5599 2.4008
-5.8860 -12.7145 2.4008
-5.5813 -12.8614 2.4008
-5.2729 -13.0005 2.4008
-4.9607 -13.1317 2.4008
-4.6452 -13.2549 2.4008
-4.3264 -13.3701 2.4008
-4.0047 -13.4770 2.4008
-3.6801 -13.5758 2.4008
-3.3530 -13.6661 2.4008
-3.0236 -13.7481 2.4008
-1.0569 -5.4264 0.9426
-0.9219 -5.4275 0.9384
-0.7879 -5.4287 0.9348
-0.6548 -5.4299 0.9318
-0.5224 -5.4310 0.9294
-0.3905 -5.4322 0.9276
-0.2591 -5.4334 0.9264
-0.1279 -5.4346 0.9257
0.0032 -5.4358 0.9257
0.1343 -5.4370 0.9262
0.2657 -5.4382 0.9273
0.3974 -5.4394 0.9289
0.5297 -5.4406 0.9312
0.6626 -5.4419 0.9341
1.9520 -13.3404 2.2977
2.2725 -13.2859 2.2977
2.1783 -11.1152 1.9315
2.9086 -13.1522 2.2977
3.2237 -13.0732 2.2977
3.5365 -12.9861 2.2977
3.8469 -12.8911 2.2977
4.1546 -12.7881 2.2977
4.4594 -12.6774 2.2977
4.7611 -12.5589 2.2977
5.0595 -12.4328 2.2977
5.3544 -12.2991 2.2977
5.7638 -12.4125 2.3458
6.0571 -12.2610 2.3458
6.3463 -12.1022 2.3458
6.6311 -11.9361 2.3458
6.5029 -11.0678 2.2072
5.5298 -8.9123 1.8050
5.7358 -8.7649 1.8042
6.0511 -8.7772 1.8380
6.3779 -8.7896 1.8740
5.5437 -7.2645 1.5785
5.6804 -7.0826 1.5699
5.9024 -7.0062 1.5857
6.2430 -7.0577 1.6328
6.5646 -7.0699 1.6736
6.9019 -7.0825 1.7175
6.9388 -6.7848 1.6874
6.0342 -5.6220 1.4357
6.1976 -5.5010 1.4443
6.5681 -5.5523 1.5008
6.9141 -5.5643 1.5507
7.2831 -5.5771 1.6048
7.6779 -5.5908 1.6638
8.1020 -5.6054 1.7281
8.2146 -5.3950 1.7262
7.6850 -4.7857 1.5923
6.9978 -4.1267 1.4309
6.8070 -3.7958 1.3746
6.9276 -3.6467 1.3828
6.9351 -3.4394 1.3692
6.9424 -3.2367 1.3568
6.8316 -2.9864 1.3226
6.9424 -2.8372 1.3324
7.0313 -2.6773 1.3386
7.1208 -2.5163 1.3457
7.3757 -2.4077 1.3846
7.5277 -2.2576 1.4046
7.7861 -2.1316 1.4450
7.8624 -1.9497 1.4523
8.2795 -1.8420 1.5230
8.2870 -1.6347 1.5190
8.2944 -1.4290 1.5160
8.3018 -1.2246 1.5138
8.3091 -1.0212 1.5126
8.3164 -0.8187 1.5122
8.3237 -0.6168 1.5128
8.3310 -0.4153 1.5142
8.3382 -0.2139 1.5165
8.3455 -0.0124 1.5197
8.3528 0.1895 1.5238
8.3601 0.3920 1.5288
8.3674 0.5952 1.5347
8.3748 0.7996 1.5415
8.3822 1.0053 1.5493
8.3897 1.2125 1.5581
8.3972 1.4216 1.5678
8.4049 1.6328 1.5785
8.4126 1.8464 1.5903
8.4204 2.0626 1.6031
8.4283 2.2819 1.6171
8.4363 2.5045 1.6321
8.4445 2.7307 1.6484
8.4528 2.9610 1.6660
8.4612 3.1957 1.6848
8.4699 3.4352 1.7050
8.4787 3.6800 1.7266
8.4878 3.9305 1.7497
8.4970 4.1873 1.7744
8.5065 4.4508 1.8008
8.5163 4.7218 1.8290
8.5264 5.0007 1.8590
8.4617 5.2419 1.8744
8.5210 5.5683 1.9193
8.5321 5.8749 1.9557
8.5436 6.1928 1.9945
8.5820 6.5431 2.0424
8.5945 6.8877 2.0868
8.6074 7.2470 2.1344
8.8794 7.8508 2.2509
8.8940 8.2557 2.3071
8.8279 8.6013 2.3458
8.6081 8.8031 2.3458
8.3839 8.9996 2.3458
8.1555 9.1907 2.3458
7.9229 9.3762 2.3458
7.6864 9.5562 2.3458
7.4461 9.7305 2.3458
7.2020 9.8991 2.3458
6.9543 10.0619 2.3458
6.7032 10.2189 2.3458
6.3165 10.1573 2.2977
6.0641 10.2994 2.2977
5.8088 10.4356 2.2977
5.5506 10.5657 2.2977
5.2896 10.6899 2.2977
5.0261 10.8079 2.2977
4.7601 10.9199 2.2977
4.4917 11.0257 2.2977
4.2212 11.1252 2.2977
3.9486 11.2185 2.2977
3.6741 11.3056 2.2977
3.3978 11.3863 2.2977
3.1199 11.4606 2.2977
2.8404 11.5286 2.2977
2.5596 11.5902 2.2977
2.3797 12.1679 2.4008
2.0838 12.2188 2.4008
1.7869 12.2629 2.4008
1.4892 12.3003 2.4008
1.1907 12.3309 2.4008
0.8917 12.3546 2.4008
0.5922 12.3716 2.4008
0.2924 12.3818 2.4008
-0.0075 12.3851 2.4008
-0.3074 12.3816 2.4008
-0.6072 12.3713 2.4008
-0.9067 12.3542 2.4008
-1.2057 12.3302 2.4008
-1.5042 12.2995 2.4008
-1.8020 12.2619 2.4008
-2.0989 12.2176 2.4008
-2.3948 12.1666 2.4008
-2.6895 12.1088 2.4008
-2.9829 12.0442 2.4008
-3.2749 11.9730 2.4008
-3.5654 11.8952 2.4008
-3.8540 11.8106 2.4008
-4.1409 11.7195 2.4008
-4.4257 11.6218 2.4008
-4.7084 11.5176 2.4008
-4.9888 11.4069 2.4008
-5.2667 11.2897 2.4008
-5.5421 11.1662 2.4008
-5.6522 10.7277 2.3337
-5.8229 10.4313 2.2976
-6.0783 10.2949 2.2976
-6.3306 10.1527 2.2976
-6.5798 10.0045 2.2976
-6.8258 9.8506 2.2976
-7.0684 9.6909 2.2976
-7.3074 9.5256 2.2976
-7.5428 9.3546 2.2976
-7.7745 9.1781 2.2976
-8.0022 8.9961 2.2976
-8.2259 8.8087 2.2976
-8.4455 8.6161 2.2976
-8.6607 8.4181 2.2976
-8.8716 8.2151 2.2976
-9.0780 8.0070 2.2976
-6.3417 5.3263 1.5702
-9.4766 7.5759 2.2976
-9.6613 7.3476 2.2958
-9.8482 7.1204 2.2958
-10.0300 6.8886 2.2958
-10.2066 6.6523 2.2958
-10.3778 6.4117 2.2958
-10.5436 6.1668 2.2958
-8.6917 4.8054 1.8642
-8.4574 4.4122 1.7882
-8.5733 4.2121 1.7882
-11.1501 5.1472 2.2958
-11.2871 4.8829 2.2958
-11.4180 4.6150 2.2958
-11.5427 4.3438 2.2958
-11.6612 4.0693 2.2958
-11.7733 3.7917 2.2958
-11.8790 3.5111 2.2958
-11.9781 3.2277 2.2958
-12.0707 2.9415 2.2958
-12.1566 2.6529 2.2958
-12.2356 2.3618 2.2958
-12.3079 2.0685 2.2958
-12.3732 1.7732 2.2958
-12.4316 1.4759 2.2958
-12.4829 1.1768 2.2958
-12.5271 0.8762 2.2958
-12.5642 0.5741 2.2958
-12.5940 0.2708 2.2958
-12.6166 -0.0337 2.2958
-12.6318 -0.3390 2.2958
-12.6398 -0.6451 2.2958
-12.6403 -0.9518 2.2958
-12.6333 -1.2588 2.2958
-12.6190 -1.5661 2.2958
-12.5971 -1.8734 2.2958
-12.5677 -2.1805 2.2958
-12.5308 -2.4873 2.2958
-9.7254 -2.1758 1.7882
-9.6850 -2.4137 1.7882
-9.6386 -2.6510 1.7882
-9.5864 -2.8874 1.7882
-12.2334 -4.0093 2.2958
-12.1513 -4.3100 2.2958
-12.0617 -4.6090 2.2958
-11.9647 -4.9062 2.2958
-11.8602 -5.2013 2.2958
-11.7483 -5.4941 2.2958
-11.6290 -5.7844 2.2958
-11.5024 -6.0721 2.2958
-11.3685 -6.3570 2.2958
-11.2274 -6.6388 2.2958
-11.0791 -6.9173 2.2958
-10.9237 -7.1925 2.2958
-10.7613 -7.4640 2.2958
-10.5920 -7.7317 2.2958
-10.4158 -7.9954 2.2958
-10.2328 -8.2549 2.2958
-9.4313 -7.9932 2.2976
-9.2463 -8.2279 2.2976
-8.9960 -8.4028 2.2825
-8.8584 -8.6838 2.2976
-8.6557 -8.9046 2.2976
-8.4472 -9.1204 2.2976
-8.2332 -9.3312 2.2976
-8.0138 -9.5366 2.2976
-7.7889 -9.7366 2.2976
-7.5590 -9.9310 2.2976
-7.3239 -10.1198 2.2976
-7.0840 -10.3026 2.2976
-6.8393 -10.4794 2.2976
-6.5900 -10.6502 2.2976
-6.4166 -10.9518 2.3267
-6.3513 -11.4657 2.4008
-6.0774 -11.6241 2.4008
-5.7993 -11.7755 2.4008
-5.5173 -11.9198 2.4008
-5.2315 -12.0570 2.4008
-4.9422 -12.1869 2.4008
-4.6495 -12.3094 2.4008
-4.3536 -12.4245 2.4008
-4.0547 -12.5320 2.4008
-3.7530 -12.6319 2.4008
-3.4488 -12.7241 2.4008
-3.1421 -12.8085 2.4008
-2.8334 -12.8850 2.4008
-1.0569 -5.4273 1.0059
-0.9219 -5.4284 1.0014
-0.7879 -5.4296 0.9976
-0.6548 -5.4308 0.9944
-0.5224 -5.4319 0.9919
-0.3906 -5.4331 0.9900
-0.2591 -5.4343 0.9887
-0.1279 -5.4355 0.9880
0.0032 -5.4367 0.9879
0.1343 -5.4379 0.9885
0.2657 -5.4391 0.9896
0.3974 -5.4403 0.9914
0.5297 -5.4415 0.9938
0.6627 -5.4428 0.9969
1.8291 -12.5023 2.2977
2.1295 -12.4514 2.2977
2.1770 -11.1097 2.0598
2.7256 -12.3266 2.2977
3.0210 -12.2529 2.2977
3.3142 -12.1716 2.2977
3.6052 -12.0829 2.2977
3.8937 -11.9868 2.2977
4.1795 -11.8833 2.2977
4.4624 -11.7727 2.2977
4.7423 -11.6549 2.2977
5.0189 -11.5301 2.2977
5.2921 -11.3984 2.2977
5.5616 -11.2598 2.2977
5.9494 -11.3471 2.3458
6.2167 -11.1919 2.3458
6.4798 -11.0302 2.3458
5.5350 -8.9219 1.9269
5.7348 -8.7647 1.9238
6.0502 -8.7772 1.9598
6.3769 -8.7896 1.9981
5.5824 -7.3165 1.6949
5.6093 -6.9952 1.6530
5.9348 -7.0459 1.7000
6.2420 -7.0577 1.7404
6.5634 -7.0699 1.7838
6.7431 -6.9208 1.7886
6.7532 -6.6046 1.7504
6.0477 -5.6356 1.5336
6.2415 -5.5410 1.5501
6.5668 -5.5523 1.5990
6.9126 -5.5643 1.6520
7.2814 -5.5771 1.7095
7.6762 -5.5908 1.7722
8.1001 -5.6054 1.8406
8.2147 -5.3963 1.8388
7.6845 -4.7866 1.6960
6.9985 -4.1282 1.5241
6.8071 -3.7969 1.4640
6.9276 -3.6477 1.4725
6.9350 -3.4404 1.4580
6.9424 -3.2376 1.4446
6.8314 -2.9873 1.4080
6.9420 -2.8380 1.4183
7.0308 -2.6781 1.4248
7.1203 -2.5171 1.4322
7.3747 -2.4083 1.4734
7.5266 -2.2583 1.4945
7.7850 -2.1323 1.5374
7.8609 -1.9503 1.5448
8.2795 -1.8431 1.6202
8.2869 -1.6358 1.6159
8.2944 -1.4301 1.6125
8.3017 -1.2256 1.6101
8.3091 -1.0223 1.6086
8.3164 -0.8198 1.6081
8.3237 -0.6179 1.6085
8.3309 -0.4164 1.6099
8.3382 -0.2150 1.6122
8.3455 -0.0135 1.6154
8.3527 0.1884 1.6196
8.3601 0.3909 1.6248
8.3674 0.5941 1.6309
8.3748 0.7985 1.6381
8.3822 1.0041 1.6462
8.3897 1.2114 1.6553
8.3972 1.4205 1.6655
8.4048 1.6316 1.6768
8.4125 1.8452 1.6891
8.4203 2.0615 1.7026
8.4282 2.2807 1.7173
8.4363 2.5033 1.7332
8.4444 2.7296 1.7503
8.4527 2.9598 1.7688
8.4612 3.1945 1.7886
8.4698 3.4340 1.8099
8.4787 3.6788 1.8327
8.4877 3.9293 1.8571
8.4970 4.1860 1.8832
8.5065 4.4496 1.9110
8.5163 4.7205 1.9408
8.5263 4.9994 1.9725
8.4624 5.2410 1.9889
8.5210 5.5670 2.0362
8.5321 5.8735 2.0747
8.5435 6.1914 2.1157
8.5820 6.5417 2.1663
8.5944 6.8862 2.2133
8.6074 7.2454 2.2637
8.7261 7.7138 2.3458
8.5279 7.9144 2.3458
8.3254 8.1101 2.3458
8.1185 8.3009 2.3458
7.9075 8.4867 2.3458
7.6925 8.6674 2.3458
7.4736 8.8429 2.3458
7.2508 9.0131 2.3458
7.0244 9.1781 2.3458
6.7945 9.3376 2.3458
6.5612 9.4916 2.3458
6.1948 9.4425 2.2977
5.9599 9.5825 2.2977
5.7221 9.7169 2.2977
5.4813 9.8458 2.2977
5.2379 9.9690 2.2977
4.9918 10.0865 2.2977
4.7432 10.1983 2.2977
4.4923 10.3043 2.2977
4.2392 10.4044 2.2977
3.9840 10.4987 2.2977
3.7269 10.5871 2.2977
3.4679 10.6695 2.2977
3.2072 10.7459 2.2977
2.9449 10.8164 2.2977
2.6812 10.8808 2.2977
2.4214 10.9631 2.3028
2.2463 11.4845 2.4008
1.9671 11.5327 2.4008
1.6868 11.5745 2.4008
1.4058 11.6099 2.4008
1.1240 11.6388 2.4008
0.8417 11.6613 2.4008
0.5590 11.6774 2.4008
0.2760 11.6870 2.4008
-0.0071 11.6902 2.4008
-0.2902 11.6869 2.4008
-0.5732 11.6771 2.4008
-0.8559 11.6609 2.4008
-1.1382 11.6382 2.4008
-1.4200 11.6091 2.4008
-1.7010 11.5735 2.4008
-1.9813 11.5315 2.4008
-2.2605 11.4832 2.4008
-2.5387 11.4284 2.4008
-2.8157 11.3673 2.4008
-3.0912 11.2998 2.4008
-3.3653 11.2261 2.4008
-3.6377 11.1460 2.4008
-3.9083 11.0597 2.4008
-4.1770 10.9672 2.4008
-4.4437 10.8685 2.4008
-4.7081 10.7637 2.4008
-4.9703 10.6528 2.4008
-5.2300 10.5358 2.4008
-5.4871 10.4128 2.4008
-5.6693 10.1546 2.3707
-5.7353 9.7125 2.2976
-5.9732 9.5779 2.2976
-6.2080 9.4377 2.2976
-6.4398 9.2920 2.2976
-6.6683 9.1410 2.2976
-6.8935 8.9845 2.2976
-7.1152 8.8228 2.2976
-7.3334 8.6558 2.2976
-7.5478 8.4837 2.2976
-7.7583 8.3065 2.2976
-7.9649 8.1243 2.2976
-8.1675 7.9372 2.2976
-8.3659 7.7452 2.2976
-8.5599 7.5485 2.2976
-6.2761 5.2702 1.6481
-8.9346 7.1412 2.2976
-9.1151 6.9307 2.2976
-9.2908 6.7159 2.2976
-9.4617 6.4968 2.2976
-9.6276 6.2735 2.2976
-9.7810 6.0415 2.2958
-9.9365 5.8102 2.2958
-9.2933 5.1366 2.1152
-8.3545 4.3573 1.8746
-8.5133 4.1814 1.8846
-10.5050 4.8479 2.2958
-10.6332 4.5985 2.2958
-10.7556 4.3458 2.2958
-10.8722 4.0900 2.2958
-10.9829 3.8311 2.2958
-11.0876 3.5693 2.2958
-11.1862 3.3048 2.2958
-11.2787 3.0377 2.2958
-11.3648 2.7680 2.2958
-11.4447 2.4960 2.2958
-11.5182 2.2218 2.2958
-11.5852 1.9456 2.2958
-11.6457 1.6674 2.2958
-11.6996 1.3874 2.2958
-11.7469 1.1059 2.2958
-11.7874 0.8229 2.2958
-11.8212 0.5386 2.2958
-11.8482 0.2532 2.2958
-11.8684 -0.0332 2.2958
-11.8817 -0.3204 2.2958
-11.8880 -0.6083 2.2958
-11.8874 -0.8966 2.2958
-11.8799 -1.1853 2.2958
-11.8653 -1.4741 2.2958
-11.8437 -1.7629 2.2958
-11.8150 -2.0514 2.2958
-11.7792 -2.3396 2.2958
-9.6697 -2.1646 1.8915
-9.4556 -2.3579 1.8576
-9.2484 -2.5449 1.8257
-9.0572 -2.7292 1.7979
-8.9528 -2.9354 1.7882
-8.8920 -3.1552 1.7882
-8.8257 -3.3737 1.7882
-11.2391 -4.6102 2.2958
-11.1399 -4.8870 2.2958
-11.0339 -5.1616 2.2958
-10.9209 -5.4338 2.2958
-10.8011 -5.7035 2.2958
-10.6745 -5.9705 2.2958
-10.5411 -6.2346 2.2958
-10.4010 -6.4956 2.2958
-10.2543 -6.7533 2.2958
-10.1088 -7.0130 2.2976
-9.9489 -7.2639 2.2976
-9.7827 -7.5110 2.2976
-9.6101 -7.7542 2.2976
-8.8815 -7.5288 2.2976
-8.7067 -7.7493 2.2976
-8.5264 -7.9656 2.2976
-8.3404 -8.1775 2.2976
-8.1490 -8.3849 2.2976
-7.9523 -8.5876 2.2976
-7.7504 -8.7855 2.2976
-7.5434 -8.9784 2.2976
-7.3314 -9.1661 2.2976
-7.1145 -9.3486 2.2976
-6.8929 -9.5257 2.2976
-6.6668 -9.6973 2.2976
-6.4362 -9.8633 2.2976
-6.3944 -10.3357 2.3691
-6.2301 -10.6351 2.4008
-5.9761 -10.7900 2.4008
-5.7181 -10.9386 2.4008
-5.4563 -11.0806 2.4008
-5.1908 -11.2159 2.4008
-4.9217 -11.3446 2.4008
-4.6494 -11.4664 2.4008
-4.3739 -11.5813 2.4008
-4.0954 -11.6892 2.4008
-3.8141 -11.7901 2.4008
-3.5303 -11.8837 2.4008
-3.2440 -11.9701 2.4008
-2.9555 -12.0492 2.4008
-2.6650 -12.1209 2.4008
-1.0570 -5.4282 1.0695
-0.9219 -5.4294 1.0648
-0.7879 -5.4305 1.0607
-0.6548 -5.4317 1.0574
-0.5224 -5.4329 1.0547
-0.3906 -5.4340 1.0526
-0.2591 -5.4352 1.0513
-0.1279 -5.4364 1.0505
0.0032 -5.4376 1.0505
0.1343 -5.4388 1.0511
0.2657 -5.4400 1.0523
0.3974 -5.4412 1.0542
0.5297 -5.4425 1.0567
0.6627 -5.4437 1.0599
1.7203 -11.7604 2.2977
2.0029 -11.7127 2.2977
2.1756 -11.1042 2.1886
2.5637 -11.5958 2.2977
2.8415 -11.5267 2.2977
3.1174 -11.4505 2.2977
3.3912 -11.3673 2.2977
3.6627 -11.2772 2.2977
3.9316 -11.1803 2.2977
4.1979 -11.0765 2.2977
4.4613 -10.9661 2.2977
4.7217 -10.8491 2.2977
4.9789 -10.7255 2.2977
5.2328 -10.5955 2.2977
5.4831 -10.4592 2.2977
5.8496 -10.5326 2.3458
6.0974 -10.3808 2.3458
5.5402 -8.9317 2.0495
5.7337 -8.7645 2.0439
6.0493 -8.7772 2.0820
6.3075 -8.6954 2.0999
5.5871 -7.3239 1.8023
5.6401 -7.0348 1.7657
5.9337 -7.0458 1.8056
6.2409 -7.0578 1.8485
6.5525 -7.0594 1.8916
5.5994 -5.7480 1.5776
5.7024 -5.5780 1.5698
5.8906 -5.4904 1.5864
6.2402 -5.5410 1.6458
6.5654 -5.5522 1.6976
6.9111 -5.5642 1.7537
7.2798 -5.5770 1.8147
7.6744 -5.5907 1.8810
8.0982 -5.6054 1.9535
8.2147 -5.3976 1.9519
7.6840 -4.7875 1.8000
6.9992 -4.1297 1.6178
6.8072 -3.7980 1.5537
6.9275 -3.6487 1.5626
6.9350 -3.4414 1.5471
6.9423 -3.2386 1.5328
6.8312 -2.9882 1.4938
6.9415 -2.8388 1.5045
7.0304 -2.6789 1.5113
7.1199 -2.5179 1.5191
7.3737 -2.4090 1.5625
7.5235 -2.2584 1.5844
7.7838 -2.1331 1.6301
7.8594 -1.9510 1.6378
8.2794 -1.8443 1.7179
8.2869 -1.6369 1.7131
8.2943 -1.4312 1.7094
8.3017 -1.2267 1.7067
8.3090 -1.0234 1.7050
8.3163 -0.8209 1.7043
8.3236 -0.6190 1.7046
8.3309 -0.4175 1.7060
8.3382 -0.2161 1.7083
8.3454 -0.0146 1.7116
8.3527 0.1873 1.7159
8.3600 0.3898 1.7212
8.3673 0.5930 1.7276
8.3747 0.7974 1.7350
8.3821 1.0030 1.7435
8.3896 1.2103 1.7530
8.3972 1.4193 1.7636
8.4048 1.6305 1.7754
8.4125 1.8441 1.7884
8.4203 2.0603 1.8025
8.4282 2.2796 1.8179
8.4362 2.5022 1.8346
8.4444 2.7284 1.8526
8.4527 2.9586 1.8720
8.4612 3.1933 1.8929
8.4698 3.4328 1.9153
8.4786 3.6775 1.9393
8.4877 3.9280 1.9650
8.4969 4.1848 1.9924
8.5064 4.4483 2.0217
8.5162 4.7192 2.0531
8.5263 4.9981 2.0865
8.4631 5.2402 2.1039
8.5210 5.5656 2.1536
8.5320 5.8722 2.1941
8.5435 6.1899 2.2374
8.5819 6.5402 2.2908
8.5943 6.8847 2.3404
8.4360 7.0998 2.3458
8.2533 7.2944 2.3458
8.0663 7.4845 2.3458
7.8751 7.6701 2.3458
7.6799 7.8510 2.3458
7.4806 8.0271 2.3458
7.2776 8.1985 2.3458
7.0708 8.3649 2.3458
6.8604 8.5264 2.3458
6.6465 8.6828 2.3458
6.2974 8.6530 2.2977
6.0814 8.7961 2.2977
5.8623 8.9342 2.2977
5.6402 9.0670 2.2977
5.4153 9.1946 2.2977
5.1876 9.3169 2.2977
4.9574 9.4338 2.2977
4.7246 9.5453 2.2977
4.4895 9.6514 2.2977
4.2522 9.7520 2.2977
4.0127 9.8471 2.2977
3.7712 9.9366 2.2977
3.5279 10.0205 2.2977
3.2828 10.0987 2.2977
3.0361 10.1713 2.2977
2.7878 10.2382 2.2977
2.5382 10.2993 2.2977
2.3900 10.8193 2.4008
2.1266 10.8711 2.4008
1.8623 10.9169 2.4008
1.5970 10.9566 2.4008
1.3309 10.9902 2.4008
1.0642 11.0177 2.4008
0.7969 11.0390 2.4008
0.5293 11.0543 2.4008
0.2613 11.0634 2.4008
-0.0067 11.0664 2.4008
-0.2748 11.0633 2.4008
-0.5427 11.0540 2.4008
-0.8104 11.0386 2.4008
-1.0776 11.0170 2.4008
-1.3444 10.9894 2.4008
-1.6104 10.9556 2.4008
-1.8757 10.9157 2.4008
-2.1401 10.8698 2.4008
-2.4034 10.8178 2.4008
-2.6655 10.7597 2.4008
-2.9263 10.6957 2.4008
-3.1857 10.6256 2.4008
-3.4435 10.5496 2.4008
-3.6996 10.4677 2.4008
-3.9539 10.3799 2.4008
-4.2062 10.2862 2.4008
-4.4564 10.1867 2.4008
-4.7044 10.0814 2.4008
-4.9500 9.9703 2.4008
-5.1932 9.8536 2.4008
-5.4338 9.7312 2.4008
-5.6716 9.6032 2.4008
-5.7119 9.1576 2.3217
-5.8746 8.9295 2.2976
-6.0937 8.7913 2.2976
-6.3097 8.6479 2.2976
-6.5225 8.4995 2.2976
-6.7320 8.3461 2.2976
-6.9380 8.1878 2.2976
-7.1405 8.0245 2.2976
-7.3394 7.8565 2.2976
-7.5344 7.6838 2.2976
-7.7256 7.5064 2.2976
-7.9128 7.3244 2.2976
-8.0959 7.1379 2.2976
-6.2723 5.2659 1.7416
-6.5299 5.2180 1.7756
-8.6195 6.5525 2.2976
-8.7852 6.3490 2.2976
-8.9462 6.1414 2.2976
-9.1025 5.9299 2.2976
-9.2539 5.7145 2.2976
-9.4005 5.4954 2.2976
-9.2941 5.1357 2.2379
-8.5745 4.4708 2.0355
-8.7390 4.2910 2.0468
-9.9280 4.5802 2.2958
-10.0485 4.3442 2.2958
-10.1635 4.1051 2.2958
-10.2730 3.8631 2.2958
-10.3768 3.6182 2.2958
-10.4749 3.3706 2.2958
-10.5673 3.1205 2.2958
-10.6538 2.8679 2.2958
-10.7344 2.6130 2.2958
-10.8090 2.3559 2.2958
-10.8776 2.0968 2.2958
-10.9400 1.8358 2.2958
-10.9963 1.5729 2.2958
-11.0464 1.3085 2.2958
-11.0901 1.0426 2.2958
-11.1275 0.7754 2.2958
-11.1585 0.5070 2.2958
-11.1832 0.2375 2.2958
-11.2013 -0.0328 2.2958
-11.2129 -0.3039 2.2958
-11.2180 -0.5755 2.2958
-11.2166 -0.8475 2.2958
-11.2085 -1.1198 2.2958
-11.1938 -1.3922 2.2958
-11.1725 -1.6645 2.2958
-11.1446 -1.9365 2.2958
-11.1100 -2.2082 2.2958
-11.0687 -2.4793 2.2958
-9.4792 -2.3650 1.9747
-9.2473 -2.5459 1.9360
-9.0464 -2.7272 1.9045
-8.8513 -2.9033 1.8751
-8.6615 -3.0746 1.8476
-8.7006 -3.3271 1.8701
-10.5938 -4.3470 2.2958
-10.4996 -4.6076 2.2958
-10.3988 -4.8660 2.2958
-10.2916 -5.1222 2.2958
-10.1779 -5.3759 2.2958
-10.0655 -5.6314 2.2976
-9.9390 -5.8800 2.2976
-9.8062 -6.1256 2.2976
-9.6672 -6.3682 2.2976
-9.5221 -6.6075 2.2976
-9.3708 -6.8434 2.2976
-9.2136 -7.0756 2.2976
-9.0505 -7.3041 2.2976
-8.3901 -7.1137 2.2976
-8.2246 -7.3216 2.2976
-8.0537 -7.5255 2.2976
-7.8777 -7.7252 2.2976
-7.6965 -7.9207 2.2976
-7.5103 -8.1117 2.2976
-7.3192 -8.2981 2.2976
-7.1233 -8.4799 2.2976
-6.9228 -8.6568 2.2976
-6.7177 -8.8287 2.2976
-6.5082 -8.9955 2.2976
-6.3550 -9.2454 2.3197
-6.3494 -9.7319 2.4008
-6.1174 -9.8895 2.4008
-5.8814 -10.0413 2.4008
-5.6414 -10.1871 2.4008
-5.3976 -10.3270 2.4008
-5.1503 -10.4606 2.4008
-4.8995 -10.5881 2.4008
-4.6454 -10.7092 2.4008
-4.3882 -10.8238 2.4008
-4.1281 -10.9320 2.4008
-3.8651 -11.0335 2.4008
-3.5996 -11.1284 2.4008
-3.3316 -11.2165 2.4008
-3.0614 -11.2978 2.4008
-2.7891 -11.3722 2.4008
-2.5149 -11.4397 2.4008
-1.0570 -5.4291 1.1334
-0.9220 -5.4303 1.1284
-0.7880 -5.4315 1.1241
-0.6549 -5.4326 1.1206
-0.5224 -5.4338 1.1177
-0.3906 -5.4350 1.1156
-0.2592 -5.4361 1.1141
-0.1280 -5.4373 1.1134
0.0032 -5.4385 1.1133
0.1343 -5.4397 1.1139
0.2657 -5.4409 1.1152
0.3975 -5.4422 1.1172
0.5297 -5.4434 1.1199
0.6627 -5.4446 1.1233
1.6233 -11.0990 2.2977
1.8900 -11.0542 2.2977
2.1554 -11.0025 2.2977
2.4193 -10.9442 2.2977
2.6815 -10.8791 2.2977
2.9420 -10.8075 2.2977
3.2004 -10.7292 2.2977
3.4567 -10.6444 2.2977
3.7106 -10.5532 2.2977
3.9620 -10.4556 2.2977
4.2108 -10.3517 2.2977
4.4567 -10.2415 2.2977
4.6996 -10.1252 2.2977
4.9394 -10.0029 2.2977
5.1758 -9.8746 2.2977
5.4088 -9.7404 2.2977
5.6382 -9.6005 2.2977
5.5454 -8.9415 2.1730
5.7328 -8.7645 2.1646
6.0483 -8.7773 2.2048
6.1310 -8.4535 2.1618
5.5918 -7.3312 1.9103
5.6390 -7.0346 1.8695
5.9327 -7.0458 1.9117
6.2398 -7.0578 1.9570
6.5524 -7.0606 2.0029
6.5628 -6.7382 1.9576
5.6076 -5.4863 1.6344
5.9323 -5.5303 1.6913
6.2389 -5.5409 1.7419
6.5640 -5.5522 1.7966
6.9096 -5.5642 1.8559
7.2782 -5.5770 1.9202
7.6726 -5.5906 1.9903
8.0963 -5.6054 2.0668
8.2148 -5.3989 2.0656
7.6835 -4.7883 1.9046
6.9999 -4.1312 1.7119
6.8074 -3.7991 1.6439
6.9275 -3.6497 1.6531
6.9350 -3.4424 1.6366
6.9423 -3.2396 1.6214
6.8310 -2.9891 1.5800
6.9411 -2.8396 1.5911
7.0299 -2.6798 1.5982
7.1194 -2.5187 1.6063
7.3727 -2.4097 1.6520
7.5244 -2.2597 1.6754
7.7827 -2.1339 1.7232
7.8579 -1.9517 1.7311
8.2794 -1.8454 1.8160
8.2869 -1.6380 1.8108
8.2943 -1.4323 1.8068
8.3017 -1.2278 1.8038
8.3090 -1.0245 1.8019
8.3163 -0.8220 1.8010
8.3236 -0.6201 1.8012
8.3308 -0.4186 1.8025
8.3381 -0.2172 1.8048
8.3454 -0.0157 1.8082
8.3527 0.1862 1.8126
8.3600 0.3886 1.8181
8.3673 0.5919 1.8247
8.3747 0.7963 1.8324
8.3821 1.0019 1.8412
8.3896 1.2091 1.8511
8.3971 1.4182 1.8622
8.4047 1.6294 1.8746
8.4124 1.8429 1.8881
8.4202 2.0592 1.9029
8.4282 2.2784 1.9190
8.4362 2.5010 1.9365
8.4443 2.7272 1.9554
8.4527 2.9575 1.9757
8.4611 3.1921 1.9976
8.4698 3.4316 2.0211
8.4786 3.6763 2.0463
8.4876 3.9268 2.0733
8.4969 4.1835 2.1021
8.5064 4.4470 2.1330
8.5162 4.7179 2.1659
8.5262 4.9968 2.2010
8.4638 5.2393 2.2194
8.5209 5.5642 2.2715
8.5320 5.8708 2.3142
8.4932 6.1521 2.3458
8.3332 6.3493 2.3458
8.1688 6.5425 2.3458
8.0001 6.7316 2.3458
7.8273 6.9165 2.3458
7.6503 7.0972 2.3458
7.4693 7.2735 2.3458
7.2845 7.4454 2.3458
7.0958 7.6129 2.3458
6.9035 7.7757 2.3458
6.7077 7.9339 2.3458
6.5083 8.0875 2.3458
6.1764 8.0673 2.2977
5.9747 8.2083 2.2977
5.7700 8.3444 2.2977
5.5623 8.4757 2.2977
5.3517 8.6020 2.2977
5.1385 8.7233 2.2977
4.9227 8.8396 2.2977
4.7043 8.9509 2.2977
4.4836 9.0570 2.2977
4.2606 9.1579 2.2977
4.0355 9.2536 2.2977
3.8083 9.3441 2.2977
3.5792 9.4293 2.2977
3.3483 9.5091 2.2977
3.1158 9.5836 2.2977
2.8816 9.6526 2.2977
2.6461 9.7163 2.2977
2.4092 9.7744 2.2977
2.2685 10.2681 2.4008
2.0186 10.3174 2.4008
1.7677 10.3610 2.4008
1.5159 10.3987 2.4008
1.2633 10.4307 2.4008
1.0101 10.4569 2.4008
0.7565 10.4772 2.4008
0.5024 10.4918 2.4008
0.2481 10.5004 2.4008
-0.0064 10.5033 2.4008
-0.2608 10.5003 2.4008
-0.5151 10.4914 2.4008
-0.7692 10.4768 2.4008
-1.0229 10.4563 2.4008
-1.2761 10.4299 2.4008
-1.5286 10.3978 2.4008
-1.7804 10.3598 2.4008
-2.0314 10.3161 2.4008
-2.2813 10.2666 2.4008
-2.5300 10.2114 2.4008
-2.7775 10.1504 2.4008
-3.0237 10.0837 2.4008
-3.2683 10.0114 2.4008
-3.5113 9.9334 2.4008
-3.7525 9.8498 2.4008
-3.9919 9.7607 2.4008
-4.2292 9.6660 2.4008
-4.4645 9.5658 2.4008
-4.6974 9.4601 2.4008
-4.9280 9.3491 2.4008
-5.1562 9.2326 2.4008
-5.3817 9.1109 2.4008
-5.6045 8.9839 2.4008
-5.7220 8.6960 2.3586
-5.7816 8.3396 2.2976
-5.9863 8.2033 2.2976
-6.1879 8.0622 2.2976
-6.3864 7.9163 2.2976
-6.5816 7.7658 2.2976
-6.7734 7.6106 2.2976
-6.9617 7.4509 2.2976
-7.1464 7.2867 2.2976
-7.3274 7.1181 2.2976
-7.5046 6.9451 2.2976
-7.6778 6.7680 2.2976
-6.2685 5.2616 1.8354
-6.5260 5.2138 1.8714
-8.1731 6.2118 2.2976
-8.3297 6.0185 2.2976
-8.4819 5.8213 2.2976
-8.6296 5.6205 2.2976
-8.7727 5.4160 2.2976
-8.9111 5.2079 2.2976
-9.0448 4.9965 2.2976
-8.5753 4.4699 2.1477
-8.7414 4.2909 2.1602
-9.4161 4.3426 2.2976
-9.5297 4.1185 2.2976
-9.6382 3.8916 2.2976
-9.7414 3.6618 2.2976
-9.8317 3.4268 2.2958
-9.9241 3.1920 2.2958
-10.0109 2.9548 2.2958
-10.0922 2.7154 2.2958
-10.1679 2.4737 2.2958
-10.2378 2.2300 2.2958
-10.3021 1.9845 2.2958
-10.3605 1.7371 2.2958
-10.4130 1.4881 2.2958
-10.4597 1.2376 2.2958
-10.5004 0.9858 2.2958
-10.5350 0.7327 2.2958
-10.5637 0.4785 2.2958
-10.5862 0.2234 2.2958
-10.6026 -0.0325 2.2958
-10.6129 -0.2890 2.2958
-10.6169 -0.5461 2.2958
-10.6148 -0.8035 2.2958
-10.6064 -1.0611 2.2958
-10.5918 -1.3187 2.2958
-10.5708 -1.5762 2.2958
-10.5436 -1.8335 2.2958
-10.5101 -2.0904 2.2958
-10.4703 -2.3467 2.2958
-9.5529 -2.3847 2.1039
-10.3719 -2.8569 2.2958
-10.3132 -3.1105 2.2958
-10.2483 -3.3630 2.2958
-8.6634 -3.0765 1.9543
-10.0997 -3.8636 2.2958
-10.0238 -4.1145 2.2976
-9.9339 -4.3608 2.2976
-9.8379 -4.6049 2.2976
-9.7358 -4.8470 2.2976
-9.6276 -5.0867 2.2976
-9.5134 -5.3239 2.2976
-9.3932 -5.5585 2.2976
-9.2672 -5.7903 2.2976
-9.1352 -6.0192 2.2976
-8.9975 -6.2449 2.2976
-8.8540 -6.4674 2.2976
-8.7049 -6.6864 2.2976
-8.5503 -6.9019 2.2976
-7.9483 -6.7405 2.2976
-7.7911 -6.9371 2.2976
-7.6288 -7.1298 2.2976
-7.4617 -7.3187 2.2976
-7.2897 -7.5035 2.2976
-7.1130 -7.6840 2.2976
-6.9317 -7.8602 2.2976
-6.7459 -8.0320 2.2976
-6.5557 -8.1991 2.2976
-6.3612 -8.3615 2.2976
-6.3376 -8.7611 2.3628
-6.2277 -9.0615 2.4008
-6.0118 -9.2158 2.4008
-5.7919 -9.3647 2.4008
-5.5682 -9.5080 2.4008
-5.3408 -9.6458 2.4008
-5.1099 -9.7778 2.4008
-4.8755 -9.9040 2.4008
-4.6380 -10.0244 2.4008
-4.3973 -10.1387 2.4008
-4.1537 -10.2470 2.4008
-3.9074 -10.3491 2.4008
-3.6584 -10.4449 2.4008
-3.4070 -10.5345 2.4008
-3.1533 -10.6177 2.4008
-2.8975 -10.6944 2.4008
-2.6397 -10.7647 2.4008
-2.3802 -10.8284 2.4008
-1.0571 -5.4301 1.1976
-0.9220 -5.4312 1.1924
-0.7880 -5.4324 1.1878
-0.6549 -5.4336 1.1841
-0.5225 -5.4347 1.1811
-0.3906 -5.4359 1.1789
-0.2592 -5.4370 1.1773
-0.1280 -5.4382 1.1765
0.0031 -5.4394 1.1764
0.1343 -5.4406 1.1771
0.2657 -5.4419 1.1785
0.3975 -5.4431 1.1806
0.5298 -5.4443 1.1834
0.6627 -5.4456 1.1870
1.6018 -10.9531 2.3956
1.7887 -10.4632 2.2977
2.0399 -10.4145 2.2977
2.2897 -10.3594 2.2977
2.5379 -10.2980 2.2977
2.7845 -10.2303 2.2977
3.0291 -10.1565 2.2977
3.2718 -10.0765 2.2977
3.5122 -9.9903 2.2977
3.7503 -9.8982 2.2977
3.9858 -9.8001 2.2977
4.2187 -9.6961 2.2977
4.4488 -9.5863 2.2977
4.6759 -9.4708 2.2977
4.8999 -9.3496 2.2977
5.1207 -9.2229 2.2977
5.3380 -9.0907 2.2977
5.5506 -8.9513 2.2973
5.7319 -8.7645 2.2858
5.9528 -8.6401 2.2918
6.1310 -8.4548 2.2830
5.5965 -7.3386 2.0190
5.6379 -7.0344 1.9738
5.9316 -7.0458 2.0182
6.2387 -7.0578 2.0660
6.3774 -6.8733 2.0582
6.3875 -6.5594 2.0116
5.6487 -5.5275 1.7381
5.9310 -5.5301 1.7851
6.2375 -5.5408 1.8384
6.5625 -5.5521 1.8960
6.9080 -5.5641 1.9584
7.2765 -5.5769 2.0262
7.6708 -5.5906 2.1001
8.0943 -5.6053 2.1807
8.2149 -5.4003 2.1798
7.6830 -4.7892 2.0096
7.0005 -4.1327 1.8065
6.8075 -3.8002 1.7345
6.9274 -3.6507 1.7440
6.9349 -3.4434 1.7265
6.9422 -3.2406 1.7103
6.8308 -2.9900 1.6666
6.9406 -2.8404 1.6782
7.0295 -2.6806 1.6855
7.1189 -2.5196 1.6940
7.3717 -2.4104 1.7419
7.5233 -2.2605 1.7665
7.7816 -2.1346 1.8167
7.8564 -1.9524 1.8249
8.2793 -1.8465 1.9146
8.2868 -1.6391 1.9090
8.2942 -1.4334 1.9046
8.3016 -1.2290 1.9013
8.3089 -1.0256 1.8992
8.3163 -0.8231 1.8982
8.3235 -0.6212 1.8983
8.3308 -0.4197 1.8995
8.3381 -0.2183 1.9018
8.3453 -0.0168 1.9052
8.3526 0.1851 1.9097
8.3599 0.3875 1.9154
8.3673 0.5908 1.9222
8.3746 0.7951 1.9302
8.3821 1.0008 1.9394
8.3895 1.2080 1.9497
8.3971 1.4171 1.9613
8.4047 1.6282 1.9742
8.4124 1.8418 1.9883
8.4202 2.0580 2.0038
8.4281 2.2773 2.0206
8.4361 2.4998 2.0389
8.4443 2.7260 2.0586
8.4526 2.9562 2.0800
8.4611 3.1909 2.1029
8.4697 3.4304 2.1275
8.4785 3.6751 2.1539
8.4876 3.9255 2.1822
8.4968 4.1822 2.2124
8.5063 4.4457 2.2447
8.5161 4.7165 2.2792
8.5262 4.9954 2.3161
8.4645 5.2384 2.3355
8.3632 5.4600 2.3458
8.2202 5.6550 2.3458
8.0729 5.8463 2.3458
7.9212 6.0340 2.3458
7.7653 6.2179 2.3458
7.6053 6.3980 2.3458
7.4413 6.5741 2.3458
7.2734 6.7462 2.3458
7.1016 6.9141 2.3458
6.9262 7.0779 2.3458
6.7471 7.2374 2.3458
6.5645 7.3926 2.3458
6.2477 7.3887 2.2977
6.0623 7.5319 2.2977
5.8737 7.6708 2.2977
5.6821 7.8050 2.2977
5.4876 7.9348 2.2977
5.2903 8.0599 2.2977
5.0902 8.1803 2.2977
4.8875 8.2960 2.2977
4.6823 8.4069 2.2977
4.4748 8.5129 2.2977
4.2649 8.6141 2.2977
4.0529 8.7103 2.2977
3.8389 8.8016 2.2977
3.6228 8.8878 2.2977
3.4050 8.9690 2.2977
3.1854 9.0451 2.2977
2.9642 9.1161 2.2977
2.7415 9.1820 2.2977
2.5175 9.2427 2.2977
2.3610 9.5777 2.3668
2.1583 9.7679 2.4008
1.9205 9.8149 2.4008
1.6818 9.8565 2.4008
1.4423 9.8925 2.4008
1.2020 9.9230 2.4008
0.9611 9.9480 2.4008
0.7197 9.9674 2.4008
0.4780 9.9813 2.4008
0.2360 9.9895 2.4008
-0.0061 9.9922 2.4008
-0.2482 9.9894 2.4008
-0.4901 9.9809 2.4008
-0.7319 9.9669 2.4008
-0.9733 9.9474 2.4008
-1.2142 9.9222 2.4008
-1.4544 9.8916 2.4008
-1.6940 9.8554 2.4008
-1.9327 9.8137 2.4008
-2.1704 9.7664 2.4008
-2.4071 9.7138 2.4008
-2.6425 9.6556 2.4008
-2.8766 9.5920 2.4008
-3.1093 9.5230 2.4008
-3.3404 9.4487 2.4008
-3.5698 9.3690 2.4008
-3.7974 9.2839 2.4008
-4.0232 9.1936 2.4008
-4.2468 9.0981 2.4008
-4.4683 8.9974 2.4008
-4.6876 8.8915 2.4008
-4.9044 8.7805 2.4008
-5.1188 8.6645 2.4008
-5.3305 8.5434 2.4008
-5.5395 8.4174 2.4008
-5.7372 8.2742 2.3973
-5.7573 7.8882 2.3235
-5.8846 7.6657 2.2976
-6.0731 7.5267 2.2976
-6.2585 7.3833 2.2976
-6.4406 7.2354 2.2976
-6.6194 7.0833 2.2976
-6.7948 6.9269 2.2976
-6.9666 6.7663 2.2976
-7.1347 6.6015 2.2976
-7.2991 6.4328 2.2976
-6.2646 5.2573 1.9295
-6.5221 5.2096 1.9675
-7.7689 5.9032 2.2976
-7.9173 5.7192 2.2976
-8.0616 5.5315 2.2976
-8.2015 5.3404 2.2976
-8.3371 5.1457 2.2976
-8.4682 4.9478 2.2976
-8.5947 4.7466 2.2976
-8.5761 4.4691 2.2605
-8.7438 4.2908 2.2742
-8.9461 4.1246 2.2976
-9.0536 3.9114 2.2976
-9.1561 3.6956 2.2976
-9.2535 3.4771 2.2976
-9.3459 3.2561 2.2976
-9.4331 3.0328 2.2976
-9.5151 2.8072 2.2976
-9.5918 2.5794 2.2976
-9.6631 2.3496 2.2976
-9.7290 2.1179 2.2976
-9.7894 1.8844 2.2976
-9.8368 1.6480 2.2958
-9.8861 1.4115 2.2958
-9.9298 1.1736 2.2958
-9.9678 0.9344 2.2958
-10.0000 0.6942 2.2958
-10.0266 0.4529 2.2958
-10.0473 0.2107 2.2958
-10.0622 -0.0322 2.2958
-10.0713 -0.2756 2.2958
-10.0745 -0.5195 2.2958
-10.0718 -0.7637 2.2958
-10.0632 -1.0081 2.2958
-10.0486 -1.2524 2.2958
-10.0282 -1.4966 2.2958
-10.0017 -1.7406 2.2958
-9.9693 -1.9842 2.2958
-9.9385 -2.2288 2.2976
-9.5517 -2.3857 2.2181
-9.8437 -2.7128 2.2976
-9.7875 -2.9533 2.2976
-9.7252 -3.1927 2.2976
-8.8614 -3.1480 2.1083
-9.5830 -3.6672 2.2976
-9.5031 -3.9022 2.2976
-9.4173 -4.1353 2.2976
-9.3257 -4.3666 2.2976
-9.2284 -4.5957 2.2976
-9.1253 -4.8227 2.2976
-9.0165 -5.0472 2.2976
-8.9021 -5.2692 2.2976
-8.7821 -5.4886 2.2976
-8.6565 -5.7051 2.2976
-8.5255 -5.9187 2.2976
-8.3892 -6.1292 2.2976
-8.2474 -6.3364 2.2976
-8.1005 -6.5402 2.2976
-7.5488 -6.4030 2.2976
-7.3991 -6.5894 2.2976
-7.2447 -6.7721 2.2976
-7.0856 -6.9512 2.2976
-6.9220 -7.1263 2.2976
-6.7540 -7.2974 2.2976
-6.5815 -7.4644 2.2976
-6.4048 -7.6272 2.2976
-6.3246 -7.9114 2.3347
-6.3105 -8.2963 2.4008
-6.1132 -8.4523 2.4008
-5.9119 -8.6034 2.4008
-5.7067 -8.7496 2.4008
-5.4978 -8.8906 2.4008
-5.2853 -9.0264 2.4008
-5.0693 -9.1568 2.4008
-4.8500 -9.2819 2.4008
-4.6274 -9.4014 2.4008
