ply
format ascii 1.0
element vertex 2087
property float32 x
property float32 y
property float32 z
end_header
7.2429 -11.0422 0.1078
7.2397 -10.4763 0.1052
7.4018 -10.1761 0.1053
7.4801 -9.7781 0.1043
7.5633 -9.4067 0.1036
6.7753 -8.0218 0.0913
6.7938 -7.6603 0.0902
6.7199 -7.2179 0.0881
6.8713 -7.0319 0.0890
6.9879 -6.8138 0.0895
7.2241 -6.7113 0.0917
7.3942 -6.5437 0.0931
7.6287 -6.4293 0.0954
7.8122 -6.2675 0.0971
8.1499 -6.2208 0.1008
8.2039 -5.9539 0.1011
8.2096 -5.6604 0.1009
8.2152 -5.3761 0.1007
8.2764 -5.1348 0.1014
8.2817 -4.8650 0.1014
8.2868 -4.6024 0.1015
8.2919 -4.3465 0.1016
8.2038 -4.0507 0.1007
8.2457 -3.8264 0.1015
8.2155 -3.5738 0.1014
8.3109 -3.3789 0.1030
8.3154 -3.1488 0.1035
8.3199 -2.9226 0.1041
8.3243 -2.7001 0.1047
8.3286 -2.4807 0.1054
8.2767 -2.2491 0.1054
8.2809 -2.0367 0.1062
8.2851 -1.8266 0.1071
8.2891 -1.6185 0.1080
7.8215 -1.3319 0.1028
7.7257 -1.1242 0.1025
7.4269 -0.8980 0.0994
7.0901 -0.6839 0.0959
7.0034 -0.5051 0.0957
6.9190 -0.3312 0.0956
6.9676 -0.1650 0.0973
6.9709 0.0035 0.0985
6.9479 0.1714 0.0994
6.9776 0.3410 0.1011
6.8927 0.5040 0.1012
6.9618 0.6785 0.1036
7.0592 0.8607 0.1065
7.1287 1.0445 0.1091
7.6558 1.3115 0.1189
7.7904 1.5291 0.1228
7.9989 1.7718 0.1281
8.0029 1.9767 0.1303
8.0070 2.1843 0.1325
8.0111 2.3949 0.1348
8.0153 2.6087 0.1372
8.0196 2.8262 0.1398
8.0239 3.0476 0.1424
8.0284 3.2734 0.1452
8.0329 3.5040 0.1481
8.0376 3.7397 0.1512
8.0423 3.9811 0.1544
8.0472 4.2286 0.1577
8.0522 4.4828 0.1613
8.0573 4.7443 0.1649
8.0626 5.0136 0.1688
8.0681 5.2916 0.1729
8.0737 5.5789 0.1772
8.0796 5.8764 0.1817
8.0856 6.1850 0.1865
8.0919 6.5057 0.1916
8.0985 6.8397 0.1969
8.1054 7.1881 0.2026
8.1125 7.5525 0.2086
8.1200 7.9343 0.2150
8.1279 8.3353 0.2218
8.1362 8.7576 0.2291
8.1450 9.2034 0.2369
8.1543 9.6753 0.2452
8.1641 10.1762 0.2541
8.1746 10.7096 0.2638
8.4429 11.6335 0.2828
8.4553 12.2634 0.2944
8.4686 12.9412 0.3071
8.4830 13.6734 0.3208
8.4986 14.4677 0.3359
8.8195 15.8806 0.3651
8.8388 16.8631 0.3841
8.8601 17.9455 0.4052
8.8837 19.1455 0.4287
8.9100 20.4849 0.4551
8.9408 21.9941 0.4851
8.9744 23.7032 0.5193
9.0129 25.6612 0.5586
9.0575 27.9293 0.6045
9.1088 30.5876 0.6585
9.1712 33.7592 0.7231
9.2469 37.6080 0.8019
9.4786 43.0081 0.9133
8.3984 43.0293 0.9104
8.4218 49.4814 1.0435
8.8729 61.0120 1.2830
7.8773 65.1932 1.3676
6.0224 62.4897 1.3081
4.5784 63.5589 1.3283
3.0460 63.7545 1.3306
1.2990 55.1002 1.1490
-0.0393 65.8449 1.3723
-1.5986 64.5338 1.3448
-3.1662 64.6513 1.3477
-2.6400 36.0477 0.7519
-3.3819 34.6572 0.7237
-4.2312 34.6701 0.7250
-9.5890 65.3872 1.3698
-11.0705 64.5770 1.3559
-9.4973 48.3524 1.0179
-14.1899 64.0211 1.3519
-16.0765 65.0493 1.3784
-14.3882 52.7144 1.1214
-15.7675 52.7175 1.1263
-11.8087 36.2653 0.7785
-23.0910 65.4934 1.4133
-24.3888 64.1843 1.3929
-26.1862 64.1975 1.4018
-8.6720 19.8727 0.4368
-9.2553 19.8842 0.4402
-9.8526 19.8959 0.4439
-10.4651 19.9080 0.4478
-20.8649 37.4646 0.8501
-24.2201 41.1190 0.9417
-16.0066 25.7319 0.5952
-27.4562 41.8480 0.9782
-44.6388 64.5788 1.5263
-47.4425 65.2077 1.5595
-15.0971 19.7299 0.4778
-15.1168 18.7965 0.4613
-15.2661 18.0700 0.4497
-15.5382 17.5152 0.4424
-15.1698 16.2894 0.4180
-15.1857 15.5362 0.4053
-15.2009 14.8178 0.3934
-15.2154 14.1312 0.3822
-15.3666 13.5950 0.3749
-15.6300 13.1686 0.3708
-15.6432 12.5461 0.3611
-15.2678 11.6501 0.3432
-15.2797 11.0854 0.3347
-15.2913 10.5394 0.3266
-15.3024 10.0104 0.3190
-15.3133 9.4972 0.3117
-15.3238 8.9984 0.3048
-15.5342 8.6240 0.3021
-15.7341 8.2441 0.2993
-15.7441 7.7703 0.2931
-15.7539 7.3072 0.2872
-15.3727 6.6839 0.2746
-15.3819 6.2504 0.2694
-15.3909 5.8248 0.2644
-15.3997 5.4065 0.2596
-15.4084 4.9947 0.2550
-15.6365 4.6543 0.2542
-18.2049 4.9432 0.2908
-21.0936 5.1836 0.3312
-22.3055 4.9131 0.3445
-22.3067 4.3511 0.3390
-22.3173 3.7958 0.3339
-26.0432 3.7845 0.3837
-35.4333 4.2775 0.5144
-21.5663 2.0762 0.3086
-21.5758 1.5520 0.3045
-36.4729 1.7390 0.5078
-36.7436 0.8628 0.5049
-37.0180 -0.0255 0.5023
-37.2966 -0.9271 0.4999
-37.5801 -1.8436 0.4978
-37.8688 -2.7764 0.4960
-37.8997 -3.7012 0.4910
-39.1759 -4.7840 0.5023
-39.2094 -5.7527 0.4978
-39.2431 -6.7301 0.4936
-39.2772 -7.7173 0.4896
-39.3117 -8.7156 0.4859
-39.3466 -9.7264 0.4825
-39.3819 -10.7512 0.4794
-39.0528 -11.6823 0.4721
-61.2142 -21.5848 0.7312
-58.5190 -22.2383 0.6954
-88.9577 -36.2890 1.0524
-85.0717 -37.1260 1.0026
-73.7664 -34.3373 0.8666
-73.5416 -36.4199 0.8617
-73.4922 -38.6341 0.8596
-65.7174 -36.6004 0.7679
-62.1479 -36.6073 0.7260
-59.4128 -36.9583 0.6944
-59.5299 -39.0571 0.6967
-59.4948 -41.1241 0.6979
-59.5037 -43.2917 0.7002
-38.8472 -29.7247 0.4590
-41.0255 -32.9931 0.4873
-54.5150 -46.0597 1.4426
-64.7863 -57.4773 1.7399
-35.6870 -33.2360 0.9738
-43.8603 -42.8729 1.2176
-32.5495 -33.3923 0.9204
-30.9397 -33.3145 0.8923
-44.1469 -49.9010 1.3004
-44.1011 -52.3449 1.3287
-44.1188 -55.0102 1.3617
-38.4727 -50.4194 1.2184
-23.2894 -33.7892 0.7807
-20.8679 -33.6461 0.7463
-26.0505 -46.9210 1.0031
-39.8715 -76.0903 1.5992
-38.9587 -78.9302 1.6324
-15.6725 -33.7855 0.6882
-12.8408 -33.9238 0.6638
-26.5785 -75.6922 1.4641
-10.9644 -33.8176 0.6471
-26.8244 -90.0992 1.7070
-10.4996 -38.6584 0.7258
-10.6846 -43.4654 0.8094
-10.6685 -48.4179 0.8950
-9.7837 -50.1381 0.9207
-9.5538 -56.1441 1.0251
-10.3867 -71.4348 1.2979
-11.5605 -95.6917 1.7316
-9.1742 -95.2072 1.7172
1.2929 -52.2301 0.9382
3.0679 -62.6733 1.1276
6.6445 -90.7670 1.6370
5.2934 -54.2673 0.9819
5.2164 -42.7579 0.7768
2.0487 -13.9749 0.2551
5.4240 -31.6504 0.5811
5.8024 -29.5508 0.5461
6.1669 -27.8324 0.5181
6.4751 -26.2083 0.4918
5.4644 -20.0266 0.3792
2.3175 -7.7510 0.1482
5.8616 -18.0071 0.3480
6.0427 -17.1446 0.3352
6.1954 -16.3098 0.3228
6.3074 -15.4680 0.3102
6.4442 -14.7723 0.3005
6.5380 -14.0509 0.2901
6.6562 -13.4456 0.2820
6.8507 -13.0365 0.2781
6.9161 -12.4226 0.2697
7.0488 -11.9710 0.2647
7.0701 -11.3695 0.2564
7.2428 -11.0430 0.2542
7.2398 -10.4775 0.2464
7.4017 -10.1769 0.2448
7.4800 -9.7789 0.2408
7.5631 -9.4075 0.2374
6.7746 -8.0219 0.2077
6.7938 -7.6611 0.2037
6.7198 -7.2186 0.1974
6.8710 -7.0324 0.1980
6.9876 -6.8143 0.1977
7.2236 -6.7116 0.2010
7.3937 -6.5440 0.2026
7.6282 -6.4297 0.2060
7.8113 -6.2676 0.2081
8.1490 -6.2209 0.2145
8.2038 -5.9547 0.2135
8.2096 -5.6612 0.2114
8.2152 -5.3769 0.2096
8.2763 -5.1356 0.2093
8.2816 -4.8658 0.2078
8.2868 -4.6032 0.2065
8.2919 -4.3472 0.2054
8.2038 -4.0514 0.2022
8.2457 -3.8271 0.2023
8.2155 -3.5745 0.2007
8.3109 -3.3796 0.2024
8.3154 -3.1495 0.2021
8.3199 -2.9233 0.2018
8.3242 -2.7008 0.2017
8.3286 -2.4814 0.2017
8.2767 -2.2497 0.2005
8.2809 -2.0373 0.2008
8.2850 -1.8272 0.2011
8.2891 -1.6192 0.2016
7.8232 -1.3328 0.1908
7.7267 -1.1249 0.1890
7.4278 -0.8987 0.1824
7.0904 -0.6845 0.1748
7.0037 -0.5057 0.1735
6.9193 -0.3318 0.1724
6.9676 -0.1655 0.1746
6.9709 0.0029 0.1758
6.9479 0.1708 0.1765
6.9776 0.3404 0.1786
6.8949 0.5036 0.1779
6.9615 0.6780 0.1811
7.0588 0.8601 0.1853
7.1292 1.0441 0.1890
7.6547 1.3107 0.2050
7.7907 1.5286 0.2109
7.9988 1.7712 0.2189
8.0029 1.9761 0.2216
8.0070 2.1837 0.2245
8.0111 2.3942 0.2275
8.0153 2.6081 0.2307
8.0196 2.8255 0.2341
8.0239 3.0470 0.2376
8.0284 3.2728 0.2413
8.0329 3.5033 0.2453
8.0375 3.7390 0.2495
8.0423 3.9804 0.2539
8.0472 4.2279 0.2585
8.0522 4.4821 0.2634
8.0573 4.7435 0.2686
8.0626 5.0129 0.2741
8.0681 5.2908 0.2799
8.0737 5.5781 0.2860
8.0796 5.8756 0.2925
8.3831 6.4118 0.3104
8.3897 6.7443 0.3180
8.3965 7.0905 0.3260
8.4036 7.4517 0.3346
8.4110 7.8295 0.3437
8.4188 8.2254 0.3534
8.4270 8.6411 0.3638
8.4356 9.0789 0.3749
8.4447 9.5411 0.3868
8.4543 10.0303 0.3997
8.4645 10.5496 0.4135
8.7321 11.4388 0.4413
8.7440 12.0474 0.4579
8.7569 12.6998 0.4760
8.7707 13.4017 0.4956
8.7856 14.1600 0.5171
8.8018 14.9826 0.5406
8.8194 15.8793 0.5665
8.8388 16.8617 0.5952
8.8601 17.9441 0.6270
8.8567 19.0859 0.6607
8.9100 20.4832 0.7028
8.9408 21.9924 0.7483
8.9744 23.7014 0.8003
9.0129 25.6592 0.8602
9.0575 27.9272 0.9300
9.1087 30.5853 1.0123
9.1711 33.7567 1.1110
9.2468 37.6053 1.2313
9.4792 43.0081 1.4017
8.3989 43.0293 1.3966
8.4217 49.4780 1.6000
8.8728 61.0081 1.9666
7.7900 64.4680 2.0725
6.3164 65.5364 2.1020
4.6738 64.8809 2.0772
3.0301 63.4208 2.0278
1.2969 55.0137 1.7574
-0.0390 65.0119 2.0759
-1.7754 71.6553 2.2881
-3.1696 64.7103 2.0674
-2.6398 36.0418 1.1525
-3.3823 34.6573 1.1098
-4.2317 34.6702 1.1123
-9.5877 65.3721 2.1022
-10.9660 63.9611 2.0626
-9.4982 48.3524 1.5643
-14.1712 63.9306 2.0761
-14.4248 58.3608 1.9033
-14.3895 52.7143 1.7273
-15.7689 52.7173 1.7365
-11.8084 36.2611 1.2013
-23.0097 65.2569 2.1755
-24.2878 63.9128 2.1452
-26.1141 64.0147 2.1645
-28.3143 64.8788 2.2111
-30.4822 65.4821 2.2507
-32.0171 64.6483 2.2422
-33.5309 63.7809 2.2336
-20.8631 37.4577 1.3254
-24.2171 41.1100 1.4706
-16.0040 25.7252 0.9310
-27.4516 41.8369 1.5328
-10.2888 14.8832 0.5524
-44.4457 61.0826 2.2986
-15.0971 19.7279 0.7532
-15.1168 18.7946 0.7287
-15.2678 18.0700 0.7120
-15.5382 17.5134 0.7020
-15.1698 16.2877 0.6647
-15.1857 15.5345 0.6461
-15.2009 14.8162 0.6287
-15.2154 14.1296 0.6124
-15.3685 13.5951 0.6025
-15.6300 13.1670 0.5974
-15.6432 12.5445 0.5834
-15.2678 11.6486 0.5561
-15.2798 11.0839 0.5440
-15.2913 10.5379 0.5325
-15.3025 10.0090 0.5217
-15.3133 9.4957 0.5115
-15.3239 8.9970 0.5018
-15.5368 8.6241 0.4991
-15.7341 8.2427 0.4962
-15.7441 7.7690 0.4878
-15.7539 7.3058 0.4797
-15.3728 6.6826 0.4605
-15.3819 6.2491 0.4534
-15.3909 5.8236 0.4468
-15.3998 5.4052 0.4405
-15.4085 4.9935 0.4345
-15.6417 4.6545 0.4352
-18.2049 4.9417 0.4999
-21.0937 5.1820 0.5720
-22.3055 4.9113 0.5977
-22.3067 4.3493 0.5909
-22.3173 3.7941 0.5848
-26.0434 3.7825 0.6755
-35.4325 4.2747 0.9100
-21.5665 2.0745 0.5488
-21.5761 1.5503 0.5443
-36.4721 1.7361 0.9125
-36.7432 0.8599 0.9123
-37.0181 -0.0283 0.9126
-37.2972 -0.9300 0.9135
-37.5808 -1.8465 0.9149
-37.8695 -2.7793 0.9169
-37.9005 -3.7042 0.9132
-39.1760 -4.7871 0.9398
-39.2095 -5.7558 0.9371
-39.2432 -6.7332 0.9349
-39.2773 -7.7204 0.9333
-39.3118 -8.7187 0.9323
-39.3467 -9.7295 0.9318
-39.3821 -10.7544 0.9319
-39.0529 -11.6855 0.9240
-61.2018 -21.5854 1.4504
-58.5189 -22.2431 1.3894
-87.5119 -35.7064 2.0830
-76.4206 -33.3569 1.8249
-73.4426 -34.1927 1.7607
-73.4860 -36.3986 1.7701
-71.1185 -37.3923 1.7225
-65.4918 -36.4804 1.5962
-62.0386 -36.5483 1.5228
-59.4129 -36.9636 1.4700
-59.4532 -39.0122 1.4840
-59.4949 -41.1297 1.4996
-59.4967 -43.2921 1.5157
-43.3193 -33.1507 1.1165
-41.0640 -33.0281 1.0718
-39.1556 -33.0864 1.6046
-25.9631 -23.0366 1.0822
-24.6885 -22.9953 1.0479
-23.8135 -23.2799 1.0304
-23.3348 -23.9415 1.0306
-22.8367 -24.5920 1.0308
-44.0080 -49.7489 2.0328
-44.0618 -52.3033 2.0859
-44.1189 -55.0156 2.1437
-38.4550 -50.4008 1.9209
-44.2452 -60.9906 2.2758
-23.2116 -33.6793 1.2317
-43.4277 -66.3896 2.3818
-20.8662 -33.6462 1.1853
-40.3944 -68.7917 2.3818
-18.7737 -33.8171 1.1518
-37.2142 -71.0250 2.3818
-32.4585 -65.7661 2.1734
-15.6713 -33.7855 1.1012
-27.9743 -64.3372 2.0699
-27.2598 -67.0808 2.1320
-12.8408 -33.9264 1.0661
-11.9178 -33.9429 1.0554
-10.9636 -33.8176 1.0413
-19.6725 -66.0817 2.0165
-10.4988 -38.6580 1.1700
-10.6837 -43.4648 1.3056
-10.6692 -48.4244 1.4449
-9.7832 -50.1383 1.4871
-9.5535 -56.1453 1.6566
-10.3809 -71.3993 2.0973
-5.3799 -44.5340 1.3032
-4.2923 -44.5468 1.2997
-5.9428 -82.5131 2.4018
-3.9482 -82.6417 2.4018
-1.9505 -82.7106 2.4018
0.0482 -82.7203 2.4018
1.2926 -52.2273 1.5174
3.0649 -62.6212 1.8218
4.3135 -58.9317 1.7180
5.2930 -54.2693 1.5865
5.2786 -43.2720 1.2695
2.0652 -14.0887 0.4151
5.4449 -31.7756 0.9408
5.8422 -29.7561 0.8861
6.1666 -27.8337 0.8342
6.4295 -26.0261 0.7857
5.4642 -20.0276 0.6094
2.3172 -7.7506 0.2379
5.8614 -18.0081 0.5580
6.0425 -17.1455 0.5368
6.1952 -16.3108 0.5163
6.3072 -15.4689 0.4955
6.4440 -14.7732 0.4792
6.5378 -14.0518 0.4619
6.6563 -13.4471 0.4484
6.8505 -13.0374 0.4414
6.9154 -12.4225 0.4273
7.0487 -11.9718 0.4188
7.0693 -11.3694 0.4048
7.2426 -11.0439 0.4006
7.2400 -10.4788 0.3876
7.4015 -10.1777 0.3843
7.4798 -9.7797 0.3773
7.5629 -9.4082 0.3712
6.7528 -7.9969 0.3231
6.7938 -7.6619 0.3173
6.7197 -7.2192 0.3067
6.8708 -7.0329 0.3070
6.9873 -6.8148 0.3060
7.2231 -6.7120 0.3103
7.3932 -6.5444 0.3120
7.6277 -6.4301 0.3166
7.8105 -6.2677 0.3192
8.1480 -6.2211 0.3281
7.4481 -5.4069 0.2959
8.2096 -5.6619 0.3220
8.2152 -5.3776 0.3185
8.2763 -5.1364 0.3173
8.2816 -4.8665 0.3144
8.2868 -4.6039 0.3117
8.2918 -4.3479 0.3093
8.2037 -4.0521 0.3036
8.2457 -3.8279 0.3031
8.2155 -3.5752 0.3001
8.3109 -3.3803 0.3020
8.3154 -3.1502 0.3007
8.3198 -2.9240 0.2996
8.3242 -2.7014 0.2988
7.2607 -2.1638 0.2599
8.2767 -2.2504 0.2956
8.2809 -2.0380 0.2953
8.2850 -1.8279 0.2952
8.2891 -1.6198 0.2953
8.2932 -1.4135 0.2956
7.7277 -1.1257 0.2757
7.4287 -0.8994 0.2654
7.0907 -0.6851 0.2539
7.0039 -0.5063 0.2514
6.9196 -0.3323 0.2492
6.9676 -0.1660 0.2519
6.9709 0.0024 0.2531
6.9478 0.1703 0.2536
6.9775 0.3399 0.2560
6.8970 0.5033 0.2546
6.9612 0.6774 0.2587
7.0585 0.8595 0.2642
7.1297 1.0436 0.2689
7.6535 1.3099 0.2911
7.7909 1.5280 0.2989
8.2932 1.8357 0.3212
8.2973 2.0481 0.3246
8.3016 2.2634 0.3282
8.3059 2.4817 0.3320
8.3102 2.7033 0.3361
8.3146 2.9288 0.3405
8.3192 3.1584 0.3451
8.3238 3.3925 0.3499
8.3285 3.6315 0.3551
8.3333 3.8759 0.3606
8.3382 4.1261 0.3664
8.3432 4.3827 0.3726
8.3484 4.6463 0.3791
8.3538 4.9174 0.3860
8.3592 5.1966 0.3934
8.3649 5.4848 0.4011
8.3708 5.7826 0.4094
8.3768 6.0910 0.4181
8.3831 6.4110 0.4275
8.3897 6.7434 0.4374
8.3965 7.0897 0.4479
8.4036 7.4509 0.4592
8.4110 7.8286 0.4712
8.4188 8.2245 0.4840
8.4270 8.6402 0.4977
8.4356 9.0780 0.5124
8.4447 9.5401 0.5282
8.4543 10.0293 0.5452
8.4645 10.5486 0.5635
8.7321 11.4378 0.6010
8.7440 12.0463 0.6231
8.7569 12.6986 0.6471
8.7707 13.4005 0.6733
8.7856 14.1587 0.7019
8.8018 14.9813 0.7334
8.8194 15.8779 0.7680
8.8387 16.8603 0.8064
8.8600 17.9426 0.8491
8.8567 19.0844 0.8941
8.9100 20.4816 0.9506
8.9407 21.9906 1.0117
8.9743 23.6995 1.0814
9.0128 25.6572 1.1619
9.0574 27.9251 1.2557
9.1087 30.5831 1.3663
9.1711 33.7542 1.4991
9.2468 37.6025 1.6609
9.4798 43.0081 1.8904
8.3994 43.0293 1.8831
8.4217 49.4746 2.1568
7.6887 52.8633 2.2968
6.4166 53.0991 2.3005
5.1261 53.1838 2.2987
3.8384 53.2830 2.2987
2.5493 53.3562 2.2987
1.2748 54.0808 2.3279
-0.0337 55.8197 2.4018
-1.3836 55.8323 2.4026
-2.7342 55.8151 2.4033
-2.5886 35.3374 1.5232
-3.3827 34.6574 1.4962
-4.2321 34.6702 1.4999
-8.1315 55.4380 2.4045
-9.4716 55.2399 2.4033
-9.5089 48.4019 2.1133
-12.1451 54.7850 2.4018
-12.9013 52.1924 2.2987
-14.1753 51.9249 2.2987
-15.4454 51.6312 2.2987
-11.8081 36.2569 1.6243
-17.9720 50.9650 2.2987
-19.2277 50.5926 2.2987
-20.4779 50.1938 2.2987
-21.7220 49.7689 2.2987
-22.9596 49.3174 2.2987
-24.1903 48.8399 2.2987
-25.6688 48.8214 2.3218
-20.8612 37.4509 1.8008
-24.2094 41.0929 1.9992
-16.0014 25.7185 1.2669
-27.4470 41.8257 2.0875
-10.2511 14.8273 0.7504
-32.9007 45.2116 2.3218
-15.0971 19.7260 1.0288
-15.1169 18.7926 0.9963
-15.2694 18.0701 0.9746
-15.5382 17.5115 0.9617
-15.1698 16.2859 0.9116
-15.1858 15.5328 0.8871
-15.2009 14.8145 0.8642
-15.2154 14.1279 0.8427
-15.3704 13.5951 0.8302
-15.6301 13.1654 0.8241
-15.6432 12.5429 0.8058
-15.2679 11.6471 0.7691
-15.2798 11.0824 0.7534
-15.2913 10.5364 0.7385
-15.3025 10.0075 0.7245
-15.3133 9.4943 0.7113
-15.3239 8.9956 0.6989
-15.5394 8.6241 0.6963
-15.7341 8.2413 0.6932
-15.7441 7.7676 0.6825
-15.7539 7.3045 0.6724
-15.3728 6.6813 0.6464
-15.3820 6.2478 0.6376
-15.3910 5.8223 0.6293
-15.3998 5.4039 0.6215
-15.4085 4.9922 0.6142
-15.6469 4.6548 0.6164
-18.2050 4.9402 0.7091
-21.0938 5.1803 0.8130
-22.3055 4.9096 0.8510
-22.3067 4.3475 0.8430
-22.3174 3.7923 0.8359
-26.0436 3.7804 0.9674
-35.4316 4.2718 1.3059
-21.5667 2.0728 0.7891
-21.5763 1.5487 0.7842
-36.4723 1.7333 1.3175
-36.7435 0.8571 1.3200
-37.0184 -0.0312 1.3232
-37.2975 -0.9329 1.3273
-37.5812 -1.8495 1.3323
-37.8701 -2.7823 1.3381
-37.9014 -3.7073 1.3356
-39.1761 -4.7901 1.3776
-39.2096 -5.7589 1.3766
-39.2433 -6.7363 1.3765
-39.2774 -7.7235 1.3773
-39.3119 -8.7218 1.3789
-39.3468 -9.7327 1.3813
-39.3822 -10.7575 1.3847
-39.0530 -11.6886 1.3761
-67.9718 -22.1471 2.4018
-67.7354 -23.8953 2.4018
-53.3024 -20.2646 1.8980
-67.1266 -27.3944 2.4018
-65.8525 -28.7495 2.3694
-63.4824 -29.5609 2.2986
-63.0370 -31.2284 2.2986
-62.9070 -33.0803 2.3118
-62.3680 -34.7458 2.3118
-61.7838 -36.4037 2.3118
-59.4130 -36.9690 2.2460
-59.4533 -39.0176 2.2727
-59.4139 -41.0791 2.2986
-58.6511 -42.6823 2.2986
-43.1569 -33.0305 1.7150
-41.0599 -33.0287 1.6561
-39.1517 -33.0870 2.1733
-16.2321 -14.4041 0.9174
-16.1529 -15.0468 0.9306
-16.0023 -15.6454 0.9408
-16.0221 -16.4403 0.9624
-16.0429 -17.2777 0.9858
-20.7635 -23.4744 1.3069
-20.7269 -24.6061 1.3383
-35.2467 -43.9563 2.3379
-33.4595 -43.8576 2.2835
-31.8266 -43.8760 2.2386
-23.1446 -33.5851 1.6808
-21.9875 -33.6161 1.6517
-20.8644 -33.6462 1.6245
-19.7725 -33.6755 1.5992
-18.7192 -33.7217 1.5765
-17.6928 -33.7702 1.5555
-23.6990 -48.0216 2.1811
-15.6701 -33.7855 1.5144
-21.2803 -48.9456 2.1668
-20.1860 -49.6774 2.1738
-12.8409 -33.9291 1.4687
-11.9172 -33.9437 1.4546
-10.9628 -33.8177 1.4357
-16.0614 -53.9555 2.2710
-10.4966 -38.6526 1.6142
-10.5521 -42.9321 1.7801
-10.6700 -48.4311 1.9953
-9.7866 -50.1593 2.0547
-9.5951 -56.3932 2.2986
-8.2340 -56.6363 2.2986
-5.3794 -44.5328 1.8009
-4.2920 -44.5456 1.7962
-4.2996 -59.6993 2.4018
-0.9433 -19.7447 0.7932
-0.4663 -19.7732 0.7936
0.0115 -19.7882 0.7941
0.4897 -19.7897 0.7946
2.7983 -57.1821 2.2987
4.1770 -57.0735 2.2987
5.0280 -51.5580 2.0820
5.2941 -43.4035 1.7584
2.0932 -14.2815 0.5809
5.4447 -31.7771 1.2986
5.8419 -29.7575 1.2226
6.1663 -27.8351 1.1506
6.4830 -26.2451 1.0922
5.3790 -19.7172 0.8267
2.3169 -7.7503 0.3276
5.7700 -17.7290 0.7562
5.9331 -16.8367 0.7252
6.1950 -16.3118 0.7099
6.3070 -15.4699 0.6808
6.4438 -14.7742 0.6580
6.5377 -14.0527 0.6339
6.6564 -13.4487 0.6150
6.8503 -13.0383 0.6048
6.9147 -12.4223 0.5850
7.0485 -11.9727 0.5730
7.0685 -11.3692 0.5533
7.2424 -11.0447 0.5472
7.2401 -10.4800 0.5290
7.4014 -10.1785 0.5240
7.4797 -9.7805 0.5139
6.7974 -8.4568 0.4541
6.6691 -7.8986 0.4338
6.6661 -7.5188 0.4228
6.7195 -7.2199 0.4162
6.8705 -7.0334 0.4161
6.9871 -6.8153 0.4143
7.1164 -6.6136 0.4136
7.2861 -6.4504 0.4155
7.5126 -6.3339 0.4209
7.8096 -6.2678 0.4303
8.0487 -6.1460 0.4365
7.2828 -5.2876 0.3892
7.6133 -5.2515 0.4013
8.0356 -5.2608 0.4181
8.2763 -5.1371 0.4255
8.2816 -4.8673 0.4210
8.2868 -4.6046 0.4169
7.3107 -3.8341 0.3643
7.3155 -3.6140 0.3613
7.5923 -3.5252 0.3720
8.1263 -3.5371 0.3952
8.3109 -3.3810 0.4015
8.3154 -3.1509 0.3994
8.3198 -2.9247 0.3975
8.3242 -2.7021 0.3959
7.2607 -2.1644 0.3440
7.4287 -2.0204 0.3508
8.1880 -2.0158 0.3856
8.2850 -1.8285 0.3894
8.2891 -1.6205 0.3891
8.2932 -1.4141 0.3889
7.3715 -1.0744 0.3456
7.1742 -0.8692 0.3365
7.0909 -0.6857 0.3330
7.0042 -0.5068 0.3294
6.9198 -0.3329 0.3261
6.8362 -0.1634 0.3231
6.8138 0.0018 0.3231
6.7944 0.1660 0.3234
6.8240 0.3319 0.3262
6.8540 0.4996 0.3293
6.9609 0.6768 0.3363
7.0582 0.8589 0.3431
7.1301 1.0431 0.3489
7.3059 1.2498 0.3601
7.6933 1.5083 0.3822
8.2931 1.8350 0.4155
8.2973 2.0475 0.4195
8.3015 2.2627 0.4237
8.3058 2.4810 0.4283
8.3102 2.7027 0.4331
8.3146 2.9281 0.4383
8.3191 3.1577 0.4438
8.3238 3.3918 0.4497
8.3285 3.6308 0.4560
8.3333 3.8752 0.4626
8.3382 4.1254 0.4697
8.3432 4.3820 0.4772
8.3484 4.6455 0.4852
8.3537 4.9166 0.4936
8.3592 5.1958 0.5026
8.3649 5.4840 0.5122
8.3708 5.7818 0.5223
8.3768 6.0902 0.5331
8.3831 6.4102 0.5446
8.3896 6.7426 0.5569
8.3965 7.0888 0.5699
8.4036 7.4500 0.5838
8.4110 7.8277 0.5987
8.4188 8.2236 0.6146
8.4269 8.6393 0.6317
8.4092 9.0487 0.6480
8.4183 9.5094 0.6676
8.4074 9.9728 0.6870
8.4645 10.5476 0.7137
8.7320 11.4367 0.7607
8.7440 12.0452 0.7883
8.7568 12.6975 0.8184
8.7706 13.3993 0.8511
8.7856 14.1575 0.8869
8.8017 14.9800 0.9263
8.8194 15.8766 0.9697
8.8387 16.8588 1.0177
8.8600 17.9411 1.0712
8.8567 19.0828 1.1277
8.9099 20.4799 1.1986
8.9407 21.9889 1.2753
8.9743 23.6976 1.3628
9.0128 25.6552 1.4639
9.0574 27.9230 1.5817
9.1086 30.5807 1.7207
9.1710 33.7517 1.8874
9.2467 37.5998 2.0909
9.1506 41.5119 2.2968
8.1403 41.6995 2.2968
7.1269 41.8657 2.2968
6.1156 42.0453 2.2987
5.0960 42.1686 2.2987
2.9075 30.1642 1.6404
3.0510 42.3508 2.2987
2.1172 44.3115 2.4018
1.0454 44.3503 2.4018
-0.0269 44.3666 2.4018
-1.0995 44.3603 2.4018
-2.1720 44.3314 2.4018
-2.5794 35.2085 1.9098
-4.3151 44.2058 2.4018
-4.3226 35.4075 1.9280
-5.2010 35.4550 1.9358
-7.1964 41.9663 2.2987
-8.2144 41.8089 2.2987
-9.2297 41.6300 2.2987
-10.3447 41.8456 2.3218
-11.3635 41.6212 2.3218
-12.3785 41.3753 2.3218
-11.8079 36.2527 2.0476
-14.3951 40.8180 2.3218
-15.3961 40.5070 2.3218
-16.3917 40.1744 2.3218
-17.3814 39.8200 2.3218
-18.3648 39.4442 2.3218
-19.3417 39.0470 2.3218
-20.3115 38.6282 2.3218
-20.8594 37.4440 2.2766
-22.2284 37.7268 2.3218
-15.9988 25.7118 1.6029
-23.5447 35.8756 2.2672
-10.2517 14.8267 0.9506
-24.3424 33.4475 2.1772
-15.0972 19.7240 1.3046
-15.1169 18.7907 1.2640
-15.2711 18.0701 1.2374
-15.5383 17.5096 1.2216
-15.1699 16.2842 1.1587
-15.1858 15.5310 1.1283
-15.2010 14.8128 1.0998
-15.2155 14.1263 1.0732
-15.3724 13.5952 1.0581
-15.6301 13.1638 1.0510
-15.6433 12.5413 1.0284
-15.2679 11.6456 0.9823
-15.2798 11.0810 0.9629
-15.2914 10.5350 0.9447
-15.3025 10.0061 0.9275
-15.3134 9.4929 0.9114
-15.3239 8.9942 0.8962
-15.5421 8.6242 0.8938
-15.7342 8.2399 0.8904
-15.7442 7.7662 0.8774
-15.7539 7.3031 0.8651
-15.3728 6.6800 0.8325
-15.3820 6.2465 0.8219
-15.3910 5.8210 0.8120
-15.3998 5.4027 0.8027
-15.4085 4.9909 0.7940
-15.6521 4.6550 0.7979
-18.2051 4.9388 0.9185
-21.0939 5.1786 1.0541
-22.3055 4.9078 1.1046
-22.3067 4.3457 1.0953
-22.3174 3.7905 1.0872
-26.0438 3.7784 1.2595
-35.4304 4.2688 1.7019
-21.5669 2.0712 1.0296
-21.5765 1.5470 1.0243
-36.4711 1.7304 1.7228
-36.7427 0.8542 1.7279
-37.0180 -0.0341 1.7341
-37.2975 -0.9358 1.7415
-37.5815 -1.8524 1.7499
-37.8707 -2.7853 1.7596
-37.9022 -3.7103 1.7583
-39.1763 -4.7932 1.8157
-39.2097 -5.7620 1.8165
-39.2434 -6.7393 1.8185
-29.7445 -5.8513 1.3795
-30.6031 -6.7921 1.4213
-39.3469 -9.7358 1.8312
-39.3823 -10.7607 1.8378
-39.0531 -11.6918 1.8286
-49.3910 -16.0969 2.3218
-47.5174 -16.7667 2.2442
-48.4134 -18.4099 2.2987
-48.1224 -19.6427 2.2987
-47.8427 -20.8909 2.3008
-49.5719 -23.0876 2.4018
-49.1671 -24.3615 2.4018
-48.7284 -25.6285 2.4018
-48.2562 -26.8881 2.4018
-47.7498 -28.1389 2.4018
-47.2099 -29.3800 2.4018
-46.6363 -30.6103 2.4018
-44.0531 -30.4626 2.2987
-43.4388 -31.6159 2.2987
-24.2438 -18.5575 1.3023
-41.0557 -33.0293 2.2407
-15.9498 -13.4807 1.1174
-15.9671 -14.1706 1.1396
-15.9852 -14.8922 1.1636
-16.0025 -15.6472 1.1894
-16.0222 -16.4421 1.2174
-16.0430 -17.2796 1.2477
-20.7637 -23.4769 1.6551
-20.7271 -24.6087 1.6957
-27.9499 -34.8596 2.3502
-27.2227 -35.6859 2.3565
-26.3349 -36.3083 2.3506
-23.1426 -33.5851 2.1337
-21.9856 -33.6162 2.0977
-20.8627 -33.6463 2.0642
-19.7709 -33.6756 2.0329
-18.7079 -33.7041 2.0037
-17.6713 -33.7319 1.9766
-16.6589 -33.7590 1.9513
-15.6689 -33.7856 1.9279
-14.6993 -33.8116 1.9063
-13.7484 -33.8371 1.8862
-12.7842 -33.7818 1.8634
-11.8659 -33.7999 1.8462
-10.9620 -33.8177 1.8305
-10.3996 -34.9381 1.8754
-10.4547 -38.5010 2.0509
-10.5516 -42.9330 2.2711
-9.6327 -43.7254 2.2986
-8.5785 -43.9702 2.2987
-7.5176 -44.1858 2.2987
-6.7399 -46.3617 2.4018
-5.6198 -46.5252 2.4018
-4.3499 -45.1485 2.3241
-1.1118 -15.4384 0.7930
-0.7390 -15.4690 0.7934
-0.3653 -15.4894 0.7937
0.0089 -15.4995 0.7941
0.3834 -15.4994 0.7945
2.1917 -44.7938 2.2987
3.2720 -44.7129 2.2987
4.3492 -44.6024 2.2987
5.2803 -43.2954 2.2384
2.0930 -14.2814 0.7412
5.4555 -31.8434 1.6600
5.8416 -29.7589 1.5594
6.1374 -27.7073 1.4604
6.5197 -26.3962 1.4004
5.4638 -20.0298 1.0704
2.3166 -7.7500 0.4175
5.8610 -18.0102 0.9785
6.0348 -17.1267 0.9393
6.1963 -16.3166 0.9039
6.3068 -15.4708 0.8664
6.4436 -14.7751 0.8371
6.5061 -13.9862 0.8022
6.5949 -13.3256 0.7744
6.7032 -12.7595 0.7519
6.8398 -12.2891 0.7349
6.9401 -11.7898 0.7161
7.0677 -11.3691 0.7020
7.2423 -11.0455 0.6939
7.2402 -10.4812 0.6705
7.4012 -10.1794 0.6638
7.4795 -9.7813 0.6507
7.5625 -9.4097 0.6393
6.6693 -7.8996 0.5487
6.6660 -7.5195 0.5344
6.7194 -7.2206 0.5258
6.8702 -7.0339 0.5253
6.9868 -6.8158 0.5227
7.1160 -6.6140 0.5215
7.2857 -6.4508 0.5236
7.5120 -6.3342 0.5300
7.8088 -6.2680 0.5415
8.1462 -6.2213 0.5557
7.2826 -5.2882 0.4892
7.6698 -5.2912 0.5078
8.0952 -5.3006 0.5287
8.2763 -5.1379 0.5337
8.2816 -4.8680 0.5277
8.2868 -4.6054 0.5222
7.3105 -3.8347 0.4560
7.3154 -3.6146 0.4520
7.6777 -3.5655 0.4702
8.2156 -3.5766 0.4991
8.3108 -3.3817 0.5012
8.3154 -3.1516 0.4982
8.3198 -2.9254 0.4955
8.3242 -2.7028 0.4931
7.2607 -2.1650 0.4282
7.3573 -2.0016 0.4321
8.2120 -2.0224 0.4807
8.2161 -1.8140 0.4797
8.2202 -1.6076 0.4789
7.6775 -1.3098 0.4466
7.3721 -1.0751 0.4285
7.1748 -0.8698 0.4169
7.0912 -0.6863 0.4121
7.0045 -0.5074 0.4075
6.9201 -0.3334 0.4031
6.8362 -0.1640 0.3991
6.8134 0.0013 0.3988
6.7943 0.1655 0.3989
6.8239 0.3313 0.4022
6.8539 0.4990 0.4057
6.9606 0.6762 0.4140
7.0579 0.8583 0.4221
7.1306 1.0426 0.4291
7.2202 1.2346 0.4373
7.5050 1.4708 0.4579
8.2931 1.8344 0.5099
8.2973 2.0468 0.5144
8.3015 2.2620 0.5193
8.3058 2.4803 0.5246
8.3102 2.7020 0.5302
8.3146 2.9275 0.5363
8.3191 3.1570 0.5427
8.3237 3.3911 0.5496
8.3284 3.6301 0.5570
8.3332 3.8745 0.5648
8.3382 4.1247 0.5731
8.3432 4.3813 0.5819
8.3484 4.6448 0.5914
8.3537 4.9159 0.6014
8.3592 5.1951 0.6120
8.3649 5.4832 0.6234
8.3707 5.7811 0.6354
8.3768 6.0894 0.6482
8.3831 6.4093 0.6619
8.3896 6.7418 0.6765
8.3964 7.0880 0.6921
8.4035 7.4492 0.7087
8.4110 7.8269 0.7264
8.4187 8.2227 0.7454
8.4269 8.6384 0.7658
8.4092 9.0478 0.7853
8.4182 9.5084 0.8087
8.4082 9.9728 0.8321
8.4644 10.5466 0.8640
8.7320 11.4356 0.9207
8.7440 12.0440 0.9538
8.7568 12.6963 0.9898
8.7706 13.3981 1.0291
8.7855 14.1562 1.0721
8.8017 14.9787 1.1194
8.8194 15.8752 1.1716
8.8387 16.8574 1.2293
8.8600 17.9396 1.2937
8.8566 19.0812 1.3616
8.9099 20.4783 1.4469
8.9407 21.9871 1.5392
8.9743 23.6958 1.6445
9.0128 25.6533 1.7661
9.0574 27.9209 1.9080
9.1086 30.5784 2.0754
9.1710 33.7492 2.2762
8.4233 34.2494 2.2968
7.5892 34.4262 2.2968
6.7519 34.5848 2.2968
5.9166 34.7541 2.2987
5.0732 34.8764 2.2987
4.2276 34.9805 2.2987
2.9062 30.1500 1.9765
2.6151 36.2995 2.3750
1.7564 36.7606 2.4018
0.8672 36.7927 2.4018
-0.0224 36.8057 2.4018
-0.9123 36.7994 2.4018
-1.8020 36.7740 2.4018
-2.5988 35.4682 2.3194
-3.5795 36.6654 2.4018
-4.4665 36.5824 2.4018
-5.3519 36.4802 2.4018
-5.9674 34.7957 2.2986
-6.8107 34.6612 2.2986
-7.6514 34.5083 2.2986
-8.4893 34.3372 2.2986
-9.3239 34.1478 2.2986
-10.2577 34.2835 2.3218
-11.0932 34.0555 2.3218
-11.9244 33.8090 2.3218
-12.7509 33.5445 2.3218
-13.5725 33.2617 2.3218
-14.3886 32.9606 2.3218
-15.1990 32.6416 2.3218
-16.0034 32.3046 2.3218
-16.8013 31.9495 2.3218
-17.5924 31.5765 2.3218
-18.3763 31.1858 2.3218
-15.9962 25.7051 1.9392
-19.9212 30.3515 2.3218
-10.2524 14.8262 1.1510
-21.4332 29.4472 2.3218
-15.0972 19.7220 1.5807
-15.1169 18.7888 1.5321
-15.1356 17.9078 1.4870
-15.1532 17.0739 1.4451
-15.1699 16.2824 1.4061
-15.1858 15.5293 1.3697
-15.2010 14.8111 1.3357
-15.2155 14.1246 1.3040
-15.3412 13.5660 1.2836
-15.6301 13.1622 1.2781
-15.6433 12.5398 1.2513
-15.2679 11.6441 1.1957
-15.2798 11.0795 1.1727
-15.2914 10.5335 1.1511
-15.3026 10.0047 1.1307
-15.3134 9.4915 1.1116
-15.3239 8.9928 1.0936
-15.5447 8.6242 1.0915
-15.7342 8.2385 1.0878
-15.7442 7.7648 1.0725
-15.7540 7.3018 1.0581
-15.3729 6.6787 1.0187
-15.3820 6.2452 1.0064
-15.3910 5.8197 0.9949
-15.3998 5.4014 0.9841
-15.4085 4.9897 0.9740
-15.5208 4.6147 0.9711
-15.5301 4.2118 0.9624
-15.5392 3.8136 0.9543
-15.5392 3.4177 0.9463
-15.5571 3.0295 0.9400
-15.5569 2.6411 0.9332
-15.7219 2.2797 0.9369
-15.5740 1.8752 0.9224
-21.5672 2.0695 1.2704
-15.7054 1.1248 0.9206
-36.2199 1.7157 2.1138
-15.8355 0.3669 0.9207
-36.7630 -0.0367 2.1307
-37.0407 -0.9323 2.1412
-37.3230 -1.8425 2.1531
-37.6104 -2.7691 2.1666
-37.9031 -3.7133 2.1816
-39.1764 -4.7963 2.2542
-15.9375 -2.3433 0.9174
-39.2436 -6.7424 2.2609
-29.6639 -5.8377 1.7117
-30.5300 -6.7783 1.7654
-15.8787 -3.9302 0.9208
-39.2829 -10.7367 2.2856
-15.7695 -4.7224 0.9213
-15.9626 -5.2036 0.9369
-15.7533 -5.5599 0.9296
-15.7735 -5.9994 0.9364
-15.7757 -6.4407 0.9429
-15.7965 -6.8990 0.9512
-15.8083 -7.3639 0.9597
-15.8159 -7.8379 0.9687
-15.8278 -8.3259 0.9788
-15.8399 -8.8273 0.9899
-15.8524 -9.3432 1.0018
-15.8653 -9.8748 1.0148
-15.8790 -10.4238 1.0288
-15.8929 -10.9913 1.0440
-15.9073 -11.5792 1.0604
-15.9223 -12.1893 1.0780
-15.9332 -12.8198 1.0968
-15.9502 -13.4826 1.3497
-15.9675 -14.1725 1.3771
-15.9857 -14.8943 1.4067
-16.0026 -15.6490 1.4384
-16.0224 -16.4440 1.4728
-16.0432 -17.2815 1.5100
-20.7639 -23.4795 2.0037
-20.7273 -24.6113 2.0536
-23.5780 -29.4097 2.4018
-22.5808 -29.6036 2.3687
-21.4898 -29.6310 2.3252
-20.5614 -29.8419 2.2987
-19.8622 -30.3720 2.2987
-19.1485 -30.8843 2.2987
-18.4205 -31.3781 2.2987
-17.6790 -31.8530 2.2987
-16.9243 -32.3086 2.2986
-16.1570 -32.7445 2.2986
-15.3777 -33.1603 2.2986
-14.5868 -33.5555 2.2986
-13.7473 -33.8371 2.2923
-12.7833 -33.7818 2.2650
-11.8650 -33.7999 2.2444
-10.9613 -33.8177 2.2257
-10.3995 -34.9403 2.2808
-9.6336 -35.4795 2.2986
-8.7790 -35.7229 2.2987
-7.9178 -35.9434 2.2987
-7.0651 -36.2150 2.3035
-6.4550 -37.9429 2.4018
-5.5385 -38.0998 2.4018
-4.6178 -38.2321 2.4018
-3.6938 -38.3395 2.4018
-1.0861 -15.0810 0.9427
-0.7205 -15.0809 0.9413
-0.3557 -15.0808 0.9405
0.0086 -15.0806 0.9403
0.3730 -15.0805 0.9407
1.8008 -36.8099 2.2987
1.9770 -27.0192 1.6903
3.5741 -36.6575 2.2987
4.4567 -36.5457 2.2987
2.0928 -14.2812 0.9016
5.4550 -31.8433 2.0192
5.5041 -28.0421 1.7872
5.9529 -26.8770 1.7227
6.4715 -26.2036 1.6903
5.4636 -20.0309 1.3013
2.3163 -7.7496 0.5074
5.8608 -18.0112 1.1892
6.0346 -17.1278 1.1412
6.1982 -16.3231 1.0984
6.3066 -15.4718 1.0522
6.4435 -14.7760 1.0164
6.5585 -14.1002 0.9817
6.7292 -13.5982 0.9590
6.8417 -13.0243 0.9311
6.9478 -12.4843 0.9055
7.0481 -11.9744 0.8818
7.1431 -11.4915 0.8600
7.1101 -10.8451 0.8255
7.1939 -10.4152 0.8070
7.2859 -10.0218 0.7912
7.3630 -9.6299 0.7754
7.4369 -9.2544 0.7607
6.7720 -8.0222 0.6739
6.7937 -7.6644 0.6586
6.7193 -7.2212 0.6355
6.8699 -7.0344 0.6347
6.9865 -6.8164 0.6312
7.2216 -6.7130 0.6389
7.3917 -6.5455 0.6411
7.6261 -6.4311 0.6490
7.8079 -6.2681 0.6528
7.0275 -5.3676 0.5777
7.2825 -5.2888 0.5893
7.6687 -5.2911 0.6113
8.0937 -5.3005 0.6362
8.2763 -5.1387 0.6421
8.2816 -4.8688 0.6346
8.2868 -4.6062 0.6277
7.3104 -3.8353 0.5478
7.3152 -3.6152 0.5427
7.6761 -3.5655 0.5643
8.2156 -3.5773 0.5988
8.3108 -3.3824 0.6010
8.3154 -3.1523 0.5971
8.3198 -2.9261 0.5936
8.3242 -2.7035 0.5905
7.2607 -2.1656 0.5125
7.3551 -2.0016 0.5168
8.2793 -2.0396 0.5795
8.2839 -1.8296 0.5780
8.2885 -1.6217 0.5768
8.2930 -1.4154 0.5760
7.3728 -1.0757 0.5114
7.0994 -0.8612 0.4921
6.9746 -0.6755 0.4833
6.8893 -0.4996 0.4776
6.8101 -0.3287 0.4726
6.7873 -0.1633 0.4717
6.7646 0.0007 0.4712
6.7448 0.1638 0.4711
6.7742 0.3284 0.4747
6.8039 0.4949 0.4786
6.8404 0.6640 0.4833
6.9361 0.8430 0.4926
7.1311 1.0421 0.5093
7.3045 1.2484 0.5249
7.6891 1.5062 0.5563
8.2931 1.8337 0.6044
8.2973 2.0462 0.6095
8.3015 2.2614 0.6151
8.3058 2.4796 0.6211
8.3102 2.7013 0.6275
8.3146 2.9268 0.6344
8.3191 3.1563 0.6418
8.3237 3.3904 0.6496
8.3284 3.6294 0.6581
8.3332 3.8738 0.6670
8.3381 4.1240 0.6766
8.3432 4.3806 0.6868
8.3484 4.6441 0.6977
8.3537 4.9151 0.7092
8.3592 5.1943 0.7216
8.3649 5.4825 0.7347
8.3707 5.7803 0.7486
8.3768 6.0886 0.7635
8.3831 6.4085 0.7794
8.3896 6.7410 0.7963
8.3964 7.0871 0.8144
8.4035 7.4483 0.8337
8.4109 7.8260 0.8543
8.4187 8.2218 0.8764
8.4269 8.6375 0.9002
8.4092 9.0468 0.9227
8.4182 9.5075 0.9501
8.4090 9.9727 0.9774
8.4644 10.5455 1.0145
8.7320 11.4345 1.0808
8.7440 12.0429 1.1195
8.7568 12.6951 1.1615
8.7706 13.3969 1.2074
8.7855 14.1549 1.2576
8.8017 14.9774 1.3128
8.8193 15.8738 1.3737
8.8386 16.8560 1.4412
8.8599 17.9381 1.5164
8.8566 19.0797 1.5957
8.9099 20.4766 1.6955
8.9406 21.9854 1.8034
8.9742 23.6939 1.9266
9.0127 25.6513 2.0688
9.0573 27.9188 2.2348
8.6075 28.8943 2.2968
7.9023 29.0787 2.2968
7.1936 29.2475 2.2968
6.4817 29.4005 2.2968
5.7717 29.5623 2.2987
5.0538 29.6840 2.2987
4.3335 29.7898 2.2987
3.6113 29.8797 2.2987
2.8875 29.9537 2.2987
2.2592 31.3577 2.4018
1.5004 31.4018 2.4018
0.7408 31.4293 2.4018
-0.0193 31.4400 2.4018
-0.7795 31.4340 2.4018
-1.5394 31.4113 2.4018
-2.2989 31.3720 2.4018
-3.0576 31.3159 2.4018
-3.8150 31.2432 2.4018
-4.5710 31.1539 2.4018
-5.3251 31.0478 2.4018
-5.8159 29.5958 2.2986
-6.5333 29.4625 2.2986
-7.2480 29.3135 2.2986
-7.9597 29.1485 2.2986
-8.6681 28.9679 2.2986
-9.3729 28.7715 2.2986
-10.1757 28.8482 2.3218
-10.8794 28.6183 2.3218
-11.5785 28.3726 2.3218
-12.2728 28.1112 2.3218
-12.9618 27.8343 2.3218
-13.6452 27.5418 2.3218
-14.3229 27.2340 2.3218
-14.9943 26.9107 2.3218
-15.3946 26.1231 2.2826
-15.9935 25.6984 2.2758
-16.9683 25.8499 2.3218
-10.2530 14.8256 1.3517
-17.8834 24.5677 2.2755
-15.0973 19.7200 1.8571
-15.1170 18.7869 1.8005
-15.1356 17.9060 1.7480
-15.1532 17.0720 1.6992
-15.1699 16.2806 1.6538
-15.1859 15.5276 1.6115
-15.2010 14.8094 1.5720
-15.2155 14.1230 1.5350
-15.2294 13.4655 1.5005
-15.2428 12.8344 1.4682
-15.2556 12.2274 1.4379
-15.2680 11.6426 1.4094
-15.2799 11.0780 1.3828
-15.2914 10.5320 1.3577
-15.3026 10.0032 1.3342
-15.3134 9.4901 1.3121
-15.3240 8.9914 1.2914
-15.4756 8.5845 1.2836
-15.7117 8.2253 1.2836
-15.7442 7.7635 1.2679
-15.7540 7.3004 1.2514
-15.3729 6.6773 1.2053
-15.3820 6.2439 1.1912
-15.3910 5.8184 1.1780
-15.3999 5.4001 1.1657
-15.4086 4.9884 1.1542
-15.5206 4.6134 1.1513
-15.5298 4.2105 1.1414
-15.5389 3.8123 1.1323
-15.5479 3.4184 1.1240
-15.5568 3.0282 1.1163
-15.5657 2.6413 1.1094
-15.5744 2.2571 1.1032
-15.5832 1.8751 1.0976
-15.5920 1.4949 1.0927
-15.6007 1.1161 1.0885
-15.6094 0.7382 1.0849
-15.6182 0.3607 1.0819
-15.6269 -0.0168 1.0796
-15.6385 -0.3948 1.0780
-15.6480 -0.7737 1.0770
-15.6576 -1.1540 1.0766
-15.6673 -1.5361 1.0769
-15.6770 -1.9205 1.0778
-15.6867 -2.3076 1.0793
-15.6966 -2.6980 1.0815
-15.7013 -3.0912 1.0840
-15.7114 -3.4895 1.0876
-15.7217 -3.8926 1.0918
-15.7320 -4.3011 1.0968
-15.7425 -4.7156 1.1025
-15.7532 -5.1367 1.1090
-15.7624 -5.5644 1.1161
-15.7735 -6.0007 1.1242
-15.7849 -6.4457 1.1331
-15.7965 -6.9003 1.1429
-15.8083 -7.3652 1.1537
-15.8160 -7.8393 1.1651
-15.8278 -8.3273 1.1778
-15.8400 -8.8287 1.1916
-15.8525 -9.3446 1.2065
-15.8653 -9.8763 1.2226
-15.8788 -10.4251 1.2401
-15.8927 -10.9927 1.2589
-15.9072 -11.5806 1.2792
-15.9222 -12.1907 1.3011
-15.9336 -12.8217 1.3243
-15.9506 -13.4845 1.5824
-15.9680 -14.1745 1.6150
-15.9861 -14.8963 1.6501
-16.0028 -15.6508 1.6877
-16.0225 -16.4459 1.7285
-16.0433 -17.2835 1.7727
-21.1962 -23.9707 2.4018
-20.6401 -24.5103 2.4018
-20.0695 -25.0359 2.4018
-19.4849 -25.5472 2.4018
-18.8864 -26.0437 2.4018
-18.2745 -26.5251 2.4018
-17.6496 -26.9910 2.4018
-17.0120 -27.4408 2.4018
-16.3623 -27.8744 2.4018
-15.7008 -28.2913 2.4018
-15.0281 -28.6911 2.4018
-14.3445 -29.0734 2.4018
-13.6505 -29.4381 2.4018
-12.9466 -29.7847 2.4018
-12.1426 -29.8894 2.3840
-11.3645 -30.0347 2.3712
-10.6457 -30.3288 2.3718
-9.9251 -30.6233 2.3738
-9.2650 -31.1307 2.3937
-8.5441 -31.4692 2.4018
-7.7854 -31.6817 2.4018
-7.0210 -31.8743 2.4018
-6.2515 -32.0467 2.4018
-5.4775 -32.1988 2.4018
-4.6995 -32.3304 2.4018
-3.9182 -32.4413 2.4018
-3.1340 -32.5316 2.4018
-1.0860 -15.0810 1.1111
-0.7204 -15.0809 1.1094
-0.3557 -15.0808 1.1084
0.0086 -15.0806 1.1082
0.3729 -15.0805 1.1087
1.5279 -31.2350 2.2987
1.9758 -27.0064 1.9909
3.0328 -31.1087 2.2987
3.7819 -31.0156 2.2987
2.0925 -14.2810 1.0623
5.2707 -30.7706 2.2987
5.4423 -27.7303 2.0819
5.7728 -26.0662 1.9680
6.4709 -26.2035 1.9908
5.4634 -20.0319 1.5325
2.3160 -7.7493 0.5974
5.8606 -18.0123 1.4001
6.0344 -17.1287 1.3435
6.1980 -16.3240 1.2929
6.3064 -15.4728 1.2383
6.4433 -14.7770 1.1959
6.5853 -14.1591 1.1596
6.7290 -13.5992 1.1279
6.8415 -13.0252 1.0949
6.9477 -12.4852 1.0646
7.0480 -11.9753 1.0366
7.1430 -11.4923 1.0107
7.2331 -11.0338 0.9867
7.3190 -10.5974 0.9645
7.4009 -10.1810 0.9439
7.4792 -9.7829 0.9248
7.5622 -9.4113 0.9080
6.7714 -8.0223 0.7908
6.7937 -7.6652 0.7727
6.7192 -7.2219 0.7453
6.8697 -7.0350 0.7442
6.9862 -6.8169 0.7399
7.2211 -6.7133 0.7487
7.3912 -6.5458 0.7510
7.6256 -6.4315 0.7601
7.8071 -6.2682 0.7643
8.1444 -6.2216 0.7837
7.2823 -5.2894 0.6895
7.6675 -5.2910 0.7150
8.0923 -5.3003 0.7439
8.2763 -5.1394 0.7506
8.2816 -4.8696 0.7416
6.9270 -3.8510 0.6130
6.9296 -3.6361 0.6065
7.3150 -3.6158 0.6336
7.6746 -3.5654 0.6584
8.2136 -3.5772 0.6985
8.3108 -3.3831 0.7010
8.3153 -3.1530 0.6962
8.3198 -2.9268 0.6919
8.3242 -2.7042 0.6880
7.1233 -2.1252 0.5856
7.3529 -2.0016 0.6016
8.2793 -2.0403 0.6745
8.2839 -1.8303 0.6725
8.2885 -1.6223 0.6709
8.2930 -1.4161 0.6698
7.3734 -1.0764 0.5945
7.1760 -0.8711 0.5779
7.0918 -0.6874 0.5708
7.0050 -0.5085 0.5639
6.9207 -0.3345 0.5575
6.8364 -0.1650 0.5514
6.8135 0.0002 0.5505
6.7941 0.1644 0.5503
6.8237 0.3303 0.5543
6.8537 0.4980 0.5587
6.9600 0.6751 0.5697
7.0573 0.8571 0.5804
7.1315 1.0416 0.5896
7.3038 1.2477 0.6074
7.7919 1.5258 0.6522
8.2931 1.8331 0.6991
8.2973 2.0455 0.7048
8.3015 2.2607 0.7110
8.3058 2.4790 0.7177
8.3102 2.7007 0.7249
8.3146 2.9261 0.7326
8.3191 3.1556 0.7409
8.3237 3.3897 0.7498
8.3284 3.6287 0.7593
8.3332 3.8731 0.7695
8.3381 4.1233 0.7803
8.3432 4.3798 0.7919
8.3484 4.6433 0.8042
8.3537 4.9144 0.8173
8.3592 5.1936 0.8313
8.3648 5.4817 0.8461
8.3707 5.7795 0.8620
8.3768 6.0878 0.8789
8.3831 6.4077 0.8970
8.3896 6.7401 0.9163
8.3964 7.0863 0.9368
8.4035 7.4475 0.9588
8.4109 7.8251 0.9824
8.4187 8.2209 1.0076
8.4269 8.6365 1.0347
8.4091 9.0459 1.0604
8.4182 9.5065 1.0916
8.4098 9.9727 1.1229
8.4644 10.5445 1.1653
8.7320 11.4334 1.2412
8.7439 12.0418 1.2854
8.7568 12.6940 1.3334
8.7706 13.3957 1.3859
8.7855 14.1537 1.4433
8.8017 14.9761 1.5065
8.8193 15.8725 1.5762
8.8386 16.8546 1.6534
8.8599 17.9366 1.7394
8.8566 19.0781 1.8302
8.9098 20.4750 1.9444
8.9406 21.9836 2.0680
8.9742 23.6921 2.2090
8.7274 24.8373 2.2968
8.1198 25.0272 2.2968
7.5086 25.2035 2.2968
6.8939 25.3661 2.2968
6.2760 25.5148 2.2968
5.6599 25.6710 2.2987
5.0360 25.7921 2.2987
4.4097 25.8992 2.2987
3.7813 25.9924 2.2987
3.1512 26.0716 2.2987
2.5196 26.1366 2.2987
1.9714 27.3622 2.4018
1.3092 27.4007 2.4018
0.6463 27.4246 2.4018
-0.0169 27.4338 2.4018
-0.6803 27.4281 2.4018
-1.3434 27.4077 2.4018
-2.0061 27.3727 2.4018
-2.6680 27.3228 2.4018
-3.3287 27.2582 2.4018
-3.9881 27.1789 2.4018
-4.6459 27.0849 2.4018
-5.3017 26.9762 2.4018
-5.6992 25.6986 2.2986
-6.3221 25.5665 2.2986
-6.9423 25.4206 2.2986
-7.5595 25.2608 2.2986
-8.1734 25.0872 2.2986
-8.7837 24.8997 2.2986
-9.3901 24.6984 2.2986
-9.8921 24.2378 2.2755
-10.4839 24.0116 2.2755
-11.0711 23.7720 2.2755
-11.6532 23.5190 2.2755
-12.2302 23.2528 2.2755
-12.8017 22.9734 2.2755
-13.3673 22.6809 2.2755
-13.9268 22.3754 2.2755
-14.6225 22.2742 2.2979
-10.2537 14.8251 1.5527
-15.3031 21.0207 2.2371
-15.0973 19.7180 2.1340
-15.1170 18.7850 2.0693
-15.1356 17.9041 2.0093
-15.1533 17.0702 1.9536
-15.1700 16.2789 1.9018
-15.1859 15.5259 1.8536
-15.2011 14.8078 1.8085
-15.2156 14.1214 1.7665
-15.2295 13.4639 1.7271
-15.2428 12.8328 1.6903
-15.2556 12.2259 1.6558
-15.2680 11.6410 1.6235
-15.2799 11.0765 1.5931
-15.2915 10.5306 1.5647
-15.3026 10.0018 1.5380
-15.3135 9.4887 1.5129
-15.3240 8.9900 1.4894
-15.3343 8.5047 1.4673
-15.3443 8.0316 1.4466
-15.3540 7.5697 1.4272
-15.3636 7.1181 1.4091
-15.3729 6.6760 1.3921
-15.3821 6.2426 1.3762
-15.3911 5.8171 1.3614
-15.3999 5.3988 1.3476
-15.4086 4.9871 1.3347
-15.5203 4.6120 1.3317
-15.5295 4.2091 1.3207
-15.5386 3.8110 1.3106
-15.5476 3.4171 1.3014
-15.5565 3.0270 1.2929
-15.5654 2.6400 1.2853
-15.5742 2.2558 1.2785
-15.5833 1.8739 1.2725
-15.5921 1.4937 1.2673
-15.6008 1.1149 1.2628
-15.6096 0.7369 1.2590
-15.6183 0.3594 1.2560
-15.6270 -0.0181 1.2537
-15.6385 -0.3960 1.2524
-15.6480 -0.7749 1.2516
-15.6576 -1.1552 1.2516
-15.6673 -1.5373 1.2523
-15.6770 -1.9217 1.2538
-15.6868 -2.3089 1.2560
-15.6966 -2.6993 1.2590
-15.7016 -3.0925 1.2623
-15.7117 -3.4908 1.2669
-15.7220 -3.8939 1.2723
-15.7323 -4.3024 1.2785
-15.7428 -4.7169 1.2856
-15.7535 -5.1380 1.2936
-15.7624 -5.5657 1.3023
-15.7735 -6.0020 1.3122
-15.7849 -6.4470 1.3231
-15.7965 -6.9016 1.3350
-15.8083 -7.3665 1.3480
-15.8160 -7.8406 1.3617
-15.8278 -8.3287 1.3770
-15.8400 -8.8301 1.3936
-15.8525 -9.3461 1.4115
-15.8654 -9.8777 1.4308
-15.8786 -10.4264 1.4517
-15.8926 -10.9940 1.4742
-15.9070 -11.5820 1.4984
-15.9220 -12.1920 1.5244
-15.9340 -12.8235 1.5522
-15.9510 -13.4864 1.8155
-15.9684 -14.1765 1.8533
-15.9865 -14.8984 1.8940
-16.0029 -15.6526 1.9375
-16.0226 -16.4477 1.9848
-16.0435 -17.2854 2.0358
-17.6598 -19.9734 2.2986
-17.1934 -20.4192 2.2986
-16.7151 -20.8533 2.2986
-16.2254 -21.2756 2.2986
-16.4307 -22.6595 2.4018
-15.8958 -23.0746 2.4018
-15.3499 -23.4762 2.4018
-14.7933 -23.8640 2.4018
-14.2262 -24.2375 2.4018
-13.6493 -24.5966 2.4018
-13.0627 -24.9409 2.4018
-12.4669 -25.2701 2.4018
-11.8624 -25.5840 2.4018
-11.2495 -25.8823 2.4018
-10.6286 -26.1647 2.4018
-10.0002 -26.4311 2.4018
-9.3647 -26.6811 2.4018
-8.7226 -26.9147 2.4018
-8.0742 -27.1316 2.4018
-7.4202 -27.3315 2.4018
-6.7608 -27.5144 2.4018
-6.0967 -27.6801 2.4018
-5.4283 -27.8284 2.4018
-4.7560 -27.9593 2.4018
-4.0804 -28.0725 2.4018
-3.4019 -28.1681 2.4018
-2.7210 -28.2459 2.4018
-1.0860 -15.0810 1.2797
-0.7204 -15.0809 1.2778
-0.3557 -15.0808 1.2767
0.0086 -15.0806 1.2764
0.3728 -15.0805 1.2769
1.3644 -27.8961 2.3645
1.9746 -26.9936 2.2918
2.6332 -27.0129 2.2987
3.2838 -26.9334 2.2987
2.0923 -14.2809 1.2232
4.5770 -26.7237 2.2987
5.2187 -26.5936 2.2987
5.7722 -26.0660 2.2656
6.4702 -26.2033 2.2917
5.4631 -20.0330 1.7641
2.3156 -7.7490 0.6875
5.8604 -18.0133 1.6114
6.0342 -17.1298 1.5461
6.1977 -16.3249 1.4876
5.6446 -13.8503 1.2752
6.4431 -14.7779 1.3757
6.6124 -14.2187 1.3393
6.7289 -13.6002 1.2972
6.8413 -13.0261 1.2591
6.9475 -12.4861 1.2240
7.0478 -11.9761 1.1916
7.1428 -11.4932 1.1617
7.2330 -11.0346 1.1339
7.3188 -10.5982 1.1082
7.4007 -10.1818 1.0844
7.4790 -9.7837 1.0622
7.5620 -9.4120 1.0427
6.6697 -7.9027 0.8943
6.6657 -7.5215 0.8703
6.7191 -7.2226 0.8554
6.8694 -7.0355 0.8539
6.9859 -6.8174 0.8488
7.2206 -6.7137 0.8587
7.3907 -6.5462 0.8611
7.5530 -6.3711 0.8632
6.7279 -5.4025 0.7549
6.8997 -5.2714 0.7609
7.2172 -5.2428 0.7829
7.6662 -5.2909 0.8189
8.0909 -5.3001 0.8517
8.2763 -5.1402 0.8593
8.2816 -4.8703 0.8488
6.9903 -3.8868 0.7079
7.0675 -3.7091 0.7076
7.1362 -3.5280 0.7070
7.6729 -3.5653 0.7527
8.2116 -3.5771 0.7983
8.3108 -3.3838 0.8012
8.3153 -3.1537 0.7955
8.3198 -2.9275 0.7903
8.3242 -2.7049 0.7857
7.2196 -2.1546 0.6776
7.3507 -2.0016 0.6864
8.2794 -2.0410 0.7697
8.2839 -1.8310 0.7672
8.2884 -1.6230 0.7652
8.2930 -1.4168 0.7637
7.7326 -1.1295 0.7107
7.4333 -0.9029 0.6822
7.0921 -0.6880 0.6504
7.0053 -0.5091 0.6423
6.9209 -0.3351 0.6348
6.9675 -0.1688 0.6397
6.9708 -0.0003 0.6410
6.9478 0.1676 0.6403
6.9775 0.3372 0.6448
6.9077 0.5013 0.6404
6.9597 0.6745 0.6478
7.0570 0.8566 0.6598
7.1320 1.0411 0.6701
7.6478 1.3059 0.7227
7.7922 1.5252 0.7409
8.2931 1.8324 0.7939
8.2973 2.0448 0.8002
8.3015 2.2600 0.8070
8.3058 2.4783 0.8145
8.3101 2.7000 0.8224
8.3146 2.9254 0.8310
8.3191 3.1549 0.8403
8.3237 3.3890 0.8502
8.3284 3.6280 0.8608
8.3332 3.8723 0.8721
8.3381 4.1225 0.8842
8.3432 4.3791 0.8971
8.3483 4.6426 0.9108
8.3537 4.9136 0.9255
8.3592 5.1928 0.9412
8.3648 5.4809 0.9578
8.3707 5.7787 0.9756
8.3768 6.0870 0.9946
8.3830 6.4069 1.0148
8.3896 6.7393 1.0364
8.3964 7.0855 1.0595
8.4035 7.4466 1.0842
8.4109 7.8242 1.1107
8.4187 8.2200 1.1390
8.4269 8.6356 1.1694
8.4091 9.0449 1.1984
8.4182 9.5055 1.2335
8.4106 9.9727 1.2687
8.4644 10.5435 1.3163
8.7319 11.4323 1.4019
8.7439 12.0407 1.4516
8.7567 12.6928 1.5057
8.7705 13.3945 1.5647
8.7855 14.1524 1.6294
8.8016 14.9748 1.7005
8.8193 15.8711 1.7790
8.8386 16.8532 1.8660
8.8599 17.9351 1.9629
8.8565 19.0766 2.0652
8.9098 20.4733 2.1938
8.8017 21.6406 2.2968
8.2712 21.8346 2.2968
7.7368 22.0165 2.2968
7.1987 22.1863 2.2968
6.6571 22.3439 2.2968
6.1124 22.4891 2.2968
5.5694 22.6409 2.2987
5.0187 22.7615 2.2987
4.4656 22.8697 2.2987
3.9104 22.9655 2.2987
3.3533 23.0487 2.2987
2.7945 23.1193 2.2987
2.3346 24.2168 2.4018
1.7483 24.2643 2.4018
1.1610 24.2987 2.4018
0.5731 24.3198 2.4018
-0.0151 24.3278 2.4018
-0.6034 24.3225 2.4018
-1.1914 24.3040 2.4018
-1.7791 24.2723 2.4018
-2.3660 24.2275 2.4018
-2.9519 24.1694 2.4018
-3.5365 24.0982 2.4018
-4.1195 24.0138 2.4018
-4.7008 23.9163 2.4018
-5.2799 23.8056 2.4018
-5.6726 22.9377 2.3264
-6.1543 22.5331 2.2986
-6.7010 22.3899 2.2986
-7.2446 22.2343 2.2986
-7.7849 22.0664 2.2986
-8.3217 21.8862 2.2986
-8.8547 21.6938 2.2986
-9.3835 21.4893 2.2986
-10.0083 21.4879 2.3218
-9.9162 20.0113 2.1858
-11.0538 21.0140 2.3218
-11.5689 20.7591 2.3218
-12.0786 20.4924 2.3218
-12.5827 20.2139 2.3218
-13.0808 19.9237 2.3218
-10.2543 14.8246 1.7542
-13.9069 19.1009 2.2968
-14.3805 18.7799 2.2968
-14.8472 18.4478 2.2968
-15.1357 17.9022 2.2712
-12.6335 14.2302 1.8413
-15.1700 16.2771 2.1503
-15.1859 15.5242 2.0961
-15.2011 14.8061 2.0455
-15.2156 14.1197 1.9983
-15.2295 13.4623 1.9541
-15.2428 12.8312 1.9128
-15.2557 12.2243 1.8741
-15.2680 11.6395 1.8379
-15.2799 11.0750 1.8039
-15.2915 10.5291 1.7720
-15.3027 10.0003 1.7421
-15.3135 9.4873 1.7141
-15.3240 8.9886 1.6878
-15.3343 8.5033 1.6631
-15.3443 8.0302 1.6400
-15.3541 7.5683 1.6184
-15.3636 7.1168 1.5981
-15.3729 6.6747 1.5792
-15.3821 6.2413 1.5615
-15.3911 5.8158 1.5451
-15.3999 5.3976 1.5298
-15.4086 4.9859 1.5156
-15.5200 4.6107 1.5124
-15.5292 4.2078 1.5003
-15.5383 3.8097 1.4892
-15.5474 3.4158 1.4791
-15.5563 3.0257 1.4699
-15.5651 2.6387 1.4616
-15.5739 2.2545 1.4542
-15.5834 1.8726 1.4478
-15.5922 1.4925 1.4421
-15.6009 1.1136 1.4374
-15.6097 0.7357 1.4335
-15.6184 0.3582 1.4304
-15.6271 -0.0193 1.4281
-15.6385 -0.3972 1.4270
-15.6481 -0.7761 1.4265
-15.6577 -1.1564 1.4268
-15.6673 -1.5385 1.4280
-15.6770 -1.9229 1.4301
-15.6868 -2.3101 1.4330
-15.6966 -2.7005 1.4367
-15.7019 -3.0938 1.4410
-15.7120 -3.4921 1.4466
-15.7222 -3.8952 1.4531
-15.7326 -4.3038 1.4606
-15.7431 -4.7183 1.4691
-15.7538 -5.1394 1.4786
-15.7624 -5.5669 1.4889
-15.7735 -6.0033 1.5006
-15.7849 -6.4483 1.5134
-15.7965 -6.9029 1.5274
-15.8083 -7.3679 1.5426
-15.8160 -7.8420 1.5588
-15.8279 -8.3301 1.5766
-15.8400 -8.8315 1.5960
-15.8525 -9.3475 1.6169
-15.8654 -9.8792 1.6394
-15.8785 -10.4278 1.6636
-15.8924 -10.9954 1.6898
-15.9068 -11.5833 1.7179
-15.9218 -12.1935 1.7482
-15.9344 -12.8254 1.7804
-15.9514 -13.4883 2.0491
-15.9688 -14.1784 2.0921
-15.9869 -14.9004 2.1384
-16.0030 -15.6545 2.1878
-13.9077 -14.2782 1.9456
-13.5450 -14.5950 1.9414
-13.1827 -14.9113 1.9384
-15.2176 -18.0744 2.2986
-14.7923 -18.4562 2.2986
-14.3570 -18.8274 2.2986
-13.9119 -19.1876 2.2986
-13.4573 -19.5366 2.2986
-12.9936 -19.8743 2.2986
-12.5210 -20.2001 2.2986
-12.0397 -20.5141 2.2986
-11.5502 -20.8157 2.2986
-11.0528 -21.1049 2.2986
-11.0215 -22.3419 2.4018
-10.4861 -22.6174 2.4018
-9.9434 -22.8791 2.4018
-9.3939 -23.1269 2.4018
-8.8378 -23.3605 2.4018
-8.2756 -23.5799 2.4018
-7.7076 -23.7847 2.4018
-7.1343 -23.9749 2.4018
-6.5560 -24.1502 2.4018
-5.9732 -24.3106 2.4018
-5.3862 -24.4559 2.4018
-4.7955 -24.5860 2.4018
-4.2015 -24.7008 2.4018
-3.6045 -24.8002 2.4018
-3.0051 -24.8841 2.4018
-0.8566 -8.8920 0.8559
-0.6416 -8.9101 0.8558
-0.4262 -8.9226 0.8558
-0.2106 -8.9295 0.8557
0.0050 -8.9308 0.8556
0.2206 -8.9266 0.8556
0.4360 -8.9168 0.8555
0.6511 -8.9015 0.8555
2.3261 -23.8650 2.2987
2.9009 -23.7956 2.2987
2.0921 -14.2807 1.3845
4.0438 -23.6124 2.2987
4.6110 -23.4986 2.2987
5.1748 -23.3703 2.2987
5.8549 -23.7134 2.3468
5.4629 -20.0341 1.9962
2.3153 -7.7486 0.7779
5.8602 -18.0143 1.8231
6.0987 -17.3146 1.7679
5.8941 -15.5264 1.6004
6.0529 -14.8536 1.5468
6.4050 -14.6920 1.5468
6.5326 -14.0483 1.4964
6.7287 -13.6012 1.4668
6.8411 -13.0270 1.4236
6.9473 -12.4870 1.3837
7.0476 -11.9770 1.3469
7.1426 -11.4940 1.3129
7.2328 -11.0355 1.2814
7.3187 -10.5990 1.2522
7.4006 -10.1826 1.2251
7.4789 -9.7845 1.1999
7.5618 -9.4128 1.1777
6.7324 -7.9778 1.0194
6.7093 -7.5716 0.9891
6.7189 -7.2232 0.9657
6.8691 -7.0360 0.9638
6.9857 -6.8179 0.9580
7.1143 -6.6156 0.9546
7.2840 -6.4524 0.9575
7.5097 -6.3353 0.9681
6.6750 -5.3607 0.8447
6.8515 -5.2353 0.8520
7.2710 -5.2826 0.8893
7.6649 -5.2908 0.9229
8.0895 -5.3000 0.9597
