ply
format ascii 1.0
element vertex 2120
property float32 x
property float32 y
property float32 z
end_header
-10.0678 14.5541 2.2972
-10.4234 14.3155 2.2972
-8.6097 11.2431 1.8358
-8.8339 10.9756 1.8252
-11.4566 13.5499 2.2972
-11.7893 13.2785 2.2972
-12.1158 12.9991 2.2972
-12.4358 12.7120 2.2972
-12.7493 12.4172 2.2972
-13.0561 12.1149 2.2972
-13.3559 11.8053 2.2972
-13.6486 11.4884 2.2972
-13.9340 11.1644 2.2972
-14.2119 10.8336 2.2972
-14.4822 10.4960 2.2972
-14.7448 10.1518 2.2972
-14.9993 9.8013 2.2972
-15.2458 9.4445 2.2972
-15.4840 9.0816 2.2972
-15.5270 8.6093 2.2699
-15.5275 8.1253 2.2384
-15.6307 7.7039 2.2237
-15.6320 7.2403 2.1962
-15.6332 6.7869 2.1705
-15.6344 6.3429 2.1466
-15.6356 5.9074 2.1244
-15.6390 5.4805 2.1041
-13.5106 4.3710 1.8012
-13.5381 4.0212 1.7895
-15.6426 4.2377 2.0514
-15.6437 3.8347 2.0367
-15.6449 3.4364 2.0233
-15.6483 3.0428 2.0115
-15.6503 2.6524 2.0008
-15.6523 2.2651 1.9913
-15.6542 1.8804 1.9831
-15.6562 1.4978 1.9761
-15.6581 1.1170 1.9702
-15.6600 0.7373 1.9655
-15.6581 0.3584 1.9615
-15.6600 -0.0201 1.9591
-15.6620 -0.3986 1.9578
-15.6639 -0.7777 1.9578
-15.6659 -1.1579 1.9588
-15.6679 -1.5394 1.9610
-15.6668 -1.9225 1.9640
-15.6688 -2.3083 1.9686
-15.6709 -2.6969 1.9743
-15.6730 -3.0889 1.9813
-15.6751 -3.4847 1.9895
-15.6772 -3.8849 1.9990
-15.6752 -4.2889 2.0093
-15.6768 -4.6993 2.0214
-15.6785 -5.1157 2.0348
-15.6802 -5.5389 2.0497
-15.6820 -5.9694 2.0661
-13.7145 -5.6034 1.8223
-13.4171 -5.8640 1.7993
-13.2122 -6.1587 1.7895
-13.0723 -6.4823 1.7895
-15.6910 -8.2590 2.1726
-15.6931 -8.7506 2.1994
-15.6935 -9.2547 2.2281
-15.6960 -9.7747 2.2592
-15.6987 -10.3108 2.2927
-15.4891 -10.7174 2.2972
-15.2391 -11.0981 2.2972
-14.9795 -11.4729 2.2972
-14.7105 -11.8414 2.2972
-13.2080 -11.1692 2.2972
-12.9440 -11.4935 2.2972
-12.6719 -11.8114 2.2972
-12.3918 -12.1227 2.2972
-12.1038 -12.4270 2.2972
-11.8082 -12.7243 2.2972
-9.5093 -10.7568 1.8987
-9.2436 -10.9796 1.8968
-8.9779 -11.2023 1.8961
-8.7119 -11.4252 1.8965
-10.2211 -14.0979 2.2972
-9.8907 -14.3596 2.2989
-9.5463 -14.6021 2.2989
-9.1956 -14.8361 2.2989
-8.8391 -15.0613 2.2989
-8.4769 -15.2777 2.2989
-8.1092 -15.4850 2.2989
-7.7362 -15.6831 2.2989
-7.6887 -16.5846 2.4022
-7.2888 -16.7720 2.4022
-6.8842 -16.9492 2.4022
-6.4752 -17.1164 2.4022
-6.0619 -17.2732 2.4022
-5.6447 -17.4197 2.4022
-5.2238 -17.5556 2.4022
-4.7996 -17.6810 2.4022
-4.3722 -17.7956 2.4022
-3.9420 -17.8996 2.4022
-3.5093 -17.9926 2.4022
-3.0743 -18.0748 2.4022
-2.6372 -18.1460 2.4022
-0.7784 -6.4456 0.8504
-0.6225 -6.4626 0.8504
-0.4663 -6.4757 0.8503
-0.3098 -6.4847 0.8503
-0.1531 -6.4897 0.8502
0.0037 -6.4906 0.8501
0.1604 -6.4875 0.8500
0.3169 -6.4803 0.8499
0.4732 -6.4692 0.8498
0.6290 -6.4540 0.8496
0.7844 -6.4349 0.8495
2.5425 -17.3562 2.2991
2.9603 -17.2863 2.2991
3.3760 -17.2059 2.2991
2.3162 -10.4608 1.4052
4.2006 -17.0139 2.2991
4.6088 -16.9025 2.2991
5.0140 -16.7809 2.2991
5.4159 -16.6492 2.2991
5.8026 -16.4746 2.2945
5.9382 -15.6434 2.1989
6.0668 -14.8883 2.1136
6.1885 -14.1960 2.0369
6.3481 -13.6522 1.9812
5.9109 -11.9486 1.7550
6.1661 -11.7422 1.7469
6.2541 -11.2416 1.6953
6.3371 -10.7700 1.6477
2.4441 -3.9332 0.6109
6.5809 -10.0413 1.5849
6.9353 -10.0444 1.6123
6.9927 -9.6218 1.5721
7.0603 -9.2373 1.5377
7.1249 -8.8694 1.5057
7.1869 -8.5169 1.4758
7.2464 -8.1782 1.4481
7.3037 -7.8523 1.4222
7.3590 -7.5382 1.3981
7.4123 -7.2347 1.3757
7.4639 -6.9411 1.3548
7.5139 -6.6565 1.3353
7.5625 -6.3803 1.3172
7.6097 -6.1117 1.3004
7.6557 -5.8501 1.2848
7.7048 -5.5982 1.2711
7.7583 -5.3556 1.2592
7.1407 -4.6787 1.1413
6.9366 -4.3092 1.0927
6.8661 -4.0388 1.0668
6.7532 -3.7558 1.0358
6.8505 -3.5961 1.0380
6.8810 -3.4027 1.0309
6.9381 -3.2248 1.0284
7.0221 -3.0598 1.0305
7.1063 -2.8943 1.0333
7.2487 -2.7500 1.0450
7.3954 -2.6031 1.0578
7.6087 -2.4733 1.0805
7.8607 -2.3468 1.1090
8.3014 -2.2615 1.1643
8.3008 -2.0472 1.1580
6.6346 -1.4672 0.9213
6.7906 -1.3305 0.9391
7.9825 -1.3646 1.1002
8.2878 -1.2115 1.1390
8.3572 -1.0161 1.1460
8.3571 -0.8117 1.1441
8.3570 -0.6083 1.1428
8.3569 -0.4056 1.1423
8.2584 -0.2010 1.1290
6.7994 -0.0011 0.9302
6.7978 0.1632 0.9311
6.7965 0.3277 0.9327
8.3563 0.6056 1.1495
8.3562 0.8090 1.1530
8.3561 1.0133 1.1572
8.3560 1.2189 1.1620
8.3559 1.4259 1.1676
8.2620 1.6162 1.1607
7.5066 1.6578 1.0609
6.7638 1.6662 0.9623
6.7567 1.8387 0.9682
8.2988 2.4753 1.1985
8.0412 2.6117 1.1712
7.7123 2.7126 1.1336
7.4744 2.8337 1.1093
7.3125 2.9765 1.0966
7.1674 3.1214 1.0868
7.0567 3.2783 1.0827
6.9712 3.4459 1.0830
6.8901 3.6156 1.0846
6.8586 3.8133 1.0947
6.8252 4.0138 1.1055
6.8495 4.2542 1.1267
6.8906 4.5141 1.1520
7.0753 4.8835 1.2032
8.2333 5.9817 1.4254
8.2331 6.2912 1.4524
8.2329 6.6124 1.4812
8.2328 6.9463 1.5121
8.2326 7.2940 1.5451
8.2324 7.6570 1.5804
8.2322 8.0367 1.6183
8.2320 8.4347 1.6590
8.2318 8.8529 1.7027
8.2315 9.2935 1.7497
8.2313 9.7588 1.8004
8.2310 10.2515 1.8551
8.2307 10.7748 1.9143
8.2305 11.3322 1.9784
8.2301 11.9281 2.0482
8.2298 12.5671 2.1242
8.2037 13.2137 2.2004
8.1773 13.9110 2.2839
8.0519 14.4886 2.3472
7.6960 14.6728 2.3472
7.3360 14.8486 2.3472
6.9721 15.0159 2.3472
6.6046 15.1747 2.3472
6.2336 15.3247 2.3472
5.7393 15.1492 2.2991
5.3697 15.2791 2.2991
4.9973 15.4002 2.2991
4.6223 15.5127 2.2991
4.2449 15.6164 2.2991
3.8652 15.7113 2.2991
3.4835 15.7972 2.2991
3.1000 15.8743 2.2991
2.7148 15.9425 2.2991
2.3282 16.0016 2.2991
1.9404 16.0518 2.2991
1.6211 16.8145 2.4022
1.2140 16.8481 2.4022
0.8062 16.8722 2.4022
0.3980 16.8867 2.4022
-0.0105 16.8919 2.4022
-0.4190 16.8875 2.4022
-0.8273 16.8736 2.4022
-1.2352 16.8502 2.4022
-1.6426 16.8174 2.4022
-2.0490 16.7751 2.4022
-2.4545 16.7234 2.4022
-2.8587 16.6622 2.4022
-3.2615 16.5917 2.4022
-3.6626 16.5118 2.4022
-4.0618 16.4226 2.4022
-4.4590 16.3240 2.4022
-4.8539 16.2163 2.4022
-5.2463 16.0993 2.4022
-5.6360 15.9732 2.4022
-6.0227 15.8380 2.4022
-6.1544 15.0764 2.3077
-6.4951 14.8726 2.2989
-6.8557 14.7175 2.2989
-7.2128 14.5540 2.2989
-7.5662 14.3821 2.2989
-6.7743 12.1541 1.9674
-8.2609 14.0134 2.2989
-8.6019 13.8169 2.2989
-8.9383 13.6124 2.2989
-9.2701 13.3999 2.2989
-9.5970 13.1795 2.2989
-9.9189 12.9515 2.2989
-8.9873 11.1652 2.0186
-10.5387 12.4632 2.2972
-10.8441 12.2128 2.2972
-11.1437 11.9551 2.2972
-11.4374 11.6904 2.2972
-11.7250 11.4185 2.2972
-12.0064 11.1398 2.2972
-12.2813 10.8544 2.2972
-12.5496 10.5623 2.2972
-12.8112 10.2638 2.2972
-13.0659 9.9589 2.2972
-13.3134 9.6479 2.2972
-13.5538 9.3308 2.2972
-13.7868 9.0079 2.2972
-14.0124 8.6793 2.2972
-14.2302 8.3452 2.2972
-14.4403 8.0057 2.2972
-14.6424 7.6610 2.2972
-14.8365 7.3114 2.2972
-15.0223 6.9569 2.2972
-15.1999 6.5977 2.2972
-15.3690 6.2342 2.2972
-15.5296 5.8663 2.2972
-15.6391 5.4795 2.2909
-13.4998 4.3666 1.9597
-12.8285 3.8096 1.8466
-12.8842 3.4896 1.8402
-15.6438 3.8337 2.2183
-15.6450 3.4355 2.2039
-15.6483 3.0418 2.1912
-15.6503 2.6514 2.1797
-15.6523 2.2641 2.1696
-15.6542 1.8794 2.1608
-15.6561 1.4969 2.1533
-15.6581 1.1160 2.1471
-15.6600 0.7363 2.1422
-15.6583 0.3574 2.1380
-15.6603 -0.0211 2.1356
-15.6622 -0.3996 2.1345
-13.8312 -0.6876 1.8848
-13.4634 -0.9959 1.8356
-13.1422 -1.2921 1.7937
-13.0893 -1.6071 1.7895
-13.0595 -1.9247 1.7895
-15.6708 -2.6979 2.1535
-15.6729 -3.0899 2.1613
-15.6750 -3.4857 2.1705
-15.6771 -3.8859 2.1810
-15.6752 -4.2899 2.1924
-15.6768 -4.7003 2.2058
-15.6785 -5.1167 2.2207
-15.6802 -5.5399 2.2371
-15.6820 -5.9704 2.2552
-15.6837 -6.4090 2.2749
-13.4137 -5.8634 1.9638
-13.1086 -6.1113 1.9384
-12.8163 -6.3563 1.9157
-15.1936 -7.9982 2.2972
-15.0090 -8.3702 2.2972
-14.8152 -8.7378 2.2972
-14.6123 -9.1008 2.2972
-14.4002 -9.4590 2.2972
-14.1792 -9.8121 2.2972
-13.9493 -10.1599 2.2972
-13.7108 -10.5022 2.2972
-13.4636 -10.8387 2.2972
-12.1723 -10.2944 2.2972
-11.9284 -10.5926 2.2972
-11.6770 -10.8850 2.2972
-11.4182 -11.1712 2.2972
-11.1523 -11.4510 2.2972
-10.8793 -11.7243 2.2972
-9.5653 -10.8210 2.0730
-10.3129 -12.2506 2.2972
-10.0198 -12.5033 2.2972
-9.7278 -12.7584 2.2989
-9.4219 -12.9966 2.2989
-9.1101 -13.2271 2.2989
-8.7924 -13.4500 2.2989
-8.4692 -13.6650 2.2989
-8.1405 -13.8719 2.2989
-7.8066 -14.0706 2.2989
-7.4677 -14.2610 2.2989
-7.1240 -14.4429 2.2989
-6.7758 -14.6162 2.2989
-6.7116 -15.4447 2.4022
-6.3389 -15.6075 2.4022
-5.9621 -15.7610 2.4022
-5.5814 -15.9050 2.4022
-5.1972 -16.0395 2.4022
-4.8096 -16.1643 2.4022
-4.4189 -16.2794 2.4022
-4.0254 -16.3847 2.4022
-3.6292 -16.4801 2.4022
-3.2308 -16.5656 2.4022
-2.8303 -16.6410 2.4022
-2.4279 -16.7064 2.4022
-0.7436 -6.1576 0.8825
-0.5931 -6.1575 0.8801
-0.4433 -6.1574 0.8782
-0.2941 -6.1573 0.8769
-0.1452 -6.1571 0.8762
0.0035 -6.1570 0.8759
0.1522 -6.1569 0.8762
0.3010 -6.1568 0.8770
0.4503 -6.1567 0.8784
0.6000 -6.1566 0.8803
0.7504 -6.1564 0.8827
2.3407 -15.9799 2.2991
2.7254 -15.9158 2.2991
3.1082 -15.8420 2.2991
2.3160 -10.4608 1.5262
3.8675 -15.6660 2.2991
4.2435 -15.5637 2.2991
4.6166 -15.4521 2.2991
4.9868 -15.3313 2.2991
5.3537 -15.2013 2.2991
5.7171 -15.0621 2.2991
6.0773 -14.9150 2.2992
6.1925 -14.2061 2.2133
6.3015 -13.5532 2.1355
5.9448 -12.0179 1.9165
6.0365 -11.4961 1.8569
6.1226 -11.0061 1.8020
6.2142 -10.5620 1.7542
2.4438 -3.9331 0.6632
6.5803 -10.0412 1.7204
6.9353 -10.0451 1.7502
6.9925 -9.6225 1.7065
7.1419 -9.3448 1.6883
7.2073 -8.9727 1.6531
7.1868 -8.5175 1.6017
7.2463 -8.1788 1.5715
7.3036 -7.8529 1.5434
7.3589 -7.5387 1.5172
7.4122 -7.2353 1.4927
7.4638 -6.9417 1.4700
7.5138 -6.6571 1.4488
7.5624 -6.3808 1.4290
7.6096 -6.1123 1.4107
7.6556 -5.8507 1.3937
7.7047 -5.5987 1.3787
7.7582 -5.3561 1.3658
7.1020 -4.6539 1.2311
6.9370 -4.3099 1.1850
6.8661 -4.0394 1.1569
6.7530 -3.7563 1.1231
6.8504 -3.5966 1.1255
6.8809 -3.4032 1.1176
6.9379 -3.2252 1.1148
7.0219 -3.0601 1.1171
7.1061 -2.8947 1.1200
7.2483 -2.7504 1.1326
7.3951 -2.6035 1.1464
7.6081 -2.4736 1.1709
7.8386 -2.3407 1.1984
8.3014 -2.2620 1.2615
8.3008 -2.0477 1.2547
6.5750 -1.4544 0.9891
6.7617 -1.3252 1.0130
7.9803 -1.3648 1.1914
8.0439 -1.1764 1.1974
8.0601 -0.9805 1.1970
8.0716 -0.7845 1.1967
8.0783 -0.5885 1.1963
8.0803 -0.3926 1.1960
8.0776 -0.1970 1.1956
6.7275 -0.0015 0.9964
6.7259 0.1611 0.9973
6.7246 0.3238 0.9989
8.0305 0.5815 1.1958
8.0092 0.7749 1.1961
7.9832 0.9676 1.1965
7.9526 1.1595 1.1968
7.9175 1.3506 1.1972
7.8778 1.5406 1.1975
7.5089 1.6578 1.1482
6.6906 1.6477 1.0298
6.5337 1.7776 1.0128
8.2988 2.4747 1.2965
8.0422 2.6115 1.2670
7.6454 2.6886 1.2154
7.4658 2.8300 1.1984
7.3128 2.9761 1.1860
7.1677 3.1211 1.1753
7.0569 3.2779 1.1707
6.9714 3.4455 1.1710
6.8901 3.6152 1.1726
6.8587 3.8129 1.1835
6.8267 4.0141 1.1953
6.7913 4.2175 1.2075
6.8320 4.4752 1.2346
7.0749 4.8827 1.3004
8.2333 5.9811 1.5405
8.2331 6.2906 1.5696
8.2329 6.6117 1.6007
8.2328 6.9456 1.6339
8.2326 7.2934 1.6695
8.2324 7.6563 1.7076
8.2322 8.0360 1.7484
8.2320 8.4340 1.7923
8.2318 8.8522 1.8394
8.2315 9.2927 1.8901
8.2313 9.7580 1.9448
8.2310 10.2507 2.0038
8.2307 10.7740 2.0677
8.2305 11.3314 2.1369
8.2301 11.9272 2.2121
8.2298 12.5663 2.2942
8.1030 13.0506 2.3472
7.7816 13.2369 2.3472
7.4562 13.4157 2.3472
7.1268 13.5867 2.3472
6.7936 13.7499 2.3472
6.4568 13.9053 2.3472
6.1166 14.0526 2.3472
5.6549 13.9012 2.2991
5.3155 14.0297 2.2991
4.9733 14.1503 2.2991
4.6285 14.2628 2.2991
4.2812 14.3672 2.2991
3.9317 14.4635 2.2991
3.5801 14.5516 2.2991
3.2266 14.6314 2.2991
2.8714 14.7030 2.2991
2.5147 14.7663 2.2991
2.1566 14.8212 2.2991
1.8779 15.5344 2.4022
1.5016 15.5743 2.4022
1.1245 15.6055 2.4022
0.7468 15.6278 2.4022
0.3686 15.6413 2.4022
-0.0098 15.6460 2.4022
-0.3882 15.6419 2.4022
-0.7664 15.6289 2.4022
-1.1442 15.6072 2.4022
-1.5215 15.5767 2.4022
-1.8980 15.5373 2.4022
-2.2735 15.4892 2.4022
-2.6479 15.4324 2.4022
-3.0209 15.3668 2.4022
-3.3924 15.2925 2.4022
-3.7621 15.2096 2.4022
-4.1299 15.1181 2.4022
-4.4955 15.0179 2.4022
-4.8588 14.9093 2.4022
-5.2196 14.7921 2.4022
-5.5777 14.6665 2.4022
-5.9328 14.5325 2.4022
-6.1435 14.0666 2.3481
-6.3560 13.6436 2.3016
-6.6790 13.4758 2.2989
-7.0059 13.3161 2.2989
-6.7711 12.1475 2.1238
-7.6486 12.9739 2.2989
-7.9640 12.7914 2.2989
-8.2752 12.6015 2.2989
-8.5820 12.4043 2.2989
-8.8843 12.1998 2.2989
-9.1818 11.9882 2.2989
-8.9877 11.1647 2.1808
-9.7621 11.5438 2.2989
-10.0369 11.3027 2.2972
-10.3137 11.0637 2.2972
-10.5850 10.8181 2.2972
-10.8506 10.5660 2.2972
-11.1104 10.3075 2.2972
-11.3642 10.0428 2.2972
-11.6118 9.7720 2.2972
-11.8532 9.4953 2.2972
-12.0881 9.2127 2.2972
-12.3164 8.9244 2.2972
-12.5381 8.6306 2.2972
-12.7528 8.3314 2.2972
-12.9606 8.0269 2.2972
-13.1613 7.7174 2.2972
-13.3547 7.4029 2.2972
-13.5408 7.0837 2.2972
-13.7194 6.7599 2.2972
-13.8903 6.4317 2.2972
-14.0536 6.0992 2.2972
-14.2090 5.7626 2.2972
-14.3564 5.4222 2.2972
-14.4958 5.0780 2.2972
-13.7045 4.4319 2.1523
-14.7502 4.3793 2.2972
-13.1394 3.5578 2.0305
-14.9712 3.6679 2.2972
-15.0690 3.3080 2.2972
-15.1582 2.9455 2.2972
-15.2388 2.5807 2.2972
-15.3106 2.2137 2.2972
-15.3737 1.8448 2.2972
-15.4279 1.4741 2.2972
-15.4732 1.1019 2.2972
-15.5096 0.7283 2.2972
-15.5370 0.3537 2.2972
-15.5553 -0.0219 2.2972
-15.5646 -0.3981 2.2972
-15.5648 -0.7748 2.2972
-13.7759 -1.0199 2.0343
-13.1126 -1.2900 1.9386
-12.7788 -1.5697 1.8926
-12.9283 -1.9062 1.9192
-15.4284 -2.6571 2.2972
-15.3736 -3.0319 2.2972
-15.3097 -3.4055 2.2972
-15.2366 -3.7777 2.2972
-15.1544 -4.1484 2.2972
-15.0631 -4.5172 2.2972
-14.9627 -4.8841 2.2972
-14.8534 -5.2487 2.2972
-14.7350 -5.6108 2.2972
-14.6076 -5.9702 2.2972
-14.4714 -6.3267 2.2972
-14.3264 -6.6800 2.2972
-13.0088 -6.4526 2.1085
-14.0101 -7.3762 2.2972
-13.8390 -7.7187 2.2972
-13.6595 -8.0571 2.2972
-13.4714 -8.3913 2.2972
-13.2751 -8.7209 2.2972
-13.0705 -9.0459 2.2972
-12.8578 -9.3659 2.2972
-12.6372 -9.6808 2.2972
-12.4086 -9.9904 2.2972
-11.2846 -9.5445 2.2972
-11.0579 -9.8205 2.2972
-10.8243 -10.0910 2.2972
-10.5839 -10.3558 2.2972
-10.3370 -10.6147 2.2972
-10.0835 -10.8676 2.2972
-9.5648 -10.8213 2.2366
-9.5650 -11.3631 2.2989
-9.2928 -11.5969 2.2989
-9.0147 -11.8240 2.2989
-8.7309 -12.0443 2.2989
-8.4416 -12.2575 2.2989
-8.1470 -12.4635 2.2989
-7.8472 -12.6623 2.2989
-7.5424 -12.8536 2.2989
-7.2328 -13.0373 2.2989
-6.9186 -13.2133 2.2989
-6.6000 -13.3814 2.2989
-6.4733 -13.9646 2.3707
-6.2176 -14.3089 2.4022
-5.8722 -14.4593 2.4022
-5.5230 -14.6011 2.4022
-5.1703 -14.7343 2.4022
-4.8142 -14.8585 2.4022
-4.4551 -14.9739 2.4022
-4.0932 -15.0803 2.4022
-3.7286 -15.1776 2.4022
-3.3616 -15.2657 2.4022
-2.9925 -15.3447 2.4022
-2.6215 -15.4145 2.4022
-2.2488 -15.4749 2.4022
-0.7435 -6.1574 0.9527
-0.5931 -6.1573 0.9501
-0.4433 -6.1572 0.9481
-0.2941 -6.1570 0.9467
-0.1452 -6.1570 0.9459
0.0034 -6.1568 0.9456
0.1521 -6.1567 0.9459
0.3010 -6.1566 0.9468
0.4502 -6.1565 0.9483
0.5999 -6.1564 0.9503
0.7504 -6.1562 0.9529
2.1680 -14.8024 2.2991
2.5244 -14.7432 2.2991
2.8790 -14.6751 2.2991
2.3159 -10.4609 1.6475
3.5825 -14.5125 2.2991
3.9308 -14.4181 2.2991
4.2766 -14.3151 2.2991
4.6196 -14.2034 2.2991
4.9596 -14.0833 2.2991
5.2964 -13.9548 2.2991
5.6298 -13.8179 2.2991
6.0842 -13.9588 2.3472
6.3132 -13.5792 2.3092
5.8203 -11.7671 2.0252
5.8907 -11.2194 1.9557
6.1225 -11.0067 1.9447
6.2037 -10.5449 1.8899
2.4435 -3.9329 0.7156
6.5797 -10.0411 1.8563
6.9352 -10.0457 1.8885
6.9924 -9.6231 1.8413
7.1418 -9.3454 1.8216
7.2072 -8.9733 1.7835
7.1867 -8.5181 1.7281
7.2462 -8.1794 1.6954
7.3035 -7.8535 1.6650
7.4439 -7.6266 1.6555
7.4979 -7.3196 1.6288
7.4637 -6.9422 1.5855
7.5137 -6.6577 1.5626
7.5623 -6.3814 1.5412
7.6095 -6.1128 1.5213
7.6555 -5.8512 1.5029
7.7046 -5.5993 1.4866
7.7581 -5.3566 1.4726
7.1017 -4.6542 1.3273
6.9374 -4.3107 1.2777
6.8084 -4.0059 1.2367
6.7711 -3.7668 1.2140
6.8019 -3.5716 1.2046
6.8450 -3.3858 1.1984
6.9377 -3.2256 1.2016
7.0217 -3.0606 1.2039
7.1059 -2.8951 1.2070
7.1949 -2.7306 1.2115
7.3405 -2.5848 1.2262
7.5378 -2.4513 1.2499
7.7849 -2.3252 1.2823
8.3014 -2.2625 1.3591
8.3008 -2.0483 1.3516
6.6414 -1.4696 1.0763
6.9573 -1.3640 1.1227
7.6046 -1.3010 1.2228
7.6053 -1.1127 1.2193
7.6059 -0.9257 1.2165
7.6066 -0.7398 1.2144
7.6072 -0.5546 1.2131
7.6079 -0.3702 1.2124
7.6086 -0.1861 1.2125
6.6569 -0.0019 1.0614
6.6553 0.1590 1.0624
6.6540 0.3200 1.0640
7.6079 0.5504 1.2194
7.6070 0.7355 1.2228
7.6062 0.9214 1.2269
7.6053 1.1084 1.2317
7.6045 1.2967 1.2373
7.6036 1.4865 1.2437
7.5111 1.6578 1.2358
6.6188 1.6296 1.0961
6.4632 1.7580 1.0779
8.2988 2.4742 1.3947
8.0433 2.6113 1.3631
7.6460 2.6883 1.3074
7.4100 2.8084 1.2793
7.2611 2.9546 1.2665
7.1170 3.0985 1.2551
7.0571 3.2776 1.2591
6.9716 3.4451 1.2593
6.8493 3.5933 1.2534
6.8106 3.7857 1.2636
6.7788 3.9855 1.2762
6.7912 4.2170 1.2982
6.8319 4.4746 1.3272
7.0745 4.8819 1.3978
8.2333 5.9805 1.6560
8.2331 6.2900 1.6872
8.2329 6.6111 1.7205
8.2328 6.9450 1.7562
8.2326 7.2927 1.7943
8.2324 7.6556 1.8352
8.2322 8.0353 1.8790
8.2320 8.4333 1.9261
8.2318 8.8515 1.9766
8.2315 9.2920 2.0310
8.2313 9.7572 2.0897
8.2310 10.2499 2.1530
8.2307 10.7732 2.2216
8.2305 11.3306 2.2959
8.1281 11.7784 2.3472
7.8374 11.9663 2.3472
7.5426 12.1472 2.3472
7.2437 12.3211 2.3472
6.9409 12.4878 2.3472
6.6345 12.6473 2.3472
6.3245 12.7996 2.3472
5.8879 12.6793 2.2991
5.5778 12.8140 2.2991
5.2647 12.9413 2.2991
4.9489 13.0613 2.2991
4.6304 13.1738 2.2991
4.3094 13.2788 2.2991
3.9861 13.3762 2.2991
3.6608 13.4660 2.2991
3.3334 13.5482 2.2991
3.0043 13.6227 2.2991
2.6736 13.6895 2.2991
2.3415 13.7485 2.2991
2.0080 13.7997 2.2991
1.7486 14.4639 2.4022
1.3982 14.5011 2.4022
1.0470 14.5301 2.4022
0.6953 14.5509 2.4022
0.3432 14.5635 2.4022
-0.0091 14.5679 2.4022
-0.3615 14.5640 2.4022
-0.7136 14.5519 2.4022
-1.0655 14.5316 2.4022
-1.4168 14.5030 2.4022
-1.7673 14.4663 2.4022
-2.1170 14.4213 2.4022
-2.4655 14.3682 2.4022
-2.8128 14.3070 2.4022
-3.1586 14.2376 2.4022
-3.5028 14.1602 2.4022
-3.8452 14.0747 2.4022
-4.1855 13.9812 2.4022
-4.5236 13.8798 2.4022
-4.8594 13.7704 2.4022
-5.1927 13.6532 2.4022
-5.5232 13.5281 2.4022
-5.8508 13.3953 2.4022
-6.1429 13.1852 2.3895
-6.2173 12.5433 2.2989
-6.5215 12.3944 2.2989
-6.7679 12.1408 2.2806
-7.1193 12.0750 2.2989
-7.4126 11.9048 2.2989
-7.7020 11.7277 2.2989
-7.9872 11.5437 2.2989
-8.2683 11.3529 2.2989
-8.5448 11.1556 2.2989
-8.8168 10.9516 2.2989
-9.0841 10.7412 2.2989
-9.3466 10.5244 2.2989
-9.6039 10.3014 2.2989
-9.8561 10.0723 2.2989
-10.0953 9.8296 2.2972
-10.3365 9.5886 2.2972
-10.5721 9.3420 2.2972
-10.8020 9.0896 2.2972
-11.0260 8.8317 2.2972
-11.2439 8.5684 2.2972
-11.4557 8.2998 2.2972
-11.6613 8.0261 2.2972
-11.8604 7.7474 2.2972
-12.0530 7.4639 2.2972
-12.2389 7.1756 2.2972
-12.4181 6.8828 2.2972
-12.5905 6.5857 2.2972
-12.7558 6.2842 2.2972
-12.9140 5.9787 2.2972
-13.0650 5.6692 2.2972
-13.2087 5.3560 2.2972
-13.3450 5.0393 2.2972
-13.4738 4.7191 2.2972
-13.5950 4.3956 2.2972
-13.7085 4.0691 2.2972
-13.1399 3.5571 2.1850
-13.9122 3.4076 2.2972
-14.0022 3.0729 2.2972
-14.0842 2.7360 2.2972
-14.1582 2.3968 2.2972
-14.2241 2.0557 2.2972
-14.2818 1.7128 2.2972
-14.3312 1.3684 2.2972
-14.3724 1.0225 2.2972
-14.4053 0.6755 2.2972
-14.4298 0.3275 2.2972
-14.4459 -0.0212 2.2972
-14.4535 -0.3706 2.2972
-14.4528 -0.7203 2.2972
-13.7767 -1.0208 2.1911
-14.4258 -1.4201 2.2972
-12.9799 -1.5953 2.0707
-14.3648 -2.1189 2.2972
-14.3215 -2.4674 2.2972
-14.2698 -2.8151 2.2972
-14.2096 -3.1616 2.2972
-14.1408 -3.5069 2.2972
-14.0637 -3.8507 2.2972
-13.9781 -4.1927 2.2972
-13.8841 -4.5329 2.2972
-13.7817 -4.8709 2.2972
-13.6710 -5.2066 2.2972
-13.5521 -5.5397 2.2972
-13.4249 -5.8700 2.2972
-13.2895 -6.1974 2.2972
-13.0101 -6.4542 2.2734
-12.9946 -6.8425 2.2972
-12.8352 -7.1597 2.2972
-9.8684 -5.8217 1.7895
-9.7321 -6.0627 1.7895
-12.3101 -8.0879 2.2972
-12.1198 -8.3888 2.2972
-11.9219 -8.6851 2.2972
-11.7167 -8.9766 2.2972
-11.5042 -9.2631 2.2972
-10.5150 -8.8944 2.2972
-10.3033 -9.1512 2.2972
-10.0852 -9.4029 2.2972
-9.8684 -9.6565 2.2989
-9.6377 -9.8976 2.2989
-9.4011 -10.1329 2.2989
-9.1585 -10.3624 2.2989
-8.9102 -10.5860 2.2989
-8.6563 -10.8035 2.2989
-8.3970 -11.0147 2.2989
-8.1324 -11.2194 2.2989
-7.8627 -11.4176 2.2989
-7.5880 -11.6092 2.2989
-7.3085 -11.7940 2.2989
-7.0245 -11.9718 2.2989
-6.7360 -12.1425 2.2989
-6.4432 -12.3061 2.2989
-6.1687 -12.5079 2.3073
-6.1081 -13.1777 2.4022
-5.7900 -13.3255 2.4022
-5.4682 -13.4653 2.4022
-5.1429 -13.5971 2.4022
-4.8144 -13.7208 2.4022
-4.4828 -13.8363 2.4022
-4.1483 -13.9435 2.4022
-3.8112 -14.0424 2.4022
-3.4717 -14.1328 2.4022
-3.1300 -14.2147 2.4022
-2.7863 -14.2881 2.4022
-2.4409 -14.3529 2.4022
-2.0939 -14.4091 2.4022
-0.7434 -6.1572 1.0231
-0.5930 -6.1571 1.0203
-0.4433 -6.1570 1.0182
-0.2941 -6.1569 1.0167
-0.1452 -6.1567 1.0158
0.0034 -6.1566 1.0155
0.1521 -6.1565 1.0159
0.3009 -6.1564 1.0168
0.4501 -6.1563 1.0184
0.5999 -6.1562 1.0206
0.7503 -6.1560 1.0234
2.0186 -13.7833 2.2991
2.3504 -13.7283 2.2991
2.6807 -13.6651 2.2991
2.3157 -10.4610 1.7692
3.3358 -13.5141 2.2991
3.6602 -13.4264 2.2991
3.9822 -13.3307 2.2991
4.3017 -13.2270 2.2991
4.6184 -13.1155 2.2991
4.9322 -12.9961 2.2991
5.2428 -12.8689 2.2991
5.5500 -12.7341 2.2991
5.8537 -12.5918 2.2991
5.7440 -11.6139 2.1460
5.9100 -11.2569 2.1067
5.9943 -10.7770 2.0442
6.0384 -10.2647 1.9750
2.4432 -3.9328 0.7682
6.5791 -10.0410 1.9927
6.9351 -10.0464 2.0274
6.9923 -9.6237 1.9766
7.1416 -9.3461 1.9554
7.2071 -8.9740 1.9144
7.1866 -8.5187 1.8548
7.2461 -8.1800 1.8197
7.3034 -7.8541 1.7869
7.4438 -7.6272 1.7767
7.4978 -7.3202 1.7480
7.5500 -7.0232 1.7211
7.6006 -6.7353 1.6962
7.5622 -6.3820 1.6538
7.6094 -6.1134 1.6324
7.6554 -5.8518 1.6125
7.7045 -5.5998 1.5950
7.7580 -5.3572 1.5799
7.1014 -4.6545 1.4238
6.9378 -4.3114 1.3707
6.9525 -4.0912 1.3547
6.7710 -3.7673 1.3021
6.8018 -3.5721 1.2920
6.8322 -3.3800 1.2828
6.9375 -3.2259 1.2886
7.0215 -3.0609 1.2910
7.1057 -2.8955 1.2943
7.1945 -2.7310 1.2990
7.4855 -2.6363 1.3407
7.7238 -2.5123 1.3732
7.7843 -2.3256 1.3746
8.3014 -2.2631 1.4570
6.5653 -1.6205 1.1460
6.5708 -1.4544 1.1414
6.9551 -1.3640 1.2030
7.6046 -1.3015 1.3106
7.6053 -1.1132 1.3068
7.6059 -0.9262 1.3037
7.6066 -0.7402 1.3014
7.6072 -0.5551 1.2999
7.6079 -0.3706 1.2991
7.6086 -0.1866 1.2991
6.5875 -0.0023 1.1254
6.5859 0.1569 1.1263
6.5846 0.3162 1.1280
7.6079 0.5499 1.3062
7.6070 0.7350 1.3098
7.6062 0.9209 1.3141
7.6053 1.1079 1.3192
7.5730 1.2908 1.3197
7.5353 1.4727 1.3200
7.4933 1.6534 1.3203
6.5712 1.6175 1.1652
6.4234 1.7468 1.1471
8.2988 2.4737 1.4933
8.0444 2.6111 1.4596
7.7707 2.7316 1.4225
7.6126 2.8846 1.4070
7.4250 3.0207 1.3864
7.1173 3.0982 1.3435
7.0573 3.2772 1.3477
6.9718 3.4447 1.3479
6.8506 3.5935 1.3418
6.9484 3.8618 1.3797
6.9220 4.0692 1.3946
6.9482 4.3139 1.4214
6.8318 4.4741 1.4202
7.0741 4.8811 1.4956
8.2333 5.9799 1.7719
8.2331 6.2894 1.8052
8.2329 6.6105 1.8408
8.2328 6.9443 1.8788
8.2326 7.2920 1.9196
8.2324 7.6550 1.9632
8.2322 8.0346 2.0101
8.2320 8.4326 2.0603
8.2318 8.8507 2.1143
8.2315 9.2912 2.1724
8.2313 9.7565 2.2351
8.2310 10.2491 2.3028
8.1309 10.6416 2.3472
7.8677 10.8303 2.3472
7.6002 11.0127 2.3472
7.3286 11.1886 2.3472
7.0531 11.3581 2.3472
6.7738 11.5210 2.3472
6.4908 11.6772 2.3472
6.2044 11.8267 2.3472
5.7934 11.7241 2.2991
5.5064 11.8571 2.2991
5.2165 11.9833 2.2991
4.9238 12.1026 2.2991
4.6285 12.2150 2.2991
4.3307 12.3204 2.2991
4.0305 12.4188 2.2991
3.7282 12.5101 2.2991
3.4239 12.5942 2.2991
3.1178 12.6712 2.2991
2.8100 12.7410 2.2991
2.5007 12.8036 2.2991
2.1901 12.8589 2.2991
1.9066 13.1022 2.3339
1.6356 13.5282 2.4022
1.3078 13.5631 2.4022
0.9793 13.5902 2.4022
0.6503 13.6097 2.4022
0.3210 13.6215 2.4022
-0.0086 13.6255 2.4022
-0.3381 13.6219 2.4022
-0.6675 13.6105 2.4022
-0.9966 13.5914 2.4022
-1.3252 13.5646 2.4022
-1.6531 13.5301 2.4022
-1.9801 13.4880 2.4022
-2.3061 13.4382 2.4022
-2.6309 13.3808 2.4022
-2.9543 13.3157 2.4022
-3.2762 13.2431 2.4022
-3.5963 13.1630 2.4022
-3.9146 13.0753 2.4022
-4.2308 12.9802 2.4022
-4.5447 12.8776 2.4022
-4.8563 12.7678 2.4022
-5.1653 12.6505 2.4022
-5.4715 12.5261 2.4022
-5.7749 12.3944 2.4022
-6.0751 12.2556 2.4022
-6.1499 11.6873 2.3184
-6.3793 11.4429 2.2989
-6.6569 11.2900 2.2989
-6.9310 11.1305 2.2989
-7.2014 10.9645 2.2989
-7.4679 10.7921 2.2989
-7.7303 10.6135 2.2989
-7.9887 10.4286 2.2989
-8.2427 10.2376 2.2989
-8.4923 10.0405 2.2989
-8.7373 9.8375 2.2989
-8.9775 9.6286 2.2989
-9.2129 9.4141 2.2989
-9.4433 9.1939 2.2989
-9.6685 8.9682 2.2989
-9.8885 8.7370 2.2989
-10.0954 8.4942 2.2972
-10.3043 8.2528 2.2972
-10.5075 8.0064 2.2972
-10.7050 7.7550 2.2972
-10.8966 7.4989 2.2972
-11.0821 7.2382 2.2972
-11.2616 6.9729 2.2972
-11.4348 6.7033 2.2972
-11.6016 6.4294 2.2972
-11.7620 6.1515 2.2972
-11.9159 5.8696 2.2972
-9.3973 4.3499 1.7895
-9.5067 4.1245 1.7895
-12.3371 5.0018 2.2972
-12.4638 4.7057 2.2972
-12.5834 4.4064 2.2972
-12.6959 4.1041 2.2972
-12.8013 3.7989 2.2972
-12.8993 3.4912 2.2972
-12.9901 3.1809 2.2972
-13.0734 2.8682 2.2972
-13.1493 2.5535 2.2972
-13.2176 2.2367 2.2972
-13.2784 1.9182 2.2972
-13.3315 1.5980 2.2972
-13.3769 1.2764 2.2972
-13.4146 0.9536 2.2972
-13.4445 0.6297 2.2972
-13.4667 0.3048 2.2972
-13.4809 -0.0207 2.2972
-13.4873 -0.3467 2.2972
-13.4859 -0.6730 2.2972
-13.4765 -0.9994 2.2972
-13.4592 -1.3258 2.2972
-12.9807 -1.5962 2.2197
-13.4008 -1.9775 2.2972
-13.3597 -2.3025 2.2972
-13.3107 -2.6267 2.2972
-13.2538 -2.9498 2.2972
-13.1889 -3.2717 2.2972
-13.1163 -3.5921 2.2972
-13.0357 -3.9109 2.2972
-12.9473 -4.2279 2.2972
-12.8512 -4.5429 2.2972
-12.7473 -4.8556 2.2972
-12.6357 -5.1660 2.2972
-12.5165 -5.4737 2.2972
-12.3897 -5.7786 2.2972
-12.2553 -6.0806 2.2972
-12.1135 -6.3793 2.2972
-11.9643 -6.6748 2.2972
-9.5293 -5.6223 1.8539
-9.3139 -5.8029 1.8375
-9.1018 -5.9807 1.8224
-8.8967 -6.1585 1.8094
-8.6954 -6.3352 1.7978
-8.7479 -6.7027 1.8405
-10.7201 -8.6326 2.2972
-9.8488 -8.3316 2.2989
-9.6502 -8.5719 2.2989
-9.4456 -8.8073 2.2989
-9.2351 -9.0376 2.2989
-9.0189 -9.2629 2.2989
-8.7972 -9.4828 2.2989
-8.5699 -9.6973 2.2989
-8.3373 -9.9061 2.2989
-8.0995 -10.1093 2.2989
-7.8566 -10.3066 2.2989
-7.6088 -10.4979 2.2989
-7.3562 -10.6830 2.2989
-7.0991 -10.8619 2.2989
-6.8375 -11.0345 2.2989
-6.5715 -11.2006 2.2989
-6.3015 -11.3600 2.2989
-6.1412 -11.7301 2.3423
-6.0078 -12.1824 2.4022
-5.7137 -12.3277 2.4022
-5.4160 -12.4657 2.4022
-5.1149 -12.5962 2.4022
-4.8106 -12.7193 2.4022
-4.5032 -12.8348 2.4022
-4.1930 -12.9426 2.4022
-3.8801 -13.0427 2.4022
-3.5648 -13.1350 2.4022
-3.2472 -13.2195 2.4022
-2.9276 -13.2960 2.4022
-2.6061 -13.3645 2.4022
-2.2830 -13.4250 2.4022
-1.9584 -13.4774 2.4022
-0.7434 -6.1570 1.0938
-0.5930 -6.1569 1.0909
-0.4433 -6.1568 1.0886
-0.2941 -6.1567 1.0870
-0.1452 -6.1565 1.0860
0.0034 -6.1564 1.0857
0.1521 -6.1563 1.0861
0.3009 -6.1562 1.0871
0.4501 -6.1561 1.0887
0.5998 -6.1560 1.0911
0.7502 -6.1558 1.0941
1.9059 -13.0144 2.3208
2.1984 -12.8411 2.2991
2.5073 -12.7821 2.2991
2.3156 -10.4610 1.8914
3.1201 -12.6413 2.2991
3.4236 -12.5594 2.2991
3.7249 -12.4701 2.2991
4.0238 -12.3734 2.2991
4.3201 -12.2692 2.2991
4.6137 -12.1578 2.2991
4.9043 -12.0391 2.2991
5.1918 -11.9133 2.2991
5.4761 -11.7804 2.2991
5.6941 -11.5137 2.2740
5.7819 -11.0139 2.2031
5.8873 -10.5855 2.1460
6.0737 -10.3255 2.1233
2.4429 -3.9326 0.8209
6.5785 -10.0409 2.1295
6.9355 -10.0478 2.1669
6.9922 -9.6244 2.1124
7.1415 -9.3467 2.0897
7.2070 -8.9746 2.0458
7.1865 -8.5193 1.9821
7.2460 -8.1806 1.9444
7.3033 -7.8547 1.9094
7.4437 -7.6278 1.8984
7.4977 -7.3208 1.8676
7.5499 -7.0237 1.8389
7.6005 -6.7359 1.8121
7.5621 -6.3825 1.7667
7.6093 -6.1139 1.7438
7.6553 -5.8523 1.7225
7.7044 -5.6003 1.7037
7.7578 -5.3577 1.6875
7.1010 -4.6549 1.5207
6.9382 -4.3122 1.4641
6.9525 -4.0917 1.4468
6.9524 -3.8687 1.4279
6.9523 -3.6516 1.4103
6.8321 -3.3805 1.3699
6.9373 -3.2263 1.3759
7.0213 -3.0614 1.3785
7.1055 -2.8959 1.3819
7.3443 -2.7883 1.4158
7.4851 -2.6367 1.4313
7.7233 -2.5126 1.4659
7.7836 -2.3259 1.4673
8.3014 -2.2636 1.5553
6.4955 -1.6037 1.2103
6.5013 -1.4394 1.2054
6.9529 -1.3641 1.2836
7.4342 -1.2728 1.3674
7.4349 -1.0887 1.3633
7.4355 -0.9059 1.3601
7.4362 -0.7241 1.3576
7.4368 -0.5432 1.3560
7.4375 -0.3628 1.3551
7.4381 -0.1829 1.3551
6.5193 -0.0027 1.1882
6.5176 0.1549 1.1891
6.5164 0.3125 1.1908
7.4375 0.5371 1.3622
7.4367 0.7181 1.3658
7.4358 0.8998 1.3703
7.4350 1.0826 1.3756
7.4341 1.2667 1.3817
7.4333 1.4523 1.3887
7.4324 1.6395 1.3965
6.5730 1.6175 1.2429
6.4706 1.7592 1.2321
8.2988 2.4731 1.5923
8.0455 2.6110 1.5565
7.7704 2.7310 1.5166
7.6130 2.8843 1.5001
7.4254 3.0204 1.4781
7.1177 3.0978 1.4323
7.0575 3.2768 1.4367
6.9720 3.4444 1.4368
6.8519 3.5937 1.4305
6.9484 3.8613 1.4706
6.9220 4.0687 1.4864
6.9482 4.3134 1.5149
6.8317 4.4735 1.5136
7.0737 4.8803 1.5938
8.2333 5.9792 1.8882
8.2331 6.2887 1.9236
8.2329 6.6098 1.9615
8.2328 6.9436 2.0020
8.2326 7.2914 2.0453
8.2324 7.6543 2.0918
8.2322 8.0339 2.1416
8.2320 8.4319 2.1951
8.2318 8.8500 2.2525
8.2315 9.2905 2.3144
8.1141 9.6168 2.3472
7.8756 9.8058 2.3472
7.6328 9.9890 2.3472
7.3859 10.1664 2.3472
7.1350 10.3379 2.3472
6.8803 10.5034 2.3472
6.6217 10.6627 2.3472
6.3596 10.8159 2.3472
6.0941 10.9628 2.3472
5.7059 10.8758 2.2991
5.4395 11.0073 2.2991
5.1702 11.1323 2.2991
4.8981 11.2510 2.2991
4.6233 11.3632 2.2991
4.3461 11.4689 2.2991
4.0665 11.5681 2.2991
3.7847 11.6606 2.2991
3.5009 11.7465 2.2991
3.2152 11.8257 2.2991
2.9277 11.8981 2.2991
2.6387 11.9637 2.2991
2.3483 12.0226 2.2991
2.0566 12.0746 2.2991
1.8428 12.6632 2.4022
1.5359 12.7032 2.4022
1.2281 12.7360 2.4022
0.9197 12.7615 2.4022
0.6107 12.7798 2.4022
0.3014 12.7909 2.4022
-0.0081 12.7946 2.4022
-0.3176 12.7912 2.4022
-0.6269 12.7804 2.4022
-0.9359 12.7625 2.4022
-1.2445 12.7372 2.4022
-1.5524 12.7048 2.4022
-1.8594 12.6651 2.4022
-2.1656 12.6182 2.4022
-2.4705 12.5642 2.4022
-2.7742 12.5030 2.4022
-3.0764 12.4346 2.4022
-3.3770 12.3592 2.4022
-3.6758 12.2767 2.4022
-3.9726 12.1872 2.4022
-4.2673 12.0907 2.4022
-4.5598 11.9873 2.4022
-4.8498 11.8771 2.4022
-5.1373 11.7600 2.4022
-5.4220 11.6361 2.4022
-5.7037 11.5055 2.4022
-5.9825 11.3683 2.4022
-6.1417 11.0159 2.3575
-6.2495 10.5982 2.2989
-6.5067 10.4482 2.2989
-6.7603 10.2921 2.2989
-7.0103 10.1300 2.2989
-7.2565 9.9620 2.2989
-7.4987 9.7882 2.2989
-7.7369 9.6086 2.2989
-7.9710 9.4233 2.2989
-8.2006 9.2325 2.2989
-8.4259 9.0362 2.2989
-8.6465 8.8345 2.2989
-8.8624 8.6275 2.2989
-9.0735 8.4154 2.2989
-9.2796 8.1982 2.2989
-9.4806 7.9761 2.2989
-9.6764 7.7491 2.2989
-9.8669 7.5174 2.2989
-10.0443 7.2756 2.2972
-10.2236 7.0350 2.2972
-10.3973 6.7901 2.2972
-10.5652 6.5410 2.2972
-10.7273 6.2877 2.2972
-10.8833 6.0306 2.2972
-11.0333 5.7696 2.2972
-11.1772 5.5049 2.2972
-9.2019 4.2588 1.8682
-8.9165 3.8679 1.7895
-9.0137 3.6538 1.7895
-11.6890 4.4123 2.2972
-11.8007 4.1315 2.2972
-11.9056 3.8478 2.2972
-12.0039 3.5615 2.2972
-12.0952 3.2727 2.2972
-12.1798 2.9816 2.2972
-12.2573 2.6884 2.2972
-12.3279 2.3932 2.2972
-12.3913 2.0961 2.2972
-12.4477 1.7974 2.2972
-12.4969 1.4972 2.2972
-12.5388 1.1956 2.2972
-12.5736 0.8930 2.2972
-12.6010 0.5893 2.2972
-12.6211 0.2849 2.2972
-12.6339 -0.0202 2.2972
-12.6392 -0.3257 2.2972
-12.6372 -0.6314 2.2972
-12.6278 -0.9373 2.2972
-9.8241 -0.9683 1.7895
-12.5867 -1.5485 2.2972
-12.5550 -1.8535 2.2972
-12.5160 -2.1579 2.2972
-12.4694 -2.4615 2.2972
-12.4155 -2.7640 2.2972
-12.3542 -3.0654 2.2972
-12.2855 -3.3654 2.2972
-12.2095 -3.6638 2.2972
-12.1262 -3.9606 2.2972
-12.0355 -4.2553 2.2972
-11.9377 -4.5480 2.2972
-11.8326 -4.8384 2.2972
-11.7205 -5.1264 2.2972
-11.6012 -5.4117 2.2972
-11.4749 -5.6941 2.2972
-11.3416 -5.9736 2.2972
-11.2014 -6.2499 2.2972
-9.6066 -5.6686 1.9963
-9.3188 -5.8066 1.9638
-9.1014 -5.9810 1.9466
-8.8924 -6.1562 1.9320
-8.6861 -6.3291 1.9187
-10.2199 -7.8313 2.2972
-10.0337 -8.0806 2.2972
-9.2535 -7.8288 2.2989
-9.0666 -8.0543 2.2989
-8.8741 -8.2752 2.2989
-8.6761 -8.4913 2.2989
-8.4727 -8.7026 2.2989
-8.2641 -8.9090 2.2989
-8.0504 -9.1102 2.2989
-7.8317 -9.3061 2.2989
-7.6081 -9.4967 2.2989
-7.3797 -9.6818 2.2989
-7.1468 -9.8612 2.2989
-6.9094 -10.0349 2.2989
-6.6677 -10.2027 2.2989
-6.4218 -10.3645 2.2989
-6.1719 -10.5202 2.2989
-6.1314 -11.0542 2.3817
-5.9149 -11.2987 2.4022
-5.6422 -11.4417 2.4022
-5.3659 -11.5779 2.4022
-5.0862 -11.7073 2.4022
-4.8034 -11.8297 2.4022
-4.5175 -11.9451 2.4022
-4.2288 -12.0534 2.4022
-3.9374 -12.1545 2.4022
-3.6436 -12.2484 2.4022
-3.3474 -12.3349 2.4022
-3.0492 -12.4141 2.4022
-2.7490 -12.4858 2.4022
-2.4471 -12.5501 2.4022
-2.1437 -12.6068 2.4022
-1.8389 -12.6560 2.4022
-0.7433 -6.1568 1.1648
-0.5929 -6.1567 1.1616
-0.4432 -6.1566 1.1592
-0.2941 -6.1564 1.1575
-0.1452 -6.1563 1.1565
0.0034 -6.1562 1.1562
0.1520 -6.1561 1.1565
0.3009 -6.1560 1.1576
0.4500 -6.1559 1.1594
0.5997 -6.1557 1.1618
0.7501 -6.1556 1.1650
1.8523 -12.6497 2.4022
2.0643 -12.0588 2.2991
2.3544 -12.0035 2.2991
2.3154 -10.4611 2.0141
2.9299 -11.8715 2.2991
3.2149 -11.7948 2.2991
3.4979 -11.7111 2.2991
3.7787 -11.6204 2.2991
4.0570 -11.5228 2.2991
4.3328 -11.4184 2.2991
4.6058 -11.3071 2.2991
4.8759 -11.1892 2.2991
5.1429 -11.0646 2.2991
5.4067 -10.9335 2.2991
5.6671 -10.7959 2.2991
5.8644 -10.5450 2.2760
5.9421 -10.1027 2.2117
2.4426 -3.9325 0.8739
6.5779 -10.0408 2.2669
6.9371 -10.0509 2.3074
7.0001 -9.6359 2.2513
7.0632 -9.2449 2.2001
7.1244 -8.8725 2.1528
7.1864 -8.5199 2.1098
7.2459 -8.1812 2.0697
7.3032 -7.8553 2.0323
7.4436 -7.6284 2.0206
7.4976 -7.3213 1.9877
7.5498 -7.0243 1.9571
7.6004 -6.7364 1.9285
7.5620 -6.3831 1.8802
7.6092 -6.1145 1.8557
7.6552 -5.8529 1.8330
7.7043 -5.6008 1.8129
7.7577 -5.3582 1.7956
7.1007 -4.6552 1.6180
6.9386 -4.3130 1.5579
6.9525 -4.0922 1.5393
6.9524 -3.8692 1.5191
6.9523 -3.6521 1.5004
6.8320 -3.3809 1.4573
6.9371 -3.2268 1.4636
7.0211 -3.0617 1.4663
7.1053 -2.8963 1.4698
7.3438 -2.7886 1.5058
7.4846 -2.6371 1.5222
7.7228 -2.5130 1.5589
7.7830 -2.3262 1.5604
8.3014 -2.2642 1.6540
6.4270 -1.5872 1.2734
6.4331 -1.4247 1.2683
6.9506 -1.3641 1.3644
7.4182 -1.2705 1.4508
7.4349 -1.0892 1.4495
7.4355 -0.9064 1.4460
7.4362 -0.7246 1.4433
7.4368 -0.5436 1.4415
7.4375 -0.3633 1.4405
7.4381 -0.1833 1.4404
6.4522 -0.0031 1.2500
6.4506 0.1529 1.2509
6.4493 0.3089 1.2527
7.4375 0.5366 1.4477
7.4274 0.7167 1.4497
7.4039 0.8955 1.4500
7.3761 1.0736 1.4502
7.3440 1.2509 1.4504
7.3076 1.4273 1.4506
7.2671 1.6026 1.4509
6.7332 1.6565 1.3528
6.4022 1.7402 1.2952
6.3929 1.9047 1.3032
8.0466 2.6108 1.6538
7.7577 2.7260 1.6085
7.5678 2.8666 1.5841
7.4122 3.0146 1.5673
7.1180 3.0975 1.5215
7.0577 3.2764 1.5261
6.9722 3.4440 1.5261
6.8532 3.5939 1.5196
6.9484 3.8608 1.5619
6.9216 4.0680 1.5785
6.9217 4.2965 1.6026
6.8316 4.4730 1.6073
7.0732 4.8795 1.6924
8.2333 5.9786 2.0050
8.2331 6.2881 2.0426
8.2329 6.6092 2.0827
8.2328 6.9430 2.1256
8.2326 7.2907 2.1716
8.2324 7.6536 2.2208
8.2322 8.0332 2.2737
8.2320 8.4312 2.3304
8.0798 8.6860 2.3472
7.8639 8.8748 2.3472
7.6436 9.0584 2.3472
7.4191 9.2367 2.3472
7.1906 9.4096 2.3472
6.9582 9.5769 2.3472
6.7220 9.7387 2.3472
6.4821 9.8948 2.3472
6.2386 10.0451 2.3472
5.8691 9.9809 2.2991
5.6241 10.1166 2.2991
5.3761 10.2465 2.2991
5.1252 10.3705 2.2991
4.8715 10.4885 2.2991
4.6152 10.6005 2.2991
4.3564 10.7064 2.2991
4.0952 10.8062 2.2991
3.8318 10.8997 2.2991
3.5663 10.9870 2.2991
3.2989 11.0681 2.2991
3.0297 11.1428 2.2991
2.7589 11.2112 2.2991
2.4865 11.2731 2.2991
2.2128 11.3287 2.2991
1.9380 11.3777 2.2991
1.7366 11.9324 2.4022
1.4473 11.9702 2.4022
1.1573 12.0011 2.4022
0.8666 12.0252 2.4022
0.5755 12.0424 2.4022
0.2840 12.0528 2.4022
-0.0076 12.0564 2.4022
-0.2993 12.0531 2.4022
-0.5908 12.0430 2.4022
-0.8820 12.0260 2.4022
-1.1728 12.0021 2.4022
-1.4629 11.9715 2.4022
-1.7522 11.9340 2.4022
-2.0407 11.8897 2.4022
-2.3281 11.8387 2.4022
-2.6142 11.7809 2.4022
-2.8989 11.7164 2.4022
-3.1821 11.6451 2.4022
-3.4636 11.5673 2.4022
-3.7433 11.4828 2.4022
-4.0209 11.3917 2.4022
-4.2964 11.2941 2.4022
-4.5696 11.1900 2.4022
-4.8404 11.0795 2.4022
-5.1085 10.9626 2.4022
-5.3739 10.8393 2.4022
-5.6364 10.7098 2.4022
-5.8959 10.5741 2.4022
-6.1414 10.4140 2.3980
-6.1518 9.8777 2.3072
-6.3686 9.6951 2.2989
-6.6040 9.5422 2.2989
-6.8357 9.3837 2.2989
-7.0638 9.2197 2.2989
-7.2880 9.0502 2.2989
-7.5082 8.8755 2.2989
-7.7243 8.6955 2.2989
-7.9362 8.5103 2.2989
-8.1438 8.3201 2.2989
-8.3469 8.1249 2.2989
-8.5454 7.9249 2.2989
-8.7393 7.7201 2.2989
-8.9283 7.5106 2.2989
-9.1124 7.2967 2.2989
-9.2914 7.0782 2.2989
-9.4654 6.8555 2.2989
-9.6340 6.6286 2.2989
-9.7973 6.3975 2.2989
-9.9552 6.1625 2.2989
-10.0998 5.9192 2.2972
-10.2464 5.6769 2.2972
-10.3872 5.4309 2.2972
-10.5222 5.1816 2.2972
-9.5429 4.4160 2.0581
-8.5598 3.7125 1.8250
-8.6967 3.5247 1.8343
-8.8511 3.3405 1.8480
-11.1069 3.8878 2.2972
-11.2053 3.6207 2.2972
-11.2973 3.3511 2.2972
-11.3828 3.0792 2.2972
-11.4619 2.8052 2.2972
-11.5344 2.5291 2.2972
-11.6003 2.2512 2.2972
-11.6595 1.9716 2.2972
-11.7120 1.6904 2.2972
-11.7578 1.4079 2.2972
-11.7968 1.1241 2.2972
-11.8289 0.8393 2.2972
-11.8542 0.5537 2.2972
-11.8726 0.2672 2.2972
-11.8841 -0.0197 2.2972
-11.8887 -0.3071 2.2972
-11.8863 -0.5947 2.2972
-9.6351 -0.7158 1.8636
-9.3861 -0.9258 1.8179
-9.2213 -1.1351 1.7895
-9.1977 -1.3585 1.7895
-9.1686 -1.5814 1.7895
-11.7254 -2.3154 2.2972
-11.6742 -2.5998 2.2972
-11.6160 -2.8830 2.2972
-11.5510 -3.1649 2.2972
-11.4790 -3.4454 2.2972
-11.4002 -3.7242 2.2972
-11.3145 -4.0012 2.2972
-11.2221 -4.2761 2.2972
-11.1229 -4.5489 2.2972
-11.0170 -4.8194 2.2972
-10.9044 -5.0874 2.2972
-10.7853 -5.3527 2.2972
-10.6596 -5.6152 2.2972
-10.5274 -5.8746 2.2972
-9.6061 -5.6690 2.1241
-10.2440 -6.3839 2.2972
-10.0929 -6.6333 2.2972
-9.9431 -6.8844 2.2989
-8.8441 -6.4449 2.0790
-9.6101 -7.3649 2.2989
-9.4347 -7.5990 2.2989
-8.7240 -7.3815 2.2989
-8.5475 -7.5938 2.2989
-8.3658 -7.8018 2.2989
-8.1789 -8.0054 2.2989
-7.9870 -8.2044 2.2989
-7.7901 -8.3987 2.2989
-7.5885 -8.5881 2.2989
-7.3821 -8.7726 2.2989
-7.1711 -8.9520 2.2989
-6.9558 -9.1262 2.2989
-6.7361 -9.2951 2.2989
-6.5122 -9.4586 2.2989
-6.2842 -9.6165 2.2989
-6.1213 -9.8801 2.3251
-6.0780 -10.3608 2.4022
-5.8280 -10.5079 2.4022
-5.5743 -10.6487 2.4022
-5.3172 -10.7833 2.4022
-5.0567 -10.9115 2.4022
-4.7931 -11.0333 2.4022
-4.5265 -11.1485 2.4022
-4.2571 -11.2571 2.4022
-3.9849 -11.3590 2.4022
-3.7103 -11.4541 2.4022
-3.4334 -11.5425 2.4022
-3.1543 -11.6239 2.4022
-2.8732 -11.6984 2.4022
-2.5904 -11.7659 2.4022
-2.3059 -11.8263 2.4022
-2.0200 -11.8797 2.4022
-1.7328 -11.9260 2.4022
-0.7433 -6.1566 1.2360
-0.5929 -6.1565 1.2327
-0.4432 -6.1564 1.2301
-0.2941 -6.1562 1.2283
-0.1452 -6.1561 1.2272
0.0034 -6.1560 1.2269
0.1520 -6.1559 1.2273
0.3008 -6.1558 1.2284
0.4500 -6.1557 1.2303
0.5996 -6.1556 1.2329
0.7500 -6.1554 1.2363
1.7454 -11.9203 2.4022
1.9451 -11.3636 2.2991
2.2185 -11.3116 2.2991
2.3152 -10.4612 2.1373
2.7608 -11.1874 2.2991
3.0295 -11.1153 2.2991
3.2962 -11.0366 2.2991
3.5608 -10.9513 2.2991
3.8232 -10.8594 2.2991
4.0831 -10.7612 2.2991
4.3405 -10.6565 2.2991
4.5951 -10.5455 2.2991
4.8468 -10.4283 2.2991
5.0955 -10.3049 2.2991
5.3410 -10.1755 2.2991
5.5831 -10.0401 2.2991
5.8217 -9.8987 2.2991
2.4424 -3.9323 0.9271
6.4194 -9.7995 2.3472
6.6514 -9.6378 2.3472
6.8792 -9.4704 2.3472
7.0754 -9.2617 2.3381
7.1356 -8.8873 2.2875
7.1934 -8.5290 2.2403
7.2490 -8.1855 2.1965
7.3031 -7.8559 2.1558
7.3583 -7.5417 2.1187
7.4510 -7.2765 2.0953
7.5497 -7.0249 2.0758
7.6003 -6.7370 2.0454
7.5619 -6.3836 1.9941
7.6091 -6.1150 1.9681
7.6551 -5.8535 1.9439
7.7041 -5.6014 1.9226
7.7576 -5.3587 1.9041
7.1004 -4.6556 1.7157
6.9390 -4.3138 1.6520
6.9525 -4.0928 1.6322
6.9258 -3.8549 1.6046
6.9255 -3.6385 1.5847
6.8319 -3.3814 1.5451
6.9369 -3.2271 1.5517
7.0208 -3.0622 1.5545
7.1050 -2.8967 1.5582
7.3013 -2.7730 1.5871
7.4841 -2.6374 1.6135
7.7223 -2.5133 1.6524
7.7823 -2.3265 1.6538
8.3014 -2.2648 1.7531
6.3596 -1.5710 1.3355
6.3660 -1.4103 1.3302
6.9484 -1.3641 1.4456
7.2558 -1.2432 1.5038
7.2564 -1.0635 1.4992
7.2570 -0.8851 1.4955
7.2577 -0.7077 1.4927
7.2583 -0.5311 1.4908
7.2589 -0.3550 1.4897
7.2595 -0.1794 1.4895
6.3863 -0.0034 1.3108
6.3846 0.1509 1.3117
6.3833 0.3053 1.3135
7.2590 0.5233 1.4968
7.2582 0.6999 1.5007
7.2574 0.8773 1.5055
7.2565 1.0557 1.5112
7.2557 1.2354 1.5178
7.2549 1.4165 1.5254
7.2540 1.5992 1.5339
6.7352 1.6565 1.4331
6.3349 1.7215 1.3573
6.3253 1.8842 1.3655
8.0477 2.6106 1.7515
7.7697 2.7298 1.7060
7.6139 2.8836 1.6876
7.4263 3.0198 1.6627
7.1183 3.0972 1.6111
7.0579 3.2760 1.6158
6.9724 3.4436 1.6158
6.8546 3.5941 1.6091
6.9484 3.8603 1.6535
6.9220 4.0677 1.6711
6.9482 4.3124 1.7031
6.8315 4.4724 1.7014
7.0728 4.8787 1.7913
8.2333 5.9780 2.1224
8.2331 6.2874 2.1620
8.2329 6.6085 2.2044
8.2328 6.9423 2.2498
8.2326 7.2900 2.2984
8.2209 7.6422 2.3472
8.0299 7.8351 2.3472
7.8345 8.0234 2.3472
7.6348 8.2069 2.3472
7.4309 8.3856 2.3472
7.2230 8.5593 2.3472
7.0110 8.7280 2.3472
6.7952 8.8915 2.3472
6.5757 9.0499 2.3472
6.3526 9.2029 2.3472
6.1260 9.3506 2.3472
5.7753 9.2983 2.2991
5.5469 9.4323 2.2991
5.3155 9.5608 2.2991
5.0812 9.6837 2.2991
4.8441 9.8011 2.2991
4.6044 9.9128 2.2991
4.3622 10.0187 2.2991
4.1176 10.1190 2.2991
3.8708 10.2134 2.2991
3.6218 10.3019 2.2991
3.3709 10.3846 2.2991
3.1182 10.4613 2.2991
2.8638 10.5320 2.2991
2.6078 10.5967 2.2991
2.3504 10.6553 2.2991
2.0961 10.7306 2.3039
1.9041 11.1783 2.3897
1.6415 11.2787 2.4022
1.3681 11.3144 2.4022
1.0939 11.3436 2.4022
0.8192 11.3664 2.4022
0.5439 11.3827 2.4022
0.2684 11.3926 2.4022
-0.0073 11.3959 2.4022
-0.2829 11.3928 2.4022
-0.5585 11.3832 2.4022
-0.8338 11.3671 2.4022
-1.1086 11.3445 2.4022
-1.3828 11.3154 2.4022
-1.6564 11.2800 2.4022
-1.9290 11.2380 2.4022
-2.2006 11.1897 2.4022
-2.4710 11.1350 2.4022
-2.7402 11.0739 2.4022
-3.0078 11.0064 2.4022
-3.2738 10.9327 2.4022
-3.5381 10.8527 2.4022
-3.8005 10.7665 2.4022
-4.0608 10.6741 2.4022
-4.3190 10.5755 2.4022
-4.5748 10.4709 2.4022
-4.8282 10.3603 2.4022
-5.0789 10.2436 2.4022
-5.3269 10.1210 2.4022
-5.5721 9.9926 2.4022
-5.8142 9.8584 2.4022
-6.0531 9.7184 2.4022
-6.1416 9.3488 2.3460
-6.2407 9.0166 2.2989
-6.4596 8.8666 2.2989
-6.6749 8.7114 2.2989
-6.8866 8.5511 2.2989
-7.0946 8.3858 2.2989
-7.2986 8.2155 2.2989
-7.4986 8.0403 2.2989
-7.6945 7.8604 2.2989
-7.8862 7.6758 2.2989
-8.0736 7.4866 2.2989
-8.2565 7.2929 2.2989
-8.4348 7.0948 2.2989
-8.6084 6.8924 2.2989
-8.7773 6.6859 2.2989
-8.9413 6.4752 2.2989
-9.1004 6.2607 2.2989
-9.2544 6.0423 2.2989
-9.4032 5.8201 2.2989
-9.5467 5.5943 2.2989
-9.6849 5.3651 2.2989
-9.8177 5.1325 2.2989
-9.9450 4.8966 2.2989
-9.5428 4.4152 2.1793
-8.5594 3.7117 1.9324
-8.6971 3.5242 1.9425
-8.8550 3.3413 1.9579
-10.4878 3.6704 2.2972
-10.5803 3.4180 2.2972
-10.6667 3.1634 2.2972
-10.7471 2.9065 2.2972
-10.8213 2.6477 2.2972
-10.8894 2.3869 2.2972
-10.9511 2.1245 2.2972
-11.0066 1.8604 2.2972
-11.0558 1.5950 2.2972
-11.0986 1.3282 2.2972
-11.1350 1.0603 2.2972
-11.1649 0.7915 2.2972
-11.1883 0.5218 2.2972
-11.2052 0.2515 2.2972
-11.2156 -0.0193 2.2972
-11.2195 -0.2905 2.2972
-11.2168 -0.5619 2.2972
-11.2075 -0.8333 2.2972
-9.3841 -0.9262 1.9261
-9.1453 -1.1263 1.8809
-8.9171 -1.3176 1.8387
-8.7085 -1.5026 1.8015
-8.6322 -1.7051 1.7925
-8.8189 -1.9645 1.8394
-10.9584 -2.7205 2.2972
-10.8966 -2.9864 2.2972
-10.8283 -3.2508 2.2972
-10.7536 -3.5137 2.2972
-10.6724 -3.7748 2.2972
-10.5848 -4.0340 2.2972
-10.4909 -4.2912 2.2972
-10.3906 -4.5461 2.2972
-10.2841 -4.7987 2.2972
-10.1714 -5.0487 2.2972
-10.0525 -5.2961 2.2972
-9.9351 -5.5448 2.2989
-9.6056 -5.6694 2.2524
-9.6669 -6.0250 2.2989
-9.5240 -6.2602 2.2989
-9.3753 -6.4920 2.2989
-8.8455 -6.4466 2.2053
-9.0607 -6.9445 2.2989
-8.8951 -7.1650 2.2989
-8.2497 -6.9809 2.2989
-8.0826 -7.1815 2.2989
-7.9106 -7.3780 2.2989
-7.7337 -7.5703 2.2989
-7.5520 -7.7583 2.2989
-7.3657 -7.9418 2.2989
-7.1749 -8.1207 2.2989
-6.9796 -8.2949 2.2989
-6.7800 -8.4644 2.2989
-6.5762 -8.6289 2.2989
-6.3684 -8.7884 2.2989
-6.1566 -8.9428 2.2989
-6.1210 -9.3674 2.3686
-5.9787 -9.6506 2.4022
-5.7458 -9.7952 2.4022
-5.5094 -9.9341 2.4022
-5.2695 -10.0671 2.4022
-5.0263 -10.1942 2.4022
-4.7801 -10.3152 2.4022
-4.5308 -10.4302 2.4022
-4.2787 -10.5389 2.4022
-4.0240 -10.6415 2.4022
-3.7667 -10.7377 2.4022
-3.5071 -10.8275 2.4022
-3.2453 -10.9109 2.4022
-2.9815 -10.9877 2.4022
-2.7158 -11.0580 2.4022
-2.4484 -11.1218 2.4022
-2.1795 -11.1788 2.4022
-1.9093 -11.2292 2.4022
-1.6378 -11.2729 2.4022
-0.7432 -6.1564 1.3076
-0.5928 -6.1563 1.3041
-0.4432 -6.1561 1.3014
-0.2940 -6.1561 1.2994
-0.1452 -6.1559 1.2983
0.0034 -6.1558 1.2979
0.1520 -6.1557 1.2984
0.3008 -6.1556 1.2996
0.4499 -6.1555 1.3015
0.5996 -6.1554 1.3043
0.7499 -6.1552 1.3078
1.6497 -11.2678 2.4022
1.9034 -11.1211 2.3803
2.1082 -10.7503 2.3115
2.3151 -10.4612 2.2611
2.6096 -10.5754 2.2991
2.8635 -10.5073 2.2991
3.1157 -10.4330 2.2991
3.3658 -10.3525 2.2991
3.6139 -10.2658 2.2991
3.8597 -10.1730 2.2991
4.1030 -10.0743 2.2991
4.3438 -9.9695 2.2991
4.5818 -9.8589 2.2991
4.8170 -9.7424 2.2991
5.0491 -9.6202 2.2991
5.2781 -9.4924 2.2991
5.5038 -9.3589 2.2991
2.4421 -3.9322 0.9805
6.0691 -9.2655 2.3472
6.2886 -9.1128 2.3472
6.5041 -8.9547 2.3472
6.7156 -8.7915 2.3472
6.9230 -8.6231 2.3472
7.1260 -8.4498 2.3472
7.2608 -8.1995 2.3267
7.3143 -7.8686 2.2833
7.3658 -7.5500 2.2429
7.4157 -7.2428 2.2052
7.4641 -6.9459 2.1702
7.5132 -6.6605 2.1381
7.5618 -6.3842 2.1085
7.6090 -6.1156 2.0810
7.6550 -5.8540 2.0554
7.7040 -5.6019 2.0327
7.7575 -5.3593 2.0132
7.1000 -4.6559 1.8138
6.9394 -4.3145 1.7466
6.9525 -4.0933 1.7255
6.9524 -3.8702 1.7028
6.9523 -3.6531 1.6817
6.8319 -3.3818 1.6333
6.9367 -3.2276 1.6402
7.0206 -3.0626 1.6430
7.1048 -2.8971 1.6469
7.3429 -2.7893 1.6870
7.4837 -2.6377 1.7052
7.7218 -2.5137 1.7462
7.7817 -2.3269 1.7476
8.3014 -2.2653 1.8527
6.2934 -1.5550 1.3966
6.3000 -1.3961 1.3911
6.9461 -1.3641 1.5270
7.2558 -1.2437 1.5890
7.2564 -1.0640 1.5841
7.2570 -0.8856 1.5801
7.2577 -0.7081 1.5771
7.2583 -0.5315 1.5750
7.2589 -0.3555 1.5738
7.2595 -0.1798 1.5736
6.3213 -0.0038 1.3707
6.3196 0.1489 1.3715
6.3183 0.3018 1.3733
7.2590 0.5228 1.5811
7.2582 0.6995 1.5851
7.2574 0.8769 1.5901
7.2459 1.0537 1.5938
7.2146 1.2279 1.5939
7.1790 1.4012 1.5941
7.1394 1.5735 1.5943
6.7371 1.6565 1.5139
6.2688 1.7031 1.4183
6.2589 1.8640 1.4267
8.0488 2.6105 1.8497
7.7694 2.7291 1.8012
7.6144 2.8833 1.7820
7.4267 3.0195 1.7557
7.1187 3.0968 1.7010
7.0581 3.2756 1.7060
6.9726 3.4432 1.7059
6.8559 3.5943 1.6991
6.9484 3.8598 1.7456
6.9220 4.0672 1.7641
6.9482 4.3119 1.7978
6.8315 4.4718 1.7960
7.0724 4.8779 1.8907
8.2333 5.9774 2.2402
8.2331 6.2868 2.2820
8.2329 6.6079 2.3267
8.1378 6.8616 2.3472
7.9658 7.0531 2.3472
7.7894 7.2404 2.3472
7.6086 7.4234 2.3472
7.4236 7.6020 2.3472
7.2346 7.7760 2.3472
7.0415 7.9455 2.3472
6.8446 8.1103 2.3472
6.6439 8.2703 2.3472
6.4395 8.4254 2.3472
6.2316 8.5756 2.3472
5.8969 8.5422 2.2991
5.6867 8.6794 2.2991
5.4733 8.8116 2.2991
5.2570 8.9387 2.2991
5.0377 9.0606 2.2991
4.8158 9.1773 2.2991
4.5911 9.2886 2.2991
4.3640 9.3946 2.2991
4.1345 9.4952 2.2991
3.9027 9.5903 2.2991
3.6688 9.6798 2.2991
3.4329 9.7639 2.2991
3.1951 9.8423 2.2991
2.9556 9.9151 2.2991
2.7144 9.9822 2.2991
2.4718 10.0436 2.2991
2.2278 10.0992 2.2991
1.9827 10.1491 2.2991
1.8142 10.6502 2.4022
1.5559 10.6902 2.4022
1.2968 10.7241 2.4022
1.0369 10.7519 2.4022
0.7765 10.7735 2.4022
0.5156 10.7889 2.4022
0.2544 10.7983 2.4022
-0.0069 10.8015 2.4022
-0.2682 10.7985 2.4022
-0.5294 10.7893 2.4022
-0.7903 10.7740 2.4022
-1.0509 10.7526 2.4022
-1.3108 10.7250 2.4022
-1.5700 10.6913 2.4022
-1.8285 10.6515 2.4022
-2.0859 10.6056 2.4022
-2.3422 10.5536 2.4022
-2.5973 10.4956 2.4022
-2.8509 10.4316 2.4022
-3.1031 10.3616 2.4022
-3.3535 10.2857 2.4022
-3.6022 10.2038 2.4022
-3.8489 10.1161 2.4022
-4.0935 10.0226 2.4022
-4.3359 9.9233 2.4022
-4.5760 9.8183 2.4022
-4.8135 9.7076 2.4022
-5.0485 9.5912 2.4022
-5.2807 9.4694 2.4022
-5.5101 9.3420 2.4022
-5.7364 9.2092 2.4022
-5.9596 9.0710 2.4022
-6.1406 8.8712 2.3870
-6.1504 8.4415 2.3099
-6.3252 8.2543 2.2989
-6.5256 8.1022 2.2989
-6.7225 7.9453 2.2989
-6.9157 7.7838 2.2989
-7.1051 7.6176 2.2989
-7.2905 7.4470 2.2989
-7.4720 7.2719 2.2989
-7.6493 7.0924 2.2989
-7.8223 6.9087 2.2989
-7.9911 6.7209 2.2989
-8.1554 6.5290 2.2989
-8.3152 6.3331 2.2989
-8.4703 6.1334 2.2989
-8.6207 5.9300 2.2989
-8.7663 5.7229 2.2989
-8.9070 5.5123 2.2989
-9.0427 5.2983 2.2989
-9.1734 5.0810 2.2989
-9.2988 4.8605 2.2989
-9.4191 4.6370 2.2989
-9.5340 4.4105 2.2989
-8.8112 3.8203 2.1005
-8.9306 3.6182 2.1062
-9.8462 3.7147 2.2989
-9.9392 3.4777 2.2989
-10.0189 3.2360 2.2972
-10.1004 2.9947 2.2972
-10.1762 2.7514 2.2972
-10.2461 2.5063 2.2972
-10.3102 2.2593 2.2972
-10.3683 2.0107 2.2972
-10.4205 1.7607 2.2972
-10.4667 1.5093 2.2972
-10.5068 1.2567 2.2972
-10.5409 1.0031 2.2972
-10.5689 0.7486 2.2972
-10.5907 0.4933 2.2972
-10.6063 0.2374 2.2972
