ply
format ascii 1.0
element vertex 2060
property float32 x
property float32 y
property float32 z
end_header
9.1468 13.9841 -0.3609
9.1774 14.7995 -0.3737
9.2108 15.6872 -0.3880
8.9417 16.1079 -0.3906
9.2886 17.7290 -0.4219
9.3330 18.9116 -0.4421
9.3825 20.2291 -0.4650
9.4381 21.7079 -0.4912
9.5010 23.3817 -0.5212
9.5728 25.2939 -0.5560
9.3263 26.5641 -0.5763
9.7517 30.0817 -0.6448
9.8990 33.2544 -0.7048
9.6656 35.5930 -0.7467
9.5197 38.7324 -0.8049
9.1416 41.4947 -0.8551
9.3566 47.9568 -0.9808
9.5863 56.3437 -1.1446
8.3477 57.4211 -1.1598
6.9149 57.2485 -1.1507
5.4665 56.7406 -1.1359
4.2028 58.3638 -1.1648
2.8154 58.9465 -1.1739
1.3972 59.2745 -1.1789
-0.0349 59.0143 -1.1732
-1.4430 58.2845 -1.1593
-3.6304 74.1646 -1.4772
-5.2909 72.2776 -1.4430
-6.9128 70.8716 -1.4194
-8.5111 69.7685 -1.4030
-9.4988 64.7995 -1.3096
-5.8747 34.2828 -0.6969
-12.2231 62.2559 -1.2742
-7.4875 33.7956 -0.6970
-8.1984 33.1866 -0.6904
-8.6745 31.7942 -0.6677
-9.2636 30.9852 -0.6575
-9.5165 29.2381 -0.6275
-10.4002 29.5109 -0.6412
-11.4861 30.2410 -0.6657
-12.4045 30.4237 -0.6793
-15.6993 35.9921 -0.8158
-16.5220 35.5116 -0.8178
-17.2473 34.8441 -0.8161
-8.3542 15.8996 -0.3791
-8.8670 15.9286 -0.3871
-9.3896 15.9483 -0.3953
-9.9286 15.9685 -0.4041
-10.4856 15.9895 -0.4136
-19.9090 28.8163 -0.7626
-15.7060 21.5980 -0.5854
-24.4043 31.9092 -0.8868
-25.6061 31.8554 -0.9088
-26.4770 31.3563 -0.9192
-32.1668 36.2791 -1.0941
-14.7556 15.8533 -0.4925
-14.7831 15.1328 -0.4848
-14.8093 14.4445 -0.4778
-14.8344 13.7855 -0.4715
-14.8585 13.1535 -0.4658
-14.8816 12.5459 -0.4607
-14.9039 11.9608 -0.4561
-14.9253 11.3963 -0.4520
-6.3521 4.6116 -0.1905
-14.9660 10.3225 -0.4451
-14.9854 9.8103 -0.4423
-15.0043 9.3126 -0.4399
-15.0226 8.8285 -0.4379
-15.0404 8.3569 -0.4363
-15.0577 7.8966 -0.4349
-15.0747 7.4468 -0.4340
-15.0913 7.0066 -0.4333
-15.1075 6.5753 -0.4329
-15.1234 6.1520 -0.4328
-15.1390 5.7361 -0.4331
-15.1544 5.3269 -0.4336
-15.1695 4.9238 -0.4343
-15.1844 4.5262 -0.4354
-15.1991 4.1335 -0.4367
-15.2136 3.7451 -0.4383
-15.2279 3.3606 -0.4401
-15.2421 2.9795 -0.4422
-15.2562 2.6012 -0.4446
-15.2702 2.2254 -0.4472
-15.2840 1.8515 -0.4501
-15.2979 1.4791 -0.4532
-15.3116 1.1078 -0.4566
-15.3253 0.7371 -0.4603
-22.3498 0.5342 -0.6764
-22.3766 -0.0060 -0.6828
-22.4039 -0.5475 -0.6895
-22.4316 -1.0910 -0.6968
-22.4602 -1.6372 -0.7044
-22.4898 -2.1868 -0.7126
-39.2701 -4.7789 -1.2576
-39.4681 -5.7739 -1.2782
-39.6709 -6.7864 -1.2999
-39.8566 -7.8139 -1.3220
-39.9341 -8.8363 -1.3415
-40.0392 -9.8801 -1.3630
-40.1476 -10.9425 -1.3856
-40.2592 -12.0253 -1.4094
-40.3744 -13.1305 -1.4345
-40.4935 -14.2601 -1.4610
-89.6741 -36.5398 -3.3417
-89.6482 -39.0813 -3.3980
-85.7733 -39.8858 -3.3088
-78.9228 -39.0470 -3.1004
-74.6520 -39.2075 -2.9882
-74.2112 -41.2943 -3.0288
-67.0027 -39.4334 -2.7900
-63.5913 -39.5252 -2.7033
-61.6912 -40.4432 -2.6792
-61.7748 -42.6676 -2.7428
-30.5198 -22.1882 -1.3864
-61.9515 -47.3695 -2.8814
-63.0145 -50.6418 -3.0032
-66.3200 -55.9997 -2.2788
-67.2367 -59.6159 -2.3765
-65.8825 -61.3222 -2.3974
-66.0011 -64.4790 -2.4748
-37.0913 -38.0307 -1.4344
-39.4627 -42.4689 -1.5756
-35.1600 -39.7218 -1.4509
-41.4428 -51.6474 -1.8329
-38.3289 -50.2060 -1.7583
-37.7285 -51.9775 -1.7977
-39.9566 -57.9429 -1.9804
-35.5342 -54.2923 -1.8350
-43.3535 -69.8680 -2.3366
-28.3978 -48.3354 -1.6004
-28.8319 -51.9073 -1.7026
-28.0549 -53.5160 -1.7400
-23.9727 -48.5473 -1.5654
-29.0862 -62.6745 -2.0053
-22.8434 -52.5104 -1.6679
-31.6995 -77.9670 -2.4598
-15.5401 -41.0379 -1.2866
-14.6614 -41.7365 -1.3008
-15.1921 -46.8383 -1.4520
-12.5866 -42.2595 -1.3036
-11.4116 -41.9996 -1.2897
-13.7258 -55.8157 -1.7069
-12.5100 -56.7539 -1.7292
-13.8808 -71.1070 -2.1594
-11.9467 -70.1798 -2.1251
-12.1256 -83.3642 -2.5180
4.6492 -94.9261 -2.8496
4.2814 -58.4567 -1.7565
1.7768 -18.2068 -0.5478
5.2401 -42.9315 -1.2939
5.0973 -34.7543 -1.0496
5.5070 -32.1201 -0.9725
4.9134 -25.0117 -0.7594
5.1629 -23.2908 -0.7095
5.4945 -22.2293 -0.6797
5.6898 -20.8432 -0.6399
5.9466 -19.8796 -0.6131
6.1566 -18.9046 -0.5859
6.3832 -18.1023 -0.5641
6.5700 -17.2880 -0.5418
6.7293 -16.4950 -0.5202
6.8164 -15.6182 -0.4959
7.0375 -15.1172 -0.4835
7.1657 -14.4681 -0.4664
6.5108 -12.3839 -0.4025
6.6281 -11.8995 -0.3902
6.6726 -11.3265 -0.3749
6.8299 -10.9778 -0.3670
7.1315 -10.8680 -0.3672
7.3908 -10.6905 -0.3652
7.6625 -10.5301 -0.3640
8.0254 -10.4865 -0.3671
8.0587 -10.0187 -0.3554
8.0396 -9.5145 -0.3423
8.1466 -9.1816 -0.3352
8.1623 -8.7632 -0.3250
8.0892 -8.2744 -0.3120
8.1372 -7.9307 -0.3043
8.2053 -7.6192 -0.2978
8.2218 -7.2725 -0.2899
8.2311 -6.9335 -0.2820
8.1641 -6.5464 -0.2722
8.2001 -6.2558 -0.2662
8.2114 -5.9561 -0.2597
6.9704 -4.8032 -0.2149
6.8046 -4.4503 -0.2047
6.9231 -4.2926 -0.2033
6.9315 -4.0693 -0.1989
6.9396 -3.8516 -0.1946
6.9028 -3.6158 -0.1893
6.9946 -3.4511 -0.1877
7.0867 -3.2861 -0.1862
7.1652 -3.1144 -0.1844
7.4936 -3.0440 -0.1890
7.6928 -2.9104 -0.1902
7.7670 -2.7258 -0.1884
7.9808 -2.5860 -0.1899
7.9887 -2.3769 -0.1867
7.9965 -2.1703 -0.1835
8.0041 -1.9660 -0.1805
8.0117 -1.7638 -0.1776
8.0193 -1.5633 -0.1748
8.0267 -1.3643 -0.1722
8.0342 -1.1666 -0.1696
8.0416 -0.9699 -0.1672
8.0489 -0.7739 -0.1648
8.0563 -0.5786 -0.1626
8.0636 -0.3836 -0.1604
8.0709 -0.1886 -0.1584
8.0782 0.0064 -0.1564
8.0856 0.2019 -0.1545
8.0929 0.3979 -0.1527
8.1003 0.5948 -0.1510
8.1078 0.7927 -0.1494
8.1153 0.9919 -0.1479
8.1228 1.1927 -0.1464
8.1304 1.3952 -0.1450
8.1381 1.5999 -0.1437
8.1459 1.8068 -0.1425
8.1538 2.0165 -0.1413
8.1617 2.2290 -0.1403
8.1698 2.4448 -0.1393
8.1781 2.6642 -0.1384
8.1865 2.8875 -0.1376
8.1950 3.1152 -0.1368
8.2038 3.3475 -0.1362
8.2127 3.5850 -0.1356
8.2218 3.8281 -0.1351
8.2312 4.0772 -0.1348
8.2408 4.3330 -0.1345
8.2507 4.5960 -0.1343
8.2608 4.8668 -0.1342
8.2713 5.1462 -0.1342
8.2822 5.4348 -0.1343
8.2934 5.7335 -0.1346
8.3050 6.0433 -0.1350
8.3171 6.3650 -0.1355
8.3297 6.6998 -0.1361
8.6012 7.2674 -0.1412
8.6154 7.6436 -0.1422
8.6302 8.0377 -0.1433
8.6457 8.4513 -0.1447
8.6621 8.8866 -0.1463
8.6793 9.3457 -0.1481
9.0038 10.1775 -0.1555
9.0238 10.7109 -0.1579
9.0451 11.2783 -0.1607
9.0679 11.8839 -0.1638
9.0923 12.5325 -0.1673
9.1185 13.2297 -0.1712
9.1467 13.9820 -0.1757
9.1774 14.7973 -0.1807
9.2107 15.6849 -0.1863
8.9429 16.1078 -0.1864
8.9727 17.1237 -0.1933
9.3329 18.9089 -0.2084
9.3824 20.2263 -0.2179
9.4380 21.7049 -0.2288
9.5008 23.3784 -0.2414
9.5727 25.2904 -0.2562
9.3262 26.5604 -0.2643
9.7515 30.0776 -0.2943
9.8667 33.1416 -0.3192
9.6654 35.5880 -0.3378
9.5208 38.7323 -0.3629
9.1170 41.3781 -0.3830
9.3577 47.9567 -0.4392
9.3407 54.8937 -0.4980
8.1623 56.1398 -0.5051
6.4203 53.1477 -0.4749
5.5388 57.4849 -0.5107
4.1638 57.8162 -0.5114
2.7861 58.3245 -0.5143
1.3704 58.1341 -0.5117
-0.0343 57.8275 -0.5087
-1.5035 60.7219 -0.5346
-3.5505 72.5227 -0.6397
-5.1857 70.8319 -0.6269
-6.7816 69.5177 -0.6181
-8.3478 68.4218 -0.6119
-9.8913 67.4691 -0.6077
-5.6761 33.1200 -0.3009
-6.4267 32.7289 -0.3002
-7.1666 32.3433 -0.2999
-7.8862 31.9189 -0.2996
-8.4345 30.9107 -0.2940
-18.0897 60.4999 -0.5840
-13.2945 40.8404 -0.4005
-20.7395 58.8416 -0.5869
-23.1232 60.8721 -0.6184
-12.1227 29.7288 -0.3079
-15.4082 35.3201 -0.3734
-15.9731 34.3275 -0.3709
-16.9282 34.1949 -0.3780
-8.3553 15.8996 -0.1801
-8.8682 15.9287 -0.1850
-9.3909 15.9483 -0.1902
-9.9301 15.9686 -0.1957
-10.4871 15.9895 -0.2017
-19.0427 27.5585 -0.3581
-15.7060 21.5948 -0.2894
-23.1503 30.2650 -0.4188
-24.2905 30.2140 -0.4323
-25.4734 30.1631 -0.4467
-55.4202 62.4953 -0.9591
-14.7684 15.8646 -0.2526
-14.7956 15.1431 -0.2505
-14.8216 14.4540 -0.2487
-14.8465 13.7943 -0.2472
-14.8703 13.1616 -0.2460
-14.8932 12.5534 -0.2451
-14.9153 11.9677 -0.2444
-14.9365 11.4027 -0.2440
-6.3521 4.6107 -0.1035
-14.9769 10.3279 -0.2438
-14.9962 9.8152 -0.2440
-15.0149 9.3172 -0.2443
-15.0331 8.8327 -0.2449
-15.0508 8.3606 -0.2457
-15.0680 7.9000 -0.2466
-15.0849 7.4498 -0.2477
-15.1014 7.0093 -0.2490
-15.1175 6.5777 -0.2504
-15.1333 6.1541 -0.2520
-15.1489 5.7380 -0.2537
-15.1641 5.3285 -0.2556
-15.1792 4.9251 -0.2577
-15.1940 4.5272 -0.2599
-15.2087 4.1342 -0.2622
-15.2231 3.7456 -0.2647
-15.2374 3.3609 -0.2674
-15.2516 2.9795 -0.2702
-15.2657 2.6010 -0.2732
-15.2796 2.2250 -0.2763
-15.2935 1.8508 -0.2795
-15.3073 1.4782 -0.2830
-15.3211 1.1067 -0.2866
-15.3348 0.7358 -0.2903
-21.4883 0.5110 -0.4120
-21.5078 -0.0083 -0.4178
-21.5274 -0.5286 -0.4238
-21.5470 -1.0505 -0.4301
-21.5665 -1.5746 -0.4366
-21.5855 -2.1014 -0.4434
-37.8990 -4.6165 -0.7904
-38.7009 -5.6662 -0.8196
-38.8929 -6.6580 -0.8369
-39.0893 -7.6681 -0.8549
-39.1758 -8.6732 -0.8711
-39.2728 -9.6958 -0.8883
-39.3723 -10.7360 -0.9063
-39.4743 -11.7957 -0.9251
-39.5793 -12.8768 -0.9447
-39.6872 -13.9811 -0.9653
-89.5512 -36.5011 -2.2648
-89.6486 -39.0929 -2.3135
-85.7737 -39.8971 -2.2598
-74.9897 -37.1109 -2.0181
-74.6344 -39.2081 -2.0526
-74.2116 -41.3044 -2.0870
-66.9301 -39.3998 -1.9257
-63.5780 -39.5257 -1.8726
-61.5705 -40.3727 -1.8575
-61.6539 -42.5929 -1.9065
-30.5158 -22.1897 -0.9678
-61.8302 -47.2860 -2.0125
-63.0149 -50.6516 -2.1066
-66.3204 -56.0102 -1.3167
-67.2253 -59.6163 -1.3802
-65.8829 -61.3331 -1.3997
-66.0015 -64.4902 -1.4520
-40.7406 -56.1353 -1.1724
-15.5071 -24.9945 -0.5097
-38.4758 -65.4979 -1.3264
-39.6266 -71.3510 -1.4355
-28.0694 -53.5507 -1.0707
-40.5883 -82.2065 -1.6342
-29.2379 -67.2181 -1.3223
-31.0985 -82.1345 -1.6011
-27.0143 -76.9111 -1.4932
-27.1302 -83.6544 -1.6181
-27.2906 -91.6396 -1.7665
-15.1837 -55.8896 -1.0740
-17.0377 -69.2913 -1.3278
-12.4979 -56.7054 -1.0839
-13.8667 -71.0434 -1.3548
-14.4638 -84.9763 -1.6173
-12.5463 -86.2665 -1.6391
4.6487 -94.9260 -1.7958
4.2811 -58.4584 -1.1066
1.7689 -18.1273 -0.3434
5.2897 -43.3434 -0.8221
5.0969 -34.7561 -0.6602
5.5259 -32.2338 -0.6133
4.9131 -25.0134 -0.4768
5.2207 -23.5542 -0.4500
5.4942 -22.2307 -0.4258
5.6886 -20.8412 -0.4003
5.9463 -19.8810 -0.3830
6.1563 -18.9060 -0.3655
6.3829 -18.1037 -0.3512
6.5697 -17.2894 -0.3368
6.7290 -16.4964 -0.3227
6.8154 -15.6180 -0.3070
7.0372 -15.1185 -0.2987
7.1654 -14.4695 -0.2874
6.5111 -12.3860 -0.2474
6.6271 -11.8994 -0.2392
6.6722 -11.3273 -0.2291
6.8293 -10.9784 -0.2237
7.1522 -10.9010 -0.2237
7.4139 -10.7255 -0.2219
7.6614 -10.5302 -0.2196
8.0244 -10.4866 -0.2207
8.0587 -10.0201 -0.2129
8.0396 -9.5160 -0.2042
8.1465 -9.1830 -0.1991
8.1623 -8.7645 -0.1922
8.0891 -8.2756 -0.1837
8.1371 -7.9320 -0.1783
8.2052 -7.6205 -0.1736
8.2230 -7.2749 -0.1682
8.2310 -6.9347 -0.1627
8.1620 -6.5459 -0.1561
8.2001 -6.2570 -0.1518
8.2113 -5.9572 -0.1473
6.9711 -4.8047 -0.1211
6.8034 -4.4505 -0.1146
6.9230 -4.2935 -0.1130
6.9314 -4.0702 -0.1098
6.9396 -3.8526 -0.1066
6.9024 -3.6165 -0.1029
6.9942 -3.4519 -0.1012
7.0863 -3.2868 -0.0996
7.1645 -3.1150 -0.0978
7.4927 -3.0446 -0.0993
7.6919 -2.9111 -0.0990
7.7676 -2.7270 -0.0971
7.9808 -2.5870 -0.0970
7.9887 -2.3778 -0.0943
7.9964 -2.1713 -0.0917
8.0041 -1.9670 -0.0892
8.0117 -1.7647 -0.0867
8.0192 -1.5642 -0.0843
8.0267 -1.3652 -0.0819
8.0341 -1.1675 -0.0797
8.0415 -0.9708 -0.0774
8.0489 -0.7749 -0.0752
8.0562 -0.5795 -0.0731
8.0636 -0.3845 -0.0710
8.0709 -0.1896 -0.0689
8.0782 0.0055 -0.0669
8.0855 0.2009 -0.0649
8.0929 0.3970 -0.0629
8.1003 0.5938 -0.0610
8.1077 0.7917 -0.0591
8.1152 0.9909 -0.0573
8.1228 1.1917 -0.0554
8.1304 1.3942 -0.0536
8.1381 1.5989 -0.0518
8.1458 1.8059 -0.0500
8.1537 2.0155 -0.0483
8.1617 2.2280 -0.0465
8.1698 2.4438 -0.0448
8.1780 2.6632 -0.0431
8.1864 2.8865 -0.0414
8.1950 3.1141 -0.0397
8.2037 3.3464 -0.0380
8.2126 3.5839 -0.0363
8.2218 3.8270 -0.0346
8.2311 4.0761 -0.0330
8.2407 4.3319 -0.0313
8.2506 4.5949 -0.0296
8.2608 4.8657 -0.0279
8.2713 5.1450 -0.0262
8.2821 5.4336 -0.0246
8.2933 5.7323 -0.0229
8.3050 6.0420 -0.0211
8.3171 6.3637 -0.0194
8.3296 6.6985 -0.0177
8.6012 7.2660 -0.0164
8.6153 7.6422 -0.0145
8.6301 8.0362 -0.0126
8.6457 8.4498 -0.0107
8.6620 8.8850 -0.0088
8.6793 9.3442 -0.0068
8.6975 9.8298 -0.0047
8.7169 10.3450 -0.0026
8.7375 10.8930 -0.0004
8.7595 11.4780 0.0018
8.7830 12.1045 0.0042
8.8083 12.7779 0.0066
8.8356 13.5045 0.0092
8.8652 14.2920 0.0119
8.8974 15.1493 0.0147
8.9326 16.0872 0.0177
8.9726 17.1213 0.0210
9.0155 18.2634 0.0245
9.0633 19.5358 0.0282
9.1170 20.9640 0.0324
9.1777 22.5804 0.0369
9.2471 24.4271 0.0420
9.3260 26.5567 0.0477
9.4197 29.0507 0.0542
9.5310 32.0101 0.0618
9.6652 35.5830 0.0708
9.5220 38.7323 0.0791
8.7633 39.7683 0.0831
9.0023 46.1301 0.0984
9.6499 56.7041 0.1230
7.9585 54.7316 0.1204
7.0641 58.4707 0.1302
5.7065 59.2182 0.1332
4.2934 59.6088 0.1350
2.8530 59.7184 0.1359
1.3412 56.8906 0.1299
-0.0336 56.5972 0.1293
-1.5133 61.1078 0.1394
-3.4727 70.9248 0.1613
-5.0790 69.3660 0.1568
-6.6435 68.0942 0.1527
-8.1758 67.0034 0.1488
-9.6911 66.0954 0.1449
-10.5562 61.5878 0.1330
-11.8553 60.3680 0.1281
-13.7564 62.0761 0.1290
-15.8590 64.1803 0.1302
-17.5326 64.2458 0.1268
-18.0584 60.3877 0.1156
-13.2930 40.8309 0.0754
-20.7443 58.8479 0.1044
-23.0253 60.6066 0.1028
-14.3023 35.0693 0.0565
-15.0823 34.5686 0.0525
-15.8455 34.0486 0.0483
-16.6027 33.5331 0.0439
-8.3564 15.8996 0.0190
-8.8694 15.9287 0.0170
-9.3922 15.9484 0.0149
-9.9315 15.9686 0.0127
-10.4886 15.9896 0.0102
-43.1841 62.4868 0.0297
-15.7060 21.5917 0.0065
-48.4399 63.3176 0.0072
-49.9146 62.0776 -0.0055
-52.5567 62.2229 -0.0189
-54.9972 62.0086 -0.0332
-14.7864 15.8814 -0.0124
-14.8146 15.1600 -0.0159
-14.8415 14.4709 -0.0193
-14.8672 13.8112 -0.0227
-14.8919 13.1784 -0.0260
-14.9157 12.5700 -0.0293
-14.9385 11.9842 -0.0326
-14.9606 11.4189 -0.0358
-6.3521 4.6097 -0.0165
-15.0026 10.3434 -0.0422
-15.0226 9.8304 -0.0454
-15.0421 9.3320 -0.0486
-15.0610 8.8470 -0.0518
-15.0795 8.3745 -0.0550
-15.0975 7.9134 -0.0582
-15.1151 7.4628 -0.0614
-15.1323 7.0217 -0.0646
-15.1491 6.5895 -0.0679
-15.1657 6.1654 -0.0711
-15.1820 5.7486 -0.0744
-15.1980 5.3385 -0.0777
-15.2137 4.9344 -0.0810
-15.2293 4.5358 -0.0844
-15.2447 4.1422 -0.0878
-15.2599 3.7528 -0.0912
-15.2749 3.3673 -0.0947
-15.2898 2.9852 -0.0982
-15.3046 2.6059 -0.1018
-15.3194 2.2289 -0.1054
-15.3340 1.8539 -0.1091
-15.3486 1.4804 -0.1128
-15.3631 1.1079 -0.1167
-21.4808 1.0281 -0.1684
-21.4946 0.5087 -0.1738
-21.5085 -0.0109 -0.1794
-21.5280 -0.5312 -0.1851
-21.5476 -1.0531 -0.1910
-21.5671 -1.5772 -0.1970
-21.5862 -2.1040 -0.2031
-37.0807 -4.5212 -0.3593
-37.3947 -5.4794 -0.3731
-37.7164 -6.4611 -0.3874
-38.0464 -7.4681 -0.4023
-38.8336 -8.6021 -0.4227
-38.9017 -9.6088 -0.4358
-38.9709 -10.6313 -0.4494
-39.0412 -11.6711 -0.4633
-39.1127 -12.7298 -0.4777
-39.1857 -13.8093 -0.4926
-39.2601 -14.9115 -0.5080
-89.5514 -36.5125 -1.1929
-89.6490 -39.1046 -1.2295
-85.7742 -39.9084 -1.2113
-78.8840 -39.0485 -1.1473
-74.6169 -39.2088 -1.1179
-74.2784 -41.3516 -1.1466
-66.9156 -39.4003 -1.0646
-63.5646 -39.5262 -1.0425
-60.4454 -39.6434 -1.0224
-60.1681 -41.5750 -1.0499
-30.5118 -22.1912 -0.5495
-60.3402 -46.1554 -1.1220
-60.4315 -48.5841 -1.1608
-39.1816 -33.0964 -0.2096
-67.2629 -59.6602 -0.3847
-65.9354 -61.3926 -0.4025
-65.9753 -64.4754 -0.4292
-15.5050 -24.9946 -0.1837
-39.8892 -67.9132 -0.5024
-40.5580 -82.1560 -0.6177
-27.9676 -79.6351 -0.6106
4.6481 -94.9259 -0.7424
4.2540 -58.0961 -0.4541
1.7687 -18.1277 -0.1416
5.2917 -43.3653 -0.3383
5.0966 -34.7577 -0.2708
5.5309 -32.2668 -0.2511
4.9128 -25.0150 -0.1943
5.2204 -23.5557 -0.1826
5.4939 -22.2322 -0.1720
5.6886 -20.8439 -0.1609
5.9460 -19.8824 -0.1530
6.1560 -18.9075 -0.1451
6.3826 -18.1051 -0.1385
6.5694 -17.2908 -0.1318
6.7287 -16.4978 -0.1253
6.8144 -15.6177 -0.1181
7.0369 -15.1199 -0.1138
7.1652 -14.4708 -0.1084
6.5113 -12.3881 -0.0923
6.6262 -11.8994 -0.0882
6.6717 -11.3281 -0.0835
6.8287 -10.9790 -0.0804
7.1515 -10.9015 -0.0792
7.4132 -10.7260 -0.0774
7.6604 -10.5303 -0.0753
8.0233 -10.4867 -0.0743
8.0586 -10.0216 -0.0704
8.0396 -9.5175 -0.0662
8.1465 -9.1843 -0.0631
8.1622 -8.7659 -0.0595
8.0890 -8.2769 -0.0554
8.1371 -7.9332 -0.0524
8.2052 -7.6217 -0.0495
8.2242 -7.2772 -0.0464
8.2310 -6.9359 -0.0435
8.1599 -6.5455 -0.0402
8.2000 -6.2582 -0.0375
8.2113 -5.9584 -0.0348
6.9717 -4.8061 -0.0273
6.8021 -4.4506 -0.0245
6.8967 -4.2782 -0.0227
6.9053 -4.0558 -0.0206
6.9136 -3.8391 -0.0186
6.9020 -3.6172 -0.0166
6.9938 -3.4526 -0.0148
7.0859 -3.2875 -0.0130
7.1638 -3.1156 -0.0112
7.4466 -3.0268 -0.0096
7.6419 -2.8931 -0.0078
7.7681 -2.7281 -0.0059
7.9808 -2.5880 -0.0040
7.9886 -2.3788 -0.0019
7.9964 -2.1722 0.0001
8.0041 -1.9679 0.0022
8.0117 -1.7657 0.0042
8.0192 -1.5652 0.0062
8.0267 -1.3662 0.0083
8.0341 -1.1685 0.0103
8.0415 -0.9718 0.0123
8.0488 -0.7758 0.0144
8.0562 -0.5805 0.0164
8.0635 -0.3855 0.0185
8.0708 -0.1905 0.0205
8.0782 0.0046 0.0226
8.0855 0.2000 0.0247
8.0929 0.3960 0.0268
8.1003 0.5929 0.0290
8.1077 0.7907 0.0311
8.1152 0.9900 0.0333
8.1227 1.1907 0.0356
8.1303 1.3933 0.0378
8.1380 1.5979 0.0401
8.1458 1.8049 0.0424
8.1537 2.0145 0.0448
8.1617 2.2270 0.0472
8.1698 2.4428 0.0497
8.1780 2.6622 0.0522
8.1864 2.8855 0.0548
8.1949 3.1131 0.0575
8.2037 3.3454 0.0602
8.2126 3.5828 0.0630
8.2217 3.8259 0.0659
8.2311 4.0750 0.0688
8.2407 4.3308 0.0719
8.2506 4.5937 0.0750
8.2607 4.8645 0.0783
8.2712 5.1439 0.0817
8.2821 5.4324 0.0852
8.2933 5.7311 0.0889
8.3049 6.0408 0.0927
8.3170 6.3625 0.0966
8.3296 6.6972 0.1008
8.6011 7.2647 0.1084
8.6153 7.6408 0.1131
8.6301 8.0348 0.1180
8.6456 8.4484 0.1232
8.6620 8.8835 0.1287
8.6792 9.3426 0.1345
8.6975 9.8282 0.1407
8.7168 10.3433 0.1473
8.7374 10.8913 0.1543
8.7594 11.4762 0.1618
8.7829 12.1026 0.1699
8.8082 12.7760 0.1786
8.8355 13.5025 0.1880
8.8651 14.2899 0.1982
8.8973 15.1471 0.2094
8.9326 16.0849 0.2216
8.9725 17.1188 0.2352
9.0154 18.2608 0.2501
9.0632 19.5331 0.2669
9.1168 20.9610 0.2857
9.5006 23.3720 0.3178
9.5724 25.2834 0.3430
9.6542 27.4878 0.3722
9.7512 30.0692 0.4064
9.8663 33.1324 0.4471
10.5118 38.6951 0.5214
9.5231 38.7323 0.5212
9.1166 41.3662 0.5559
9.3652 47.9835 0.6441
12.3386 72.4954 0.9722
8.7193 59.9563 0.8034
7.0601 58.4304 0.7824
5.6759 58.8940 0.7881
4.2972 59.6551 0.7979
2.8438 59.5206 0.7959
1.4179 60.1366 0.8039
-0.0355 59.8532 0.8000
-1.5054 60.7817 0.8125
-3.0331 61.9397 0.8281
-2.1366 29.1771 0.3902
-2.3567 24.1529 0.3231
-2.9486 24.1621 0.3234
-3.5445 24.1714 0.3237
-4.1451 24.1807 0.3241
-11.7907 60.0314 0.8053
-5.4069 24.3956 0.3276
-15.0573 60.9288 0.8191
-16.8148 61.6080 0.8293
-18.4293 61.6204 0.8307
-13.2916 40.8213 0.5512
-21.0965 59.8393 0.8094
-23.2097 61.0844 0.8278
-24.7376 60.6491 0.8235
-26.9141 61.6793 0.8394
-28.9771 62.2577 0.8493
-28.4775 57.5095 0.7865
-8.3576 15.8997 0.2180
-8.8706 15.9288 0.2191
-9.3935 15.9484 0.2201
-9.9329 15.9687 0.2211
-10.4901 15.9896 0.2222
-42.7260 61.8150 0.8622
-15.7059 21.5885 0.3023
-48.0798 62.8375 0.8839
-49.5900 61.6647 0.8715
-52.0704 61.6377 0.8754
-54.7029 61.6671 0.8805
-14.7865 15.8789 0.2280
-14.8147 15.1576 0.2190
-14.8416 14.4686 0.2104
-14.8673 13.8089 0.2022
-14.8920 13.1761 0.1943
-14.9158 12.5678 0.1869
-14.9386 11.9820 0.1797
-14.9607 11.4167 0.1728
-6.3520 4.6088 0.0704
-15.0027 10.3414 0.1597
-15.0227 9.8283 0.1535
-15.0422 9.3299 0.1475
-15.0611 8.8450 0.1418
-15.0795 8.3725 0.1361
-15.0975 7.9115 0.1307
-15.1151 7.4608 0.1254
-15.1323 7.0198 0.1202
-15.1492 6.5876 0.1152
-15.1658 6.1635 0.1103
-15.1820 5.7467 0.1055
-15.1980 5.3366 0.1008
-15.2138 4.9325 0.0962
-15.2294 4.5340 0.0917
-15.2447 4.1403 0.0873
-15.2599 3.7510 0.0829
-15.2750 3.3655 0.0786
-15.2899 2.9833 0.0744
-15.3047 2.6040 0.0702
-15.3194 2.2271 0.0661
-15.3341 1.8521 0.0620
-15.3487 1.4786 0.0580
-15.3632 1.1061 0.0540
-22.2615 1.0629 0.0725
-22.2738 0.5245 0.0667
-22.2940 -0.0139 0.0611
-35.9493 -0.8913 0.0893
-28.2572 -1.3843 0.0630
-21.5675 -1.5798 0.0427
-21.5865 -2.1066 0.0372
-37.1462 -4.5336 0.0547
-37.4617 -5.4937 0.0458
-37.7849 -6.4773 0.0367
-38.1163 -7.4864 0.0274
-38.9611 -8.6350 0.0181
-39.0139 -9.6413 0.0082
-39.0674 -10.6624 -0.0017
-39.1219 -11.7000 -0.0118
-39.1772 -12.7557 -0.0220
-39.2336 -13.8311 -0.0322
-39.2912 -14.9282 -0.0427
-89.6747 -36.5742 -0.1214
-89.6495 -39.1163 -0.1457
-85.7746 -39.9197 -0.1629
-78.8646 -39.0492 -0.1719
-64.3044 -33.7984 -0.1584
-63.1099 -35.1425 -0.1738
-67.0038 -39.4614 -0.2043
-63.5513 -39.5267 -0.2130
-60.4332 -39.6439 -0.2213
-60.2463 -41.6377 -0.2398
-30.5078 -22.1927 -0.1314
-60.3405 -46.1645 -0.2801
-60.4318 -48.5935 -0.3015
-66.3212 -56.0312 0.6074
-67.2025 -59.6171 0.6111
-65.8837 -61.3550 0.5954
-66.0023 -64.5126 0.5933
-38.8611 -39.8650 0.3478
-15.5029 -24.9946 0.1422
-39.8894 -67.9226 0.3705
-16.6204 -33.6714 0.1630
-27.9346 -79.5509 0.3243
-11.2282 -37.7124 0.1452
4.6475 -94.9258 0.3108
4.2541 -58.1040 0.1914
1.7649 -18.0907 0.0601
5.2913 -43.3672 0.1458
5.0962 -34.7594 0.1184
5.5305 -32.2685 0.1117
4.9126 -25.0166 0.0882
5.2201 -23.5571 0.0847
5.4936 -22.2337 0.0818
5.6887 -20.8466 0.0786
5.9457 -19.8838 0.0769
6.1557 -18.9089 0.0752
6.3823 -18.1065 0.0742
6.5691 -17.2922 0.0732
6.7284 -16.4991 0.0722
6.8142 -15.6193 0.0707
7.0366 -15.1212 0.0710
7.1649 -14.4721 0.0705
6.7402 -12.8254 0.0650
6.6253 -11.8994 0.0627
6.6713 -11.3289 0.0622
6.8281 -10.9795 0.0629
7.1508 -10.9020 0.0653
7.4124 -10.7265 0.0671
7.6594 -10.5304 0.0690
8.0222 -10.4869 0.0720
8.0586 -10.0230 0.0721
8.0396 -9.5190 0.0719
8.1506 -9.1905 0.0730
8.1668 -8.7722 0.0733
8.0889 -8.2782 0.0728
8.1370 -7.9345 0.0736
8.2052 -7.6230 0.0746
8.2255 -7.2797 0.0752
8.2375 -6.9427 0.0759
8.1577 -6.5450 0.0757
8.2000 -6.2593 0.0768
8.2112 -5.9595 0.0776
6.9724 -4.8076 0.0665
6.8009 -4.4508 0.0656
6.9230 -4.2954 0.0675
6.9313 -4.0720 0.0684
6.9395 -3.8544 0.0693
6.9016 -3.6179 0.0698
6.9934 -3.4533 0.0716
7.0854 -3.2883 0.0735
7.1631 -3.1163 0.0754
7.4910 -3.0458 0.0799
7.6901 -2.9123 0.0832
7.7686 -2.7293 0.0853
7.9807 -2.5890 0.0890
7.9886 -2.3798 0.0904
7.9964 -2.1732 0.0920
8.0040 -1.9689 0.0935
8.0116 -1.7666 0.0951
8.0192 -1.5661 0.0968
8.0266 -1.3671 0.0985
8.0341 -1.1694 0.1003
8.0415 -0.9727 0.1021
8.0488 -0.7768 0.1040
8.0562 -0.5814 0.1059
8.0635 -0.3864 0.1079
8.0708 -0.1915 0.1100
8.0781 0.0036 0.1121
8.0855 0.1990 0.1143
8.0928 0.3951 0.1166
8.1002 0.5919 0.1190
8.1077 0.7898 0.1214
8.1151 0.9890 0.1239
8.1227 1.1897 0.1265
8.1303 1.3923 0.1292
8.1380 1.5969 0.1320
8.1458 1.8039 0.1349
8.1536 2.0135 0.1379
8.1616 2.2260 0.1410
8.1697 2.4418 0.1442
8.1780 2.6611 0.1475
8.1864 2.8844 0.1510
8.1949 3.1120 0.1546
8.2036 3.3443 0.1584
8.2126 3.5818 0.1623
8.2217 3.8248 0.1664
8.2310 4.0739 0.1706
8.2407 4.3297 0.1750
8.2505 4.5926 0.1797
8.2607 4.8634 0.1845
8.2712 5.1427 0.1896
8.2820 5.4312 0.1950
8.2933 5.7299 0.2006
8.3049 6.0395 0.2065
8.3170 6.3612 0.2127
8.3295 6.6960 0.2192
8.6011 7.2633 0.2331
8.6152 7.6394 0.2407
8.6300 8.0334 0.2487
8.6455 8.4469 0.2572
8.6619 8.8820 0.2662
8.6791 9.3411 0.2759
8.6974 9.8266 0.2862
8.7167 10.3416 0.2972
8.7373 10.8896 0.3090
8.7593 11.4744 0.3218
8.7828 12.1008 0.3356
9.1182 13.2238 0.3629
9.1465 13.9758 0.3797
9.1771 14.7908 0.3981
9.2105 15.6781 0.4183
9.2481 16.6509 0.4406
9.2882 17.7189 0.4652
9.3326 18.9009 0.4926
9.3821 20.2178 0.5233
9.4376 21.6958 0.5579
9.5005 23.3687 0.5974
9.5138 25.1256 0.6388
9.6541 27.4841 0.6951
9.7511 30.0650 0.7567
9.8661 33.1278 0.8302
10.5131 38.6951 0.9659
9.5242 38.7322 0.9633
9.1163 41.3604 1.0253
9.3649 47.9765 1.1859
10.1881 59.8529 1.4757
8.8534 60.8715 1.4975
7.0280 58.1577 1.4281
5.7559 59.7170 1.4642
4.2890 59.5344 1.4580
2.8383 59.3986 1.4535
1.4129 59.9169 1.4654
-0.0357 60.1615 1.4711
-1.5017 60.6235 1.4826
-2.9842 60.9336 1.4909
-2.1365 29.1724 0.7144
-2.3570 24.1529 0.5921
-2.9490 24.1621 0.5932
-3.5449 24.1714 0.5945
-4.1456 24.1808 0.5961
-9.5233 48.4812 1.1981
-5.4075 24.3956 0.6046
-15.1392 61.2528 1.5230
-16.8057 61.5673 1.5363
-18.5417 61.9885 1.5529
-13.2901 40.8117 1.0268
-19.2211 54.5132 1.3781
-20.7406 54.5791 1.3868
-24.6446 60.4133 1.5436
-26.5885 60.9253 1.5660
-28.6710 61.5921 1.5933
-28.4783 57.5034 1.4977
-8.3587 15.8997 0.4172
-8.8663 15.9188 0.4209
-9.3889 15.9384 0.4250
-9.9280 15.9587 0.4293
-10.4850 15.9796 0.4339
-39.9127 57.7366 1.5833
-15.7059 21.5853 0.5982
-44.3167 57.9109 1.6229
-46.6579 58.0099 1.6450
-49.1096 58.1239 1.6690
-51.6740 58.2435 1.6947
-14.7866 15.8765 0.4685
-14.8148 15.1552 0.4539
-14.8417 14.4662 0.4401
-15.2481 14.1602 0.4380
-15.2734 13.5112 0.4253
-15.2978 12.8873 0.4133
-14.9387 11.9798 0.3919
-14.9608 11.4146 0.3813
-6.3520 4.6078 0.1574
-15.0028 10.3393 0.3616
-15.0228 9.8263 0.3525
-15.4274 9.5667 0.3525
-15.4468 9.0694 0.3439
-15.4658 8.5849 0.3357
-15.0976 7.9095 0.3196
-15.1152 7.4589 0.3122
-15.1324 7.0179 0.3051
-15.1493 6.5857 0.2983
-15.1658 6.1616 0.2917
-15.1821 5.7448 0.2854
-15.1981 5.3347 0.2793
-15.2139 4.9307 0.2734
-15.6194 4.6482 0.2746
-15.6352 4.2445 0.2690
-15.6508 3.8452 0.2636
-15.6662 3.4498 0.2584
-15.2900 2.9815 0.2470
-15.3048 2.6022 0.2423
-15.3195 2.2253 0.2377
-15.3341 1.8503 0.2332
-15.3487 1.4768 0.2289
-15.3633 1.1043 0.2247
-22.2616 1.0602 0.3194
-22.2739 0.5219 0.3136
-22.2941 -0.0165 0.3081
-36.2077 -0.9019 0.4913
-28.2580 -1.3877 0.3766
-21.5678 -1.5823 0.2823
-21.5868 -2.1092 0.2776
-37.4135 -4.5706 0.4728
-37.7318 -5.5378 0.4687
-37.9776 -6.5149 0.4638
-38.1179 -7.4913 0.4579
-39.3272 -8.7209 0.4647
-39.3805 -9.7366 0.4578
-39.4346 -10.7674 0.4512
-39.4895 -11.8148 0.4449
-39.5454 -12.8804 0.4387
-39.6023 -13.9660 0.4328
-39.2914 -14.9332 0.4231
-65.4261 -26.6925 0.6944
-89.6493 -39.1277 0.9382
-85.7750 -39.9309 0.8855
-78.8453 -39.0499 0.8032
-66.2123 -34.8100 0.6658
-62.8950 -35.0312 0.6246
-67.0042 -39.4707 0.6574
-63.5380 -39.5272 0.6162
-60.4209 -39.6443 0.5795
-60.2467 -41.6465 0.5718
-30.5038 -22.1942 0.2867
-60.3409 -46.1737 0.5618
-60.4322 -48.6029 0.5578
-65.9899 -55.7614 1.5619
-67.1911 -59.6176 1.6066
-39.2176 -36.5282 0.9484
-44.5662 -43.5677 1.0914
-38.8424 -39.8523 0.9645
-34.1379 -36.7619 0.8606
-44.9393 -50.8018 1.1519
-44.9485 -53.3560 1.1732
-45.9230 -74.0498 1.3869
-39.8895 -67.9321 1.2436
-16.6018 -33.6379 0.5785
-16.3586 -37.6229 0.6239
-16.4455 -43.4508 0.6976
-27.9017 -79.4670 1.2574
-11.2403 -37.7579 0.5820
-11.6482 -47.3896 0.7144
-11.5949 -52.6271 0.7858
-10.9102 -55.9160 0.8278
-10.5803 -62.1823 0.9136
-11.4768 -78.9409 1.1523
0.0463 -78.1563 1.1206
2.4647 -99.5498 1.4282
4.6469 -94.9256 1.3640
4.2347 -57.8462 0.8334
1.7693 -18.1380 0.2623
5.2909 -43.3691 0.6300
5.0958 -34.7612 0.5078
5.5302 -32.2704 0.4746
4.9123 -25.0182 0.3708
5.2198 -23.5586 0.3522
5.4933 -22.2351 0.3356
5.6887 -20.8493 0.3181
5.9036 -19.7454 0.3048
6.1553 -18.9103 0.2956
6.3820 -18.1079 0.2870
6.5688 -17.2936 0.2782
6.7281 -16.5005 0.2696
6.8143 -15.6214 0.2596
7.0363 -15.1225 0.2558
7.1646 -14.4734 0.2495
6.7396 -12.8259 0.2255
6.6244 -11.8993 0.2137
6.6708 -11.3297 0.2079
6.8275 -10.9801 0.2062
7.1501 -10.9024 0.2098
7.4117 -10.7270 0.2116
7.6584 -10.5306 0.2133
8.0211 -10.4870 0.2183
7.7576 -9.6501 0.2067
8.0396 -9.5204 0.2100
8.1464 -9.1871 0.2090
8.1621 -8.7686 0.2060
8.0887 -8.2794 0.2011
8.1370 -7.9358 0.1995
8.2051 -7.6243 0.1987
8.2182 -7.2745 0.1968
8.2309 -6.9384 0.1951
8.1556 -6.5445 0.1916
8.1999 -6.2605 0.1911
8.2112 -5.9607 0.1901
6.9731 -4.8091 0.1604
6.7997 -4.4509 0.1557
6.9229 -4.2963 0.1578
6.9313 -4.0730 0.1575
6.9395 -3.8553 0.1573
6.9012 -3.6187 0.1561
6.9930 -3.4540 0.1581
7.0850 -3.2890 0.1601
7.1625 -3.1169 0.1619
7.4901 -3.0464 0.1695
7.6891 -2.9129 0.1744
7.7692 -2.7305 0.1766
7.9807 -2.5899 0.1820
7.9886 -2.3807 0.1828
7.9963 -2.1741 0.1838
8.0040 -1.9698 0.1849
8.0116 -1.7676 0.1861
8.0191 -1.5671 0.1874
8.0266 -1.3681 0.1888
8.0340 -1.1704 0.1903
8.0414 -0.9736 0.1919
8.0488 -0.7777 0.1936
8.0561 -0.5824 0.1955
8.0634 -0.3873 0.1974
8.0708 -0.1924 0.1995
8.0781 0.0027 0.2017
8.0854 0.1981 0.2040
8.0928 0.3941 0.2064
8.1002 0.5909 0.2090
8.1076 0.7888 0.2117
8.1151 0.9880 0.2146
8.1227 1.1888 0.2175
8.1303 1.3913 0.2207
8.1379 1.5959 0.2239
8.1457 1.8029 0.2274
8.1536 2.0125 0.2310
8.1616 2.2250 0.2348
8.1697 2.4408 0.2387
8.1779 2.6601 0.2429
8.1863 2.8834 0.2472
8.1949 3.1110 0.2518
8.2036 3.3433 0.2566
8.2125 3.5807 0.2616
8.2216 3.8237 0.2669
8.2310 4.0728 0.2724
8.2406 4.3285 0.2782
8.2505 4.5915 0.2844
8.2607 4.8622 0.2908
8.5713 5.3281 0.3084
8.5826 5.6271 0.3158
8.5942 5.9366 0.3237
8.6063 6.2575 0.3319
8.6188 6.5908 0.3407
8.8898 7.1450 0.3604
8.9038 7.5176 0.3706
8.9184 7.9069 0.3813
8.9338 8.3147 0.3928
8.9499 8.7427 0.4050
8.9668 9.1931 0.4180
8.9846 9.6683 0.4319
9.0035 10.1709 0.4468
9.0236 10.7040 0.4629
9.0449 11.2712 0.4802
9.0676 11.8766 0.4988
9.0920 12.5249 0.5190
9.1182 13.2217 0.5410
9.1464 13.9737 0.5649
9.1770 14.7887 0.5911
9.2104 15.6758 0.6199
9.2480 16.6485 0.6517
9.2881 17.7164 0.6870
9.3325 18.8982 0.7263
9.3820 20.2149 0.7704
9.4375 21.6928 0.8203
9.5004 23.3655 0.8771
9.5150 25.1256 0.9367
9.6539 27.4802 1.0180
9.7509 30.0609 1.1072
9.8660 33.1232 1.2134
10.5143 38.6950 1.4106
9.5254 38.7322 1.4057
9.1161 41.3544 1.4949
9.3646 47.9695 1.7278
10.0292 58.9125 2.1154
8.7710 60.2983 2.1593
7.4225 61.4153 2.1943
5.8461 60.6457 2.1627
4.2632 59.1695 2.1070
2.8323 59.2660 2.1083
1.4096 59.7735 2.1250
-0.0368 62.0183 2.2044
-1.5125 61.0549 2.1706
-2.9757 60.7537 2.1612
-2.1364 29.1677 1.0386
-2.3573 24.1530 0.8613
-2.9493 24.1622 0.8632
-3.5454 24.1715 0.8655
-4.1461 24.1808 0.8682
-9.5243 48.4808 1.7461
-10.8771 49.0653 1.7734
-15.2060 61.5155 2.2323
-16.9815 62.2035 2.2673
-18.5573 62.0331 2.2722
-13.2887 40.8022 1.5026
-19.1926 54.4255 2.0160
-20.7099 54.4914 2.0312
-23.4540 57.4873 2.1574
-26.5011 60.7171 2.2954
-28.0750 60.3040 2.2978
-28.4790 57.4973 2.2092
-22.5744 42.9348 1.6645
-32.7030 58.7081 2.2978
-28.5975 48.5398 1.9191
-35.7752 57.4984 2.2978
-20.7945 31.6873 1.2808
-9.0669 13.1140 0.5365
-9.4799 13.0267 0.5397
-43.7627 57.1784 2.4010
-45.3475 56.3722 2.4010
-46.9280 55.5332 2.4010
-48.5036 54.6613 2.4010
-14.7867 15.8740 0.7090
-14.8149 15.1528 0.6888
-14.8417 14.4639 0.6699
-15.2482 14.1578 0.6687
-15.2735 13.5089 0.6514
-15.2979 12.8850 0.6351
-14.9388 11.9776 0.6042
-14.9609 11.4124 0.5899
-6.3520 4.6069 0.2444
-15.0028 10.3372 0.5636
-15.0229 9.8242 0.5515
-15.4275 9.5647 0.5538
-15.4469 9.0674 0.5425
-15.4658 8.5829 0.5318
-15.0977 7.9075 0.5085
-15.1153 7.4569 0.4991
-15.1325 7.0160 0.4900
-15.1494 6.5838 0.4814
-15.1659 6.1597 0.4732
-15.1822 5.7429 0.4654
-15.1982 5.3329 0.4579
-15.2140 4.9288 0.4507
-15.6195 4.6463 0.4553
-15.6353 4.2426 0.4486
-15.6508 3.8433 0.4423
-15.6663 3.4479 0.4362
-15.2901 2.9797 0.4197
-15.3049 2.6004 0.4144
-15.3196 2.2235 0.4093
-15.3342 1.8485 0.4044
-15.3488 1.4750 0.3998
-15.3633 1.1025 0.3955
-22.2617 1.0576 0.5665
-22.2740 0.5193 0.5606
-22.2942 -0.0191 0.5553
-36.2074 -0.9062 0.8928
-28.2587 -1.3911 0.6902
-21.5681 -1.5849 0.5220
-21.5871 -2.1118 0.5180
-37.4147 -4.5752 0.8907
-37.7331 -5.5424 0.8915
-37.9684 -6.5178 0.8907
-38.1195 -7.4962 0.8885
-39.3275 -8.7257 0.9112
-39.3808 -9.7414 0.9075
-39.4348 -10.7723 0.9044
-39.4898 -11.8197 0.9018
-39.5457 -12.8854 0.8997
-39.6026 -13.9710 0.8983
-39.2917 -14.9383 0.8890
-65.4251 -26.7005 1.4777
-87.6371 -38.2606 1.9771
-78.0454 -36.3427 1.7599
-74.0762 -36.6976 1.6709
-66.2126 -34.8189 1.4950
-62.8900 -35.0369 1.4225
-66.8719 -39.4019 1.5164
-63.5247 -39.5277 1.4453
-60.4087 -39.6448 1.3803
-60.1693 -41.6015 1.3819
-30.4998 -22.1958 0.7047
-60.3412 -46.1828 1.4040
-60.4325 -48.6122 1.4174
-43.3176 -36.6100 1.6542
-41.0702 -36.4473 1.5909
-39.2117 -36.5290 1.5425
-27.2600 -26.6537 1.0903
-25.9971 -26.6773 1.0586
-24.8272 -26.7398 1.0305
-24.3140 -27.4901 1.0302
-23.7767 -28.2284 1.0298
-45.0604 -56.1981 1.9982
-45.1785 -59.2217 2.0546
-45.3035 -62.4586 2.1165
-45.4383 -65.9390 2.1848
-45.5850 -69.6974 2.2603
-45.7475 -73.7770 2.3442
-22.0102 -37.4885 1.1682
-42.3492 -76.2940 2.3338
-26.7119 -50.9877 1.5325
-38.2607 -77.5327 2.2919
-32.5021 -70.0801 2.0393
-16.3565 -37.6229 1.0787
-30.0873 -74.0486 2.0937
-16.4478 -43.4622 1.2130
-24.9225 -70.9909 1.9574
-27.1517 -83.7618 2.2835
-11.2390 -37.7580 1.0187
-11.2925 -41.5861 1.1113
-11.5085 -46.8266 1.2405
-11.5940 -52.6291 1.3832
-10.9089 -55.9160 1.4594
-10.5792 -62.1835 1.6129
-11.4685 -78.8928 2.0354
-5.8659 -48.5662 1.2473
-4.8677 -50.5274 1.2929
-6.7757 -94.0983 2.4010
-4.5033 -94.2893 2.4010
-2.2251 -94.4025 2.4010
0.0454 -76.7593 1.9516
2.2364 -90.3411 2.2979
3.0923 -63.1758 1.6090
4.2795 -58.4657 1.4922
1.7802 -18.2524 0.4672
5.2905 -43.3710 1.1144
5.0955 -34.7629 0.8973
5.5098 -32.1557 0.8346
4.9120 -25.0198 0.6534
5.2194 -23.5600 0.6197
5.4929 -22.2365 0.5896
5.6887 -20.8520 0.5577
5.9451 -19.8867 0.5371
6.1550 -18.9117 0.5161
6.3817 -18.1093 0.4999
6.5685 -17.2950 0.4833
6.7278 -16.5019 0.4672
6.8143 -15.6235 0.4486
7.0360 -15.1239 0.4408
7.1643 -14.4748 0.4286
6.7390 -12.8265 0.3862
6.5016 -11.6803 0.3579
6.6704 -11.3305 0.3537
6.8269 -10.9806 0.3496
7.0591 -10.7652 0.3498
7.3261 -10.6046 0.3521
7.6573 -10.5307 0.3576
8.0200 -10.4871 0.3647
7.7542 -9.6473 0.3438
8.0396 -9.5219 0.3482
8.1473 -9.1896 0.3452
7.3707 -7.9197 0.3060
7.9763 -8.1657 0.3249
8.1369 -7.9371 0.3256
8.2051 -7.6256 0.3229
7.2105 -6.3836 0.2795
8.2308 -6.9396 0.3145
8.0407 -6.4535 0.3032
8.1999 -6.2617 0.3055
8.2112 -5.9619 0.3026
6.9738 -4.8105 0.2544
6.7984 -4.4511 0.2457
6.9229 -4.2973 0.2482
6.9313 -4.0739 0.2466
6.9395 -3.8562 0.2453
6.9008 -3.6194 0.2425
6.9926 -3.4547 0.2446
7.0846 -3.2897 0.2467
7.1618 -3.1175 0.2485
7.4892 -3.0470 0.2592
7.6882 -2.9135 0.2655
7.7697 -2.7316 0.2680
7.9807 -2.5909 0.2750
7.9885 -2.3817 0.2753
7.9963 -2.1751 0.2757
8.0040 -1.9708 0.2763
8.0116 -1.7685 0.2771
8.0191 -1.5680 0.2780
8.0266 -1.3690 0.2791
8.0340 -1.1713 0.2803
8.0414 -0.9746 0.2817
8.0487 -0.7787 0.2833
8.0561 -0.5833 0.2850
8.0634 -0.3883 0.2870
8.0707 -0.1934 0.2890
8.0781 0.0017 0.2913
8.3789 0.2043 0.3044
8.3865 0.4074 0.3071
8.3941 0.6114 0.3100
8.4019 0.8165 0.3130
8.4096 1.0229 0.3163
8.4174 1.2309 0.3198
8.4253 1.4408 0.3235
8.4333 1.6528 0.3274
8.4413 1.8673 0.3315
8.4495 2.0845 0.3359
8.4578 2.3047 0.3405
8.4662 2.5283 0.3454
8.4747 2.7556 0.3505
8.4834 2.9870 0.3560
8.4923 3.2228 0.3617
8.5013 3.4635 0.3677
8.5105 3.7095 0.3741
8.5200 3.9614 0.3808
8.5297 4.2195 0.3879
8.5397 4.4845 0.3953
8.5499 4.7570 0.4032
8.5604 5.0375 0.4116
8.5713 5.3269 0.4204
8.5825 5.6259 0.4297
8.5942 5.9354 0.4395
8.6062 6.2562 0.4500
8.6187 6.5895 0.4610
8.8898 7.1436 0.4869
8.9038 7.5162 0.4998
8.9184 7.9055 0.5135
8.9337 8.3132 0.5281
8.9498 8.7412 0.5437
8.9667 9.1916 0.5604
8.9846 9.6667 0.5783
9.0035 10.1692 0.5975
9.0235 10.7023 0.6182
9.0448 11.2694 0.6405
9.0675 11.8747 0.6646
9.0919 12.5230 0.6907
9.1181 13.2198 0.7192
9.1463 13.9716 0.7502
9.1495 14.7422 0.7818
9.2103 15.6735 0.8216
9.2479 16.6461 0.8630
9.2880 17.7138 0.9089
9.3324 18.8955 0.9601
9.3819 20.2121 1.0176
9.4374 21.6898 1.0827
9.5002 23.3622 1.1569
9.5162 25.1255 1.2350
9.6538 27.4764 1.3412
9.7507 30.0567 1.4578
9.8658 33.1186 1.5969
10.5156 38.6950 1.8557
9.5265 38.7321 1.8485
9.1159 41.3485 1.9647
9.3644 47.9625 2.2700
8.2880 48.6785 2.2960
7.1491 49.1422 2.3110
5.9210 48.9863 2.2979
4.7324 49.0865 2.2979
3.5428 49.1645 2.2979
2.3715 49.6193 2.3166
1.2138 51.4630 2.4010
-0.0306 51.4887 2.4017
-1.2758 51.4922 2.4024
-2.5214 51.4714 2.4030
-2.1349 29.1427 1.3621
-2.3576 24.1530 1.1307
-2.9497 24.1622 1.1334
-3.5458 24.1715 1.1367
-4.1466 24.1808 1.1405
-9.9686 50.7358 2.4012
-10.7228 48.3632 2.2979
-11.9040 48.1512 2.2979
-13.0828 47.9168 2.2979
-14.2593 47.6597 2.2979
-13.2872 40.7926 1.9784
-16.6037 47.0781 2.2979
-17.7711 46.7531 2.2979
-18.9351 46.4055 2.2979
-20.0954 46.0349 2.2979
-21.2515 45.6414 2.2979
-22.4034 45.2251 2.2979
-22.5719 42.9242 2.2024
-24.9413 44.7683 2.3210
-26.0898 44.2773 2.3210
-27.2329 43.7630 2.3210
-20.7937 31.6816 1.7012
-9.0192 13.0432 0.7096
-9.3867 12.8967 0.7114
-31.7435 41.4685 2.3210
-32.8540 40.8351 2.3210
-27.3931 32.4112 1.8724
-27.0986 30.5340 1.7944
-14.7868 15.8715 0.9497
-14.8149 15.1504 0.9239
-14.8418 14.4615 0.8998
-15.2483 14.1554 0.8995
-15.2736 13.5065 0.8776
-15.2980 12.8828 0.8570
-14.9389 11.9754 0.8166
-14.9610 11.4103 0.7987
-6.3520 4.6060 0.3314
-15.0029 10.3351 0.7657
-15.0230 9.8221 0.7506
-15.4276 9.5626 0.7551
-15.4470 9.0653 0.7412
-15.4659 8.5808 0.7280
-15.0978 7.9056 0.6976
-15.1153 7.4550 0.6860
-15.1326 7.0140 0.6750
-15.1494 6.5819 0.6646
-15.1660 6.1578 0.6548
-15.1823 5.7411 0.6454
-15.1983 5.3310 0.6365
-15.2140 4.9270 0.6281
-15.6196 4.6444 0.6361
-15.6353 4.2407 0.6283
-15.6509 3.8414 0.6211
-15.6663 3.4461 0.6142
-15.2901 2.9779 0.5925
-15.3049 2.5986 0.5866
-15.3196 2.2217 0.5810
-15.3343 1.8467 0.5757
-15.3489 1.4732 0.5709
-15.3634 1.1007 0.5663
-22.2617 1.0550 0.8137
-22.2741 0.5166 0.8077
-22.2943 -0.0217 0.8025
-36.2077 -0.9104 1.2945
-28.2595 -1.3944 1.0040
-21.5684 -1.5874 0.7619
-21.5874 -2.1144 0.7586
-37.4157 -4.5798 1.3087
-37.7341 -5.5471 1.3145
-37.9592 -6.5208 1.3177
-38.1211 -7.5010 1.3194
-39.3277 -8.7305 1.3580
-39.3810 -9.7463 1.3574
-39.4351 -10.7771 1.3578
-39.4900 -11.8246 1.3589
-39.5459 -12.8903 1.3610
-39.6029 -13.9760 1.3640
-39.2920 -14.9433 1.3552
-69.4659 -28.3583 2.4010
-53.6645 -23.4358 1.8601
-67.9133 -31.6334 2.3623
-65.7775 -32.5950 2.2978
-65.4477 -34.4254 2.2978
-65.4433 -36.4682 2.3110
-65.0113 -38.3145 2.3110
-63.5115 -39.5282 2.2746
-60.3965 -39.6452 2.1811
-60.1694 -41.6102 2.1931
-30.4958 -22.1973 1.1229
-60.3416 -46.1921 2.2467
-60.4329 -48.6217 2.2775
-43.0672 -36.4050 2.2704
-25.8677 -22.9601 1.3858
-39.2058 -36.5298 2.1369
-27.2557 -26.6539 1.5132
-16.2364 -16.6640 0.9193
-16.2313 -17.4845 0.9384
-16.2801 -18.4097 0.9625
-16.3203 -19.3789 0.9880
-16.3645 -20.4124 1.0160
-37.3172 -48.9240 2.3798
-35.5928 -49.0778 2.3355
-32.9146 -47.7716 2.2263
-33.3891 -51.0576 2.3325
-23.1379 -37.3196 1.6729
-21.9394 -37.3732 1.6453
-20.7713 -37.4255 1.6196
-19.6309 -37.4765 1.5957
-18.5253 -37.5453 1.5743
-17.4423 -37.6136 1.5544
-16.3545 -37.6230 1.5338
-21.6561 -53.3052 2.1454
-16.4501 -43.4736 1.7289
-21.2263 -60.4697 2.3781
-19.5689 -60.3767 2.3500
-11.2377 -37.7581 1.4557
-11.2907 -41.5848 1.5892
-11.3333 -46.1193 1.7485
-11.5931 -52.6311 1.9811
-10.9150 -55.9542 2.0927
-10.5102 -61.7851 2.2978
-9.0245 -62.0879 2.2978
-5.8651 -48.5649 1.7899
-4.8679 -50.5358 1.8563
-4.7185 -65.5356 2.4010
-3.1354 -65.6568 2.4010
-1.5491 -65.7288 2.4010
0.0372 -62.9283 2.2979
1.5570 -62.9022 2.2979
3.0749 -62.8292 2.2979
4.0759 -55.6905 2.0407
1.7989 -18.4463 0.6778
5.1826 -42.4917 1.5666
4.7207 -32.2102 1.1925
5.1923 -30.3062 1.1276
4.9117 -25.0215 0.9363
5.2133 -23.5352 0.8864
5.4142 -21.9204 0.8316
5.6541 -20.7275 0.7927
5.9448 -19.8881 0.7674
6.1547 -18.9131 0.7368
6.3814 -18.1107 0.7129
6.5682 -17.2963 0.6886
6.7275 -16.5033 0.6650
6.8143 -15.6256 0.6377
7.0357 -15.1252 0.6258
7.1640 -14.4761 0.6078
6.7384 -12.8270 0.5469
6.5013 -11.6814 0.5062
6.6110 -11.2312 0.4952
6.8002 -10.9393 0.4911
7.0316 -10.7247 0.4908
7.2974 -10.5645 0.4932
7.6563 -10.5308 0.5020
7.2969 -9.5431 0.4651
7.6816 -9.5585 0.4767
8.0396 -9.5234 0.4865
7.1949 -8.1166 0.4252
7.2352 -7.7753 0.4182
7.6476 -7.8304 0.4329
8.0424 -7.8462 0.4465
8.2050 -7.6268 0.4472
7.2092 -6.3836 0.3863
7.4271 -6.2631 0.3916
7.8190 -6.2768 0.4061
8.1998 -6.2629 0.4200
7.2343 -5.2537 0.3658
6.9744 -4.8120 0.3485
6.7915 -4.4475 0.3356
6.7615 -4.1981 0.3307
6.7709 -3.9805 0.3281
6.8094 -3.7849 0.3272
6.9004 -3.6201 0.3290
6.9922 -3.4555 0.3311
7.0842 -3.2905 0.3334
7.1611 -3.1181 0.3352
7.3138 -2.9765 0.3407
7.4904 -2.8395 0.3476
7.7421 -2.7229 0.3581
8.2280 -2.6722 0.3796
8.2784 -2.4692 0.3812
8.2865 -2.2551 0.3810
8.2944 -2.0433 0.3811
8.3023 -1.8337 0.3815
8.3101 -1.6259 0.3820
8.3178 -1.4197 0.3828
8.3255 -1.2148 0.3839
8.3332 -1.0110 0.3851
8.3408 -0.8079 0.3866
8.3484 -0.6055 0.3883
8.3560 -0.4034 0.3902
8.3636 -0.2014 0.3924
8.3712 0.0008 0.3948
8.3788 0.2033 0.3974
8.3865 0.4064 0.4003
8.3941 0.6104 0.4034
8.4018 0.8155 0.4067
8.4096 1.0219 0.4103
8.4174 1.2299 0.4142
8.4253 1.4398 0.4184
8.4332 1.6518 0.4228
8.4413 1.8663 0.4275
8.4495 2.0835 0.4325
8.4577 2.3037 0.4378
8.4661 2.5273 0.4435
8.4747 2.7545 0.4495
8.4834 2.9859 0.4558
8.4922 3.2217 0.4625
8.5013 3.4624 0.4696
8.5105 3.7084 0.4772
8.5200 3.9602 0.4851
8.5297 4.2184 0.4935
8.5396 4.4833 0.5024
8.5498 4.7558 0.5119
8.5604 5.0363 0.5218
8.5713 5.3257 0.5324
8.5825 5.6247 0.5436
8.5941 5.9341 0.5555
8.6062 6.2549 0.5681
8.6187 6.5882 0.5815
8.8897 7.1423 0.6136
8.9037 7.5148 0.6292
8.9183 7.9040 0.6459
8.9337 8.3117 0.6636
8.9497 8.7397 0.6826
8.9667 9.1900 0.7030
8.9845 9.6651 0.7249
9.0034 10.1676 0.7483
9.0234 10.7006 0.7736
9.0447 11.2676 0.8009
9.0675 11.8729 0.8305
9.0918 12.5210 0.8626
9.1180 13.2178 0.8975
9.1463 13.9696 0.9356
9.1494 14.7401 0.9745
9.1298 15.5344 1.0145
9.2478 16.6437 1.0745
9.2879 17.7113 1.1310
9.3323 18.8929 1.1941
9.3818 20.2093 1.2651
9.4373 21.6867 1.3454
9.5001 23.3589 1.4369
9.5174 25.1255 1.5335
9.6536 27.4726 1.6646
9.7506 30.0525 1.8086
9.8656 33.1139 1.9806
10.4928 38.6063 2.2960
9.5276 38.7321 2.2917
8.5960 38.9859 2.2960
7.6441 39.1470 2.2960
6.6957 39.3220 2.2979
5.7391 39.4454 2.2979
4.7810 39.5498 2.2979
3.8216 39.6352 2.2979
2.9896 41.4827 2.4010
1.9852 41.5321 2.4010
0.9804 41.5618 2.4010
-0.0247 41.5716 2.4010
-1.0299 41.5616 2.4010
-2.0348 41.5319 2.4010
-2.1109 28.8125 1.6677
-2.3579 24.1531 1.4003
-2.9501 24.1623 1.4039
-3.5462 24.1715 1.4082
-4.1471 24.1809 1.4131
-7.6987 39.1785 2.2979
-8.7385 39.4089 2.3210
-9.6988 39.2265 2.3210
-10.6564 39.0249 2.3210
-11.6112 38.8040 2.3210
-12.5628 38.5637 2.3210
-13.5110 38.3044 2.3210
-14.4556 38.0258 2.3210
-15.3964 37.7279 2.3210
-16.3327 37.4106 2.3210
-17.2646 37.0740 2.3210
-18.1916 36.7181 2.3210
-19.1136 36.3429 2.3210
-20.0302 35.9482 2.3210
-20.9410 35.5343 2.3210
-21.8458 35.1011 2.3210
-20.7929 31.6759 2.1219
-9.0180 13.0396 0.8856
-9.3859 12.8937 0.8884
-23.7742 31.0531 2.1726
-24.1529 30.0157 2.1341
-24.6333 29.1414 2.1075
-25.1963 28.3862 2.0899
-14.7869 15.8691 1.1906
-14.8150 15.1480 1.1592
-14.8419 14.4592 1.1299
-15.2484 14.1531 1.1305
-15.2737 13.5042 1.1040
-15.2981 12.8805 1.0790
-14.9390 11.9732 1.0292
-14.9610 11.4081 1.0076
-6.3520 4.6050 0.4186
-15.0030 10.3330 0.9680
-15.0230 9.8201 0.9499
-15.4277 9.5605 0.9566
-15.4471 9.0633 0.9400
-15.4660 8.5788 0.9243
-15.0978 7.9036 0.8868
-15.1154 7.4530 0.8731
-15.1326 7.0121 0.8602
-15.1495 6.5800 0.8480
-15.1661 6.1559 0.8365
-15.1823 5.7392 0.8256
-15.1983 5.3291 0.8153
-15.2141 4.9251 0.8057
-15.6196 4.6425 0.8170
-15.6354 4.2388 0.8082
-15.6510 3.8395 0.8000
-15.6664 3.4442 0.7922
-15.2902 2.9761 0.7654
-15.3050 2.5968 0.7589
-15.3197 2.2199 0.7528
-15.3344 1.8449 0.7472
-15.3489 1.4714 0.7420
-15.3635 1.0989 0.7373
-22.2618 1.0524 1.0611
-22.2742 0.5140 1.0551
-22.2944 -0.0244 1.0500
-36.2067 -0.9147 1.6965
-28.2603 -1.3978 1.3181
-21.5687 -1.5900 1.0020
-21.5877 -2.1169 0.9994
-37.4162 -4.5842 1.7272
-37.7352 -5.5517 1.7379
-37.9499 -6.5237 1.7448
-38.1227 -7.5059 1.7507
-39.3280 -8.7353 1.8051
-39.3813 -9.7511 1.8077
-39.4353 -10.7820 1.8115
-39.4903 -11.8295 1.8165
-30.3954 -9.9114 1.4009
-39.6031 -13.9811 1.8301
-39.2922 -14.9483 1.8218
-48.9636 -19.9948 2.2793
-49.1306 -21.4620 2.2979
-48.8639 -22.7667 2.2979
-48.5626 -24.0709 2.2979
-50.3903 -26.5119 2.4010
-50.0022 -27.8704 2.4010
-49.5770 -29.2250 2.4010
-49.1144 -30.5746 2.4010
-48.6143 -31.9180 2.4010
-48.0764 -33.2542 2.4010
-30.4918 -22.1988 1.5413
-44.8725 -34.3569 2.2979
-44.2478 -35.6065 2.2978
-16.0794 -13.5945 1.0815
-16.1095 -14.3012 1.1023
-16.1409 -15.0418 1.1248
-16.1740 -15.8195 1.1492
-16.2042 -16.6336 1.1754
-16.2413 -17.4981 1.2042
-16.2807 -18.4132 1.2355
-16.3206 -19.3822 1.2695
-16.3648 -20.4158 1.3066
-27.9932 -36.7054 2.2979
-27.8865 -38.4574 2.3575
-26.9448 -39.1128 2.3501
-25.9955 -39.7571 2.3436
-23.1347 -37.3197 2.1603
-21.9366 -37.3733 2.1264
-20.7686 -37.4256 2.0948
-19.6284 -37.4766 2.0653
-16.7138 -33.8783 1.8399
-17.4223 -37.5753 2.0126
-16.3524 -37.6231 1.9892
-15.3022 -37.6701 1.9675
-14.2698 -37.7163 1.9476
-13.2250 -37.6804 1.9252
-12.2234 -37.7180 1.9082
-11.2363 -37.7582 1.8930
-11.1278 -40.9897 2.0380
-11.3329 -46.1232 2.2759
-10.3264 -46.8864 2.2978
-9.2012 -47.1741 2.2979
-8.0671 -47.4285 2.2979
-7.2357 -49.7865 2.4010
-6.0355 -49.9816 2.4010
-1.5902 -16.5101 0.7906
-1.1912 -16.5465 0.7904
-0.7913 -16.5726 0.7902
-0.3909 -16.5880 0.7901
0.0098 -16.5928 0.7901
0.4105 -16.5871 0.7901
2.3580 -48.1859 2.2979
3.5198 -48.0986 2.2979
1.7987 -18.4461 0.8835
5.1746 -42.4307 2.0389
5.0947 -34.7663 1.6772
5.4992 -32.1013 1.5560
4.9115 -25.0231 1.2195
5.2130 -23.5366 1.1541
5.4923 -22.2395 1.0980
5.7453 -21.0646 1.0480
5.9445 -19.8896 0.9979
5.9239 -18.2061 0.9218
6.3829 -18.1175 0.9264
6.5606 -17.2785 0.8930
6.7272 -16.5047 0.8629
6.7734 -15.5338 0.8221
6.9014 -14.8384 0.7956
7.0614 -14.2707 0.7759
6.7378 -12.8276 0.7078
6.6217 -11.8992 0.6669
6.6695 -11.3321 0.6456
6.8257 -10.9818 0.6366
7.1480 -10.9038 0.6437
7.4095 -10.7284 0.6456
6.9941 -9.6214 0.5907
7.2958 -9.5430 0.5984
7.6804 -9.5585 0.6128
8.0396 -9.5248 0.6249
7.1947 -8.1177 0.5457
7.2339 -7.7752 0.5361
7.6462 -7.8303 0.5544
8.0409 -7.8461 0.5712
8.2050 -7.6281 0.5717
7.2078 -6.3835 0.4931
7.4734 -6.3033 0.5026
7.8677 -6.3171 0.5207
8.1984 -6.2630 0.5345
7.0349 -5.1099 0.4523
6.8660 -4.7381 0.4357
6.7916 -4.4485 0.4258
6.7617 -4.1991 0.4191
6.7707 -3.9814 0.4153
6.8093 -3.7857 0.4137
6.9000 -3.6208 0.4156
6.9918 -3.4562 0.4177
7.0838 -3.2912 0.4202
7.1604 -3.1188 0.4219
7.3131 -2.9772 0.4284
7.4751 -2.8347 0.4357
7.6755 -2.7004 0.4454
7.9997 -2.5991 0.4625
8.2784 -2.4702 0.4771
8.2864 -2.2561 0.4764
8.2944 -2.0443 0.4760
8.3023 -1.8347 0.4759
8.3101 -1.6269 0.4761
8.3178 -1.4207 0.4766
8.3255 -1.2158 0.4774
8.3332 -1.0119 0.4784
8.3408 -0.8089 0.4797
8.3484 -0.6065 0.4813
8.3560 -0.4043 0.4832
8.3636 -0.2023 0.4853
8.3712 -0.0002 0.4878
8.3788 0.2023 0.4905
8.3864 0.4054 0.4936
8.3941 0.6094 0.4969
8.4018 0.8145 0.5005
8.4095 1.0209 0.5045
8.4173 1.2289 0.5087
8.4252 1.4388 0.5133
8.4332 1.6508 0.5183
8.4413 1.8653 0.5236
8.4494 2.0824 0.5292
8.4577 2.3026 0.5353
8.4661 2.5262 0.5417
8.4746 2.7535 0.5485
8.4833 2.9848 0.5558
8.4922 3.2206 0.5635
8.5012 3.4613 0.5716
8.5105 3.7073 0.5803
8.5199 3.9591 0.5895
8.5296 4.2172 0.5993
8.5114 4.4674 0.6076
8.5234 4.7399 0.6187
8.5340 5.0196 0.6303
8.5448 5.3081 0.6426
8.5560 5.6061 0.6556
8.5941 5.9328 0.6716
8.6061 6.2536 0.6864
8.6186 6.5868 0.7021
8.8897 7.1409 0.7403
8.9037 7.5133 0.7587
8.9183 7.9026 0.7783
8.9336 8.3102 0.7993
8.9497 8.7382 0.8217
8.9666 9.1884 0.8457
8.9845 9.6635 0.8715
9.0033 10.1659 0.8993
9.0234 10.6989 0.9292
9.0447 11.2658 0.9615
9.0674 11.8710 0.9965
9.0918 12.5191 1.0346
9.1179 13.2158 1.0760
9.1462 13.9675 1.1212
9.1493 14.7379 1.1674
9.1297 15.5321 1.2147
9.2477 16.6413 1.2861
9.2878 17.7088 1.3533
9.3322 18.8902 1.4284
9.3817 20.2064 1.5128
9.4372 21.6837 1.6083
9.5000 23.3557 1.7172
9.5185 25.1254 1.8324
9.6535 27.4688 1.9883
9.7504 30.0484 2.1599
9.5790 32.1481 2.2960
8.7900 32.3373 2.2960
7.9980 32.5101 2.2960
7.2035 32.6664 2.2960
6.4121 32.8335 2.2979
5.6126 32.9571 2.2979
4.8112 33.0641 2.2979
4.0084 33.1547 2.2979
3.2977 34.1972 2.3649
2.5068 34.7797 2.4010
1.6647 34.8227 2.4010
0.8221 34.8484 2.4010
-0.0207 34.8568 2.4010
-0.8636 34.8482 2.4010
-1.7062 34.8222 2.4010
-1.8345 25.0365 1.7284
-2.3582 24.1531 1.6703
-2.9504 24.1623 1.6747
-3.5467 24.1716 1.6800
-4.1476 24.1809 1.6861
-6.4523 32.8315 2.2979
-7.2499 32.6912 2.2979
-8.0452 32.5345 2.2979
-8.9266 32.6862 2.3210
-9.7245 32.4947 2.3210
-10.5192 32.2866 2.3210
-11.3105 32.0618 2.3210
-12.0982 31.8205 2.3210
-12.8820 31.5626 2.3210
-13.6615 31.2881 2.3210
-14.4366 30.9972 2.3210
-15.2069 30.6896 2.3210
-15.9722 30.3656 2.3210
-16.7321 30.0251 2.3210
-17.4864 29.6683 2.3210
-18.2348 29.2950 2.3210
-18.9769 28.9053 2.3210
-9.0186 13.0386 1.0619
-9.3876 12.8941 1.0659
-21.1631 27.6385 2.3210
-21.8609 27.1633 2.3193
-22.5422 26.6634 2.3167
-23.2388 26.1766 2.3167
-14.7870 15.8666 1.4317
-14.8151 15.1456 1.3948
-14.8420 14.4568 1.3602
-14.8678 13.7974 1.3278
-14.8936 13.1658 1.2975
-15.0800 12.6946 1.2828
-14.9391 11.9710 1.2420
-14.9611 11.4060 1.2167
-6.3519 4.6041 0.5058
-15.0031 10.3309 1.1705
-15.0231 9.8180 1.1494
-15.4277 9.5584 1.1584
-15.4472 9.0612 1.1391
-15.4661 8.5767 1.1209
-15.0979 7.9016 1.0762
-15.1155 7.4511 1.0605
-15.1327 7.0102 1.0456
-15.1496 6.5781 1.0316
-15.1661 6.1540 1.0184
-15.1824 5.7373 1.0060
-15.1984 5.3272 0.9943
-15.2142 4.9233 0.9834
-15.6197 4.6406 0.9981
-15.6355 4.2369 0.9882
-15.6511 3.8376 0.9791
-15.6665 3.4423 0.9705
