ply
format ascii 1.0
element vertex 2146
property float32 x
property float32 y
property float32 z
end_header
-5.4765 -13.4858 2.4021
-5.1507 -13.6179 2.4021
-4.8217 -13.7417 2.4021
-4.4896 -13.8574 2.4021
-4.1547 -13.9648 2.4021
-3.8171 -14.0638 2.4021
-3.4771 -14.1543 2.4021
-3.1348 -14.2363 2.4021
-2.7906 -14.3097 2.4021
-2.4446 -14.3746 2.4021
-0.8873 -6.1057 1.0164
-0.7373 -6.1062 1.0131
-0.5882 -6.1067 1.0105
-0.4398 -6.1072 1.0085
-0.2918 -6.1077 1.0071
-0.1442 -6.1082 1.0063
0.0033 -6.1087 1.0062
0.1508 -6.1092 1.0066
0.2986 -6.1096 1.0076
0.4467 -6.1101 1.0093
0.5953 -6.1106 1.0116
0.7447 -6.1111 1.0145
2.0211 -13.8020 2.2990
2.3533 -13.7468 2.2990
2.6839 -13.6832 2.2990
3.0128 -13.6115 2.2990
3.3397 -13.5315 2.2990
3.6645 -13.4435 2.2990
3.9869 -13.3474 2.2990
4.3066 -13.2433 2.2990
4.6236 -13.1313 2.2990
4.9376 -13.0114 2.2990
5.2485 -12.8839 2.2990
5.5559 -12.7486 2.2990
5.8202 -12.5207 2.2835
6.2304 -12.5982 2.3254
6.5910 -12.5551 2.3471
6.8455 -12.3083 2.3322
6.9352 -11.7900 2.2662
7.0208 -11.3020 2.2054
7.1030 -10.8413 2.1494
7.1848 -10.4088 2.0985
7.3426 -10.1066 2.0739
7.4179 -9.7083 2.0294
7.4900 -9.3270 1.9880
7.4769 -8.8635 1.9283
7.5427 -8.5155 1.8928
7.6109 -8.1854 1.8609
6.9702 -7.1424 1.6626
6.8467 -6.6850 1.5952
6.8506 -6.3730 1.5608
6.7596 -5.9905 1.5076
6.8791 -5.8059 1.5036
6.9820 -5.6098 1.4970
7.0639 -5.4001 1.4872
7.3509 -5.3433 1.5211
7.5417 -5.2083 1.5352
6.2330 -4.0857 1.2493
6.3944 -3.9741 1.2629
6.7304 -3.9609 1.3110
7.1280 -3.9663 1.3704
7.3908 -3.8817 1.4036
7.3945 -3.6586 1.3882
7.3980 -3.4405 1.3739
7.4015 -3.2270 1.3608
6.4971 -2.6478 1.1833
6.5077 -2.4705 1.1750
6.5185 -2.2961 1.1675
6.8775 -2.2373 1.2228
7.4644 -2.2303 1.3182
7.5115 -2.0481 1.3185
7.5542 -1.8649 1.3188
7.5910 -1.6805 1.3188
7.5926 -1.4894 1.3136
7.5942 -1.3000 1.3091
6.5757 -0.9628 1.1302
6.5794 -0.8015 1.1281
7.4600 -0.7263 1.2767
8.2971 -0.6058 1.4183
8.2996 -0.4047 1.4178
8.3025 -0.2039 1.4183
7.8112 -0.0030 1.3350
7.4673 0.1776 1.2777
7.2740 0.3490 1.2467
7.1131 0.5139 1.2219
7.0691 0.6828 1.2179
6.9885 0.8459 1.2082
6.9035 1.0054 1.1983
6.8716 1.1710 1.1983
6.8358 1.3357 1.1983
6.7979 1.4997 1.1986
6.8288 1.6806 1.2119
6.8605 1.8654 1.2261
7.0096 2.0891 1.2624
7.1272 2.3132 1.2943
7.8145 2.7467 1.4318
8.2801 3.1373 1.5318
8.2830 3.3695 1.5481
8.2859 3.6065 1.5657
8.2889 3.8488 1.5845
8.2920 4.0967 1.6047
8.2951 4.3508 1.6264
8.2983 4.6117 1.6496
8.3016 4.8799 1.6743
8.3050 5.1560 1.7008
8.3085 5.4408 1.7292
8.3121 5.7351 1.7594
8.3159 6.0395 1.7918
8.3198 6.3552 1.8264
8.3238 6.6831 1.8633
8.3280 7.0243 1.9029
8.3324 7.3801 1.9453
8.3370 7.7519 1.9907
8.3417 8.1412 2.0394
8.3468 8.5498 2.0918
8.3521 8.9798 2.1480
8.3577 9.4333 2.2087
8.3636 9.9129 2.2741
8.3436 10.3890 2.3374
8.1196 10.6266 2.3471
7.8567 10.8149 2.3471
7.5895 10.9969 2.3471
7.3183 11.1725 2.3471
7.0431 11.3417 2.3471
6.7641 11.5042 2.3471
6.4815 11.6602 2.3471
6.0685 11.5674 2.2990
5.7850 11.7069 2.2990
5.4984 11.8396 2.2990
5.2089 11.9656 2.2990
4.9166 12.0847 2.2990
4.6217 12.1969 2.2990
4.3243 12.3022 2.2990
4.0246 12.4004 2.2990
3.7227 12.4916 2.2990
3.4189 12.5757 2.2990
3.1132 12.6526 2.2990
2.8058 12.7224 2.2990
2.4970 12.7849 2.2990
2.1868 12.8402 2.2990
1.9595 13.4662 2.4021
1.6331 13.5087 2.4021
1.3058 13.5436 2.4021
0.9778 13.5708 2.4021
0.6493 13.5904 2.4021
0.3203 13.6023 2.4021
-0.0087 13.6065 2.4021
-0.3379 13.6030 2.4021
-0.6668 13.5918 2.4021
-0.9955 13.5729 2.4021
-1.3237 13.5463 2.4021
-1.6511 13.5121 2.4021
-1.9778 13.4702 2.4021
-2.3034 13.4207 2.4021
-2.6278 13.3635 2.4021
-2.9509 13.2988 2.4021
-3.2724 13.2265 2.4021
-3.5922 13.1467 2.4021
-3.9102 13.0594 2.4021
-4.2261 12.9646 2.4021
-4.5397 12.8625 2.4021
-4.8510 12.7530 2.4021
-5.1598 12.6362 2.4021
-5.4658 12.5121 2.4021
-5.7690 12.3809 2.4021
-5.9833 12.0694 2.3682
-6.0924 11.5771 2.2989
-6.3733 11.4312 2.2989
-6.6508 11.2787 2.2989
-6.9248 11.1196 2.2989
-6.4246 9.7812 2.0527
-7.4615 10.7822 2.2989
-7.7240 10.6040 2.2989
-7.9823 10.4195 2.2989
-8.2363 10.2289 2.2989
-8.4860 10.0323 2.2989
-8.7310 9.8297 2.2989
-8.9714 9.6214 2.2989
-8.7355 8.9255 2.1812
-9.4374 9.1874 2.2989
-9.6628 8.9621 2.2989
-9.8824 8.7309 2.2987
-10.0900 8.4890 2.2971
-10.2991 8.2480 2.2971
-10.5026 8.0020 2.2971
-10.7003 7.7510 2.2971
-10.8922 7.4953 2.2971
-11.0780 7.2349 2.2971
-11.2578 6.9699 2.2971
-11.4313 6.7006 2.2971
-11.5985 6.4271 2.2971
-11.7593 6.1494 2.2971
-11.9135 5.8678 2.2971
-12.0611 5.5823 2.2971
-12.2019 5.2932 2.2971
-12.3359 5.0007 2.2971
-12.4630 4.7047 2.2971
-12.5830 4.4056 2.2971
-12.6960 4.1035 2.2971
-12.8018 3.7985 2.2971
-12.9003 3.4908 2.2971
-12.9915 3.1806 2.2971
-13.0753 2.8681 2.2971
-13.1516 2.5533 2.2971
-13.2205 2.2366 2.2971
-13.2817 1.9181 2.2971
-13.3353 1.5979 2.2971
-13.0911 1.2486 2.2473
-13.4193 0.9533 2.2971
-13.4497 0.6293 2.2971
-13.4723 0.3044 2.2971
-13.4871 -0.0212 2.2971
-13.4939 -0.3474 2.2971
-13.4929 -0.6739 2.2971
-13.4840 -1.0005 2.2971
-13.4671 -1.3271 2.2971
-13.4423 -1.6534 2.2971
-13.4095 -1.9794 2.2971
-13.3688 -2.3046 2.2971
-13.3202 -2.6291 2.2971
-13.2637 -2.9525 2.2971
-13.1992 -3.2747 2.2971
-13.1269 -3.5955 2.2971
-12.9947 -3.8991 2.2880
-12.9586 -4.2321 2.2971
-12.8627 -4.5474 2.2971
-12.7591 -4.8606 2.2971
-12.6478 -5.1714 2.2971
-12.5288 -5.4796 2.2971
-12.4022 -5.7849 2.2971
-12.2680 -6.0873 2.2971
-12.1264 -6.3866 2.2971
-11.9774 -6.6825 2.2971
-11.8210 -6.9748 2.2971
-11.6573 -7.2634 2.2971
-11.4865 -7.5480 2.2971
-11.3086 -7.8286 2.2971
-11.1238 -8.1048 2.2971
-10.9320 -8.3766 2.2971
-10.7335 -8.6437 2.2971
-9.6951 -8.2021 2.2603
-9.6618 -8.5826 2.2989
-9.4571 -8.8184 2.2989
-8.9203 -8.7299 2.2177
-9.0303 -9.2749 2.2989
-8.8084 -9.4952 2.2989
-8.5809 -9.7101 2.2989
-8.3481 -9.9193 2.2989
-8.1101 -10.1229 2.2989
-7.8670 -10.3206 2.2989
-7.6190 -10.5122 2.2989
-7.3662 -10.6977 2.2989
-7.1087 -10.8770 2.2989
-6.8468 -11.0499 2.2989
-6.5806 -11.2162 2.2989
-6.3102 -11.3760 2.2989
-6.2695 -11.9754 2.3879
-6.0163 -12.1997 2.4021
-5.7218 -12.3452 2.4021
-5.4237 -12.4834 2.4021
-5.1222 -12.6142 2.4021
-4.8175 -12.7375 2.4021
-4.5097 -12.8532 2.4021
-4.1990 -12.9612 2.4021
-3.8857 -13.0614 2.4021
-3.5699 -13.1538 2.4021
-3.2519 -13.2383 2.4021
-2.9318 -13.3149 2.4021
-2.6099 -13.3835 2.4021
-2.2863 -13.4440 2.4021
-0.8873 -6.1058 1.0867
-0.7373 -6.1063 1.0832
-0.5882 -6.1068 1.0804
-0.4398 -6.1073 1.0783
-0.2918 -6.1077 1.0768
-0.1442 -6.1082 1.0760
0.0033 -6.1087 1.0758
0.1508 -6.1092 1.0763
0.2985 -6.1097 1.0774
0.4466 -6.1102 1.0792
0.5953 -6.1107 1.0816
0.7446 -6.1112 1.0847
1.8901 -12.9089 2.2990
2.2008 -12.8573 2.2990
2.5101 -12.7981 2.2990
2.8177 -12.7311 2.2990
3.1235 -12.6566 2.2990
3.4273 -12.5744 2.2990
3.7289 -12.4848 2.2990
4.0281 -12.3876 2.2990
4.3246 -12.2831 2.2990
4.6184 -12.1713 2.2990
4.9093 -12.0522 2.2990
5.1970 -11.9260 2.2990
5.4813 -11.7927 2.2990
5.7622 -11.6524 2.2990
6.1657 -11.7459 2.3471
6.4448 -11.5888 2.3471
6.7198 -11.4248 2.3471
6.9905 -11.2541 2.3471
7.1148 -10.8602 2.3012
7.1919 -10.4200 2.2452
7.2654 -10.0011 2.1932
7.3370 -9.6033 2.1453
7.4084 -9.2261 2.1015
7.4768 -8.8641 2.0607
7.5426 -8.5161 2.0227
7.6108 -8.1860 1.9885
6.9708 -7.1438 1.7767
6.8681 -6.7065 1.7098
6.8506 -6.3737 1.6676
6.7595 -5.9910 1.6107
6.8788 -5.8063 1.6063
6.9818 -5.6102 1.5993
7.0635 -5.4004 1.5887
7.3505 -5.3436 1.6248
7.5412 -5.2086 1.6398
6.1691 -4.0444 1.3207
6.3190 -3.9278 1.3330
6.7295 -3.9609 1.4000
7.1270 -3.9663 1.4634
7.2137 -3.7893 1.4630
7.2347 -3.5801 1.4504
7.3126 -3.4013 1.4502
7.3859 -3.2207 1.4499
6.2818 -2.5605 1.2216
6.4365 -2.4440 1.2408
6.4478 -2.2717 1.2329
6.8760 -2.2373 1.3051
7.4161 -2.2164 1.3981
7.4177 -2.0230 1.3899
7.4193 -1.8321 1.3826
7.4209 -1.6434 1.3761
7.4224 -1.4565 1.3705
7.4239 -1.2714 1.3658
6.5071 -0.9532 1.1935
6.5109 -0.7935 1.1913
7.4543 -0.7262 1.3614
8.2972 -0.6064 1.5134
8.2996 -0.4052 1.5128
8.3025 -0.2045 1.5132
7.8122 -0.0036 1.4245
7.7471 0.1837 1.4141
7.4981 0.3593 1.3709
7.1136 0.5134 1.3035
7.0693 0.6823 1.2991
6.9887 0.8455 1.2886
6.8598 0.9986 1.2699
6.8356 1.1644 1.2713
6.8114 1.3305 1.2733
6.7978 1.4992 1.2782
6.8288 1.6801 1.2922
6.8604 1.8649 1.3073
7.0093 2.0886 1.3459
7.1269 2.3126 1.3799
7.8130 2.7457 1.5262
8.2801 3.1367 1.6330
8.2830 3.3689 1.6503
8.2859 3.6059 1.6690
8.2889 3.8482 1.6890
8.2919 4.0961 1.7105
8.2951 4.3502 1.7335
8.2983 4.6111 1.7581
8.3016 4.8793 1.7844
8.3050 5.1554 1.8126
8.3085 5.4402 1.8427
8.3121 5.7344 1.8749
8.3159 6.0389 1.9093
8.3197 6.3546 1.9461
8.3238 6.6824 1.9854
8.3280 7.0236 2.0275
8.3324 7.3794 2.0726
8.3369 7.7511 2.1209
8.3417 8.1405 2.1727
8.3468 8.5491 2.2284
8.3521 8.9790 2.2883
8.3375 9.4098 2.3471
8.1037 9.6041 2.3471
7.8654 9.7928 2.3471
7.6229 9.9757 2.3471
7.3762 10.1528 2.3471
7.1256 10.3240 2.3471
6.8711 10.4891 2.3471
6.6129 10.6482 2.3471
6.3511 10.8010 2.3471
5.9612 10.7234 2.2990
5.6982 10.8608 2.2990
5.4321 10.9920 2.2990
5.1631 11.1169 2.2990
4.8913 11.2354 2.2990
4.6169 11.3474 2.2990
4.3401 11.4530 2.2990
4.0608 11.5520 2.2990
3.7794 11.6444 2.2990
3.4960 11.7301 2.2990
3.2107 11.8092 2.2990
2.9236 11.8816 2.2990
2.6350 11.9472 2.2990
2.3450 12.0060 2.2990
2.0714 12.1619 2.3188
1.8402 12.6459 2.4021
1.5337 12.6859 2.4021
1.2263 12.7187 2.4021
0.9183 12.7443 2.4021
0.6097 12.7627 2.4021
0.3008 12.7739 2.4021
-0.0082 12.7778 2.4021
-0.3174 12.7744 2.4021
-0.6263 12.7639 2.4021
-0.9350 12.7461 2.4021
-1.2431 12.7210 2.4021
-1.5507 12.6888 2.4021
-1.8574 12.6493 2.4021
-2.1632 12.6027 2.4021
-2.4678 12.5489 2.4021
-2.7712 12.4879 2.4021
-3.0731 12.4199 2.4021
-3.3734 12.3447 2.4021
-3.6719 12.2626 2.4021
-3.9685 12.1734 2.4021
-4.2630 12.0773 2.4021
-4.5552 11.9742 2.4021
-4.8450 11.8643 2.4021
-5.1323 11.7476 2.4021
-5.4168 11.6241 2.4021
-5.6984 11.4939 2.4021
-5.9771 11.3570 2.4021
-6.0095 10.7778 2.3088
-6.2441 10.5882 2.2989
-6.5012 10.4386 2.2989
-6.4191 9.7720 2.1846
-7.0047 10.1212 2.2989
-7.2509 9.9536 2.2989
-7.4931 9.7801 2.2989
-7.7314 9.6009 2.2989
-7.9654 9.4160 2.2989
-8.1952 9.2256 2.2989
-8.4205 9.0297 2.2989
-8.6412 8.8284 2.2989
-8.8572 8.6218 2.2989
-9.0685 8.4100 2.2989
-9.2747 8.1932 2.2989
-9.4759 7.9714 2.2989
-9.6719 7.7448 2.2989
-9.8626 7.5135 2.2989
-10.0402 7.2719 2.2971
-10.2198 7.0317 2.2971
-10.3937 6.7871 2.2971
-10.5619 6.5382 2.2971
-10.7242 6.2853 2.2971
-10.8806 6.0284 2.2971
-11.0309 5.7677 2.2971
-11.1750 5.5032 2.2971
-11.3130 5.2352 2.2971
-11.4445 4.9638 2.2971
-11.5697 4.6892 2.2971
-11.6883 4.4115 2.2971
-11.8003 4.1307 2.2971
-11.9057 3.8472 2.2971
-12.0043 3.5610 2.2971
-12.0961 3.2724 2.2971
-12.1810 2.9814 2.2971
-9.5498 2.0941 1.7895
-9.6051 1.8641 1.7895
-12.3938 2.0960 2.2971
-12.4506 1.7972 2.2971
-12.5002 1.4970 2.2971
-12.5426 1.1954 2.2971
-12.5777 0.8927 2.2971
-12.6056 0.5890 2.2971
-12.6261 0.2845 2.2971
-12.6392 -0.0207 2.2971
-12.6450 -0.3263 2.2971
-12.6434 -0.6323 2.2971
-12.6344 -0.9383 2.2971
-12.6179 -1.2442 2.2971
-12.5941 -1.5499 2.2971
-12.5627 -1.8552 2.2971
-12.5240 -2.1598 2.2971
-12.4778 -2.4636 2.2971
-12.4242 -2.7665 2.2971
-12.3632 -3.0681 2.2971
-12.2948 -3.3684 2.2971
-12.2191 -3.6672 2.2971
-9.6222 -3.1431 1.8213
-9.4226 -3.3318 1.7969
-9.3076 -3.5464 1.7895
-9.2259 -3.7729 1.7895
-9.1387 -3.9975 1.7895
-9.0459 -4.2201 1.7895
-11.4860 -5.7001 2.2971
-11.3529 -5.9800 2.2971
-11.2128 -6.2567 2.2971
-11.0659 -6.5301 2.2971
-10.9123 -6.8000 2.2971
-10.7519 -7.0661 2.2971
-10.5850 -7.3284 2.2971
-10.4115 -7.5867 2.2971
-10.2316 -7.8407 2.2971
-10.0530 -8.0966 2.2989
-9.2639 -7.8380 2.2989
-9.0769 -8.0638 2.2989
-8.8843 -8.2850 2.2989
-8.6862 -8.5016 2.2989
-8.4828 -8.7133 2.2989
-8.2740 -8.9200 2.2989
-8.0602 -9.1215 2.2989
-7.8413 -9.3178 2.2989
-7.6175 -9.5088 2.2989
-7.3890 -9.6941 2.2989
-7.1558 -9.8739 2.2989
-6.9182 -10.0479 2.2989
-6.6763 -10.2160 2.2989
-6.4301 -10.3781 2.2989
-6.2518 -10.6565 2.3256
-6.1921 -11.1638 2.4021
-5.9227 -11.3137 2.4021
-5.6496 -11.4570 2.4021
-5.3730 -11.5935 2.4021
-5.0930 -11.7230 2.4021
-4.8098 -11.8457 2.4021
-4.5236 -11.9612 2.4021
-4.2345 -12.0697 2.4021
-3.9428 -12.1709 2.4021
-3.6485 -12.2649 2.4021
-3.3520 -12.3515 2.4021
-3.0534 -12.4308 2.4021
-2.7528 -12.5025 2.4021
-2.4505 -12.5668 2.4021
-2.1467 -12.6236 2.4021
-0.8872 -6.1058 1.1574
-0.7373 -6.1063 1.1537
-0.5882 -6.1068 1.1507
-0.4398 -6.1073 1.1484
-0.2918 -6.1078 1.1468
-0.1442 -6.1083 1.1460
0.0033 -6.1088 1.1458
0.1508 -6.1093 1.1463
0.2985 -6.1097 1.1474
0.4466 -6.1102 1.1493
0.5952 -6.1107 1.1519
0.7446 -6.1112 1.1552
1.7747 -12.1214 2.2990
2.0664 -12.0731 2.2990
2.3568 -12.0176 2.2990
2.6457 -11.9549 2.2990
2.9329 -11.8851 2.2990
3.2182 -11.8081 2.2990
3.5014 -11.7241 2.2990
3.7824 -11.6331 2.2990
4.0610 -11.5351 2.2990
4.3369 -11.4303 2.2990
4.6101 -11.3187 2.2990
4.8804 -11.2004 2.2990
5.1476 -11.0755 2.2990
5.4115 -10.9440 2.2990
5.6719 -10.8061 2.2990
6.0528 -10.8848 2.3471
6.3112 -10.7311 2.3471
6.5656 -10.5711 2.3471
6.8159 -10.4049 2.3471
7.0619 -10.2326 2.3471
7.2779 -10.0193 2.3389
7.3480 -9.6186 2.2872
7.4152 -9.2354 2.2392
7.4797 -8.8683 2.1945
7.5425 -8.5167 2.1530
7.6106 -8.1867 2.1166
6.9715 -7.1452 1.8913
6.8675 -6.7066 1.8197
6.8506 -6.3743 1.7749
6.7594 -5.9916 1.7143
6.8786 -5.8067 1.7095
6.9816 -5.6106 1.7019
7.0632 -5.4008 1.6906
7.3501 -5.3439 1.7289
7.5408 -5.2089 1.7448
6.2244 -4.0811 1.4179
6.2996 -3.9162 1.4140
6.7286 -3.9609 1.4894
7.1261 -3.9663 1.5567
7.2137 -3.7898 1.5565
7.2173 -3.5720 1.5392
7.2208 -3.3591 1.5233
7.2242 -3.1508 1.5086
6.2132 -2.5330 1.2852
6.3667 -2.4179 1.3054
6.3784 -2.2477 1.2972
6.8745 -2.2373 1.3877
7.2380 -2.1637 1.4512
7.2746 -1.9845 1.4496
7.3162 -1.8071 1.4498
7.3535 -1.6289 1.4500
7.3864 -1.4499 1.4502
7.4149 -1.2703 1.4505
6.4396 -0.9437 1.2558
6.4435 -0.7858 1.2534
7.4487 -0.7262 1.4462
8.2972 -0.6069 1.6088
8.2997 -0.4058 1.6081
8.3025 -0.2050 1.6084
7.8132 -0.0041 1.5143
7.7477 0.1832 1.5032
7.4977 0.3588 1.4570
7.1140 0.5130 1.3854
7.0696 0.6819 1.3806
6.9889 0.8450 1.3695
6.8598 0.9982 1.3495
6.9701 1.1869 1.3774
6.9722 1.3614 1.3849
6.9744 1.5377 1.3933
6.9766 1.7160 1.4027
6.8603 1.8644 1.3889
7.0090 2.0880 1.4298
7.1266 2.3120 1.4658
7.6642 2.6929 1.5904
8.2801 3.1361 1.7346
8.2830 3.3684 1.7530
8.2859 3.6054 1.7727
8.2889 3.8476 1.7939
8.2919 4.0955 1.8166
8.2951 4.3496 1.8410
8.2983 4.6105 1.8671
8.3016 4.8786 1.8950
8.3050 5.1548 1.9248
8.3085 5.4395 1.9567
8.3121 5.7338 1.9908
8.3159 6.0382 2.0273
8.3197 6.3539 2.0663
8.3238 6.6817 2.1079
8.3280 7.0229 2.1526
8.3324 7.3787 2.2004
8.3369 7.7504 2.2516
8.3417 8.1397 2.3065
8.2816 8.4816 2.3471
8.0702 8.6753 2.3471
7.8544 8.8638 2.3471
7.6343 9.0471 2.3471
7.4101 9.2251 2.3471
7.1818 9.3977 2.3471
6.9496 9.5647 2.3471
6.7136 9.7262 2.3471
6.4739 9.8821 2.3471
6.2307 10.0321 2.3471
5.8616 9.9679 2.2990
5.6169 10.1034 2.2990
5.3692 10.2331 2.2990
5.1186 10.3569 2.2990
4.8652 10.4748 2.2990
4.6092 10.5866 2.2990
4.3507 10.6923 2.2990
4.0898 10.7919 2.2990
3.8267 10.8854 2.2990
3.5616 10.9726 2.2990
3.2945 11.0535 2.2990
3.0257 11.1281 2.2990
2.7552 11.1964 2.2990
2.4832 11.2584 2.2990
2.2099 11.3139 2.2990
2.0222 11.8724 2.4021
1.7342 11.9170 2.4021
1.4453 11.9547 2.4021
1.1557 11.9857 2.4021
0.8654 12.0098 2.4021
0.5746 12.0272 2.4021
0.2835 12.0377 2.4021
-0.0078 12.0413 2.4021
-0.2991 12.0382 2.4021
-0.5903 12.0282 2.4021
-0.8812 12.0113 2.4021
-1.1716 11.9877 2.4021
-1.4614 11.9572 2.4021
-1.7504 11.9199 2.4021
-2.0386 11.8758 2.4021
-2.3257 11.8250 2.4021
-2.6115 11.7675 2.4021
-2.8960 11.7032 2.4021
-3.1789 11.6322 2.4021
-3.4602 11.5547 2.4021
-3.7396 11.4705 2.4021
-4.0170 11.3797 2.4021
-4.2923 11.2824 2.4021
-4.5654 11.1786 2.4021
-4.8359 11.0684 2.4021
-5.1039 10.9518 2.4021
-5.3692 10.8289 2.4021
-5.6316 10.6998 2.4021
-5.8910 10.5644 2.4021
-6.0069 10.1851 2.3473
-6.1250 9.8337 2.2989
-6.3637 9.6868 2.2989
-6.5990 9.5343 2.2989
-6.8308 9.3761 2.2989
-7.0588 9.2124 2.2989
-7.2830 9.0434 2.2989
-7.5033 8.8689 2.2989
-7.7195 8.6893 2.2989
-7.9315 8.5045 2.2989
-8.1391 8.3146 2.2989
-8.3423 8.1198 2.2989
-8.5410 7.9201 2.2989
-8.7349 7.7156 2.2989
-8.9241 7.5065 2.2989
-9.1084 7.2928 2.2989
-9.2876 7.0746 2.2989
-9.4617 6.8522 2.2989
-9.6306 6.6255 2.2989
-9.7941 6.3948 2.2989
-9.9447 6.1554 2.2971
-10.0971 5.9170 2.2971
-10.2440 5.6749 2.2971
-10.3850 5.4292 2.2971
-10.5203 5.1800 2.2971
-10.6497 4.9275 2.2971
-10.7732 4.6719 2.2971
-10.8905 4.4132 2.2971
-11.0017 4.1515 2.2971
-11.1067 3.8871 2.2971
-11.2054 3.6201 2.2971
-11.2977 3.3506 2.2971
-11.3836 3.0788 2.2971
-11.4630 2.8048 2.2971
-9.3980 2.0602 1.8714
-9.0717 1.7600 1.7961
-9.0845 1.5357 1.7895
-9.1257 1.3167 1.7895
-11.7607 1.4077 2.2971
-11.8001 1.1239 2.2971
-11.8326 0.8390 2.2971
-11.8583 0.5533 2.2971
-11.8770 0.2668 2.2971
-11.8889 -0.0203 2.2971
-11.8938 -0.3077 2.2971
-11.8917 -0.5954 2.2971
-11.8827 -0.8833 2.2971
-11.8667 -1.1710 2.2971
-11.8437 -1.4584 2.2971
-11.8137 -1.7453 2.2971
-11.7767 -2.0317 2.2971
-11.7328 -2.3173 2.2971
-11.6819 -2.6020 2.2971
-11.6240 -2.8855 2.2971
-11.5592 -3.1677 2.2971
-11.4875 -3.4484 2.2971
-9.6217 -3.1436 1.9373
-9.4081 -3.3274 1.9085
-9.2003 -3.5061 1.8817
-8.9979 -3.6803 1.8567
-8.8004 -3.8501 1.8334
-8.6115 -4.0180 1.8125
-10.7951 -5.3580 2.2971
-10.6696 -5.6208 2.2971
-10.5375 -5.8807 2.2971
-10.3991 -6.1374 2.2971
-10.2543 -6.3907 2.2971
-10.1032 -6.6405 2.2971
-9.9535 -6.8920 2.2989
-9.7900 -7.1346 2.2989
-9.6205 -7.3732 2.2989
-9.4451 -7.6077 2.2989
-8.7332 -7.3897 2.2989
-8.5566 -7.6023 2.2989
-8.3749 -7.8107 2.2989
-8.1879 -8.0146 2.2989
-7.9959 -8.2139 2.2989
-7.7989 -8.4085 2.2989
-7.5971 -8.5983 2.2989
-7.3906 -8.7830 2.2989
-7.1795 -8.9628 2.2989
-6.9640 -9.1373 2.2989
-6.7441 -9.3065 2.2989
-6.5200 -9.4702 2.2989
-6.2918 -9.6284 2.2989
-6.2440 -10.0784 2.3688
-6.0854 -10.3737 2.4021
-5.8352 -10.5210 2.4021
-5.5812 -10.6622 2.4021
-5.3238 -10.7970 2.4021
-5.0631 -10.9254 2.4021
-4.7992 -11.0473 2.4021
-4.5322 -11.1627 2.4021
-4.2625 -11.2715 2.4021
-3.9900 -11.3735 2.4021
-3.7151 -11.4687 2.4021
-3.4378 -11.5572 2.4021
-3.1584 -11.6387 2.4021
-2.8769 -11.7132 2.4021
-2.5937 -11.7808 2.4021
-2.3089 -11.8413 2.4021
-2.0226 -11.8947 2.4021
-0.8872 -6.1059 1.2283
-0.7373 -6.1064 1.2244
-0.5882 -6.1069 1.2212
-0.4398 -6.1074 1.2188
-0.2918 -6.1078 1.2171
-0.1442 -6.1083 1.2162
0.0033 -6.1088 1.2160
0.1508 -6.1093 1.2165
0.2985 -6.1098 1.2178
0.4465 -6.1103 1.2198
0.5951 -6.1108 1.2225
0.7445 -6.1113 1.2260
1.7471 -11.9339 2.4021
1.9470 -11.3764 2.2990
2.2207 -11.3242 2.2990
2.4929 -11.2652 2.2990
2.7635 -11.1995 2.2990
3.0324 -11.1271 2.2990
3.2993 -11.0481 2.2990
3.5641 -10.9625 2.2990
3.8266 -10.8704 2.2990
4.0868 -10.7718 2.2990
4.3443 -10.6669 2.2990
4.5991 -10.5556 2.2990
4.8509 -10.4380 2.2990
5.0997 -10.3143 2.2990
5.3453 -10.1846 2.2990
5.5875 -10.0488 2.2990
5.9480 -10.1144 2.3471
6.1880 -9.9638 2.3471
6.4240 -9.8074 2.3471
6.6560 -9.6453 2.3471
6.8838 -9.4776 2.3471
7.1074 -9.3043 2.3471
7.3265 -9.1257 2.3471
7.4919 -8.8836 2.3318
7.5538 -8.5303 2.2874
7.6135 -8.1905 2.2461
6.9722 -7.1466 2.0065
6.8467 -6.6870 1.9243
6.8506 -6.3749 1.8826
6.7593 -5.9921 1.8183
6.8784 -5.8072 1.8131
6.9814 -5.6111 1.8050
7.0628 -5.4011 1.7929
7.3496 -5.3442 1.8334
5.8485 -4.0404 1.4351
6.1513 -4.0337 1.4860
6.3622 -3.9557 1.5143
6.7277 -3.9609 1.5791
7.0278 -3.9121 1.6279
7.0313 -3.6946 1.6086
7.0486 -3.4890 1.5938
7.1253 -3.3153 1.5937
7.1978 -3.1398 1.5935
6.2860 -2.5632 1.3785
6.1578 -2.3390 1.3385
6.3102 -2.2241 1.3604
6.8729 -2.2373 1.4707
7.2380 -2.1642 1.5382
7.2396 -1.9754 1.5290
7.2411 -1.7891 1.5208
7.2426 -1.6049 1.5136
7.2441 -1.4225 1.5074
7.2456 -1.2418 1.5020
6.3732 -0.9344 1.3170
6.3772 -0.7781 1.3145
7.4431 -0.7261 1.5313
8.2973 -0.6075 1.7047
8.2998 -0.4064 1.7039
8.3025 -0.2056 1.7041
7.8142 -0.0046 1.6045
7.6801 0.1811 1.5786
7.4973 0.3583 1.5434
7.1144 0.5125 1.4677
7.0698 0.6814 1.4625
6.9892 0.8446 1.4506
6.8599 0.9977 1.4294
6.9701 1.1864 1.4589
6.9722 1.3610 1.4668
6.9744 1.5373 1.4757
6.9766 1.7156 1.4855
6.8602 1.8639 1.4708
7.0087 2.0874 1.5141
7.1263 2.3114 1.5521
7.8100 2.7435 1.7161
8.2801 3.1355 1.8367
8.2830 3.3678 1.8560
8.2859 3.6048 1.8768
8.2889 3.8470 1.8992
8.2919 4.0949 1.9232
8.2951 4.3490 1.9490
8.2983 4.6099 1.9765
8.3016 4.8780 2.0060
8.3050 5.1541 2.0375
8.3085 5.4389 2.0712
8.3121 5.7331 2.1073
8.3158 6.0376 2.1458
8.3197 6.3532 2.1870
8.3238 6.6810 2.2310
8.3280 7.0222 2.2782
8.3324 7.3780 2.3287
8.2119 7.6335 2.3471
8.0211 7.8261 2.3471
7.8258 8.0141 2.3471
7.6263 8.1973 2.3471
7.4225 8.3757 2.3471
7.2147 8.5491 2.3471
7.0029 8.7175 2.3471
6.7873 8.8808 2.3471
6.5680 9.0389 2.3471
6.3451 9.1917 2.3471
5.9933 9.1478 2.2990
5.7683 9.2869 2.2990
5.5402 9.4206 2.2990
5.3090 9.5489 2.2990
5.0750 9.6717 2.2990
4.8382 9.7888 2.2990
4.5987 9.9004 2.2990
4.3568 10.0062 2.2990
4.1125 10.1063 2.2990
3.8659 10.2006 2.2990
3.6173 10.2890 2.2990
3.3667 10.3715 2.2990
3.1143 10.4482 2.2990
2.8602 10.5188 2.2990
2.6045 10.5834 2.2990
2.3474 10.6420 2.2990
2.0890 10.6946 2.2990
1.9116 11.2226 2.4021
1.6394 11.2648 2.4021
1.3663 11.3005 2.4021
1.0925 11.3298 2.4021
0.8180 11.3526 2.4021
0.5431 11.3690 2.4021
0.2679 11.3790 2.4021
-0.0074 11.3824 2.4021
-0.2828 11.3794 2.4021
-0.5581 11.3699 2.4021
-0.8330 11.3539 2.4021
-1.1076 11.3315 2.4021
-1.3815 11.3026 2.4021
-1.6548 11.2673 2.4021
-1.9271 11.2256 2.4021
-2.1985 11.1774 2.4021
-2.4687 11.1229 2.4021
-2.7376 11.0620 2.4021
-3.0050 10.9948 2.4021
-3.2708 10.9214 2.4021
-3.5349 10.8416 2.4021
-3.7971 10.7557 2.4021
-4.0572 10.6635 2.4021
-4.3152 10.5653 2.4021
-4.5709 10.4609 2.4021
-4.8241 10.3506 2.4021
-5.0748 10.2342 2.4021
-5.3227 10.1120 2.4021
-5.5677 9.9838 2.4021
-5.8097 9.8499 2.4021
-6.0131 9.6532 2.3880
-6.0302 9.1783 2.3050
-6.2363 9.0094 2.2989
-6.4552 8.8598 2.2989
-6.6705 8.7049 2.2989
-6.8822 8.5449 2.2989
-7.0902 8.3799 2.2989
-7.2943 8.2099 2.2989
-7.4944 8.0350 2.2989
-7.6904 7.8554 2.2989
-7.8821 7.6711 2.2989
-8.0696 7.4822 2.2989
-8.2526 7.2888 2.2989
-8.4311 7.0910 2.2989
-8.6049 6.8889 2.2989
-8.7739 6.6826 2.2989
-8.9381 6.4722 2.2989
-9.0973 6.2579 2.2989
-9.2515 6.0397 2.2989
-9.4005 5.8178 2.2989
-9.5443 5.5923 2.2989
-9.6828 5.3632 2.2989
-9.8158 5.1308 2.2989
-9.9357 4.8914 2.2971
-10.0576 4.6528 2.2971
-10.1738 4.4112 2.2971
-10.2842 4.1667 2.2971
-10.3888 3.9195 2.2971
-10.4875 3.6697 2.2971
-10.5803 3.4174 2.2971
-10.6671 3.1629 2.2971
-10.7478 2.9061 2.2971
-10.8223 2.6473 2.2971
-9.5721 2.0977 2.0190
-9.0417 1.7536 1.8963
-8.7163 1.4729 1.8188
-8.6161 1.2426 1.7898
-8.7504 1.0468 1.8107
-11.1379 1.0601 2.2971
-11.1682 0.7912 2.2971
-11.1919 0.5215 2.2971
-11.2092 0.2511 2.2971
-11.2199 -0.0199 2.2971
-11.2241 -0.2912 2.2971
-11.2217 -0.5626 2.2971
-11.2127 -0.8342 2.2971
-11.1972 -1.1056 2.2971
-11.1750 -1.3768 2.2971
-11.1463 -1.6475 2.2971
-11.1109 -1.9176 2.2971
-11.0690 -2.1870 2.2971
-11.0205 -2.4554 2.2971
-10.9655 -2.7228 2.2971
-10.9040 -2.9889 2.2971
-10.8359 -3.2536 2.2971
-10.7614 -3.5167 2.2971
-9.6681 -3.4200 2.0794
-10.5930 -4.0376 2.2971
-9.0066 -3.6844 1.9705
-8.7999 -3.8506 1.9439
-8.6088 -4.0174 1.9213
-10.1801 -5.0535 2.2971
-10.0614 -5.3012 2.2971
-9.9441 -5.5502 2.2989
-9.8131 -5.7922 2.2989
-9.6761 -6.0311 2.2989
-9.5332 -6.2666 2.2989
-9.3845 -6.4988 2.2989
-9.2301 -6.7273 2.2989
-9.0700 -6.9520 2.2989
-8.9043 -7.1728 2.2989
-8.2580 -6.9883 2.2989
-8.0908 -7.1892 2.2989
-7.9187 -7.3860 2.2989
-7.7417 -7.5785 2.2989
-7.5600 -7.7668 2.2989
-7.3736 -7.9506 2.2989
-7.1826 -8.1298 2.2989
-6.9872 -8.3043 2.2989
-6.7875 -8.4740 2.2989
-6.5836 -8.6389 2.2989
-6.3756 -8.7986 2.2989
-6.2302 -9.0499 2.3237
-6.2149 -9.5114 2.4021
-5.9856 -9.6620 2.4021
-5.7525 -9.8068 2.4021
-5.5158 -9.9459 2.4021
-5.2757 -10.0791 2.4021
-5.0323 -10.2064 2.4021
-4.7858 -10.3276 2.4021
-4.5362 -10.4427 2.4021
-4.2839 -10.5517 2.4021
-4.0288 -10.6543 2.4021
-3.7713 -10.7506 2.4021
-3.5114 -10.8406 2.4021
-3.2493 -10.9240 2.4021
-2.9851 -11.0010 2.4021
-2.7191 -11.0714 2.4021
-2.4515 -11.1351 2.4021
-2.1822 -11.1922 2.4021
-1.9117 -11.2427 2.4021
-0.8872 -6.1059 1.2995
-0.7373 -6.1064 1.2954
-0.5882 -6.1069 1.2921
-0.4398 -6.1074 1.2895
-0.2918 -6.1079 1.2878
-0.1442 -6.1084 1.2868
0.0032 -6.1088 1.2865
0.1507 -6.1093 1.2871
0.2984 -6.1098 1.2884
0.4465 -6.1103 1.2905
0.5951 -6.1108 1.2934
0.7444 -6.1113 1.2971
1.6512 -11.2799 2.4021
1.8402 -10.7530 2.2990
2.0988 -10.7038 2.2990
2.3561 -10.6482 2.2990
2.6119 -10.5862 2.2990
2.8661 -10.5179 2.2990
3.1184 -10.4433 2.2990
3.3688 -10.3626 2.2990
3.6170 -10.2757 2.2990
3.8629 -10.1827 2.2990
4.1064 -10.0836 2.2990
4.3473 -9.9785 2.2990
4.5854 -9.8676 2.2990
4.8207 -9.7509 2.2990
5.0529 -9.6284 2.2990
5.2820 -9.5002 2.2990
5.5077 -9.3665 2.2990
5.7300 -9.2273 2.2990
6.0732 -9.2726 2.3471
6.2927 -9.1196 2.3471
6.5082 -8.9612 2.3471
6.7197 -8.7976 2.3471
6.9270 -8.6290 2.3471
7.1300 -8.4553 2.3471
7.3286 -8.2768 2.3471
7.5227 -8.0936 2.3471
6.9729 -7.1480 2.1222
6.8663 -6.7068 2.0409
6.8505 -6.3756 1.9909
6.7592 -5.9926 1.9227
6.8782 -5.8076 1.9171
6.9811 -5.6115 1.9085
7.0625 -5.4015 1.8956
7.3163 -5.3206 1.9298
5.8663 -4.0532 1.5219
6.0796 -3.9872 1.5527
6.3615 -3.9557 1.6008
6.7268 -3.9609 1.6692
7.0278 -3.9127 1.7209
7.0313 -3.6951 1.7005
7.0348 -3.4828 1.6815
7.0382 -3.2752 1.6640
7.0415 -3.0721 1.6478
6.2181 -2.5359 1.4413
6.0919 -2.3145 1.3995
6.2431 -2.2009 1.4226
6.8714 -2.2373 1.5540
7.0934 -2.1214 1.5931
7.1386 -1.9484 1.5933
7.1796 -1.7744 1.5935
7.2163 -1.5995 1.5937
7.2441 -1.4230 1.5928
7.2456 -1.2423 1.5871
6.3078 -0.9253 1.3773
6.3120 -0.7706 1.3747
7.4374 -0.7261 1.6166
8.2974 -0.6081 1.8010
8.2999 -0.4069 1.8001
8.3025 -0.2061 1.8003
7.8152 -0.0051 1.6952
7.7491 0.1823 1.6825
7.4969 0.3577 1.6302
7.1148 0.5121 1.5504
7.0700 0.6810 1.5448
6.9894 0.8441 1.5322
6.8600 0.9973 1.5097
6.9701 1.1859 1.5408
6.9722 1.3605 1.5491
6.9744 1.5368 1.5583
6.9705 1.7136 1.5673
6.8601 1.8634 1.5531
7.0084 2.0869 1.5987
7.1260 2.3108 1.6388
7.8084 2.7425 1.8116
8.2801 3.1350 1.9392
8.2830 3.3672 1.9596
8.2859 3.6042 1.9815
8.2889 3.8464 2.0051
8.2919 4.0943 2.0303
8.2951 4.3484 2.0574
8.2983 4.6092 2.0865
8.3016 4.8774 2.1175
8.3050 5.1535 2.1507
8.3085 5.4383 2.1862
8.3121 5.7325 2.2242
8.3158 6.0369 2.2648
8.3197 6.3525 2.3082
8.2971 6.6589 2.3471
8.1296 6.8543 2.3471
7.9577 7.0455 2.3471
7.7813 7.2326 2.3471
7.6007 7.4153 2.3471
7.4158 7.5936 2.3471
7.2269 7.7673 2.3471
7.0339 7.9366 2.3471
6.8371 8.1011 2.3471
6.6366 8.2608 2.3471
6.4324 8.4158 2.3471
6.2246 8.5657 2.3471
5.8903 8.5322 2.2990
5.6802 8.6693 2.2990
5.4671 8.8013 2.2990
5.2509 8.9282 2.2990
5.0319 9.0499 2.2990
4.8102 9.1664 2.2990
4.5858 9.2776 2.2990
4.3589 9.3834 2.2990
4.1296 9.4838 2.2990
3.8981 9.5788 2.2990
3.6644 9.6683 2.2990
3.4288 9.7522 2.2990
3.1913 9.8305 2.2990
2.9520 9.9033 2.2990
2.7112 9.9703 2.2990
2.4688 10.0316 2.2990
2.2307 10.1126 2.3048
2.0434 10.4605 2.3724
1.8120 10.6377 2.4021
1.5540 10.6777 2.4021
1.2951 10.7116 2.4021
1.0356 10.7394 2.4021
0.7754 10.7610 2.4021
0.5148 10.7766 2.4021
0.2539 10.7860 2.4021
-0.0071 10.7892 2.4021
-0.2681 10.7863 2.4021
-0.5290 10.7773 2.4021
-0.7897 10.7621 2.4021
-1.0499 10.7408 2.4021
-1.3096 10.7134 2.4021
-1.5686 10.6798 2.4021
-1.8268 10.6402 2.4021
-2.0840 10.5945 2.4021
-2.3401 10.5427 2.4021
-2.5950 10.4849 2.4021
-2.8484 10.4211 2.4021
-3.1003 10.3513 2.4021
-3.3506 10.2756 2.4021
-3.5991 10.1940 2.4021
-3.8456 10.1066 2.4021
-4.0901 10.0133 2.4021
-4.3324 9.9143 2.4021
-4.5723 9.8095 2.4021
-4.8098 9.6991 2.4021
-5.0447 9.5830 2.4021
-5.2768 9.4614 2.4021
-5.5061 9.3343 2.4021
-5.7324 9.2018 2.4021
-5.9555 9.0639 2.4021
-6.0260 8.7048 2.3440
-6.1173 8.3953 2.2989
-6.3212 8.2483 2.2989
-6.5217 8.0965 2.2989
-6.7186 7.9400 2.2989
-6.9118 7.7787 2.2989
-7.1013 7.6128 2.2989
-7.2868 7.4424 2.2989
-7.4683 7.2676 2.2989
-7.6457 7.0884 2.2989
-7.8189 6.9050 2.2989
-7.9878 6.7174 2.2989
-8.1522 6.5257 2.2989
-8.3121 6.3301 2.2989
-8.4674 6.1307 2.2989
-8.6180 5.9275 2.2989
-8.7638 5.7206 2.2989
-8.9047 5.5102 2.2989
-9.0406 5.2964 2.2989
-9.1714 5.0793 2.2989
-9.2971 4.8590 2.2989
-9.4176 4.6356 2.2989
-9.5328 4.4093 2.2989
-9.6426 4.1802 2.2989
-9.7469 3.9483 2.2989
-9.8457 3.7139 2.2989
-9.9390 3.4770 2.2989
-10.0189 3.2354 2.2971
-10.1007 2.9942 2.2971
-10.1768 2.7510 2.2971
-10.2470 2.5059 2.2971
-9.5710 2.0968 2.1322
-9.6450 1.8699 2.1366
-8.7143 1.4719 1.9207
-8.5815 1.2370 1.8830
-8.7461 1.0457 1.9117
-10.5436 1.0028 2.2971
-10.5718 0.7482 2.2971
-10.5939 0.4929 2.2971
-10.6099 0.2369 2.2971
-10.6196 -0.0195 2.2971
-10.6232 -0.2763 2.2971
-10.6205 -0.5332 2.2971
-10.6117 -0.7902 2.2971
-10.5966 -1.0470 2.2971
-10.5752 -1.3036 2.2971
-10.5476 -1.5597 2.2971
-10.5138 -1.8153 2.2971
-10.4738 -2.0701 2.2971
-10.4276 -2.3240 2.2971
-10.3751 -2.5769 2.2971
-10.3165 -2.8285 2.2971
-10.2518 -3.0789 2.2971
-10.1809 -3.3277 2.2971
-9.6689 -3.4210 2.1982
-10.0285 -3.8232 2.2989
-9.9394 -4.0668 2.2989
-8.8859 -3.8888 2.0751
-9.7433 -4.5475 2.2989
-9.6364 -4.7843 2.2989
-9.5237 -5.0186 2.2989
-9.4052 -5.2502 2.2989
-9.2810 -5.4789 2.2989
-9.1512 -5.7046 2.2989
-9.0158 -5.9272 2.2989
-8.8749 -6.1465 2.2989
-8.7285 -6.3624 2.2989
-8.5769 -6.5748 2.2989
-8.4200 -6.7834 2.2989
-7.8298 -6.6266 2.2989
-7.6712 -6.8170 2.2989
-7.5078 -7.0034 2.2989
-7.3399 -7.1858 2.2989
-7.1674 -7.3641 2.2989
-6.9905 -7.5382 2.2989
-6.8093 -7.7079 2.2989
-6.6239 -7.8732 2.2989
-6.4345 -8.0339 2.2989
-6.2410 -8.1900 2.2989
-6.2240 -8.5901 2.3674
-6.1051 -8.8689 2.4021
-5.8912 -9.0167 2.4021
-5.6737 -9.1593 2.4021
-5.4527 -9.2964 2.4021
-5.2283 -9.4281 2.4021
-5.0006 -9.5543 2.4021
-4.7698 -9.6747 2.4021
-4.5361 -9.7895 2.4021
-4.2995 -9.8985 2.4021
-4.0603 -10.0016 2.4021
-3.8185 -10.0988 2.4021
-3.5744 -10.1900 2.4021
-3.3280 -10.2751 2.4021
-3.0796 -10.3542 2.4021
-2.8292 -10.4270 2.4021
-2.5771 -10.4936 2.4021
-2.3234 -10.5540 2.4021
-2.0682 -10.6081 2.4021
-1.8118 -10.6558 2.4021
-0.8871 -6.1060 1.3711
-0.7372 -6.1065 1.3668
-0.5881 -6.1069 1.3633
-0.4397 -6.1074 1.3606
-0.2918 -6.1079 1.3587
-0.1442 -6.1084 1.3576
0.0032 -6.1089 1.3574
0.1507 -6.1094 1.3580
0.2984 -6.1099 1.3594
0.4464 -6.1104 1.3616
0.5950 -6.1108 1.3646
0.7444 -6.1113 1.3685
1.5649 -10.6913 2.4021
1.7711 -10.3504 2.3348
1.9892 -10.1454 2.2990
2.2331 -10.0928 2.2990
2.4755 -10.0341 2.2990
2.7164 -9.9695 2.2990
2.9556 -9.8990 2.2990
3.1929 -9.8225 2.2990
3.4283 -9.7403 2.2990
3.6614 -9.6522 2.2990
3.8922 -9.5585 2.2990
4.1206 -9.4591 2.2990
4.3464 -9.3541 2.2990
4.5695 -9.2435 2.2990
4.7897 -9.1276 2.2990
5.0069 -9.0062 2.2990
5.2210 -8.8796 2.2990
5.4319 -8.7478 2.2990
5.6393 -8.6109 2.2990
5.9654 -8.6461 2.3471
6.1699 -8.4961 2.3471
6.3706 -8.3413 2.3471
6.5673 -8.1816 2.3471
6.7599 -8.0171 2.3471
6.9483 -7.8480 2.3471
7.1325 -7.6745 2.3471
6.9736 -7.1494 2.2384
6.8657 -6.7069 2.1522
6.8505 -6.3762 2.0996
6.7591 -5.9932 2.0277
6.8779 -5.8080 2.0217
6.9809 -5.6119 2.0126
7.0621 -5.4018 1.9988
5.6524 -4.1110 1.5721
5.7435 -3.9688 1.5712
5.9635 -3.9116 1.6060
6.3607 -3.9558 1.6877
6.7259 -3.9609 1.7597
6.8382 -3.8077 1.7655
6.8417 -3.5960 1.7445
6.8688 -3.4011 1.7309
6.9443 -3.2321 1.7308
5.7969 -2.5295 1.4301
6.1513 -2.5091 1.5030
6.1645 -2.3425 1.4929
6.2093 -2.1894 1.4914
6.8699 -2.2373 1.6376
7.0545 -2.1103 1.6700
7.0560 -1.9264 1.6599
7.0575 -1.7447 1.6509
7.0590 -1.5652 1.6430
7.0605 -1.3874 1.6361
7.0619 -1.2113 1.6302
6.2435 -0.9162 1.4367
6.2477 -0.7632 1.4339
7.4318 -0.7260 1.7022
8.2975 -0.6086 1.8978
8.2999 -0.4075 1.8967
8.3025 -0.2067 1.8969
7.8162 -0.0056 1.7863
7.7497 0.1818 1.7728
7.4965 0.3572 1.7174
7.1153 0.5116 1.6335
7.0702 0.6805 1.6275
6.9896 0.8437 1.6141
6.8600 0.9968 1.5903
6.9701 1.1855 1.6230
6.9722 1.3600 1.6317
6.9744 1.5363 1.6414
6.9766 1.7146 1.6522
6.8600 1.8629 1.6358
7.0081 2.0863 1.6837
7.1257 2.3102 1.7259
7.7764 2.7307 1.9000
8.2801 3.1344 2.0422
8.2830 3.3666 2.0636
8.2859 3.6036 2.0866
8.2889 3.8458 2.1114
8.2919 4.0937 2.1380
8.2950 4.3478 2.1664
8.2983 4.6086 2.1969
8.3016 4.8768 2.2296
8.3050 5.1529 2.2645
8.3085 5.4376 2.3018
8.3121 5.7318 2.3417
8.1857 5.9418 2.3471
8.0357 6.1350 2.3471
7.8812 6.3246 2.3471
7.7224 6.5103 2.3471
7.5592 6.6921 2.3471
7.3918 6.8699 2.3471
7.2204 7.0436 2.3471
7.0449 7.2131 2.3471
6.8656 7.3784 2.3471
6.6824 7.5393 2.3471
6.4956 7.6958 2.3471
6.3051 7.8477 2.3471
5.9860 7.8312 2.2990
5.7928 7.9709 2.2990
5.5964 8.1060 2.2990
5.3969 8.2363 2.2990
5.1945 8.3619 2.2990
4.9892 8.4825 2.2990
4.7812 8.5983 2.2990
4.5705 8.7091 2.2990
4.3573 8.8149 2.2990
4.1418 8.9155 2.2990
3.9240 9.0111 2.2990
3.7040 9.1014 2.2990
3.4821 9.1865 2.2990
3.2582 9.2664 2.2990
3.0325 9.3409 2.2990
2.8052 9.4101 2.2990
2.5763 9.4738 2.2990
2.3460 9.5322 2.2990
2.1145 9.5851 2.2990
1.9661 10.0644 2.4021
1.7219 10.1082 2.4021
1.4767 10.1463 2.4021
1.2307 10.1785 2.4021
0.9841 10.2049 2.4021
0.7368 10.2255 2.4021
0.4892 10.2403 2.4021
0.2413 10.2492 2.4021
-0.0068 10.2523 2.4021
-0.2548 10.2495 2.4021
-0.5028 10.2409 2.4021
-0.7505 10.2265 2.4021
-0.9978 10.2062 2.4021
-1.2446 10.1800 2.4021
-1.4907 10.1481 2.4021
-1.7360 10.1104 2.4021
-1.9804 10.0669 2.4021
-2.2237 10.0176 2.4021
-2.4659 9.9626 2.4021
-2.7067 9.9019 2.4021
-2.9461 9.8355 2.4021
-3.1839 9.7634 2.4021
-3.4199 9.6858 2.4021
-3.6541 9.6026 2.4021
-3.8864 9.5138 2.4021
-4.1165 9.4196 2.4021
-4.3445 9.3199 2.4021
-4.5700 9.2148 2.4021
-4.7931 9.1044 2.4021
-5.0136 8.9888 2.4021
-5.2314 8.8679 2.4021
-5.4463 8.7418 2.4021
-5.6582 8.6106 2.4021
-5.8670 8.4744 2.4021
-6.0301 8.2748 2.3853
-6.0439 7.8857 2.3136
-6.1956 7.6910 2.2989
-6.3825 7.5421 2.2989
-6.5659 7.3887 2.2989
-6.7457 7.2310 2.2989
-6.9218 7.0689 2.2989
-7.0940 6.9027 2.2989
-7.2624 6.7323 2.2989
-7.4267 6.5579 2.2989
-7.5869 6.3796 2.2989
-7.7429 6.1974 2.2989
-7.8946 6.0115 2.2989
-8.0419 5.8219 2.2989
-8.1847 5.6287 2.2989
-8.3229 5.4321 2.2989
-8.4565 5.2322 2.2989
-8.5853 5.0290 2.2989
-8.7093 4.8227 2.2989
-8.8284 4.6134 2.2989
-8.9425 4.4011 2.2989
-9.0516 4.1861 2.2989
-9.1556 3.9684 2.2989
-9.2544 3.7481 2.2989
-9.3479 3.5255 2.2989
-9.4362 3.3005 2.2989
-9.5190 3.0733 2.2989
-9.5965 2.8441 2.2989
-9.6684 2.6129 2.2989
-9.7348 2.3800 2.2989
-9.5700 2.0959 2.2459
-9.6455 1.8694 2.2509
-9.9004 1.6716 2.2989
-8.8629 1.2770 2.0489
-9.9752 1.1919 2.2972
-10.0070 0.9511 2.2971
-10.0335 0.7095 2.2971
-10.0541 0.4671 2.2971
-10.0689 0.2242 2.2971
-10.0779 -0.0192 2.2971
-10.0809 -0.2628 2.2971
-10.0781 -0.5067 2.2971
-10.0693 -0.7505 2.2971
-10.0547 -0.9942 2.2971
-10.0341 -1.2376 2.2971
-10.0082 -1.4806 2.2972
-9.9828 -1.7242 2.2989
-9.9445 -1.9661 2.2989
-9.9002 -2.2071 2.2989
-9.8502 -2.4471 2.2989
-9.7942 -2.6860 2.2989
-9.7324 -2.9236 2.2989
-9.6648 -3.1597 2.2989
-9.5915 -3.3942 2.2989
-9.5124 -3.6270 2.2989
-9.4276 -3.8580 2.2989
-8.8854 -3.8892 2.1877
-9.2410 -4.3137 2.2989
-9.1393 -4.5382 2.2989
-9.0322 -4.7602 2.2989
-8.9195 -4.9797 2.2989
-8.8015 -5.1965 2.2989
-8.6781 -5.4104 2.2989
-8.5495 -5.6213 2.2989
-8.4156 -5.8291 2.2989
-8.2767 -6.0337 2.2989
-8.1327 -6.2349 2.2989
-7.9837 -6.4326 2.2989
-7.4421 -6.2991 2.2989
-7.2911 -6.4798 2.2989
-7.1357 -6.6569 2.2989
-6.9759 -6.8301 2.2989
-6.8119 -6.9994 2.2989
-6.6436 -7.1647 2.2989
-6.4713 -7.3259 2.2989
-6.2950 -7.4829 2.2989
-6.2132 -7.7583 2.3358
-6.1973 -8.1332 2.4021
-6.0012 -8.2833 2.4021
-5.8015 -8.4285 2.4021
-5.5982 -8.5689 2.4021
-5.3914 -8.7042 2.4021
-5.1813 -8.8344 2.4021
-4.9680 -8.9594 2.4021
-4.7516 -9.0791 2.4021
-4.5323 -9.1935 2.4021
-4.3101 -9.3025 2.4021
-4.0853 -9.4059 2.4021
-3.8579 -9.5038 2.4021
-3.6282 -9.5960 2.4021
-3.3962 -9.6826 2.4021
-3.1621 -9.7634 2.4021
-2.9260 -9.8384 2.4021
-2.6881 -9.9075 2.4021
-2.4486 -9.9708 2.4021
-2.2075 -10.0281 2.4021
-1.9651 -10.0794 2.4021
-1.7214 -10.1247 2.4021
-0.8871 -6.1060 1.4431
-0.7372 -6.1065 1.4385
-0.5881 -6.1070 1.4348
-0.4397 -6.1075 1.4320
-0.2918 -6.1080 1.4300
-0.1442 -6.1085 1.4289
0.0032 -6.1089 1.4286
0.1507 -6.1094 1.4292
0.2983 -6.1099 1.4307
0.4464 -6.1104 1.4330
0.5950 -6.1109 1.4362
0.7443 -6.1114 1.4403
1.4868 -10.1586 2.4021
1.7313 -10.1185 2.4021
1.8899 -9.6400 2.2990
2.1217 -9.5901 2.2990
2.3521 -9.5345 2.2990
2.5810 -9.4732 2.2990
2.8083 -9.4062 2.2990
3.0338 -9.3337 2.2990
2.2970 -6.5266 1.6212
2.4532 -6.4677 1.6212
3.6984 -9.0831 2.2990
3.9154 -8.9888 2.2990
4.1301 -8.8891 2.2990
4.3421 -8.7842 2.2990
4.5514 -8.6742 2.2990
4.7579 -8.5590 2.2990
4.9614 -8.4388 2.2990
5.1619 -8.3137 2.2990
5.3591 -8.1838 2.2990
5.5530 -8.0490 2.2990
5.7435 -7.9096 2.2990
6.0544 -7.9280 2.3471
6.2414 -7.7764 2.3471
6.4246 -7.6202 2.3471
6.6039 -7.4597 2.3471
6.7791 -7.2949 2.3471
6.9500 -7.1259 2.3471
6.7252 -6.5703 2.2180
6.8492 -6.3756 2.2085
6.7590 -5.9937 2.1331
6.8777 -5.8085 2.1267
6.9807 -5.6124 2.1171
7.0618 -5.4021 2.1026
5.6523 -4.1114 1.6537
5.6558 -3.9087 1.6275
6.0227 -3.9508 1.7060
6.3600 -3.9558 1.7750
6.7250 -3.9609 1.8506
6.8382 -3.8082 1.8569
6.8417 -3.5965 1.8348
6.8451 -3.3899 1.8142
6.8484 -3.1879 1.7952
5.8846 -2.5683 1.5267
6.0856 -2.4828 1.5637
6.0993 -2.3182 1.5533
6.2080 -2.1894 1.5680
6.8684 -2.2373 1.7217
6.9520 -2.0802 1.7306
6.9965 -1.9106 1.7307
7.0368 -1.7401 1.7308
7.0590 -1.5657 1.7275
7.0605 -1.3879 1.7202
7.0619 -1.2118 1.7139
6.1802 -0.9074 1.4951
6.1845 -0.7559 1.4922
7.4261 -0.7260 1.7881
8.2976 -0.6092 1.9950
8.3000 -0.4080 1.9939
8.3025 -0.2072 1.9939
7.8172 -0.0062 1.8779
7.7504 0.1812 1.8636
7.4961 0.3567 1.8050
7.1157 0.5112 1.7170
7.0704 0.6801 1.7106
6.9898 0.8433 1.6965
6.8601 0.9964 1.6714
6.9701 1.1850 1.7057
6.9722 1.3595 1.7148
6.9744 1.5358 1.7249
6.9766 1.7141 1.7362
6.8600 1.8624 1.7189
7.0078 2.0857 1.7691
7.1254 2.3096 1.8134
7.8054 2.7403 2.0039
8.2801 3.1338 2.1458
8.2830 3.3660 2.1682
8.2859 3.6030 2.1923
8.2889 3.8452 2.2183
8.2919 4.0931 2.2461
8.2950 4.3472 2.2760
8.2982 4.6080 2.3080
8.3015 4.8761 2.3422
8.1943 5.0836 2.3471
8.0649 5.2776 2.3471
7.9311 5.4685 2.3471
7.7928 5.6560 2.3471
7.6502 5.8401 2.3471
7.5033 6.0206 2.3471
7.3522 6.1976 2.3471
7.1970 6.3708 2.3471
7.0378 6.5402 2.3471
6.8747 6.7058 2.3471
6.7077 6.8673 2.3471
6.5371 7.0248 2.3471
6.3628 7.1781 2.3471
6.1850 7.3272 2.3471
5.8808 7.3189 2.2990
5.7000 7.4564 2.2990
5.5161 7.5896 2.2990
5.3292 7.7183 2.2990
5.1393 7.8426 2.2990
4.9466 7.9622 2.2990
4.7512 8.0773 2.2990
4.5531 8.1876 2.2990
4.3526 8.2932 2.2990
4.1496 8.3940 2.2990
3.9444 8.4900 2.2990
3.7370 8.5811 2.2990
3.5276 8.6672 2.2990
3.3162 8.7483 2.2990
3.1030 8.8245 2.2990
2.8881 8.8955 2.2990
2.6716 8.9614 2.2990
2.4536 9.0222 2.2990
2.2344 9.0779 2.2990
2.0343 9.2211 2.3224
1.8725 9.5848 2.4021
1.6400 9.6266 2.4021
1.4064 9.6628 2.4021
1.1721 9.6936 2.4021
0.9372 9.7187 2.4021
0.7018 9.7384 2.4021
0.4659 9.7524 2.4021
0.2298 9.7609 2.4021
-0.0065 9.7639 2.4021
-0.2427 9.7612 2.4021
-0.4789 9.7530 2.4021
-0.7148 9.7392 2.4021
-0.9503 9.7198 2.4021
-1.1854 9.6949 2.4021
-1.4197 9.6644 2.4021
-1.6534 9.6284 2.4021
-1.8861 9.5869 2.4021
-2.1179 9.5399 2.4021
-2.3485 9.4875 2.4021
-2.5778 9.4296 2.4021
-2.8058 9.3663 2.4021
-3.0322 9.2976 2.4021
-3.2570 9.2235 2.4021
-3.4800 9.1442 2.4021
-3.7011 9.0595 2.4021
-3.9203 8.9697 2.4021
-4.1372 8.8746 2.4021
-4.3520 8.7745 2.4021
-4.5644 8.6692 2.4021
-4.7743 8.5589 2.4021
-4.9815 8.4437 2.4021
-5.1861 8.3235 2.4021
-5.3878 8.1985 2.4021
-5.5866 8.0686 2.4021
-5.7823 7.9341 2.4021
-5.9748 7.7949 2.4021
-6.0396 7.4967 2.3536
-6.0770 7.1803 2.2989
-6.2582 7.0417 2.3013
-6.4225 6.8839 2.2989
-6.5900 6.7295 2.2989
-6.7539 6.5711 2.2989
-6.9140 6.4087 2.2989
-7.0703 6.2426 2.2989
-7.2226 6.0726 2.2989
-7.3709 5.8991 2.2989
-7.5152 5.7219 2.2989
-7.6552 5.5413 2.2989
-7.7909 5.3573 2.2989
-7.9223 5.1700 2.2989
-8.0493 4.9796 2.2989
-8.1717 4.7860 2.2989
-8.2895 4.5896 2.2989
-8.4026 4.3902 2.2989
-8.5110 4.1881 2.2989
-8.6146 3.9833 2.2989
-8.7134 3.7760 2.2989
-8.8071 3.5663 2.2989
-8.8959 3.3543 2.2989
-8.9796 3.1401 2.2989
-9.0582 2.9239 2.2989
-9.1316 2.7057 2.2989
-9.1998 2.4856 2.2989
-9.2628 2.2639 2.2989
-9.3204 2.0406 2.2989
-9.3726 1.8158 2.2989
-9.4195 1.5897 2.2989
-8.8633 1.2764 2.1537
-9.4968 1.1341 2.2989
-9.5273 0.9049 2.2989
-9.5522 0.6748 2.2989
-9.5716 0.4441 2.2989
-9.5854 0.2128 2.2989
-9.5936 -0.0189 2.2989
-9.5963 -0.2508 2.2989
-9.5933 -0.4829 2.2989
-9.5847 -0.7150 2.2989
-9.5704 -0.9469 2.2989
-9.5505 -1.1786 2.2989
-9.5250 -1.4098 2.2989
-9.4939 -1.6405 2.2989
-9.4572 -1.8704 2.2989
-9.4149 -2.0996 2.2989
-9.3670 -2.3278 2.2989
-9.3135 -2.5548 2.2989
-9.2545 -2.7806 2.2989
-9.1900 -3.0051 2.2989
-9.1199 -3.2280 2.2989
-9.0445 -3.4493 2.2989
-8.9636 -3.6688 2.2989
-8.8773 -3.8863 2.2989
-8.7857 -4.1018 2.2989
-8.6888 -4.3151 2.2989
-8.5867 -4.5261 2.2989
-8.4794 -4.7346 2.2989
-8.3670 -4.9406 2.2989
-8.2495 -5.1438 2.2989
-8.1270 -5.3442 2.2989
-7.9996 -5.5416 2.2989
-7.8673 -5.7359 2.2989
-7.7303 -5.9270 2.2989
-7.5885 -6.1148 2.2989
-7.0891 -6.0010 2.2989
-6.9452 -6.1730 2.2989
-6.7970 -6.3415 2.2989
-6.6447 -6.5064 2.2989
-6.4883 -6.6676 2.2989
-6.3279 -6.8249 2.2989
-6.2066 -7.0269 2.3149
-6.2086 -7.3807 2.3805
-6.0855 -7.5995 2.4021
-5.9024 -7.7468 2.4021
-5.7156 -7.8897 2.4021
-5.5253 -8.0279 2.4021
-5.3316 -8.1614 2.4021
-5.1346 -8.2902 2.4021
-4.9344 -8.4140 2.4021
-4.7312 -8.5330 2.4021
-4.5251 -8.6469 2.4021
-4.3162 -8.7557 2.4021
-4.1046 -8.8594 2.4021
-3.8904 -8.9578 2.4021
-3.6739 -9.0509 2.4021
-3.4551 -9.1387 2.4021
-3.2341 -9.2210 2.4021
-3.0112 -9.2979 2.4021
-2.7863 -9.3693 2.4021
-2.5598 -9.4350 2.4021
-2.3317 -9.4952 2.4021
-2.1021 -9.5497 2.4021
-1.8712 -9.5986 2.4021
-1.6392 -9.6417 2.4021
-0.8871 -6.1061 1.5154
-0.7372 -6.1066 1.5106
-0.5881 -6.1070 1.5067
-0.4397 -6.1075 1.5037
-0.2918 -6.1080 1.5017
-0.1443 -6.1085 1.5005
0.0032 -6.1090 1.5002
0.1506 -6.1095 1.5009
0.2983 -6.1100 1.5024
0.4463 -6.1104 1.5048
0.5949 -6.1109 1.5082
0.7442 -6.1114 1.5124
1.4157 -9.6741 2.4021
1.6486 -9.6359 2.4021
1.7996 -9.1804 2.2990
2.0203 -9.1329 2.2990
2.2398 -9.0800 2.2990
2.4578 -9.0217 2.2990
2.6742 -8.9580 2.2990
2.8890 -8.8890 2.2990
2.2732 -6.4596 1.6848
2.4251 -6.3941 1.6828
3.5220 -8.6507 2.2990
3.7288 -8.5609 2.2990
3.9332 -8.4661 2.2990
4.1352 -8.3664 2.2990
4.3346 -8.2617 2.2990
4.5313 -8.1521 2.2990
4.7253 -8.0378 2.2990
4.9162 -7.9188 2.2990
5.1041 -7.7951 2.2990
5.2889 -7.6669 2.2990
5.4704 -7.5342 2.2990
5.6485 -7.3972 2.2990
5.8231 -7.2558 2.2990
6.1195 -7.2590 2.3471
6.2904 -7.1063 2.3471
6.4574 -6.9494 2.3471
6.6204 -6.7886 2.3471
6.7793 -6.6239 2.3471
6.7150 -6.2513 2.2729
6.7589 -5.9943 2.2392
6.8775 -5.8089 2.2324
6.9804 -5.6128 2.2222
7.0614 -5.4025 2.2069
5.6946 -4.1427 1.7488
5.7098 -3.9465 1.7246
6.0217 -3.9507 1.7903
6.3592 -3.9558 1.8627
6.6503 -3.9175 1.9207
6.6538 -3.7060 1.8963
6.6572 -3.5000 1.8736
6.7278 -3.3323 1.8713
5.7116 -2.6592 1.5712
5.7708 -2.5190 1.5711
5.8268 -2.3776 1.5712
5.8794 -2.2350 1.5712
6.3207 -2.2296 1.6752
6.8622 -2.2358 1.8049
6.8637 -2.0542 1.7927
6.8652 -1.8752 1.7818
6.8666 -1.6985 1.7720
6.8681 -1.5238 1.7634
6.8695 -1.3509 1.7559
6.8709 -1.1795 1.7495
6.1178 -0.8986 1.5527
6.1222 -0.7487 1.5496
7.4204 -0.7259 1.8743
8.2976 -0.6098 2.0928
8.3001 -0.4086 2.0916
8.3026 -0.2078 2.0916
7.8182 -0.0067 1.9701
7.6828 0.1791 1.9376
7.4956 0.3562 1.8931
7.1161 0.5108 1.8009
7.0707 0.6796 1.7941
6.9900 0.8428 1.7793
6.8602 0.9959 1.7529
6.9700 1.1845 1.7888
6.9722 1.3591 1.7983
6.9744 1.5354 1.8089
6.9766 1.7137 1.8207
6.8599 1.8619 1.8025
7.0075 2.0851 1.8550
7.1251 2.3090 1.9014
7.8038 2.7392 2.1007
8.2801 3.1332 2.2499
8.2829 3.3654 2.2733
8.2859 3.6024 2.2986
8.2889 3.8446 2.3257
8.2646 4.0790 2.3471
8.1594 4.2755 2.3471
8.0497 4.4694 2.3471
7.9353 4.6604 2.3471
7.8166 4.8486 2.3471
7.6934 5.0339 2.3471
7.5659 5.2160 2.3471
7.4341 5.3950 2.3471
7.2982 5.5708 2.3471
7.1582 5.7431 2.3471
7.0142 5.9121 2.3471
6.8662 6.0774 2.3471
6.7145 6.2392 2.3471
6.5590 6.3972 2.3471
6.3998 6.5515 2.3471
6.2371 6.7018 2.3471
5.9465 6.7079 2.2990
5.7805 6.8474 2.2990
5.6112 6.9828 2.2990
5.4388 7.1141 2.2990
5.2634 7.2413 2.2990
5.0851 7.3642 2.2990
4.9040 7.4829 2.2990
4.7201 7.5972 2.2990
4.5337 7.7070 2.2990
4.3448 7.8124 2.2990
4.1534 7.9133 2.2990
3.9598 8.0096 2.2990
3.7640 8.1012 2.2990
3.5661 8.1882 2.2990
3.3663 8.2705 2.2990
3.1646 8.3480 2.2990
2.9612 8.4207 2.2990
2.7561 8.4885 2.2990
2.5495 8.5515 2.2990
2.3416 8.6096 2.2990
2.1323 8.6627 2.2990
2.0080 9.1015 2.4021
1.7870 9.1466 2.4021
1.5651 9.1865 2.4021
1.3422 9.2211 2.4021
1.1186 9.2504 2.4021
0.8944 9.2745 2.4021
0.6697 9.2932 2.4021
0.4446 9.3066 2.4021
0.2193 9.3147 2.4021
-0.0062 9.3175 2.4021
-0.2317 9.3150 2.4021
-0.4571 9.3071 2.4021
-0.6822 9.2939 2.4021
-0.9070 9.2754 2.4021
-1.1313 9.2516 2.4021
-1.3549 9.2225 2.4021
-1.5779 9.1881 2.4021
-1.8000 9.1484 2.4021
-2.0212 9.1035 2.4021
-2.2412 9.0534 2.4021
-2.4600 8.9980 2.4021
-2.6776 8.9375 2.4021
-2.8936 8.8719 2.4021
-3.1081 8.8012 2.4021
-3.3209 8.7253 2.4021
-3.5319 8.6445 2.4021
-3.7409 8.5587 2.4021
-3.9479 8.4679 2.4021
-4.1528 8.3722 2.4021
-4.3554 8.2716 2.4021
-4.5556 8.1663 2.4021
-4.7533 8.0562 2.4021
-4.9485 7.9414 2.4021
-5.1408 7.8220 2.4021
-5.3304 7.6980 2.4021
-5.5171 7.5695 2.4021
-5.7007 7.4366 2.4021
-5.8811 7.2993 2.4021
-6.0440 7.1407 2.3964
-6.0522 6.8093 2.3328
-6.1274 6.5669 2.2989
-6.2871 6.4195 2.2989
-6.4433 6.2682 2.2989
-6.5959 6.1132 2.2989
-6.7448 5.9546 2.2989
-6.8900 5.7924 2.2989
-7.0314 5.6267 2.2989
-7.1688 5.4576 2.2989
-7.3022 5.2851 2.2989
-7.4315 5.1095 2.2989
-7.5567 4.9308 2.2989
-7.6776 4.7490 2.2989
-7.7942 4.5643 2.2989
-7.9063 4.3768 2.2989
-8.0141 4.1866 2.2989
-8.1173 3.9937 2.2989
-8.2159 3.7983 2.2989
-8.3098 3.6005 2.2989
-8.3990 3.4005 2.2989
-8.4835 3.1982 2.2989
-8.5631 2.9938 2.2989
-8.6378 2.7875 2.2989
-8.7076 2.5794 2.2989
-8.7724 2.3695 2.2989
-8.8322 2.1580 2.2989
-8.8869 1.9451 2.2989
-8.9365 1.7307 2.2989
-8.9809 1.5151 2.2989
-8.8638 1.2759 2.2590
-9.0542 1.0806 2.2989
-9.0830 0.8620 2.2989
-9.1065 0.6427 2.2989
-9.1247 0.4227 2.2989
-9.1376 0.2022 2.2989
-9.1452 -0.0187 2.2989
-9.1475 -0.2397 2.2989
-9.1444 -0.4609 2.2989
-9.1359 -0.6821 2.2989
-9.1221 -0.9032 2.2989
-9.1029 -1.1239 2.2989
-9.0784 -1.3443 2.2989
-9.0485 -1.5641 2.2989
-9.0132 -1.7832 2.2989
-8.9727 -2.0016 2.2989
-8.9268 -2.2190 2.2989
-8.8756 -2.4353 2.2989
-8.8191 -2.6504 2.2989
-8.7574 -2.8643 2.2989
-8.6904 -3.0766 2.2989
-8.6183 -3.2874 2.2989
-8.5410 -3.4964 2.2989
-8.4586 -3.7036 2.2989
-8.3711 -3.9089 2.2989
-8.2786 -4.1120 2.2989
-8.1811 -4.3129 2.2989
-8.0787 -4.5115 2.2989
-7.9714 -4.7076 2.2989
-7.8593 -4.9011 2.2989
-7.7424 -5.0919 2.2989
-7.6209 -5.2798 2.2989
-7.4947 -5.4648 2.2989
-7.3640 -5.6468 2.2989
-7.2287 -5.8255 2.2989
-6.7664 -5.7284 2.2989
-6.6289 -5.8925 2.2989
-6.4874 -6.0532 2.2989
-6.3419 -6.2105 2.2989
-6.2058 -6.3778 2.3038
-6.2000 -6.6875 2.3600
-6.1467 -6.9597 2.4021
-5.9791 -7.1085 2.4021
-5.8077 -7.2532 2.4021
-5.6329 -7.3937 2.4021
-5.4545 -7.5299 2.4021
-5.2729 -7.6617 2.4021
-5.0879 -7.7890 2.4021
-4.8999 -7.9118 2.4021
-4.7088 -8.0299 2.4021
-4.5148 -8.1433 2.4021
-4.3181 -8.2519 2.4021
-4.1187 -8.3557 2.4021
-3.9167 -8.4545 2.4021
-3.7123 -8.5483 2.4021
-3.5057 -8.6371 2.4021
-3.2969 -8.7208 2.4021
-3.0860 -8.7993 2.4021
-2.8732 -8.8726 2.4021
-2.6587 -8.9406 2.4021
-2.4425 -9.0033 2.4021
-2.2248 -9.0607 2.4021
-2.0058 -9.1127 2.4021
-1.7855 -9.1592 2.4021
-1.5641 -9.2003 2.4021
-0.8870 -6.1061 1.5881
-0.7372 -6.1066 1.5831
-0.5881 -6.1071 1.5790
-0.4397 -6.1076 1.5759
-0.2918 -6.1081 1.5737
-0.1443 -6.1085 1.5725
0.0032 -6.1090 1.5722
0.1506 -6.1095 1.5729
0.2983 -6.1100 1.5745
0.4463 -6.1105 1.5770
0.5949 -6.1110 1.5805
0.7442 -6.1115 1.5850
1.3508 -9.2314 2.4021
1.5730 -9.1950 2.4021
1.7850 -9.1066 2.3899
1.9277 -8.7151 2.2990
2.1371 -8.6647 2.2990
2.3452 -8.6091 2.2990
2.5518 -8.5484 2.2990
2.7567 -8.4827 2.2990
2.2700 -6.4510 1.7631
2.4236 -6.3907 1.7625
3.3608 -8.2555 2.2990
3.5582 -8.1700 2.2990
3.7533 -8.0796 2.2990
3.9461 -7.9845 2.2990
4.1365 -7.8847 2.2990
4.3243 -7.7802 2.2990
4.5094 -7.6712 2.2990
4.6917 -7.5577 2.2990
4.8711 -7.4398 2.2990
5.0475 -7.3176 2.2990
5.2208 -7.1911 2.2990
5.3909 -7.0604 2.2990
5.5576 -6.9257 2.2990
5.7210 -6.7869 2.2990
6.0038 -6.7831 2.3471
6.1633 -6.6336 2.3471
6.3190 -6.4802 2.3471
6.4708 -6.3231 2.3471
6.6187 -6.1624 2.3471
6.7626 -5.9981 2.3471
6.8772 -5.8094 2.3386
6.9802 -5.6133 2.3279
7.0611 -5.4028 2.3118
5.6983 -4.1459 1.8332
5.7089 -3.9464 1.8062
6.0209 -3.9507 1.8751
6.3584 -3.9559 1.9509
6.6290 -3.9054 2.0054
6.6538 -3.7066 1.9862
6.6571 -3.5005 1.9624
6.6604 -3.2995 1.9404
5.6712 -2.6408 1.6340
5.6724 -2.4765 1.6175
5.6748 -2.3160 1.6026
