ply
format ascii 1.0
element vertex 2178
property float32 x
property float32 y
property float32 z
end_header
2.7082 -7.6969 2.2991
2.8925 -7.6278 2.2991
3.0751 -7.5542 2.2991
2.3196 -5.3265 1.6380
2.4121 -5.1929 1.6147
2.5463 -5.1525 1.6212
3.7853 -7.2158 2.2991
3.9572 -7.1205 2.2991
4.1268 -7.0210 2.2991
4.2938 -6.9174 2.2991
4.4581 -6.8097 2.2991
4.6198 -6.6981 2.2991
4.7785 -6.5826 2.2991
4.9344 -6.4633 2.2991
5.0873 -6.3402 2.2991
5.2370 -6.2134 2.2991
5.3835 -6.0830 2.2991
5.5268 -5.9492 2.2991
5.6667 -5.8119 2.2991
5.8031 -5.6713 2.2991
6.0602 -5.6430 2.3472
6.1922 -5.4929 2.3472
6.3204 -5.3397 2.3472
6.4449 -5.1834 2.3472
6.5654 -5.0242 2.3472
6.6819 -4.8622 2.3472
6.7945 -4.6975 2.3472
6.9029 -4.5301 2.3472
6.9950 -4.3526 2.3431
7.0889 -4.1770 2.3411
7.2029 -4.0131 2.3472
7.2944 -3.8363 2.3472
5.7271 -2.8376 1.8211
5.7280 -2.6678 1.8012
6.0674 -2.6495 1.8882
6.4990 -2.6530 2.0029
6.5663 -2.4972 2.0054
6.6214 -2.3367 2.0054
6.6726 -2.1750 2.0054
6.6838 -2.0014 1.9946
6.6854 -1.8272 1.9823
6.6871 -1.6551 1.9714
5.7298 -1.2721 1.6804
5.7296 -1.1276 1.6728
5.7308 -0.9847 1.6665
6.2974 -0.9260 1.8251
6.6924 -0.8194 1.9343
6.6926 -0.6557 1.9302
6.6928 -0.4928 1.9273
6.6931 -0.3305 1.9254
6.6933 -0.1685 1.9247
6.6935 -0.0067 1.9252
6.6937 0.1551 1.9267
6.6940 0.3171 1.9294
5.6995 0.4082 1.6460
5.6996 0.5470 1.6501
8.0818 0.9732 2.3472
8.0519 1.1677 2.3472
7.7889 1.3225 2.2803
7.5153 1.4638 2.2110
7.4658 1.6424 2.2085
7.3337 1.8002 2.1828
7.0982 1.9255 2.1269
7.0171 2.0869 2.1181
6.9367 2.2469 2.1106
6.8393 2.3996 2.0990
6.9634 2.6339 2.1571
6.9645 2.8286 2.1789
6.9656 3.0272 2.2025
6.8489 3.1756 2.1903
7.0338 3.4704 2.2766
7.1600 3.7506 2.3472
7.0642 3.9210 2.3472
6.9643 4.0889 2.3472
6.8605 4.2544 2.3472
6.7529 4.4173 2.3472
6.6414 4.5775 2.3472
6.5261 4.7349 2.3472
6.4072 4.8895 2.3472
6.2847 5.0411 2.3472
6.1586 5.1897 2.3472
5.9055 5.2259 2.2991
5.7753 5.3653 2.2991
5.6419 5.5016 2.2991
5.5053 5.6345 2.2991
5.3656 5.7642 2.2991
5.2229 5.8904 2.2991
5.0773 6.0132 2.2991
4.9288 6.1325 2.2991
4.7776 6.2481 2.2991
4.6237 6.3601 2.2991
4.4673 6.4684 2.2991
4.3084 6.5729 2.2991
4.1470 6.6735 2.2991
3.9834 6.7703 2.2991
3.8175 6.8631 2.2991
3.6495 6.9520 2.2991
3.4795 7.0368 2.2991
3.3075 7.1176 2.2991
3.1337 7.1942 2.2991
2.9582 7.2667 2.2991
2.7810 7.3350 2.2991
2.6023 7.3990 2.2991
2.4222 7.4588 2.2991
2.2406 7.5143 2.2991
2.0579 7.5655 2.2991
1.9517 7.9279 2.3944
1.7648 7.9979 2.4022
1.5706 8.0377 2.4022
1.3755 8.0728 2.4022
1.1797 8.1032 2.4022
0.9832 8.1291 2.4022
0.7861 8.1502 2.4022
0.5886 8.1667 2.4022
0.3908 8.1785 2.4022
0.1927 8.1856 2.4022
-0.0055 8.1880 2.4022
-0.2036 8.1857 2.4022
-0.4017 8.1787 2.4022
-0.5996 8.1670 2.4022
-0.7971 8.1507 2.4022
-0.9942 8.1296 2.4022
-1.1908 8.1039 2.4022
-1.3867 8.0735 2.4022
-1.5819 8.0385 2.4022
-1.7762 7.9988 2.4022
-1.9695 7.9546 2.4022
-2.1618 7.9058 2.4022
-2.3528 7.8524 2.4022
-2.5426 7.7945 2.4022
-2.7310 7.7321 2.4022
-2.9178 7.6652 2.4022
-3.1031 7.5939 2.4022
-3.2867 7.5182 2.4022
-3.4684 7.4381 2.4022
-3.6483 7.3538 2.4022
-3.8261 7.2651 2.4022
-4.0018 7.1723 2.4022
-4.1753 7.0752 2.4022
-4.3465 6.9741 2.4022
-4.5152 6.8688 2.4022
-4.6815 6.7596 2.4022
-4.8452 6.6464 2.4022
-5.0061 6.5293 2.4022
-5.1643 6.4084 2.4022
-5.3196 6.2837 2.4022
-5.4720 6.1552 2.4022
-5.6212 6.0232 2.4022
-5.7674 5.8876 2.4022
-5.9103 5.7485 2.4022
-6.0499 5.6060 2.4022
-6.1082 5.3913 2.3719
-6.1157 5.1402 2.3249
-6.1709 4.9369 2.2989
-6.2911 4.7882 2.2989
-6.4077 4.6366 2.2989
-6.5207 4.4821 2.2989
-6.6301 4.3250 2.2989
-6.7357 4.1652 2.2989
-6.8374 4.0029 2.2989
-6.9353 3.8381 2.2989
-7.0293 3.6709 2.2989
-7.1193 3.5015 2.2989
-7.2052 3.3299 2.2989
-7.2870 3.1562 2.2989
-7.3647 2.9805 2.2989
-7.4381 2.8029 2.2989
-7.5073 2.6235 2.2989
-7.5722 2.4425 2.2989
-7.6328 2.2598 2.2989
-7.6889 2.0757 2.2989
-7.7407 1.8901 2.2989
-7.7880 1.7033 2.2989
-7.8308 1.5154 2.2989
-7.8691 1.3263 2.2989
-7.9028 1.1363 2.2989
-7.9319 0.9455 2.2989
-7.9565 0.7539 2.2989
-7.9764 0.5617 2.2989
-7.9917 0.3690 2.2989
-8.0024 0.1759 2.2989
-8.0083 -0.0175 2.2989
-8.0096 -0.2111 2.2989
-8.0062 -0.4048 2.2989
-7.9981 -0.5984 2.2989
-7.9854 -0.7918 2.2989
-7.9679 -0.9850 2.2989
-7.9458 -1.1778 2.2989
-7.9189 -1.3701 2.2989
-7.8874 -1.5617 2.2989
-7.8513 -1.7526 2.2989
-7.8105 -1.9427 2.2989
-7.7651 -2.1318 2.2989
-7.7150 -2.3199 2.2989
-7.6604 -2.5067 2.2989
-7.6013 -2.6922 2.2989
-7.5376 -2.8764 2.2989
-7.4694 -3.0590 2.2989
-7.3968 -3.2399 2.2989
-7.3197 -3.4191 2.2989
-7.2383 -3.5965 2.2989
-7.1525 -3.7719 2.2989
-7.0625 -3.9452 2.2989
-6.9682 -4.1163 2.2989
-6.8697 -4.2852 2.2989
-6.7671 -4.4516 2.2989
-6.6604 -4.6156 2.2989
-6.5496 -4.7770 2.2989
-6.4350 -4.9356 2.2989
-6.3164 -5.0915 2.2989
-6.1516 -5.2091 2.3801
-6.0822 -5.4077 2.4022
-5.9520 -5.5549 2.4022
-5.8182 -5.6988 2.4022
-5.6809 -5.8396 2.4022
-5.5401 -5.9769 2.4022
-5.3959 -6.1108 2.4022
-5.2485 -6.2411 2.4022
-5.0979 -6.3679 2.4022
-4.9442 -6.4909 2.4022
-4.7874 -6.6101 2.4022
-4.6278 -6.7255 2.4022
-4.4653 -6.8370 2.4022
-4.3001 -6.9445 2.4022
-4.1322 -7.0479 2.4022
-3.9619 -7.1471 2.4022
-3.7891 -7.2422 2.4022
-3.6140 -7.3330 2.4022
-3.4367 -7.4195 2.4022
-3.2573 -7.5017 2.4022
-3.0759 -7.5794 2.4022
-2.8926 -7.6526 2.4022
-2.7075 -7.7213 2.4022
-2.5208 -7.7854 2.4022
-2.3325 -7.8450 2.4022
-2.1428 -7.8999 2.4022
-1.9518 -7.9501 2.4022
-1.7596 -7.9956 2.4022
-1.5663 -8.0363 2.4022
-1.3721 -8.0723 2.4022
-0.8944 -6.1578 1.8254
-0.7432 -6.1580 1.8195
-0.5929 -6.1581 1.8147
-0.4433 -6.1583 1.8111
-0.2942 -6.1584 1.8085
-0.1454 -6.1586 1.8070
0.0032 -6.1588 1.8066
0.1518 -6.1589 1.8072
0.3006 -6.1591 1.8089
0.4498 -6.1592 1.8117
0.5995 -6.1594 1.8156
0.7499 -6.1596 1.8206
0.9524 -6.5095 1.9305
1.3800 -8.0683 2.4022
1.5741 -8.0318 2.4022
1.7672 -7.9905 2.4022
1.8751 -7.6035 2.2991
2.0609 -7.5667 2.3027
2.2390 -7.5019 2.2991
2.4189 -7.4445 2.2991
2.5974 -7.3826 2.2991
2.7742 -7.3164 2.2991
2.9493 -7.2459 2.2991
2.3168 -5.3204 1.7057
2.3770 -5.1178 1.6591
2.5289 -5.1178 1.6788
3.6306 -6.9215 2.2991
3.7956 -6.8302 2.2991
3.9582 -6.7348 2.2991
4.1184 -6.6355 2.2991
4.2761 -6.5323 2.2991
4.4312 -6.4253 2.2991
4.5836 -6.3146 2.2991
4.7332 -6.2002 2.2991
4.8798 -6.0822 2.2991
5.0235 -5.9607 2.2991
5.1642 -5.8357 2.2991
5.3017 -5.7074 2.2991
5.4359 -5.5758 2.2991
5.5669 -5.4410 2.2991
5.6945 -5.3030 2.2991
5.8186 -5.1621 2.2991
6.0634 -5.1231 2.3472
6.1829 -4.9733 2.3472
6.2986 -4.8206 2.3472
6.4105 -4.6653 2.3472
6.5186 -4.5073 2.3472
6.6227 -4.3467 2.3472
6.7228 -4.1838 2.3472
6.8189 -4.0185 2.3472
6.9109 -3.8510 2.3472
6.9988 -3.6814 2.3472
5.7306 -2.8398 1.8991
5.7314 -2.6698 1.8783
6.0664 -2.6495 1.9675
6.4966 -2.6525 2.0866
6.4984 -2.4718 2.0683
6.5001 -2.2944 2.0516
6.5017 -2.1198 2.0363
6.5034 -1.9479 2.0225
6.5050 -1.7783 2.0100
6.5279 -1.6162 2.0054
5.7330 -1.2732 1.7521
5.7328 -1.1286 1.7440
5.7340 -0.9856 1.7375
6.2946 -0.9260 1.9009
6.6588 -0.8157 2.0053
6.6734 -0.6543 2.0054
6.6840 -0.4926 2.0054
6.6907 -0.3308 2.0054
6.6933 -0.1690 2.0053
6.6924 -0.0072 2.0054
6.6874 0.1545 2.0054
6.6785 0.3159 2.0054
5.7413 0.4108 1.7273
5.7416 0.5506 1.7317
7.7579 0.9337 2.3472
7.7294 1.1204 2.3472
7.6963 1.3063 2.3472
7.5160 1.4634 2.3034
7.3207 1.6100 2.2559
7.1722 1.7601 2.2236
7.0984 1.9251 2.2155
7.0173 2.0865 2.2064
6.9369 2.2465 2.1985
6.8394 2.3991 2.1864
6.8450 2.5886 2.2085
6.7850 2.7552 2.2110
6.8137 2.9607 2.2440
6.8488 3.1751 2.2812
6.9628 3.4348 2.3472
6.8748 3.6007 2.3472
6.7829 3.7644 2.3472
6.6871 3.9257 2.3472
6.5876 4.0846 2.3472
6.4843 4.2411 2.3472
6.3773 4.3950 2.3472
6.2668 4.5462 2.3472
6.1526 4.6947 2.3472
5.9114 4.7412 2.2991
5.7929 4.8811 2.2991
5.6711 5.0180 2.2991
5.5462 5.1520 2.2991
5.4181 5.2829 2.2991
5.2870 5.4106 2.2991
5.1529 5.5352 2.2991
5.0159 5.6565 2.2991
4.8761 5.7745 2.2991
4.7336 5.8891 2.2991
4.5884 6.0002 2.2991
4.4407 6.1078 2.2991
4.2905 6.2119 2.2991
4.1379 6.3123 2.2991
3.9829 6.4090 2.2991
3.8258 6.5020 2.2991
3.6665 6.5913 2.2991
3.5052 6.6767 2.2991
3.3419 6.7582 2.2991
3.1768 6.8358 2.2991
3.0099 6.9095 2.2991
2.8413 6.9791 2.2991
2.6712 7.0447 2.2991
2.4995 7.1063 2.2991
2.3265 7.1637 2.2991
2.1521 7.2171 2.2991
1.9766 7.2662 2.2991
1.8807 7.6391 2.4022
1.6951 7.6817 2.4022
1.5086 7.7199 2.4022
1.3212 7.7536 2.4022
1.1331 7.7829 2.4022
0.9443 7.8077 2.4022
0.7550 7.8280 2.4022
0.5653 7.8439 2.4022
0.3753 7.8552 2.4022
0.1851 7.8620 2.4022
-0.0053 7.8643 2.4022
-0.1956 7.8621 2.4022
-0.3859 7.8554 2.4022
-0.5759 7.8441 2.4022
-0.7657 7.8284 2.4022
-0.9550 7.8082 2.4022
-1.1438 7.7834 2.4022
-1.3320 7.7542 2.4022
-1.5194 7.7205 2.4022
-1.7061 7.6824 2.4022
-1.8917 7.6399 2.4022
-2.0764 7.5929 2.4022
-2.2599 7.5416 2.4022
-2.4422 7.4860 2.4022
-2.6231 7.4260 2.4022
-2.8025 7.3617 2.4022
-2.9805 7.2931 2.4022
-3.1567 7.2204 2.4022
-3.3313 7.1434 2.4022
-3.5040 7.0623 2.4022
-3.6747 6.9771 2.4022
-3.8434 6.8879 2.4022
-4.0100 6.7946 2.4022
-4.1744 6.6974 2.4022
-4.3364 6.5963 2.4022
-4.4961 6.4913 2.4022
-4.6532 6.3825 2.4022
-4.8077 6.2700 2.4022
-4.9596 6.1538 2.4022
-5.1087 6.0339 2.4022
-5.2549 5.9105 2.4022
-5.3982 5.7836 2.4022
-5.5385 5.6533 2.4022
-5.6756 5.5197 2.4022
-5.8096 5.3827 2.4022
-5.9404 5.2426 2.4022
-6.0677 5.0993 2.4022
-6.1109 4.8884 2.3708
-6.1175 4.6555 2.3281
-6.1528 4.4515 2.2989
-6.2612 4.3032 2.2989
-6.3661 4.1522 2.2989
-6.4673 3.9987 2.2989
-6.5650 3.8428 2.2989
-6.6588 3.6845 2.2989
-6.7490 3.5240 2.2989
-6.8352 3.3613 2.2989
-6.9176 3.1964 2.2989
-6.9960 3.0296 2.2989
-7.0705 2.8609 2.2989
-7.1408 2.6904 2.2989
-7.2071 2.5181 2.2989
-7.2693 2.3442 2.2989
-7.3273 2.1689 2.2989
-7.3811 1.9921 2.2989
-7.4307 1.8139 2.2989
-7.4759 1.6346 2.2989
-7.5169 1.4541 2.2989
-7.5535 1.2726 2.2989
-7.5857 1.0902 2.2989
-7.6135 0.9070 2.2989
-7.6370 0.7231 2.2989
-7.6559 0.5386 2.2989
-7.6705 0.3537 2.2989
-7.6805 0.1683 2.2989
-7.6861 -0.0173 2.2989
-7.6872 -0.2031 2.2989
-7.6838 -0.3890 2.2989
-7.6759 -0.5748 2.2989
-7.6635 -0.7604 2.2989
-7.6466 -0.9458 2.2989
-7.6252 -1.1308 2.2989
-7.5994 -1.3153 2.2989
-7.5690 -1.4992 2.2989
-7.5342 -1.6824 2.2989
-7.4949 -1.8647 2.2989
-7.4511 -2.0461 2.2989
-7.4030 -2.2265 2.2989
-7.3505 -2.4058 2.2989
-7.2936 -2.5838 2.2989
-7.2324 -2.7604 2.2989
-7.1668 -2.9355 2.2989
-7.0970 -3.1091 2.2989
-7.0229 -3.2810 2.2989
-6.9447 -3.4511 2.2989
-6.8623 -3.6193 2.2989
-6.7758 -3.7856 2.2989
-6.6852 -3.9497 2.2989
-6.5906 -4.1116 2.2989
-6.4920 -4.2712 2.2989
-6.3896 -4.4285 2.2989
-6.2833 -4.5832 2.2989
-6.1732 -4.7353 2.2989
-6.1503 -4.9581 2.3334
-5.9643 -5.0510 2.4022
-5.8427 -5.1953 2.4022
-5.7175 -5.3366 2.4022
-5.5889 -5.4748 2.4022
-5.4569 -5.6099 2.4022
-5.3216 -5.7417 2.4022
-5.1831 -5.8703 2.4022
-5.0415 -5.9954 2.4022
-4.8967 -6.1171 2.4022
-4.7490 -6.2352 2.4022
-4.5984 -6.3497 2.4022
-4.4450 -6.4605 2.4022
-4.2889 -6.5675 2.4022
-4.1302 -6.6706 2.4022
-3.9690 -6.7699 2.4022
-3.8053 -6.8652 2.4022
-3.6393 -6.9564 2.4022
-3.4711 -7.0436 2.4022
-3.3008 -7.1266 2.4022
-3.1285 -7.2055 2.4022
-2.9542 -7.2801 2.4022
-2.7781 -7.3503 2.4022
-2.6004 -7.4163 2.4022
-2.4211 -7.4779 2.4022
-2.2402 -7.5350 2.4022
-2.0580 -7.5877 2.4022
-1.8746 -7.6359 2.4022
-1.6900 -7.6796 2.4022
-1.5044 -7.7187 2.4022
-1.3178 -7.7532 2.4022
-0.8944 -6.1578 1.9005
-0.7432 -6.1580 1.8944
-0.5929 -6.1581 1.8894
-0.4433 -6.1583 1.8856
-0.2942 -6.1584 1.8829
-0.1454 -6.1586 1.8814
0.0032 -6.1588 1.8809
0.1518 -6.1589 1.8816
0.3006 -6.1591 1.8834
0.4497 -6.1592 1.8863
0.5994 -6.1594 1.8903
0.7498 -6.1596 1.8955
0.9428 -6.4447 1.9899
1.3254 -7.7495 2.4022
1.5118 -7.7144 2.4022
1.6972 -7.6748 2.4022
1.8498 -7.5016 2.3616
1.9763 -7.2565 2.2991
2.1504 -7.2056 2.2991
2.3232 -7.1505 2.2991
2.4946 -7.0911 2.2991
2.6645 -7.0276 2.2991
2.8327 -6.9599 2.2991
2.3139 -5.3143 1.7738
2.3755 -5.1149 1.7262
2.5273 -5.1149 1.7467
3.4871 -6.6486 2.2991
3.6456 -6.5609 2.2991
3.8019 -6.4694 2.2991
3.9558 -6.3741 2.2991
4.1074 -6.2750 2.2991
4.2564 -6.1723 2.2991
4.4028 -6.0660 2.2991
4.5465 -5.9562 2.2991
4.6874 -5.8429 2.2991
4.8255 -5.7263 2.2991
4.9607 -5.6063 2.2991
5.0928 -5.4831 2.2991
5.2219 -5.3567 2.2991
5.3477 -5.2273 2.2991
5.4704 -5.0949 2.2991
5.5897 -4.9595 2.2991
5.7056 -4.8213 2.2991
5.8181 -4.6804 2.2991
6.0511 -4.6317 2.3472
6.1587 -4.4825 2.3472
6.2626 -4.3308 2.3472
6.3627 -4.1766 2.3472
6.4590 -4.0201 2.3472
6.5515 -3.8614 2.3472
6.6400 -3.7005 2.3472
6.7245 -3.5376 2.3472
5.7342 -2.8420 1.9778
5.7350 -2.6719 1.9561
6.0654 -2.6495 2.0473
6.4192 -2.6213 2.1457
6.4778 -2.4645 2.1457
6.5000 -2.2948 2.1351
6.5017 -2.1203 2.1191
6.5034 -1.9483 2.1047
6.5050 -1.7788 2.0916
6.5066 -1.6113 2.0800
5.7363 -1.2744 1.8242
5.7361 -1.1297 1.8158
5.7373 -0.9866 1.8090
6.2919 -0.9260 1.9771
6.5115 -0.7981 2.0405
6.5117 -0.6389 2.0361
6.5119 -0.4804 2.0329
6.5122 -0.3224 2.0309
6.5124 -0.1649 2.0301
6.5126 -0.0074 2.0304
6.5128 0.1500 2.0320
6.5130 0.3076 2.0348
5.7445 0.4107 1.7981
5.7448 0.5505 1.8027
7.4570 0.8970 2.3472
7.4297 1.0765 2.3472
7.3981 1.2552 2.3472
7.3622 1.4330 2.3472
7.3221 1.6098 2.3472
7.1726 1.7597 2.3133
7.0986 1.9247 2.3048
7.0175 2.0860 2.2952
6.9371 2.2461 2.2870
6.8395 2.3986 2.2743
6.8124 2.5758 2.2863
6.7850 2.7547 2.2998
6.8519 2.9768 2.3472
6.7750 3.1403 2.3472
6.6943 3.3019 2.3472
6.6098 3.4614 2.3472
6.5215 3.6188 2.3472
6.4295 3.7740 2.3472
6.3339 3.9268 2.3472
6.2347 4.0773 2.3472
6.1319 4.2254 2.3472
5.9022 4.2813 2.2991
5.7948 4.4212 2.2991
5.6842 4.5584 2.2991
5.5703 4.6930 2.2991
5.4532 4.8247 2.2991
5.3332 4.9536 2.2991
5.2101 5.0795 2.2991
5.0840 5.2025 2.2991
4.9551 5.3223 2.2991
4.8235 5.4390 2.2991
4.6891 5.5525 2.2991
4.5521 5.6628 2.2991
4.4125 5.7697 2.2991
4.2705 5.8733 2.2991
4.1261 5.9734 2.2991
3.9793 6.0700 2.2991
3.8304 6.1631 2.2991
3.6793 6.2526 2.2991
3.5261 6.3384 2.2991
3.3710 6.4206 2.2991
3.2140 6.4991 2.2991
3.0552 6.5738 2.2991
2.8947 6.6446 2.2991
2.7326 6.7117 2.2991
2.5690 6.7748 2.2991
2.4039 6.8341 2.2991
2.2375 6.8893 2.2991
2.0698 6.9407 2.2991
1.9475 7.1588 2.3553
1.8088 7.3465 2.4022
1.6303 7.3876 2.4022
1.4509 7.4243 2.4022
1.2707 7.4568 2.4022
1.0898 7.4850 2.4022
0.9082 7.5088 2.4022
0.7262 7.5284 2.4022
0.5437 7.5436 2.4022
0.3610 7.5545 2.4022
0.1780 7.5611 2.4022
-0.0051 7.5633 2.4022
-0.1882 7.5612 2.4022
-0.3712 7.5547 2.4022
-0.5539 7.5439 2.4022
-0.7364 7.5287 2.4022
-0.9185 7.5092 2.4022
-1.1001 7.4854 2.4022
-1.2811 7.4573 2.4022
-1.4614 7.4249 2.4022
-1.6408 7.3882 2.4022
-1.8194 7.3472 2.4022
-1.9970 7.3021 2.4022
-2.1735 7.2527 2.4022
-2.3488 7.1991 2.4022
-2.5227 7.1413 2.4022
-2.6953 7.0795 2.4022
-2.8664 7.0135 2.4022
-3.0359 6.9435 2.4022
-3.2038 6.8694 2.4022
-3.3698 6.7914 2.4022
-3.5340 6.7094 2.4022
-3.6962 6.6235 2.4022
-3.8564 6.5337 2.4022
-4.0144 6.4402 2.4022
-4.1702 6.3429 2.4022
-4.3237 6.2418 2.4022
-4.4747 6.1372 2.4022
-4.6233 6.0289 2.4022
-4.7693 5.9171 2.4022
-4.9126 5.8018 2.4022
-5.0531 5.6830 2.4022
-5.1909 5.5610 2.4022
-5.3257 5.4356 2.4022
-5.4575 5.3070 2.4022
-5.5863 5.1753 2.4022
-5.7119 5.0404 2.4022
-5.8343 4.9026 2.4022
-5.9534 4.7618 2.4022
-6.0692 4.6182 2.4022
-6.1135 4.4226 2.3757
-6.1179 4.2042 2.3363
-6.1279 3.9964 2.3016
-6.2180 3.8441 2.2989
-6.3293 3.7043 2.3053
-6.4019 3.5419 2.2989
-6.4885 3.3875 2.2989
-6.5713 3.2310 2.2989
-6.6504 3.0725 2.2989
-6.7257 2.9120 2.2989
-6.7971 2.7498 2.2989
-6.8647 2.5858 2.2989
-6.9283 2.4202 2.2989
-6.9879 2.2530 2.2989
-7.0436 2.0844 2.2989
-7.0952 1.9144 2.2989
-7.1427 1.7431 2.2989
-7.1860 1.5707 2.2989
-7.2253 1.3972 2.2989
-7.2603 1.2227 2.2989
-7.2912 1.0474 2.2989
-7.3178 0.8713 2.2989
-7.3402 0.6945 2.2989
-7.3583 0.5172 2.2989
-7.3722 0.3394 2.2989
-7.3817 0.1613 2.2989
-7.3870 -0.0172 2.2989
-7.3879 -0.1957 2.2989
-7.3845 -0.3743 2.2989
-7.3768 -0.5529 2.2989
-7.3647 -0.7313 2.2989
-7.3484 -0.9094 2.2989
-7.3277 -1.0871 2.2989
-7.3027 -1.2644 2.2989
-7.2734 -1.4411 2.2989
-7.2398 -1.6171 2.2989
-7.2019 -1.7923 2.2989
-7.1598 -1.9666 2.2989
-7.1134 -2.1399 2.2989
-7.0628 -2.3121 2.2989
-7.0080 -2.4831 2.2989
-6.9491 -2.6528 2.2989
-6.8860 -2.8210 2.2989
-6.8188 -2.9877 2.2989
-6.7475 -3.1528 2.2989
-6.6723 -3.3162 2.2989
-6.5930 -3.4778 2.2989
-6.5098 -3.6374 2.2989
-6.4226 -3.7951 2.2989
-6.3317 -3.9506 2.2989
-6.2369 -4.1038 2.2989
-6.1552 -4.2665 2.3052
-6.1477 -4.4848 2.3414
-6.1490 -4.7173 2.3837
-6.0823 -4.9038 2.4022
-5.7369 -4.8589 2.4022
-5.6198 -4.9976 2.4022
-5.4994 -5.1334 2.4022
-5.3756 -5.2664 2.4022
-5.2486 -5.3962 2.4022
-5.1184 -5.5230 2.4022
-4.9852 -5.6466 2.4022
-4.8488 -5.7669 2.4022
-4.7096 -5.8838 2.4022
-4.5675 -5.9974 2.4022
-4.4226 -6.1074 2.4022
-4.2750 -6.2139 2.4022
-4.1249 -6.3167 2.4022
-3.9722 -6.4159 2.4022
-3.8171 -6.5113 2.4022
-3.6597 -6.6029 2.4022
-3.5000 -6.6906 2.4022
-3.3382 -6.7744 2.4022
-3.1744 -6.8542 2.4022
-3.0086 -6.9300 2.4022
-2.8411 -7.0017 2.4022
-2.6717 -7.0692 2.4022
-2.5008 -7.1326 2.4022
-2.3283 -7.1918 2.4022
-2.1544 -7.2467 2.4022
-1.9792 -7.2974 2.4022
-1.8027 -7.3437 2.4022
-1.6252 -7.3857 2.4022
-1.4467 -7.4233 2.4022
-1.2673 -7.4565 2.4022
-0.8943 -6.1578 1.9761
-0.7432 -6.1579 1.9698
-0.5929 -6.1581 1.9646
-0.4433 -6.1583 1.9607
-0.2942 -6.1584 1.9579
-0.1454 -6.1586 1.9563
0.0031 -6.1587 1.9558
0.1517 -6.1589 1.9565
0.3005 -6.1591 1.9583
0.4497 -6.1592 1.9614
0.5994 -6.1594 1.9656
0.7498 -6.1596 1.9710
0.9393 -6.4211 2.0615
1.2746 -7.4529 2.4022
1.4538 -7.4193 2.4022
1.6322 -7.3812 2.4022
1.8095 -7.3387 2.4022
1.9005 -6.9790 2.2991
2.0680 -6.9301 2.2991
2.2342 -6.8771 2.2991
2.3991 -6.8200 2.2991
2.5624 -6.7590 2.2991
2.7242 -6.6939 2.2991
2.3110 -5.3081 1.8421
2.3740 -5.1121 1.7938
2.5256 -5.1120 1.8150
3.3537 -6.3948 2.2991
3.5062 -6.3105 2.2991
3.6565 -6.2225 2.2991
3.8046 -6.1309 2.2991
3.9504 -6.0357 2.2991
4.0937 -5.9370 2.2991
4.2346 -5.8348 2.2991
4.3728 -5.7292 2.2991
4.5084 -5.6203 2.2991
4.6413 -5.5082 2.2991
4.7714 -5.3929 2.2991
4.8985 -5.2744 2.2991
5.0227 -5.1529 2.2991
5.1438 -5.0285 2.2991
5.2619 -4.9012 2.2991
5.3767 -4.7710 2.2991
5.4883 -4.6382 2.2991
5.5966 -4.5027 2.2991
5.7015 -4.3646 2.2991
5.8030 -4.2241 2.2991
6.0244 -4.1666 2.3472
6.1208 -4.0183 2.3472
6.2135 -3.8679 2.3472
6.3025 -3.7152 2.3472
6.3878 -3.5605 2.3472
6.4692 -3.4038 2.3472
5.7378 -2.8443 2.0571
5.7385 -2.6740 2.0345
6.0644 -2.6495 2.1276
6.3113 -2.5778 2.1927
6.3129 -2.4022 2.1735
6.3146 -2.2298 2.1558
6.3342 -2.0661 2.1458
6.3795 -1.9117 2.1458
6.4211 -1.7563 2.1459
6.4588 -1.6000 2.1459
5.7396 -1.2755 1.8970
5.7394 -1.1307 1.8882
5.7405 -0.9875 1.8810
6.2892 -0.9260 2.0538
6.5115 -0.7986 2.1205
6.5117 -0.6393 2.1159
6.5119 -0.4808 2.1125
6.5122 -0.3229 2.1104
6.5124 -0.1653 2.1095
6.5126 -0.0079 2.1099
6.5128 0.1496 2.1115
6.5130 0.3072 2.1143
5.7478 0.4105 1.8694
5.7481 0.5504 1.8741
7.1768 0.8628 2.3472
7.1506 1.0355 2.3472
7.1203 1.2075 2.3472
7.0859 1.3787 2.3472
7.0473 1.5489 2.3472
7.0047 1.7181 2.3472
6.9581 1.8861 2.3472
6.9075 2.0529 2.3472
6.8529 2.2183 2.3472
6.7944 2.3824 2.3472
6.7319 2.5449 2.3472
6.6656 2.7058 2.3472
6.5955 2.8650 2.3472
6.5217 3.0224 2.3472
6.4441 3.1780 2.3472
6.3628 3.3316 2.3472
6.2779 3.4832 2.3472
6.1895 3.6326 2.3472
6.0975 3.7798 2.3472
5.8791 3.8443 2.2991
5.7822 3.9839 2.2991
5.6821 4.1212 2.2991
5.5788 4.2559 2.2991
5.4723 4.3881 2.2991
5.3627 4.5177 2.2991
5.2501 4.6446 2.2991
5.1346 4.7687 2.2991
5.0161 4.8900 2.2991
4.8948 5.0084 2.2991
4.7708 5.1239 2.2991
4.6441 5.2363 2.2991
4.5147 5.3456 2.2991
4.3829 5.4518 2.2991
4.2485 5.5548 2.2991
4.1118 5.6546 2.2991
3.9728 5.7510 2.2991
3.8315 5.8441 2.2991
3.6881 5.9338 2.2991
3.5427 6.0200 2.2991
3.3952 6.1027 2.2991
3.2459 6.1819 2.2991
3.0947 6.2575 2.2991
2.9419 6.3294 2.2991
2.7873 6.3977 2.2991
2.6312 6.4623 2.2991
2.4737 6.5231 2.2991
2.3148 6.5802 2.2991
2.1545 6.6335 2.2991
1.9931 6.6829 2.2991
1.9126 7.0302 2.4022
1.7417 7.0738 2.4022
1.5699 7.1133 2.4022
1.3971 7.1487 2.4022
1.2236 7.1800 2.4022
1.0494 7.2071 2.4022
0.8745 7.2301 2.4022
0.6992 7.2490 2.4022
0.5235 7.2636 2.4022
0.3476 7.2741 2.4022
0.1714 7.2805 2.4022
-0.0049 7.2826 2.4022
-0.1812 7.2805 2.4022
-0.3574 7.2743 2.4022
-0.5334 7.2638 2.4022
-0.7092 7.2492 2.4022
-0.8845 7.2304 2.4022
-1.0594 7.2075 2.4022
-1.2336 7.1804 2.4022
-1.4072 7.1492 2.4022
-1.5800 7.1138 2.4022
-1.7520 7.0743 2.4022
-1.9230 7.0308 2.4022
-2.0929 6.9832 2.4022
-2.2617 6.9316 2.4022
-2.4292 6.8759 2.4022
-2.5953 6.8163 2.4022
-2.7601 6.7527 2.4022
-2.9233 6.6853 2.4022
-3.0849 6.6139 2.4022
-3.2447 6.5387 2.4022
-3.4028 6.4597 2.4022
-3.5590 6.3770 2.4022
-3.7131 6.2905 2.4022
-3.8653 6.2004 2.4022
-4.0152 6.1066 2.4022
-4.1629 6.0093 2.4022
-4.3083 5.9084 2.4022
-4.4513 5.8041 2.4022
-4.5918 5.6964 2.4022
-4.7298 5.5853 2.4022
-4.8650 5.4710 2.4022
-4.9976 5.3534 2.4022
-5.1273 5.2326 2.4022
-5.2542 5.1088 2.4022
-5.3781 4.9819 2.4022
-5.4990 4.8520 2.4022
-5.6167 4.7193 2.4022
-5.7313 4.5837 2.4022
-5.8427 4.4453 2.4022
-5.9508 4.3043 2.4022
-6.0554 4.1608 2.4022
-6.1158 3.9880 2.3862
-6.1170 3.7811 2.3493
-6.1260 3.5849 2.3179
-6.1625 3.4089 2.2989
-6.2457 3.2602 2.2989
-6.3334 3.1135 2.3018
-6.4014 2.9569 2.2989
-6.4738 2.8025 2.2989
-6.5424 2.6463 2.2989
-6.6074 2.4884 2.2989
-6.6685 2.3289 2.2989
-6.7258 2.1680 2.2989
-6.7792 2.0057 2.2989
-6.8288 1.8420 2.2989
-6.8744 1.6772 2.2989
-6.9160 1.5112 2.2989
-6.9537 1.3442 2.2989
-6.9873 1.1763 2.2989
-7.0169 1.0075 2.2989
-7.0424 0.8380 2.2989
-7.0638 0.6679 2.2989
-7.0812 0.4972 2.2989
-7.0944 0.3261 2.2989
-7.1034 0.1547 2.2989
-7.1084 -0.0170 2.2989
-7.1091 -0.1888 2.2989
-7.1058 -0.3607 2.2989
-7.0982 -0.5325 2.2989
-7.0865 -0.7041 2.2989
-7.0706 -0.8755 2.2989
-7.0506 -1.0465 2.2989
-7.0265 -1.2171 2.2989
-6.9981 -1.3871 2.2989
-6.9657 -1.5564 2.2989
-6.9292 -1.7249 2.2989
-6.8885 -1.8926 2.2989
-6.8438 -2.0593 2.2989
-6.7950 -2.2249 2.2989
-6.7422 -2.3894 2.2989
-6.6854 -2.5526 2.2989
-6.6246 -2.7144 2.2989
-6.5599 -2.8748 2.2989
-6.4912 -3.0336 2.2989
-6.4187 -3.1907 2.2989
-6.3526 -3.3515 2.3026
-6.2622 -3.4996 2.2989
-6.1783 -3.6512 2.2989
-6.1441 -3.8340 2.3191
-6.1453 -4.0441 2.3548
-6.1465 -4.2609 2.3931
-6.0670 -4.4264 2.4022
-5.9605 -4.5732 2.4022
-5.8505 -4.7174 2.4022
-5.5247 -4.6797 2.4022
-5.4119 -4.8132 2.4022
-5.2959 -4.9440 2.4022
-5.1767 -5.0719 2.4022
-5.0543 -5.1969 2.4022
-4.9289 -5.3189 2.4022
-4.8005 -5.4379 2.4022
-4.6692 -5.5537 2.4022
-4.5350 -5.6662 2.4022
-4.3982 -5.7755 2.4022
-4.2586 -5.8814 2.4022
-4.1165 -5.9839 2.4022
-3.9719 -6.0829 2.4022
-3.8248 -6.1783 2.4022
-3.6754 -6.2701 2.4022
-3.5238 -6.3583 2.4022
-3.3701 -6.4427 2.4022
-3.2143 -6.5233 2.4022
-3.0565 -6.6002 2.4022
-2.8969 -6.6731 2.4022
-2.7355 -6.7421 2.4022
-2.5725 -6.8071 2.4022
-2.4079 -6.8681 2.4022
-2.2418 -6.9250 2.4022
-2.0743 -6.9779 2.4022
-1.9056 -7.0266 2.4022
-1.7357 -7.0712 2.4022
-1.5648 -7.1116 2.4022
-1.3929 -7.1478 2.4022
-1.2202 -7.1797 2.4022
-0.8943 -6.1578 2.0523
-0.7431 -6.1579 2.0457
-0.5929 -6.1581 2.0404
-0.4433 -6.1582 2.0363
-0.2942 -6.1584 2.0334
-0.1455 -6.1586 2.0317
0.0031 -6.1587 2.0312
0.1517 -6.1589 2.0319
0.3005 -6.1591 2.0338
0.4496 -6.1592 2.0370
0.5993 -6.1594 2.0413
0.7497 -6.1596 2.0469
0.9415 -6.4367 2.1461
1.2272 -7.1764 2.4022
1.3997 -7.1440 2.4022
1.5715 -7.1074 2.4022
1.7422 -7.0665 2.4022
1.8530 -6.8051 2.3281
1.9912 -6.6731 2.2991
2.1512 -6.6221 2.2991
2.3099 -6.5672 2.2991
2.4673 -6.5085 2.2991
2.6231 -6.4459 2.2991
2.3082 -5.3019 1.9107
2.3725 -5.1092 1.8617
2.5240 -5.1091 1.8837
3.2293 -6.1580 2.2991
3.3761 -6.0769 2.2991
3.5209 -5.9922 2.2991
3.6635 -5.9040 2.2991
3.8039 -5.8124 2.2991
3.9420 -5.7174 2.2991
4.0776 -5.6191 2.2991
4.2108 -5.5175 2.2991
4.3415 -5.4127 2.2991
4.4695 -5.3048 2.2991
4.5948 -5.1937 2.2991
4.7173 -5.0797 2.2991
4.8369 -4.9628 2.2991
4.9536 -4.8430 2.2991
5.0673 -4.7205 2.2991
5.1780 -4.5952 2.2991
5.2855 -4.4673 2.2991
5.3899 -4.3369 2.2991
5.4910 -4.2040 2.2991
5.5888 -4.0687 2.2991
5.6832 -3.9311 2.2991
5.7742 -3.7913 2.2991
5.8618 -3.6494 2.2991
6.0702 -3.5788 2.3472
6.1524 -3.4298 2.3472
6.2309 -3.2789 2.3472
5.7414 -2.8465 2.1371
5.7421 -2.6761 2.1136
6.0633 -2.6495 2.2085
6.3113 -2.5782 2.2764
6.3129 -2.4027 2.2564
6.3146 -2.2303 2.2380
6.3162 -2.0607 2.2213
6.3178 -1.8936 2.2061
6.3194 -1.7289 2.1923
6.3209 -1.5663 2.1801
5.7429 -1.2766 1.9704
5.7427 -1.1318 1.9612
5.7438 -0.9885 1.9537
6.2864 -0.9261 2.1310
6.3483 -0.7790 2.1459
6.3623 -0.6251 2.1459
6.3726 -0.4710 2.1458
6.3792 -0.3167 2.1458
6.3821 -0.1624 2.1458
6.3812 -0.0081 2.1457
6.3766 0.1460 2.1457
6.3683 0.2999 2.1457
5.7510 0.4103 1.9413
5.7513 0.5504 1.9462
6.9150 0.8309 2.3472
6.8899 0.9973 2.3472
6.8608 1.1631 2.3472
6.8277 1.3280 2.3472
6.7907 1.4920 2.3472
6.7497 1.6551 2.3472
6.7049 1.8170 2.3472
6.6562 1.9777 2.3472
6.6037 2.1372 2.3472
6.5474 2.2953 2.3472
6.4873 2.4519 2.3472
6.4235 2.6070 2.3472
6.3561 2.7605 2.3472
6.2850 2.9123 2.3472
6.2103 3.0622 2.3472
6.1320 3.2103 2.3472
5.9263 3.2876 2.2991
5.8429 3.4287 2.2991
5.7561 3.5677 2.2991
5.6661 3.7046 2.2991
5.5728 3.8392 2.2991
5.4764 3.9715 2.2991
5.3769 4.1014 2.2991
5.2743 4.2289 2.2991
5.1688 4.3539 2.2991
5.0603 4.4762 2.2991
4.9490 4.5959 2.2991
4.8348 4.7129 2.2991
4.7180 4.8270 2.2991
4.5985 4.9383 2.2991
4.4764 5.0468 2.2991
4.3517 5.1522 2.2991
4.2247 5.2546 2.2991
4.0952 5.3539 2.2991
3.9635 5.4501 2.2991
3.8295 5.5432 2.2991
3.6934 5.6329 2.2991
3.5552 5.7194 2.2991
3.4150 5.8026 2.2991
3.2729 5.8823 2.2991
3.1289 5.9587 2.2991
2.9832 6.0316 2.2991
2.8359 6.1010 2.2991
2.6869 6.1668 2.2991
2.5365 6.2291 2.2991
2.3846 6.2878 2.2991
2.2314 6.3429 2.2991
2.0770 6.3942 2.2991
1.9482 6.5320 2.3312
1.8438 6.7767 2.4022
1.6790 6.8187 2.4022
1.5133 6.8568 2.4022
1.3468 6.8910 2.4022
1.1795 6.9211 2.4022
1.0116 6.9473 2.4022
0.8431 6.9695 2.4022
0.6741 6.9877 2.4022
0.5047 7.0019 2.4022
0.3350 7.0120 2.4022
0.1652 7.0181 2.4022
-0.0048 7.0201 2.4022
-0.1747 7.0181 2.4022
-0.3446 7.0121 2.4022
-0.5143 7.0020 2.4022
-0.6837 6.9879 2.4022
-0.8527 6.9698 2.4022
-1.0213 6.9476 2.4022
-1.1893 6.9215 2.4022
-1.3566 6.8914 2.4022
-1.5232 6.8573 2.4022
-1.6890 6.8192 2.4022
-1.8538 6.7772 2.4022
-2.0176 6.7313 2.4022
-2.1802 6.6815 2.4022
-2.3417 6.6278 2.4022
-2.5019 6.5703 2.4022
-2.6607 6.5090 2.4022
-2.8180 6.4439 2.4022
-2.9737 6.3751 2.4022
-3.1278 6.3025 2.4022
-3.2801 6.2263 2.4022
-3.4306 6.1465 2.4022
-3.5792 6.0631 2.4022
-3.7258 5.9762 2.4022
-3.8703 5.8858 2.4022
-4.0127 5.7919 2.4022
-4.1528 5.6946 2.4022
-4.2906 5.5940 2.4022
-4.4260 5.4902 2.4022
-4.5589 5.3830 2.4022
-4.6892 5.2728 2.4022
-4.8169 5.1594 2.4022
-4.9419 5.0429 2.4022
-5.0641 4.9235 2.4022
-5.1835 4.8011 2.4022
-5.2999 4.6759 2.4022
-5.4134 4.5479 2.4022
-5.5238 4.4172 2.4022
-5.6310 4.2838 2.4022
-5.7351 4.1479 2.4022
-5.8359 4.0094 2.4022
-5.9335 3.8686 2.4022
-6.0276 3.7254 2.4022
-6.1181 3.5797 2.4021
-6.1191 3.3844 2.3687
-6.1228 3.1956 2.3386
-6.1306 3.0133 2.3121
-6.1688 2.8490 2.2989
-6.2384 2.7001 2.2989
-6.3045 2.5496 2.2989
-6.3670 2.3974 2.2989
-6.4258 2.2437 2.2989
-6.4809 2.0886 2.2989
-6.5323 1.9321 2.2989
-6.5800 1.7744 2.2989
-6.6238 1.6156 2.2989
-6.6639 1.4556 2.2989
-6.7000 1.2947 2.2989
-6.7323 1.1329 2.2989
-6.7607 0.9703 2.2989
-6.7852 0.8070 2.2989
-6.8058 0.6430 2.2989
-6.8223 0.4786 2.2989
-6.8350 0.3137 2.2989
-6.8436 0.1486 2.2989
-6.8482 -0.0169 2.2989
-6.8489 -0.1824 2.2989
-6.8455 -0.3479 2.2989
-6.8381 -0.5135 2.2989
-6.8268 -0.6788 2.2989
-6.8114 -0.8439 2.2989
-6.7920 -1.0086 2.2989
-6.7686 -1.1729 2.2989
-6.7412 -1.3366 2.2989
-6.7099 -1.4997 2.2989
-6.6746 -1.6620 2.2989
-6.6353 -1.8235 2.2989
-6.5922 -1.9840 2.2989
-6.5451 -2.1436 2.2989
-6.4941 -2.3019 2.2989
-6.4393 -2.4591 2.2989
-6.3807 -2.6149 2.2989
-6.3182 -2.7693 2.2989
-6.2520 -2.9222 2.2989
-6.1821 -3.0735 2.2989
-6.1449 -3.2424 2.3126
-6.1420 -3.4328 2.3411
-6.1430 -3.6308 2.3734
-6.1293 -3.8253 2.4022
-6.0374 -3.9736 2.4022
-5.9419 -4.1196 2.4022
-5.8428 -4.2633 2.4022
-5.7402 -4.4046 2.4022
-5.6342 -4.5434 2.4022
-5.3263 -4.5120 2.4022
-5.2175 -4.6407 2.4022
-5.1056 -4.7667 2.4022
-4.9906 -4.8900 2.4022
-4.8726 -5.0105 2.4022
-4.7516 -5.1281 2.4022
-4.6278 -5.2427 2.4022
-4.5012 -5.3543 2.4022
-4.3718 -5.4627 2.4022
-4.2398 -5.5680 2.4022
-4.1053 -5.6701 2.4022
-3.9682 -5.7688 2.4022
-3.8288 -5.8642 2.4022
-3.6870 -5.9562 2.4022
-3.5430 -6.0446 2.4022
-3.3968 -6.1296 2.4022
-3.2486 -6.2109 2.4022
-3.0984 -6.2886 2.4022
-2.9463 -6.3626 2.4022
-2.7924 -6.4328 2.4022
-2.6369 -6.4993 2.4022
-2.4797 -6.5619 2.4022
-2.3210 -6.6207 2.4022
-2.1609 -6.6756 2.4022
-1.9995 -6.7265 2.4022
-1.8369 -6.7734 2.4022
-1.6731 -6.8164 2.4022
-1.5083 -6.8553 2.4022
-1.3427 -6.8902 2.4022
-1.1762 -6.9210 2.4022
-0.8942 -6.1578 2.1290
-0.7431 -6.1579 2.1222
-0.5928 -6.1581 2.1167
-0.4433 -6.1582 2.1124
-0.2942 -6.1584 2.1094
-0.1455 -6.1586 2.1076
0.0031 -6.1587 2.1071
0.1517 -6.1589 2.1079
0.3005 -6.1591 2.1099
0.4496 -6.1592 2.1131
0.5992 -6.1594 2.1177
0.7496 -6.1595 2.1235
1.0157 -6.9449 2.4022
1.1828 -6.9178 2.4022
1.3492 -6.8866 2.4022
1.5147 -6.8513 2.4022
1.6793 -6.8120 2.4022
1.8429 -6.7686 2.4022
1.9193 -6.4328 2.2991
2.0736 -6.3837 2.2991
2.2266 -6.3308 2.2991
2.3783 -6.2742 2.2991
2.5285 -6.2139 2.2991
2.3053 -5.2957 1.9797
2.3709 -5.1063 1.9301
2.5223 -5.1061 1.9529
3.1129 -5.9366 2.2991
3.2545 -5.8584 2.2991
3.3940 -5.7768 2.2991
3.5316 -5.6919 2.2991
3.6669 -5.6036 2.2991
3.8001 -5.5121 2.2991
3.9309 -5.4173 2.2991
4.0593 -5.3195 2.2991
4.1853 -5.2185 2.2991
4.3087 -5.1145 2.2991
4.4296 -5.0075 2.2991
4.5477 -4.8976 2.2991
4.6631 -4.7850 2.2991
4.7757 -4.6695 2.2991
4.8854 -4.5514 2.2991
4.9921 -4.4307 2.2991
5.0958 -4.3075 2.2991
5.1965 -4.1818 2.2991
5.2940 -4.0537 2.2991
5.3884 -3.9233 2.2991
5.4795 -3.7907 2.2991
5.5673 -3.6560 2.2991
5.6519 -3.5192 2.2991
5.7330 -3.3804 2.2991
5.8107 -3.2398 2.2991
5.8849 -3.0973 2.2991
5.7450 -2.8488 2.2178
5.7457 -2.6782 2.1933
6.0623 -2.6496 2.2900
6.1413 -2.5093 2.2972
6.1630 -2.3461 2.2844
6.2155 -2.1958 2.2845
6.2644 -2.0442 2.2846
6.3095 -1.8916 2.2847
6.3194 -1.7294 2.2734
6.3209 -1.5667 2.2606
5.7463 -1.2778 2.0444
5.7460 -1.1328 2.0348
5.7471 -0.9895 2.0270
6.2836 -0.9261 2.2086
6.3255 -0.7767 2.2171
6.3257 -0.6220 2.2122
6.3259 -0.4680 2.2086
6.3261 -0.3145 2.2064
6.3263 -0.1614 2.2054
6.3265 -0.0085 2.2057
6.3267 0.1444 2.2073
6.3269 0.2975 2.2102
5.7543 0.4102 2.0139
5.7546 0.5503 2.0189
6.6699 0.8009 2.3472
6.6458 0.9615 2.3472
6.6178 1.1214 2.3472
6.5860 1.2805 2.3472
6.5504 1.4388 2.3472
6.5110 1.5960 2.3472
6.4678 1.7523 2.3472
6.4209 1.9074 2.3472
6.3703 2.0612 2.3472
6.3161 2.2138 2.3472
6.2582 2.3649 2.3472
6.1968 2.5146 2.3472
6.1318 2.6626 2.3472
5.9390 2.7515 2.2991
5.8685 2.8933 2.2991
5.7946 3.0332 2.2991
5.7175 3.1713 2.2991
5.6370 3.3075 2.2991
5.5534 3.4417 2.2991
5.4666 3.5737 2.2991
5.3767 3.7036 2.2991
5.2837 3.8313 2.2991
5.1878 3.9567 2.2991
5.0889 4.0798 2.2991
4.9871 4.2004 2.2991
4.8825 4.3184 2.2991
4.7751 4.4340 2.2991
4.6650 4.5469 2.2991
4.5523 4.6571 2.2991
4.4370 4.7645 2.2991
4.3192 4.8692 2.2991
4.1990 4.9710 2.2991
4.0764 5.0698 2.2991
3.9515 5.1657 2.2991
3.8245 5.2586 2.2991
3.6952 5.3484 2.2991
3.5639 5.4350 2.2991
3.4305 5.5185 2.2991
3.2953 5.5988 2.2991
3.1582 5.6758 2.2991
3.0193 5.7495 2.2991
2.8787 5.8199 2.2991
2.7365 5.8869 2.2991
2.5928 5.9505 2.2991
2.4477 6.0106 2.2991
2.3011 6.0673 2.2991
2.1533 6.1204 2.2991
2.0043 6.1700 2.2991
1.9372 6.4948 2.4022
1.7793 6.5391 2.4022
1.6203 6.5797 2.4022
1.4604 6.6165 2.4022
1.2997 6.6495 2.4022
1.1383 6.6786 2.4022
0.9762 6.7039 2.4022
0.8135 6.7253 2.4022
0.6505 6.7428 2.4022
0.4870 6.7565 2.4022
0.3233 6.7663 2.4022
0.1594 6.7721 2.4022
-0.0046 6.7741 2.4022
-0.1686 6.7722 2.4022
-0.3326 6.7663 2.4022
-0.4963 6.7566 2.4022
-0.6598 6.7430 2.4022
-0.8229 6.7255 2.4022
-0.9855 6.7041 2.4022
-1.1477 6.6789 2.4022
-1.3092 6.6498 2.4022
-1.4699 6.6168 2.4022
-1.6299 6.5801 2.4022
-1.7889 6.5395 2.4022
-1.9470 6.4952 2.4022
-2.1039 6.4471 2.4022
-2.2597 6.3952 2.4022
-2.4143 6.3397 2.4022
-2.5675 6.2805 2.4022
-2.7193 6.2177 2.4022
-2.8695 6.1512 2.4022
-3.0182 6.0812 2.4022
-3.1652 6.0076 2.4022
-3.3104 5.9306 2.4022
-3.4537 5.8500 2.4022
-3.5952 5.7661 2.4022
-3.7346 5.6788 2.4022
-3.8719 5.5882 2.4022
-4.0071 5.4943 2.4022
-4.1400 5.3972 2.4022
-4.2706 5.2969 2.4022
-4.3988 5.1935 2.4022
-4.5245 5.0870 2.4022
-4.6477 4.9776 2.4022
-4.7682 4.8652 2.4022
-4.8861 4.7499 2.4022
-5.0012 4.6318 2.4022
-5.1135 4.5109 2.4022
-5.2229 4.3874 2.4022
-5.3293 4.2612 2.4022
-5.4328 4.1325 2.4022
-5.5331 4.0013 2.4022
-5.6303 3.8677 2.4022
-5.7243 3.7317 2.4022
-5.8151 3.5935 2.4022
-5.9025 3.4531 2.4022
-5.9866 3.3107 2.4022
-6.0673 3.1661 2.4022
-6.1212 3.0082 2.3930
-6.1222 2.8270 2.3651
-6.1254 2.6507 2.3399
-6.1320 2.4793 2.3179
-6.1419 2.3122 2.2989
-6.1985 2.1639 2.2989
-6.2516 2.0142 2.2989
-6.3011 1.8633 2.2989
-6.3470 1.7111 2.2989
-6.3892 1.5579 2.2989
-6.4277 1.4036 2.2989
-6.4625 1.2483 2.2989
-6.4936 1.0922 2.2989
-6.5209 0.9354 2.2989
-6.5444 0.7778 2.2989
-6.5641 0.6197 2.2989
-6.5800 0.4611 2.2989
-6.5921 0.3021 2.2989
-6.6003 0.1428 2.2989
-6.6047 -0.0167 2.2989
-6.6052 -0.1763 2.2989
-6.6019 -0.3360 2.2989
-6.5947 -0.4956 2.2989
-6.5836 -0.6551 2.2989
-6.5687 -0.8143 2.2989
-6.5499 -0.9731 2.2989
-6.5273 -1.1315 2.2989
-6.5008 -1.2894 2.2989
-6.4705 -1.4466 2.2989
-6.4363 -1.6031 2.2989
-6.3984 -1.7588 2.2989
-6.3612 -1.9150 2.3005
-6.3112 -2.0674 2.2989
-6.2620 -2.2201 2.2989
-6.2090 -2.3716 2.2989
-6.1631 -2.5262 2.3029
-6.1587 -2.6999 2.3240
-6.1389 -2.8698 2.3411
-6.1399 -3.0530 2.3680
-6.1409 -3.2407 2.3970
-6.0763 -3.3966 2.4022
-5.9947 -3.5436 2.4022
-5.9096 -3.6886 2.4022
-5.8209 -3.8315 2.4022
-5.7287 -3.9723 2.4022
-5.6331 -4.1108 2.4022
-5.5341 -4.2470 2.4022
-5.4318 -4.3807 2.4022
-5.1402 -4.3548 2.4022
-5.0352 -4.4790 2.4022
-4.9271 -4.6006 2.4022
-4.8161 -4.7195 2.4022
-4.7022 -4.8357 2.4022
-4.5854 -4.9491 2.4022
-4.4659 -5.0597 2.4022
-4.3436 -5.1673 2.4022
-4.2188 -5.2719 2.4022
-4.0914 -5.3735 2.4022
-3.9615 -5.4719 2.4022
-3.8292 -5.5672 2.4022
-3.6946 -5.6592 2.4022
-3.5578 -5.7479 2.4022
-3.4188 -5.8332 2.4022
-3.2778 -5.9152 2.4022
-3.1347 -5.9936 2.4022
-2.9898 -6.0685 2.4022
-2.8430 -6.1399 2.4022
-2.6945 -6.2077 2.4022
-2.5444 -6.2718 2.4022
-2.3927 -6.3322 2.4022
-2.2396 -6.3889 2.4022
-2.0851 -6.4418 2.4022
-1.9293 -6.4909 2.4022
-1.7724 -6.5361 2.4022
-1.6144 -6.5776 2.4022
-1.4554 -6.6151 2.4022
-1.2955 -6.6487 2.4022
-1.1349 -6.6784 2.4022
-0.9735 -6.7042 2.4022
-0.7661 -6.3490 2.2675
-0.6162 -6.4004 2.2799
-0.4864 -6.7576 2.4022
-0.3233 -6.7674 2.4022
-0.1600 -6.7732 2.4022
0.0034 -6.7749 2.4022
0.1668 -6.7727 2.4022
0.3300 -6.7665 2.4022
0.4750 -6.5077 2.3138
0.6183 -6.3557 2.2645
0.7765 -6.3812 2.2798
0.9801 -6.7016 2.4022
1.1413 -6.6755 2.4022
1.3018 -6.6454 2.4022
1.4616 -6.6113 2.4022
1.6204 -6.5734 2.4022
1.7782 -6.5316 2.4022
1.8613 -6.2390 2.3107
2.0008 -6.1602 2.2991
2.1485 -6.1092 2.2991
2.2948 -6.0546 2.2991
2.4398 -5.9965 2.2991
2.3023 -5.2895 2.0491
2.3693 -5.1033 1.9989
2.5206 -5.1031 2.0225
3.0038 -5.7290 2.2991
3.1404 -5.6536 2.2991
3.2751 -5.5750 2.2991
3.4079 -5.4930 2.2991
3.5385 -5.4079 2.2991
3.6670 -5.3196 2.2991
3.7933 -5.2282 2.2991
3.9173 -5.1338 2.2991
4.0389 -5.0364 2.2991
4.1581 -4.9361 2.2991
4.2747 -4.8329 2.2991
4.3888 -4.7269 2.2991
4.5002 -4.6182 2.2991
4.6088 -4.5069 2.2991
4.7147 -4.3929 2.2991
4.8178 -4.2765 2.2991
4.9180 -4.1576 2.2991
5.0152 -4.0363 2.2991
5.1094 -3.9127 2.2991
5.2005 -3.7869 2.2991
5.2885 -3.6590 2.2991
5.3733 -3.5290 2.2991
5.4549 -3.3970 2.2991
5.5333 -3.2631 2.2991
5.6084 -3.1274 2.2991
5.6801 -2.9900 2.2991
5.7484 -2.8509 2.2991
5.7493 -2.6804 2.2738
5.8747 -2.5680 2.2991
6.0567 -2.4752 2.3472
6.1123 -2.3272 2.3472
6.1446 -2.1712 2.3397
6.1461 -2.0061 2.3221
6.1477 -1.8436 2.3061
6.1492 -1.6833 2.2917
6.1670 -1.5290 2.2849
5.7497 -1.2790 2.1190
5.7494 -1.1339 2.1091
5.7505 -0.9904 2.1010
6.2756 -0.9254 2.2849
6.2932 -0.7731 2.2849
6.3072 -0.6206 2.2848
6.3174 -0.4678 2.2847
6.3240 -0.3149 2.2846
6.3263 -0.1619 2.2843
6.3261 -0.0089 2.2845
6.3216 0.1439 2.2844
6.3134 0.2965 2.2843
5.7576 0.4100 2.0871
5.7580 0.5502 2.0923
6.4399 0.7729 2.3472
6.4167 0.9279 2.3472
6.3897 1.0823 2.3472
6.3591 1.2359 2.3472
6.3248 1.3888 2.3472
6.2868 1.5406 2.3472
6.2452 1.6915 2.3472
6.2000 1.8413 2.3472
6.1513 1.9899 2.3472
6.0990 2.1372 2.3472
5.9194 2.2364 2.2991
5.8613 2.3780 2.2991
5.7999 2.5181 2.2991
5.7351 2.6566 2.2991
5.6671 2.7935 2.2991
5.5958 2.9287 2.2991
5.5214 3.0621 2.2991
5.4438 3.1937 2.2991
5.3631 3.3233 2.2991
5.2793 3.4508 2.2991
5.1925 3.5764 2.2991
5.1028 3.6997 2.2991
5.0102 3.8208 2.2991
4.9147 3.9397 2.2991
4.8164 4.0562 2.2991
4.7154 4.1703 2.2991
4.6118 4.2819 2.2991
4.5055 4.3910 2.2991
4.3967 4.4975 2.2991
4.2854 4.6013 2.2991
4.1717 4.7024 2.2991
4.0556 4.8007 2.2991
3.9372 4.8963 2.2991
3.8166 4.9889 2.2991
3.6939 5.0787 2.2991
3.5691 5.1654 2.2991
3.4423 5.2491 2.2991
3.3135 5.3298 2.2991
3.1829 5.4074 2.2991
3.0505 5.4818 2.2991
2.9163 5.5530 2.2991
2.7806 5.6211 2.2991
2.6432 5.6858 2.2991
2.5044 5.7472 2.2991
2.3642 5.8054 2.2991
2.2227 5.8601 2.2991
2.0799 5.9114 2.2991
1.9491 6.0000 2.3147
1.8712 6.2731 2.4022
1.7186 6.3160 2.4022
1.5651 6.3552 2.4022
1.4106 6.3907 2.4022
1.2554 6.4226 2.4022
1.0995 6.4507 2.4022
0.9429 6.4751 2.4022
0.7858 6.4958 2.4022
0.6283 6.5128 2.4022
0.4704 6.5260 2.4022
0.3123 6.5354 2.4022
0.1539 6.5411 2.4022
-0.0045 6.5430 2.4022
-0.1629 6.5411 2.4022
-0.3213 6.5355 2.4022
-0.4794 6.5261 2.4022
-0.6373 6.5129 2.4022
-0.7949 6.4960 2.4022
-0.9520 6.4753 2.4022
-1.1086 6.4509 2.4022
-1.2646 6.4228 2.4022
-1.4199 6.3910 2.4022
-1.5744 6.3554 2.4022
-1.7280 6.3162 2.4022
-1.8806 6.2734 2.4022
-2.0322 6.2269 2.4022
-2.1827 6.1768 2.4022
-2.3320 6.1231 2.4022
-2.4800 6.0659 2.4022
-2.6266 6.0052 2.4022
-2.7717 5.9410 2.4022
-2.9152 5.8733 2.4022
-3.0572 5.8022 2.4022
-3.1974 5.7277 2.4022
-3.3359 5.6499 2.4022
-3.4725 5.5688 2.4022
-3.6071 5.4845 2.4022
-3.7397 5.3969 2.4022
-3.8702 5.3062 2.4022
-3.9986 5.2123 2.4022
-4.1247 5.1154 2.4022
-4.2484 5.0155 2.4022
-4.3698 4.9126 2.4022
-4.4887 4.8069 2.4022
-4.6051 4.6983 2.4022
-4.7189 4.5869 2.4022
-4.8300 4.4728 2.4022
-4.9384 4.3560 2.4022
-5.0440 4.2367 2.4022
-5.1468 4.1148 2.4022
-5.2466 3.9904 2.4022
-5.3435 3.8637 2.4022
-5.4373 3.7346 2.4022
-5.5280 3.6033 2.4022
-5.6156 3.4698 2.4022
-5.6999 3.3342 2.4022
-5.7811 3.1965 2.4022
-5.8589 3.0569 2.4022
-5.9334 2.9155 2.4022
-6.0045 2.7722 2.4022
-6.0721 2.6272 2.4022
-6.1241 2.4757 2.3974
-6.1250 2.3054 2.3743
-6.1259 2.1381 2.3530
-6.1304 1.9747 2.3347
-6.1355 1.8139 2.3183
-6.1402 1.6550 2.3034
-6.1690 1.5037 2.2989
-6.2061 1.3547 2.2989
-6.2396 1.2048 2.2989
-6.2695 1.0541 2.2989
-6.2958 0.9027 2.2989
-6.3184 0.7505 2.2989
-6.3470 0.5988 2.3024
-6.3527 0.4447 2.2989
-6.3642 0.2913 2.2989
-6.3721 0.1374 2.2989
-6.3762 -0.0166 2.2989
-6.3767 -0.1707 2.2989
-6.3734 -0.3248 2.2989
-6.3663 -0.4789 2.2989
-6.3555 -0.6328 2.2989
-6.3542 -0.7881 2.3037
-6.3228 -0.9398 2.2989
-6.3009 -1.0927 2.2989
-6.2752 -1.2451 2.2989
-6.2459 -1.3969 2.2989
-6.2129 -1.5479 2.2989
-6.1762 -1.6982 2.2989
-6.1583 -1.8544 2.3073
-6.1553 -2.0168 2.3228
-6.1518 -2.1815 2.3398
-6.1504 -2.3496 2.3593
-6.1513 -2.5218 2.3814
-6.1442 -2.6939 2.4022
-6.0797 -2.8426 2.4022
-6.0115 -2.9896 2.4022
-5.9398 -3.1350 2.4022
-5.8645 -3.2787 2.4022
-5.7857 -3.4205 2.4022
-5.7035 -3.5604 2.4022
-5.6178 -3.6983 2.4022
-5.5288 -3.8341 2.4022
-5.4365 -3.9678 2.4022
-5.3409 -4.0991 2.4022
-5.2421 -4.2282 2.4022
-4.9653 -4.2071 2.4022
-4.8638 -4.3270 2.4022
-4.7594 -4.4444 2.4022
-4.6521 -4.5593 2.4022
-4.5420 -4.6715 2.4022
-4.4292 -4.7810 2.4022
-4.3137 -4.8877 2.4022
-4.1956 -4.9917 2.4022
-4.0750 -5.0927 2.4022
-3.9519 -5.1908 2.4022
-3.8264 -5.2858 2.4022
-3.6987 -5.3778 2.4022
-3.5686 -5.4666 2.4022
-3.4364 -5.5522 2.4022
-3.3022 -5.6346 2.4022
-3.1659 -5.7137 2.4022
-3.0277 -5.7894 2.4022
-2.8877 -5.8618 2.4022
-2.7459 -5.9307 2.4022
-2.6025 -5.9961 2.4022
-2.4575 -6.0580 2.4022
-2.3110 -6.1163 2.4022
-2.1631 -6.1710 2.4022
-2.0139 -6.2221 2.4022
-1.8634 -6.2695 2.4022
-1.7119 -6.3133 2.4022
-1.5592 -6.3532 2.4022
-1.4057 -6.3895 2.4022
-1.2513 -6.4219 2.4022
-1.0961 -6.4506 2.4022
-0.9403 -6.4755 2.4022
-0.7839 -6.4965 2.4022
-0.6270 -6.5137 2.4022
-0.4698 -6.5270 2.4022
-0.3123 -6.5365 2.4022
-0.1545 -6.5421 2.4022
0.0033 -6.5438 2.4022
0.1611 -6.5417 2.4022
0.3187 -6.5357 2.4022
0.4762 -6.5258 2.4022
0.6334 -6.5120 2.4022
0.7902 -6.4945 2.4022
0.9465 -6.4731 2.4022
1.1023 -6.4478 2.4022
1.2573 -6.4187 2.4022
1.4116 -6.3859 2.4022
1.5650 -6.3493 2.4022
1.7175 -6.3089 2.4022
1.8562 -6.2223 2.3858
1.9325 -5.9503 2.2991
2.0751 -5.9010 2.2991
2.2165 -5.8483 2.2991
2.3565 -5.7922 2.2991
2.2994 -5.2832 2.1188
2.3678 -5.1004 2.0682
2.5189 -5.1002 2.0925
2.9013 -5.5340 2.2991
3.0333 -5.4612 2.2991
3.1634 -5.3853 2.2991
3.2917 -5.3062 2.2991
3.4179 -5.2240 2.2991
3.5420 -5.1388 2.2991
3.6640 -5.0505 2.2991
3.7838 -4.9594 2.2991
3.9013 -4.8653 2.2991
4.0165 -4.7684 2.2991
4.1292 -4.6688 2.2991
4.2394 -4.5665 2.2991
4.3470 -4.4615 2.2991
4.4521 -4.3540 2.2991
4.5544 -4.2440 2.2991
4.6540 -4.1315 2.2991
4.7508 -4.0167 2.2991
4.8448 -3.8996 2.2991
4.9358 -3.7803 2.2991
5.0239 -3.6588 2.2991
5.1090 -3.5352 2.2991
5.1910 -3.4097 2.2991
5.2699 -3.2822 2.2991
5.3456 -3.1529 2.2991
5.4182 -3.0218 2.2991
5.4875 -2.8891 2.2991
5.5536 -2.7547 2.2991
5.6164 -2.6188 2.2991
5.6758 -2.4815 2.2991
5.7318 -2.3428 2.2991
5.7845 -2.2029 2.2991
5.8337 -2.0617 2.2991
5.8794 -1.9195 2.2991
6.0456 -1.8134 2.3472
6.0852 -1.6662 2.3472
6.1212 -1.5181 2.3472
5.7531 -1.2802 2.1944
5.7528 -1.1350 2.1841
5.7539 -0.9914 2.1756
6.1547 -0.9080 2.3192
6.1549 -0.7566 2.3126
6.1551 -0.6061 2.3075
6.1553 -0.4562 2.3037
6.1555 -0.3069 2.3013
6.1557 -0.1579 2.3002
6.1559 -0.0091 2.3005
6.1562 0.1397 2.3021
6.1564 0.2887 2.3050
5.7610 0.4099 2.1610
5.7613 0.5501 2.1663
6.2235 0.7465 2.3472
6.2012 0.8963 2.3472
6.1752 1.0455 2.3472
6.1457 1.1940 2.3472
6.1126 1.3417 2.3472
6.0760 1.4886 2.3472
5.9122 1.6009 2.2991
5.8695 1.7427 2.2991
5.8234 1.8834 2.2991
5.7739 2.0229 2.2991
5.7212 2.1611 2.2991
5.6651 2.2980 2.2991
5.6058 2.4334 2.2991
5.5433 2.5674 2.2991
5.4776 2.6997 2.2991
5.4088 2.8304 2.2991
5.3369 2.9594 2.2991
5.2619 3.0866 2.2991
5.1839 3.2119 2.2991
5.1030 3.3352 2.2991
5.0192 3.4566 2.2991
4.9325 3.5758 2.2991
4.8430 3.6930 2.2991
4.7508 3.8079 2.2991
4.6558 3.9206 2.2991
4.5582 4.0309 2.2991
4.4581 4.1388 2.2991
4.3554 4.2443 2.2991
4.2502 4.3473 2.2991
4.1427 4.4476 2.2991
4.0328 4.5454 2.2991
3.9206 4.6405 2.2991
3.8062 4.7329 2.2991
3.6896 4.8225 2.2991
3.5710 4.9093 2.2991
3.4504 4.9932 2.2991
3.3278 5.0742 2.2991
3.2033 5.1522 2.2991
3.0771 5.2272 2.2991
2.9491 5.2992 2.2991
2.8194 5.3681 2.2991
2.6882 5.4339 2.2991
2.5554 5.4965 2.2991
2.4212 5.5559 2.2991
2.2857 5.6121 2.2991
2.1489 5.6651 2.2991
2.0108 5.7147 2.2991
1.9411 5.9747 2.3843
1.8091 6.0644 2.4022
1.6616 6.1059 2.4022
1.5131 6.1438 2.4022
1.3638 6.1782 2.4022
1.2137 6.2090 2.4022
1.0630 6.2362 2.4022
0.9116 6.2598 2.4022
0.7597 6.2798 2.4022
0.6074 6.2962 2.4022
0.4548 6.3090 2.4022
0.3019 6.3181 2.4022
0.1488 6.3236 2.4022
-0.0044 6.3254 2.4022
-0.1575 6.3236 2.4022
-0.3106 6.3182 2.4022
-0.4635 6.3091 2.4022
-0.6162 6.2963 2.4022
-0.7685 6.2800 2.4022
-0.9204 6.2600 2.4022
-1.0718 6.2364 2.4022
-1.2226 6.2091 2.4022
-1.3727 6.1783 2.4022
-1.5221 6.1440 2.4022
-1.6706 6.1061 2.4022
-1.8182 6.0646 2.4022
-1.9648 6.0196 2.4022
-2.1102 5.9712 2.4022
-2.2545 5.9193 2.4022
-2.3976 5.8639 2.4022
-2.5393 5.8052 2.4022
-2.6796 5.7431 2.4022
-2.8183 5.6776 2.4022
-2.9556 5.6088 2.4022
-3.0911 5.5368 2.4022
-3.2249 5.4616 2.4022
-3.3570 5.3831 2.4022
-3.4871 5.3015 2.4022
-3.6153 5.2168 2.4022
-3.7414 5.1291 2.4022
-3.8654 5.0383 2.4022
-3.9873 4.9446 2.4022
-4.1069 4.8480 2.4022
-4.2242 4.7485 2.4022
-4.3392 4.6462 2.4022
-4.4516 4.5412 2.4022
-4.5616 4.4335 2.4022
-4.6690 4.3232 2.4022
-4.7737 4.2102 2.4022
-4.8757 4.0948 2.4022
-4.9750 3.9770 2.4022
-5.0714 3.8567 2.4022
-5.1650 3.7342 2.4022
-5.2556 3.6094 2.4022
-5.3432 3.4824 2.4022
-5.4278 3.3533 2.4022
-5.5093 3.2222 2.4022
-5.5877 3.0891 2.4022
-5.6629 2.9542 2.4022
-5.7348 2.8174 2.4022
-5.8034 2.6789 2.4022
-5.8687 2.5387 2.4022
-5.9307 2.3970 2.4022
-5.9892 2.2538 2.4022
-6.0443 2.1091 2.4022
-6.0959 1.9632 2.4022
-6.1277 1.8111 2.3958
-6.1286 1.6514 2.3788
-6.1294 1.4936 2.3635
-6.1303 1.3377 2.3497
-6.1338 1.1840 2.3385
-6.1371 1.0314 2.3286
-6.1402 0.8799 2.3201
-6.1428 0.7292 2.3128
-6.1452 0.5793 2.3068
-6.1472 0.4299 2.3021
-6.1499 0.2810 2.2989
-6.1575 0.1324 2.2989
-6.1614 -0.0164 2.2989
-6.1617 -0.1654 2.2989
-6.1584 -0.3143 2.2989
-6.1528 -0.4633 2.2994
-6.1526 -0.6131 2.3032
-6.1521 -0.7635 2.3083
-6.1513 -0.9148 2.3147
-6.1502 -1.0670 2.3224
-6.1487 -1.2204 2.3313
-6.1469 -1.3752 2.3416
-6.1459 -1.5317 2.3537
-6.1468 -1.6906 2.3681
-6.1477 -1.8516 2.3840
-6.1486 -2.0150 2.4016
-6.1019 -2.1642 2.4022
-6.0501 -2.3118 2.4022
-5.9948 -2.4581 2.4022
-5.9359 -2.6031 2.4022
-5.8735 -2.7466 2.4022
-5.8076 -2.8887 2.4022
-5.7382 -3.0291 2.4022
-5.6655 -3.1678 2.4022
-5.5893 -3.3048 2.4022
-5.5098 -3.4399 2.4022
-5.4270 -3.5731 2.4022
-5.3410 -3.7043 2.4022
-5.2517 -3.8333 2.4022
-5.1593 -3.9602 2.4022
-5.0639 -4.0848 2.4022
-4.8007 -4.0680 2.4022
-4.7025 -4.1839 2.4022
-4.6015 -4.2974 2.4022
-4.4977 -4.4084 2.4022
-4.3913 -4.5168 2.4022
-4.2822 -4.6227 2.4022
-4.1705 -4.7259 2.4022
-4.0563 -4.8263 2.4022
-3.9396 -4.9239 2.4022
-3.8206 -5.0187 2.4022
-3.6993 -5.1105 2.4022
-3.5757 -5.1994 2.4022
-3.4500 -5.2853 2.4022
-3.3222 -5.3680 2.4022
-3.1923 -5.4476 2.4022
-3.0606 -5.5240 2.4022
-2.9270 -5.5972 2.4022
-2.7916 -5.6672 2.4022
-2.6546 -5.7337 2.4022
-2.5159 -5.7969 2.4022
-2.3757 -5.8567 2.4022
-2.2341 -5.9131 2.4022
-2.0911 -5.9660 2.4022
-1.9468 -6.0153 2.4022
-1.8014 -6.0612 2.4022
-1.6549 -6.1034 2.4022
-1.5073 -6.1420 2.4022
-1.3589 -6.1771 2.4022
-1.2096 -6.2084 2.4022
-1.0596 -6.2361 2.4022
-0.9090 -6.2602 2.4022
-0.7578 -6.2805 2.4022
-0.6062 -6.2971 2.4022
-0.4541 -6.3100 2.4022
-0.3019 -6.3191 2.4022
-0.1494 -6.3245 2.4022
0.0031 -6.3262 2.4022
0.1557 -6.3241 2.4022
0.3081 -6.3183 2.4022
0.4603 -6.3088 2.4022
0.6123 -6.2955 2.4022
0.7639 -6.2786 2.4022
0.9150 -6.2579 2.4022
1.0655 -6.2335 2.4022
1.2154 -6.2054 2.4022
1.3646 -6.1737 2.4022
1.5129 -6.1383 2.4022
1.6603 -6.0993 2.4022
1.8066 -6.0567 2.4022
1.8700 -5.7584 2.3014
2.0060 -5.7050 2.2991
2.1427 -5.6541 2.2991
2.2780 -5.5999 2.2991
2.2965 -5.2769 2.1889
2.3662 -5.0974 2.1379
2.5172 -5.0971 2.1631
2.8048 -5.3504 2.2991
2.9324 -5.2801 2.2991
3.0583 -5.2067 2.2991
3.1822 -5.1303 2.2991
3.3043 -5.0508 2.2991
3.4243 -4.9684 2.2991
3.5423 -4.8832 2.2991
3.6582 -4.7951 2.2991
3.7718 -4.7042 2.2991
3.8831 -4.6106 2.2991
3.9921 -4.5143 2.2991
4.0987 -4.4154 2.2991
4.2028 -4.3140 2.2991
4.3044 -4.2101 2.2991
4.4034 -4.1037 2.2991
4.4998 -3.9950 2.2991
4.5934 -3.8840 2.2991
4.6843 -3.7708 2.2991
4.7724 -3.6555 2.2991
4.8576 -3.5381 2.2991
4.9399 -3.4187 2.2991
5.0192 -3.2973 2.2991
5.0956 -3.1741 2.2991
5.1689 -3.0491 2.2991
5.2391 -2.9224 2.2991
5.3062 -2.7940 2.2991
5.3701 -2.6641 2.2991
5.4309 -2.5328 2.2991
5.4884 -2.4000 2.2991
5.5427 -2.2659 2.2991
5.5936 -2.1306 2.2991
5.6413 -1.9942 2.2991
5.6856 -1.8566 2.2991
5.7266 -1.7181 2.2991
5.7641 -1.5787 2.2991
5.7983 -1.4385 2.2991
5.7566 -1.2813 2.2705
5.7562 -1.1361 2.2597
5.7573 -0.9924 2.2510
5.9007 -0.8709 2.2991
5.9176 -0.7278 2.2991
6.0552 -0.5966 2.3472
6.0654 -0.4500 2.3472
6.0721 -0.3032 2.3472
6.0752 -0.1563 2.3472
6.0748 -0.0094 2.3472
6.0708 0.1373 2.3472
6.0633 0.2839 2.3472
5.7644 0.4097 2.2355
5.7647 0.5500 2.2410
5.8963 0.7068 2.2991
5.8752 0.8488 2.2991
5.8506 0.9902 2.2991
5.8227 1.1309 2.2991
5.7914 1.2708 2.2991
5.7568 1.4099 2.2991
5.7189 1.5481 2.2991
5.6776 1.6853 2.2991
5.6331 1.8214 2.2991
5.5853 1.9564 2.2991
5.5343 2.0901 2.2991
5.4802 2.2225 2.2991
5.4229 2.3536 2.2991
5.3624 2.4832 2.2991
5.2989 2.6112 2.2991
5.2324 2.7377 2.2991
5.1629 2.8625 2.2991
5.0904 2.9856 2.2991
5.0150 3.1068 2.2991
4.9368 3.2262 2.2991
4.8558 3.3436 2.2991
4.7719 3.4590 2.2991
4.6854 3.5724 2.2991
4.5962 3.6836 2.2991
4.5044 3.7926 2.2991
4.4100 3.8994 2.2991
4.3131 4.0039 2.2991
4.2138 4.1059 2.2991
4.1121 4.2056 2.2991
4.0081 4.3028 2.2991
3.9018 4.3974 2.2991
3.7933 4.4894 2.2991
3.6826 4.5789 2.2991
3.5699 4.6656 2.2991
3.4551 4.7496 2.2991
3.3384 4.8308 2.2991
3.2198 4.9092 2.2991
3.0994 4.9847 2.2991
2.9773 5.0573 2.2991
2.8534 5.1270 2.2991
2.7280 5.1937 2.2991
2.6010 5.2573 2.2991
