ply
format ascii 1.0
element vertex 2040
property float32 x
property float32 y
property float32 z
end_header
6.3487 -37.0274 -2.1753
6.8163 -34.6972 -2.0466
7.1050 -32.0502 -1.8991
7.4938 -30.3168 -1.8057
6.4742 -23.7157 -1.4206
6.6912 -22.3676 -1.3483
6.8874 -21.1479 -1.2836
6.9308 -19.6544 -1.2018
2.3573 -6.2027 -0.3824
2.5217 -6.1811 -0.3844
7.5185 -17.2262 -1.0812
5.9658 -12.8146 -0.8123
6.0483 -12.2113 -0.7824
6.0570 -11.5202 -0.7465
6.1380 -11.0191 -0.7226
6.2132 -10.5462 -0.7005
6.3667 -10.2328 -0.6889
6.4353 -9.8064 -0.6696
6.5096 -9.4154 -0.6526
6.5715 -9.0304 -0.6359
6.5355 -8.5392 -0.6115
6.6775 -8.3011 -0.6049
6.6465 -7.8655 -0.5839
6.7380 -7.5936 -0.5748
6.7874 -7.2867 -0.5629
6.8350 -6.9910 -0.5518
6.8809 -6.7058 -0.5414
6.9253 -6.4301 -0.5316
6.9264 -6.1262 -0.5193
7.0568 -5.9439 -0.5172
7.0054 -5.6168 -0.5025
7.0477 -5.3762 -0.4951
7.1860 -5.2119 -0.4949
7.2237 -4.9773 -0.4882
7.1568 -4.6802 -0.4749
7.1918 -4.4588 -0.4691
7.3217 -4.2979 -0.4697
7.3564 -4.0825 -0.4645
7.3904 -3.8708 -0.4597
7.3276 -3.6150 -0.4492
7.3607 -3.4127 -0.4451
7.5002 -3.2595 -0.4477
7.5324 -3.0593 -0.4441
7.5642 -2.8613 -0.4408
7.4870 -2.6271 -0.4316
7.5175 -2.4354 -0.4288
7.6472 -2.2748 -0.4320
7.6781 -2.0834 -0.4298
7.7087 -1.8929 -0.4278
7.7392 -1.7032 -0.4261
7.7757 -1.5153 -0.4250
7.8142 -1.3276 -0.4242
7.7906 -1.1307 -0.4203
7.7218 -0.9308 -0.4143
7.1735 -0.6893 -0.3829
7.1103 -0.5102 -0.3779
7.0168 -0.3333 -0.3715
2.5124 -0.0585 -0.1326
2.4653 0.0022 -0.1297
6.9653 0.1744 -0.3658
6.9626 0.3429 -0.3651
6.9600 0.5116 -0.3646
6.8665 0.6718 -0.3595
6.9873 0.8546 -0.3660
7.0782 1.0399 -0.3710
7.1312 1.2243 -0.3743
7.7134 1.5170 -0.4057
7.8140 1.7339 -0.4121
8.3137 2.0567 -0.4399
8.3105 2.2704 -0.4414
8.3073 2.4867 -0.4432
8.2691 2.6946 -0.4435
8.3567 2.9483 -0.4508
8.3612 3.1791 -0.4540
8.3499 3.4079 -0.4566
8.3508 3.6460 -0.4603
8.2441 3.8392 -0.4583
8.2831 4.1037 -0.4648
8.2793 4.3541 -0.4693
8.3314 4.6418 -0.4774
8.3274 4.9070 -0.4828
8.3233 5.1795 -0.4886
8.3191 5.4600 -0.4949
8.2226 5.6855 -0.4961
8.2545 6.0075 -0.5056
8.2499 6.3146 -0.5134
8.2429 6.6310 -0.5218
7.9042 6.6795 -0.5094
7.6996 6.8322 -0.5057
7.4918 6.9784 -0.5020
7.2860 7.1232 -0.4987
7.0064 7.1890 -0.4904
6.9218 7.4543 -0.4960
6.7691 7.6526 -0.4973
6.8723 8.1582 -0.5184
6.7780 8.4526 -0.5256
8.0772 10.5870 -0.6450
8.0965 11.1614 -0.6669
8.1081 11.7653 -0.6900
8.0951 12.3760 -0.7131
8.0852 13.0379 -0.7387
8.1080 13.8088 -0.7700
8.1084 14.6065 -0.8023
8.0503 15.3653 -0.8320
8.0589 16.3297 -0.8724
8.1168 17.4999 -0.9231
8.0046 18.4107 -0.9597
7.7034 18.9578 -0.9772
8.2613 21.8284 -1.1135
8.1814 23.3028 -1.1772
8.1537 25.1520 -1.2593
8.1545 27.3936 -1.3602
7.8068 28.7477 -1.4166
8.0414 32.7172 -1.6012
8.0975 36.7550 -1.7876
8.0188 41.0994 -1.9879
7.8401 46.0795 -2.2179
7.4163 51.0133 -2.4451
6.6474 55.0325 -2.6284
6.6827 69.3621 -3.3033
5.0817 70.5669 -3.3532
1.8177 38.0539 -1.8054
1.6420 69.6579 -3.3017
-0.0419 70.9455 -3.3618
-1.8032 72.8408 -3.4529
-3.5675 72.8837 -3.4584
-7.0959 96.9380 -4.6075
-9.3831 96.1998 -4.5830
-9.3267 76.4551 -3.6532
-10.8270 73.8617 -3.5422
-16.2215 94.6647 -4.5593
-18.5491 94.4764 -4.5729
-9.5605 43.1528 -2.1005
-10.4199 42.1794 -2.0661
-11.1818 40.9844 -2.0216
-12.0585 40.3338 -2.0048
-11.6819 35.8912 -1.7990
-9.6096 27.2677 -1.3792
-10.3525 27.2565 -1.3922
-11.1085 27.2452 -1.4064
-14.4797 33.1962 -1.7330
-14.2067 30.5354 -1.6133
-14.8491 29.9993 -1.6054
-15.4568 29.4172 -1.5957
-16.4269 29.5094 -1.6239
-17.5966 29.8879 -1.6699
-18.6064 29.9251 -1.6990
-16.4961 25.1547 -1.4524
-16.4204 23.7666 -1.3969
-16.3514 22.4851 -1.3465
-16.2882 21.2970 -1.3006
-16.2302 20.1911 -1.2587
-16.1769 19.1578 -1.2204
-16.1275 18.1890 -1.1852
-16.0819 17.2780 -1.1529
-16.0395 16.4186 -1.1232
-16.0002 15.6056 -1.0957
-15.9635 14.8344 -1.0704
-15.9293 14.1011 -1.0470
-15.8974 13.4019 -1.0253
-15.8675 12.7339 -1.0053
-15.8396 12.0941 -0.9868
-16.4509 11.9429 -1.0087
-17.3825 11.9888 -1.0499
-18.3918 12.0398 -1.0954
-19.4900 12.0963 -1.1455
-20.6910 12.1593 -1.2011
-22.0115 12.2296 -1.2631
-23.2854 12.2107 -1.3218
-23.2597 11.4895 -1.3072
-23.2355 10.7872 -1.2938
-23.2127 10.1022 -1.2815
-23.1913 9.4332 -1.2704
-23.1716 8.7789 -1.2603
-27.1925 9.5576 -1.4694
-27.1901 8.8246 -1.4609
-40.3439 12.0243 -2.1565
-40.3009 10.9586 -2.1446
-40.2620 9.9098 -2.1343
-40.2268 8.8761 -2.1256
-40.3148 7.8791 -2.1247
-40.4279 6.8916 -2.1265
-40.5429 5.9069 -2.1296
-40.6600 4.9239 -2.1341
-40.7792 3.9411 -2.1399
-40.9008 2.9574 -2.1472
-41.0104 1.9707 -2.1550
-41.0079 0.9783 -2.1583
-41.0077 -0.0129 -2.1629
-41.0216 -1.0044 -2.1696
-41.0509 -1.9985 -2.1783
-41.0825 -2.9966 -2.1884
-41.1201 -4.0004 -2.2002
-26.9133 -6.6427 -1.4972
-73.5621 -23.9283 -4.2066
-87.7498 -30.9074 -5.0704
-84.1799 -31.9569 -4.9181
-76.8109 -31.3035 -4.5403
-72.2301 -31.4929 -4.3226
-66.7735 -31.0552 -4.0483
-62.6353 -30.9932 -3.8498
-59.7511 -31.3859 -3.7257
-59.7234 -33.2371 -3.7806
-59.6424 -35.1062 -3.8358
-39.8973 -24.8014 -2.6088
-40.6960 -26.6827 -2.7077
-33.7139 -23.2890 -2.2842
-36.0687 -26.2256 -2.4906
-35.3804 -27.0559 -2.4921
-34.5081 -27.7358 -2.4816
-33.7486 -28.4974 -1.9895
-33.3661 -29.5850 -2.0128
-32.1391 -29.9153 -1.9859
-39.4639 -38.5547 -2.5004
-40.1478 -41.1656 -2.6112
-36.9009 -39.7129 -2.4665
-35.6629 -40.2910 -2.4527
-35.0782 -41.6150 -2.4855
-37.5044 -46.7406 -2.7414
-31.6562 -41.4668 -2.3906
-26.8674 -37.0155 -2.0994
-26.2190 -38.0225 -2.1233
-27.3259 -41.7521 -2.2975
-26.0482 -41.9802 -2.2781
-22.4033 -38.1333 -2.0422
-22.1867 -39.9449 -2.1127
-26.5602 -50.6662 -2.6485
-20.6349 -41.7893 -2.1604
-13.6132 -29.3344 -1.5008
-13.2157 -30.3801 -1.5392
-12.5250 -30.8071 -1.5467
-11.4165 -30.1495 -1.5008
-10.8218 -30.8074 -1.5215
-10.1310 -31.2357 -1.5314
-9.0615 -30.4251 -1.4817
-12.3147 -45.3250 -2.1937
-10.9921 -44.7007 -2.1514
-9.2411 -41.9251 -2.0077
-8.6124 -44.1208 -2.1033
-8.2326 -48.3642 -2.2965
-8.5151 -58.5441 -2.7704
-8.7446 -72.3614 -3.4144
-6.9256 -71.8513 -3.3824
-6.4790 -89.9322 -4.2258
8.4613 -86.7023 -4.0810
10.1110 -82.8396 -3.9083
6.9537 -47.4126 -2.2433
6.3697 -37.1523 -1.7638
6.7632 -34.4291 -1.6409
7.1685 -32.3387 -1.5482
7.4937 -30.3179 -1.4587
6.4741 -23.7166 -1.1475
6.6910 -22.3685 -1.0889
6.8873 -21.1488 -1.0365
6.9965 -19.8420 -0.9795
2.3604 -6.2111 -0.3090
2.5259 -6.1917 -0.3107
7.4424 -17.0529 -0.8635
5.9657 -12.8153 -0.6553
6.0482 -12.2120 -0.6310
6.0573 -11.5215 -0.6019
6.2260 -11.1778 -0.5909
6.2128 -10.5462 -0.5645
6.3666 -10.2334 -0.5550
6.4352 -9.8070 -0.5393
6.5095 -9.4160 -0.5255
6.5714 -9.0309 -0.5119
6.5351 -8.5393 -0.4920
6.6774 -8.3016 -0.4866
6.6464 -7.8660 -0.4695
6.7380 -7.5941 -0.4620
6.7873 -7.2872 -0.4523
6.8349 -6.9916 -0.4432
6.8808 -6.7063 -0.4346
6.9252 -6.4306 -0.4266
6.9263 -6.1267 -0.4166
7.0567 -5.9444 -0.4147
7.0055 -5.6175 -0.4027
7.0468 -5.3760 -0.3966
7.1859 -5.2123 -0.3963
7.2237 -4.9778 -0.3907
7.1564 -4.6805 -0.3799
7.1919 -4.4594 -0.3751
7.3216 -4.2984 -0.3754
7.3563 -4.0829 -0.3710
7.3903 -3.8713 -0.3670
7.3278 -3.6156 -0.3585
7.3604 -3.4130 -0.3550
7.5001 -3.2600 -0.3569
7.5323 -3.0597 -0.3538
7.5642 -2.8618 -0.3510
7.4868 -2.6275 -0.3434
7.5177 -2.4359 -0.3411
7.6472 -2.2752 -0.3434
7.6780 -2.0838 -0.3414
7.7086 -1.8934 -0.3396
7.7391 -1.7037 -0.3381
7.7756 -1.5157 -0.3370
7.8141 -1.3281 -0.3362
7.7904 -1.1311 -0.3329
7.6905 -0.9275 -0.3266
7.1740 -0.6897 -0.3029
7.1105 -0.5106 -0.2987
7.0170 -0.3337 -0.2935
2.5124 -0.0587 -0.1047
2.4651 0.0020 -0.1023
6.9919 0.1747 -0.2895
6.9894 0.3438 -0.2888
6.9868 0.5131 -0.2882
6.8664 0.6714 -0.2829
6.9871 0.8541 -0.2878
7.0780 1.0394 -0.2916
7.1307 1.2238 -0.2939
7.7126 1.5164 -0.3184
7.8124 1.7331 -0.3231
8.3137 2.0562 -0.3447
8.3105 2.2699 -0.3457
8.3073 2.4862 -0.3469
8.2691 2.6941 -0.3469
8.3568 2.9478 -0.3524
8.3533 3.1756 -0.3543
8.3499 3.4074 -0.3565
8.3536 3.6468 -0.3592
8.2441 3.8387 -0.3573
8.2831 4.1032 -0.3622
8.2793 4.3536 -0.3654
8.3314 4.6413 -0.3715
8.3274 4.9064 -0.3754
8.3233 5.1789 -0.3797
8.3191 5.4594 -0.3844
8.2225 5.6849 -0.3851
8.2545 6.0069 -0.3922
8.2499 6.3140 -0.3981
8.2435 6.6309 -0.4043
7.9048 6.6794 -0.3945
7.7000 6.8319 -0.3914
7.4921 6.9782 -0.3883
7.2864 7.1230 -0.3856
7.0067 7.1887 -0.3789
6.9220 7.4539 -0.3831
6.7692 7.6521 -0.3839
6.8723 8.1576 -0.3999
6.7785 8.4525 -0.4054
8.1211 10.6437 -0.4999
8.1130 11.1834 -0.5148
8.1044 11.7591 -0.5311
8.0951 12.3752 -0.5489
8.0852 13.0371 -0.5684
8.0376 13.6879 -0.5871
7.9994 14.4092 -0.6085
7.9944 15.2575 -0.6350
8.0203 16.2504 -0.6670
8.0293 17.3101 -0.7013
8.0047 18.4096 -0.7368
7.7035 18.9566 -0.7500
8.2616 21.8278 -0.8544
8.1814 23.3014 -0.9030
8.1537 25.1506 -0.9657
8.1548 27.3929 -1.0429
7.8068 28.7461 -1.0859
8.0414 32.7154 -1.2271
8.0975 36.7530 -1.3698
8.0188 41.0972 -1.5229
7.9358 46.6396 -1.7197
7.4167 51.0133 -1.8729
6.6474 55.0298 -2.0130
6.4597 67.0438 -2.4452
4.9466 68.6882 -2.4994
1.8176 38.0515 -1.3824
1.6635 70.5663 -2.5612
-0.0416 70.4800 -2.5573
-1.7449 70.4783 -2.5582
-3.4221 69.9081 -2.5402
-5.3059 72.4797 -2.6382
-9.2195 94.5163 -3.4486
-11.4945 94.2203 -3.4484
-10.8662 74.1244 -2.7231
-7.3670 42.9895 -1.5863
-8.3578 42.5664 -1.5788
-9.2311 41.6635 -1.5543
-11.0496 44.7253 -1.6794
-10.8905 39.9141 -1.5095
-10.1591 33.9786 -1.2953
-11.0677 34.0021 -1.3074
-9.6137 27.2774 -1.0587
-10.3569 27.2663 -1.0689
-11.1132 27.2549 -1.0801
-14.0141 32.1267 -1.2880
-14.3466 30.8340 -1.2516
-20.4911 41.3947 -1.7025
-17.1135 32.5681 -1.3582
-21.4270 38.4887 -1.6290
-17.1333 29.0990 -1.2509
-16.1993 26.0518 -1.1385
-16.1333 24.5998 -1.0938
-16.0733 23.2627 -1.0534
-16.0185 22.0258 -1.0167
-15.9682 20.8771 -0.9832
-15.9220 19.8061 -0.9527
-15.8792 18.8039 -0.9247
-15.8397 17.8630 -0.8990
-15.8030 16.9771 -0.8754
-15.7690 16.1404 -0.8537
-15.7372 15.3479 -0.8336
-15.7076 14.5954 -0.8151
-15.6800 13.8791 -0.7981
-15.6541 13.1956 -0.7823
-15.6298 12.5419 -0.7677
-15.6071 11.9154 -0.7542
-15.9656 11.5894 -0.7598
-16.8508 11.6209 -0.7905
-17.8069 11.6557 -0.8242
-18.8442 11.6942 -0.8613
-19.9748 11.7370 -0.9023
-21.2134 11.7848 -0.9478
-22.5781 11.8383 -0.9986
-22.9494 11.3347 -1.0055
-22.9293 10.6435 -0.9960
-22.9104 9.9692 -0.9874
-22.8925 9.3102 -0.9796
-22.8763 8.6656 -0.9725
-27.4864 9.6592 -1.1618
-27.4814 8.9175 -1.1557
-39.1707 11.6723 -1.6399
-39.2102 10.6597 -1.6353
-39.3190 9.6753 -1.6346
-39.4289 8.6976 -1.6350
-39.5398 7.7253 -1.6364
-39.6519 6.7570 -1.6389
-39.7655 5.7913 -1.6424
-39.8805 4.8271 -1.6470
-39.9973 3.8632 -1.6526
-40.1158 2.8983 -1.6593
-40.2154 1.9301 -1.6661
-40.2137 0.9570 -1.6697
-40.2221 -0.0150 -1.6748
-40.2479 -0.9879 -1.6815
-40.2754 -1.9632 -1.6893
-40.3047 -2.9423 -1.6982
-40.3358 -3.9264 -1.7081
-71.9885 -8.7683 -3.0659
-95.4651 -28.5268 -4.2993
-73.5585 -23.9316 -3.3472
-87.8748 -30.9569 -4.0428
-84.1655 -31.9567 -3.9173
-76.7985 -31.3033 -3.6185
-72.2300 -31.4975 -3.4473
-66.7639 -31.0551 -3.2299
-62.6267 -30.9931 -3.0731
-59.7511 -31.3898 -2.9760
-59.7233 -33.2411 -3.0214
-59.6423 -35.1102 -3.0670
-59.5746 -37.0375 -3.1163
-40.7492 -26.7204 -2.1699
-33.7123 -23.2902 -1.8290
-63.6403 -46.2774 -3.5205
-35.4344 -27.0998 -2.0004
-35.3620 -28.4248 -2.0390
-38.0034 -32.0931 -1.6883
-33.3341 -29.5592 -1.5164
-32.1382 -29.9170 -1.4986
-14.3637 -14.0340 -0.6872
-40.2053 -41.2279 -1.9759
-39.0083 -41.9842 -1.9714
-35.8050 -40.4546 -1.8630
-35.3292 -41.9159 -1.8949
-37.5320 -46.7784 -2.0779
-33.1813 -43.4676 -1.8989
-31.9265 -43.9886 -1.8915
-23.8127 -34.5354 -1.4629
-27.4201 -41.8988 -1.7497
-26.0613 -42.0041 -1.7306
-22.4550 -38.2239 -1.5550
-22.0655 -39.7291 -1.5969
-26.6113 -50.7670 -2.0175
-25.7916 -52.2358 -2.0538
-13.8151 -29.7714 -1.1588
-13.1620 -30.2586 -1.1668
-12.4804 -30.6992 -1.1734
-13.3838 -35.3470 -1.3400
-19.7369 -56.1903 -2.1140
-10.1212 -31.2071 -1.1658
-13.2385 -44.4526 -1.6499
-12.2665 -45.1503 -1.6659
-10.9882 -44.6871 -1.6399
-10.0844 -45.7536 -1.6709
-8.7077 -44.6111 -1.6222
-9.8903 -58.1056 -2.1048
-8.5703 -58.9270 -2.1276
-8.7154 -72.1234 -2.5968
-6.9404 -72.0084 -2.5867
-6.4619 -89.6992 -3.2166
8.4286 -86.3720 -3.1021
10.1103 -82.8395 -2.9819
6.9311 -47.2615 -1.7059
7.4982 -43.7373 -1.5838
6.8009 -34.6230 -1.2585
7.0542 -31.8250 -1.1617
7.4825 -30.2746 -1.1105
6.4085 -23.4777 -0.8658
6.6909 -22.3694 -0.8298
6.8182 -20.9380 -0.7817
7.0292 -19.9359 -0.7495
2.3620 -6.2159 -0.2355
2.5372 -6.2198 -0.2375
7.4441 -17.0579 -0.6572
5.9657 -12.8160 -0.4984
6.0481 -12.2126 -0.4797
6.0562 -11.5203 -0.4574
6.2259 -11.1784 -0.4489
6.2123 -10.5462 -0.4286
6.3665 -10.2340 -0.4212
6.4351 -9.8076 -0.4091
6.5094 -9.4165 -0.3984
6.5713 -9.0315 -0.3879
6.5353 -8.5402 -0.3726
6.6773 -8.3021 -0.3683
6.6464 -7.8665 -0.3552
6.7379 -7.5946 -0.3493
6.7873 -7.2877 -0.3418
6.8348 -6.9920 -0.3347
6.8807 -6.7068 -0.3280
6.9251 -6.4311 -0.3217
6.9262 -6.1272 -0.3139
7.0567 -5.9449 -0.3123
7.0057 -5.6181 -0.3031
7.0459 -5.3759 -0.2982
7.1858 -5.2128 -0.2978
7.2236 -4.9783 -0.2934
7.1565 -4.6811 -0.2851
7.1921 -4.4600 -0.2812
7.3215 -4.2988 -0.2812
7.3562 -4.0834 -0.2777
7.3903 -3.8717 -0.2744
7.3279 -3.6161 -0.2678
7.3605 -3.4136 -0.2650
7.5000 -3.2604 -0.2661
7.5322 -3.0602 -0.2636
7.5641 -2.8622 -0.2613
7.4870 -2.6280 -0.2554
7.5178 -2.4365 -0.2534
7.6471 -2.2757 -0.2548
7.6779 -2.0843 -0.2531
7.7086 -1.8938 -0.2516
7.7391 -1.7041 -0.2502
7.7755 -1.5162 -0.2491
7.8140 -1.3285 -0.2482
7.7902 -1.1315 -0.2455
7.7234 -0.9319 -0.2416
7.1745 -0.6902 -0.2230
7.1107 -0.5110 -0.2196
7.0172 -0.3341 -0.2155
2.5124 -0.0588 -0.0768
2.4649 0.0019 -0.0750
6.9919 0.1743 -0.2119
6.9894 0.3434 -0.2111
6.9868 0.5127 -0.2105
6.8663 0.6710 -0.2064
6.9869 0.8537 -0.2097
7.0778 1.0389 -0.2122
7.1302 1.2233 -0.2137
7.7118 1.5158 -0.2311
7.8109 1.7323 -0.2343
8.3137 2.0557 -0.2497
8.3105 2.2694 -0.2501
8.3073 2.4857 -0.2507
8.2691 2.6936 -0.2504
8.3568 2.9473 -0.2541
8.3534 3.1751 -0.2551
8.3499 3.4069 -0.2564
8.3538 3.6463 -0.2581
8.2441 3.8382 -0.2564
8.2831 4.1027 -0.2596
8.2793 4.3530 -0.2616
8.3314 4.6407 -0.2657
8.3274 4.9058 -0.2682
8.3233 5.1783 -0.2710
8.3191 5.4588 -0.2740
8.2225 5.6843 -0.2742
8.2545 6.0063 -0.2789
8.2499 6.3134 -0.2828
8.2442 6.6308 -0.2870
7.9054 6.6793 -0.2797
7.7004 6.8316 -0.2772
7.4925 6.9779 -0.2748
7.2868 7.1227 -0.2725
7.0070 7.1884 -0.2676
6.9222 7.4536 -0.2703
6.7693 7.6516 -0.2706
6.8723 8.1570 -0.2816
6.7789 8.4524 -0.2852
8.1211 10.6430 -0.3513
8.1130 11.1826 -0.3615
8.1044 11.7583 -0.3727
8.0952 12.3744 -0.3848
8.0852 13.0362 -0.3982
8.0745 13.7499 -0.4129
8.0629 14.5227 -0.4291
8.0503 15.3633 -0.4470
8.0366 16.2822 -0.4669
8.0214 17.2921 -0.4891
8.0047 18.4085 -0.5141
7.7035 18.9555 -0.5230
8.1537 21.5414 -0.5877
8.1800 23.2961 -0.6289
8.1537 25.1491 -0.6724
8.1551 27.3922 -0.7258
7.8068 28.7445 -0.7554
8.0414 32.7136 -0.8534
8.0976 36.7511 -0.9523
8.0189 41.0950 -1.0584
7.9358 46.6371 -1.1949
7.4171 51.0133 -1.3011
6.6474 55.0272 -1.3981
6.6828 69.3557 -1.7566
5.0592 70.2484 -1.7750
1.8175 38.0480 -0.9597
1.5953 67.6734 -1.7053
-0.0401 67.8423 -1.7091
-1.7993 72.6732 -1.8316
-3.3497 68.4242 -1.7264
-5.3143 72.5900 -1.8349
-8.4963 87.0965 -2.2072
-10.2743 84.2124 -2.1411
-12.1075 82.5863 -2.1081
-13.0693 76.2597 -1.9558
-9.3215 47.4714 -1.2241
-10.1727 45.9102 -1.1911
-9.9468 40.2592 -1.0517
-11.1699 40.9355 -1.0775
-9.7854 32.7269 -0.8687
-10.5940 32.5447 -0.8717
-9.6143 27.2774 -0.7379
-10.3575 27.2662 -0.7454
-11.1140 27.2549 -0.7537
-13.5372 31.0314 -0.8686
-19.9799 42.9382 -1.2176
-21.0044 42.4286 -1.2199
-17.1125 32.5640 -0.9500
-21.2546 38.1764 -1.1311
-15.8914 26.9878 -0.8128
-15.8365 25.4666 -0.7803
-15.7866 24.0693 -0.7510
-15.7410 22.7800 -0.7244
-15.6992 21.5852 -0.7003
-15.6755 20.4928 -0.6789
-15.6704 19.4916 -0.6601
-15.6659 18.5498 -0.6429
-15.6612 17.6603 -0.6270
-15.6734 16.8364 -0.6130
-15.6621 16.0296 -0.5992
-15.6513 15.2628 -0.5865
-15.6410 14.5322 -0.5748
-15.6311 13.8346 -0.5640
-15.6216 13.1670 -0.5540
-15.6126 12.5269 -0.5448
-15.6038 11.9117 -0.5363
-15.8287 11.4888 -0.5363
-16.6428 11.4763 -0.5565
-17.5142 11.4628 -0.5784
-18.4501 11.4483 -0.6024
-19.4458 11.4248 -0.6282
-20.5396 11.4091 -0.6570
-21.7504 11.4028 -0.6895
-22.6475 11.1841 -0.7121
-22.6313 10.5038 -0.7063
-22.6161 9.8397 -0.7010
-22.6016 9.1905 -0.6964
-22.5886 8.5552 -0.6923
-27.7865 9.7629 -0.8477
-27.7788 9.0122 -0.8441
-27.9605 8.3301 -0.8469
-38.0432 10.3401 -1.1492
-38.3230 9.4279 -1.1553
-38.6842 8.5310 -1.1646
-38.7947 7.5774 -1.1670
-38.9059 6.6275 -1.1702
-39.0180 5.6801 -1.1741
-39.1311 4.7341 -1.1787
-39.2454 3.7883 -1.1841
-39.3611 2.8415 -1.1902
-39.4513 1.8912 -1.1962
-39.4555 0.9366 -1.2004
-39.4789 -0.0171 -1.2058
-39.5035 -0.9719 -1.2119
-39.5293 -1.9291 -1.2189
-39.5565 -2.8900 -1.2266
-39.5849 -3.8557 -1.2350
-39.6147 -4.8275 -1.2443
-73.5549 -23.9350 -2.4888
-87.6227 -30.8735 -3.0003
-84.1511 -31.9565 -2.9178
-74.1239 -30.2178 -2.6042
-72.2300 -31.5021 -2.5729
-66.7544 -31.0550 -2.4124
-62.6183 -30.9930 -2.2974
-58.8817 -30.9370 -2.1946
-58.1718 -32.3814 -2.2042
-59.6423 -35.1142 -2.2990
-59.5746 -37.0416 -2.3379
-59.6354 -39.1087 -2.3843
-33.7106 -23.2914 -1.3742
-60.6671 -44.1197 -2.5236
-35.7794 -27.3663 -1.5200
-35.2199 -28.3132 -1.5294
-38.1104 -32.1864 -1.1399
-62.7917 -55.6857 -1.9258
-14.3178 -13.9902 -0.4631
-35.1525 -41.7094 -1.2805
-37.5596 -46.8163 -1.4138
-39.0502 -56.6380 -1.6361
-35.9220 -54.8938 -1.5647
-26.0744 -42.0281 -1.1830
-25.4257 -43.2837 -1.2040
-31.7002 -57.0803 -1.5700
-39.1423 -74.6774 -2.0325
-34.7851 -70.4549 -1.8986
-26.1468 -56.3497 -1.5044
-14.1782 -32.5966 -0.8626
-21.7868 -53.5945 -1.4068
-27.1838 -71.7975 -1.8703
-19.7335 -56.1840 -1.4532
-23.4678 -72.3639 -1.8595
-13.1794 -44.2567 -1.1304
-12.2187 -44.9771 -1.1425
-12.4375 -50.5844 -1.2786
-10.0869 -45.7676 -1.1516
-12.6793 -64.9622 -1.6280
-10.2228 -60.0619 -1.4999
-8.9324 -73.9227 -1.8357
-8.8591 -91.9205 -2.2778
8.4287 -86.3794 -2.1397
10.1097 -82.8394 -2.0562
6.9309 -47.2630 -1.1761
7.4393 -43.3962 -1.0831
6.8007 -34.6242 -0.8671
7.0975 -32.0228 -0.8051
7.4933 -30.3202 -0.7657
6.4803 -23.7425 -0.6026
6.6907 -22.3704 -0.5708
6.8184 -20.9400 -0.5375
7.0290 -19.9368 -0.5151
2.3505 -6.1859 -0.1609
2.5245 -6.1890 -0.1622
7.5264 -17.2477 -0.4558
5.9656 -12.8167 -0.3416
6.0480 -12.2132 -0.3286
6.0559 -11.5204 -0.3130
6.2258 -11.1790 -0.3070
6.2125 -10.5472 -0.2929
6.3664 -10.2345 -0.2875
6.4350 -9.8081 -0.2790
6.5093 -9.4171 -0.2715
6.5713 -9.0320 -0.2640
6.5355 -8.5411 -0.2534
6.6773 -8.3027 -0.2502
6.6463 -7.8670 -0.2410
6.7378 -7.5951 -0.2367
6.7872 -7.2882 -0.2313
6.8348 -6.9925 -0.2262
6.8807 -6.7073 -0.2215
6.9250 -6.4316 -0.2169
6.9262 -6.1277 -0.2114
7.0566 -5.9453 -0.2100
7.0058 -5.6188 -0.2035
7.0450 -5.3757 -0.1999
7.1858 -5.2133 -0.1994
7.2235 -4.9787 -0.1961
7.1567 -4.6817 -0.1902
7.1922 -4.4606 -0.1873
7.3215 -4.2993 -0.1870
7.3561 -4.0839 -0.1844
7.3902 -3.8722 -0.1819
7.3281 -3.6167 -0.1772
7.3607 -3.4141 -0.1750
7.4999 -3.2609 -0.1754
7.5322 -3.0606 -0.1735
7.5640 -2.8626 -0.1716
7.4871 -2.6285 -0.1674
7.5180 -2.4370 -0.1657
7.6470 -2.2761 -0.1664
7.6778 -2.0847 -0.1649
7.7085 -1.8943 -0.1635
7.7390 -1.7046 -0.1623
7.7754 -1.5166 -0.1612
7.8139 -1.3290 -0.1603
7.7911 -1.1321 -0.1582
7.7242 -0.9324 -0.1554
7.1750 -0.6907 -0.1431
7.1110 -0.5115 -0.1406
7.0175 -0.3345 -0.1376
2.5125 -0.0590 -0.0489
2.4647 0.0017 -0.0477
6.9919 0.1739 -0.1343
6.9894 0.3429 -0.1335
6.9868 0.5123 -0.1328
6.8663 0.6706 -0.1299
6.9867 0.8532 -0.1316
7.0776 1.0385 -0.1329
7.1297 1.2228 -0.1334
7.7110 1.5151 -0.1440
7.8094 1.7315 -0.1456
8.3138 2.0552 -0.1548
8.3105 2.2689 -0.1546
8.3073 2.4852 -0.1546
8.2691 2.6931 -0.1540
8.3568 2.9468 -0.1558
8.3534 3.1745 -0.1561
8.3499 3.4063 -0.1564
8.3541 3.6459 -0.1570
8.2440 3.8376 -0.1556
8.2831 4.1021 -0.1571
8.2793 4.3525 -0.1579
8.3314 4.6402 -0.1600
8.3274 4.9053 -0.1610
8.3233 5.1778 -0.1623
8.3191 5.4583 -0.1636
8.2225 5.6837 -0.1633
8.2546 6.0057 -0.1658
8.2499 6.3128 -0.1676
8.2448 6.6308 -0.1697
7.9060 6.6792 -0.1650
7.7007 6.8314 -0.1631
7.4929 6.9777 -0.1613
7.2871 7.1225 -0.1596
7.0072 7.1881 -0.1563
6.9224 7.4532 -0.1575
6.7694 7.6511 -0.1573
6.8464 8.1256 -0.1628
6.7794 8.4524 -0.1651
7.8338 10.2656 -0.1957
8.1130 11.1818 -0.2083
8.1044 11.7575 -0.2143
8.0952 12.3735 -0.2209
8.0852 13.0354 -0.2281
8.0745 13.7490 -0.2361
8.0630 14.5218 -0.2449
8.0504 15.3623 -0.2547
8.0366 16.2812 -0.2656
8.0214 17.2911 -0.2778
8.0047 18.4074 -0.2915
7.7035 18.9544 -0.2961
8.2057 21.6776 -0.3344
8.1815 23.2988 -0.3553
8.1537 25.1477 -0.3793
8.1218 27.2789 -0.4073
7.8069 28.7429 -0.4252
8.0415 32.7119 -0.4799
7.9884 36.2533 -0.5278
7.8664 40.3112 -0.5830
7.8518 46.1411 -0.6633
7.4175 51.0133 -0.7296
6.6475 55.0247 -0.7836
6.5401 67.8713 -0.9631
4.9927 69.3213 -0.9811
1.8174 38.0442 -0.5374
1.6521 70.0783 -0.9888
-0.0408 68.9535 -0.9727
-1.7541 70.8426 -0.9999
-3.4477 70.4190 -0.9952
-5.3217 72.6857 -1.0294
-8.2436 84.5009 -1.2002
-10.0671 82.5084 -1.1763
-11.8746 80.9930 -1.1600
-7.8244 45.6527 -0.6573
-15.4579 78.7174 -1.1405
-9.8960 44.6588 -0.6515
-10.6237 42.9961 -0.6322
-11.2649 41.2813 -0.6122
-12.1268 40.5547 -0.6072
-13.4747 41.3913 -0.6261
-9.6149 27.2774 -0.4172
-10.3582 27.2662 -0.4221
-11.1147 27.2549 -0.4274
-17.6190 40.3852 -0.6420
-19.2871 41.4466 -0.6685
-20.5509 41.5099 -0.6800
-17.1116 32.5600 -0.5422
-20.9816 37.6836 -0.6384
-15.8322 26.8854 -0.4638
-15.8112 25.4242 -0.4471
-15.7919 24.0757 -0.4320
-15.7739 22.8260 -0.4183
-15.7572 21.6633 -0.4059
-15.7415 20.5776 -0.3945
-15.7268 19.5604 -0.3842
-15.7130 18.6042 -0.3748
-15.7000 17.7026 -0.3662
-15.6877 16.8504 -0.3583
-15.6760 16.0425 -0.3511
-15.6648 15.2747 -0.3444
-15.6542 14.5432 -0.3384
-15.6440 13.8448 -0.3328
-15.6343 13.1765 -0.3277
-15.6249 12.5356 -0.3231
-15.6159 11.9198 -0.3189
-15.8349 11.4922 -0.3196
-16.6496 11.4798 -0.3325
-17.5216 11.4664 -0.3465
-18.4582 11.4521 -0.3618
-19.4681 11.4366 -0.3785
-20.5615 11.4198 -0.3969
-21.7507 11.4016 -0.4172
-21.7413 10.7351 -0.4147
-21.7315 10.0847 -0.4125
-21.7220 9.4493 -0.4107
-21.7121 8.8274 -0.4091
-22.2238 8.4156 -0.4176
-28.0930 9.8688 -0.5269
-28.0825 9.1090 -0.5260
-28.0625 8.3588 -0.5253
-36.0966 9.8088 -0.6756
-36.3602 8.9428 -0.6810
-36.6264 8.0750 -0.6868
-36.8955 7.2042 -0.6931
-37.1679 6.3292 -0.6999
-37.4442 5.4488 -0.7072
-37.7246 4.5617 -0.7150
-38.0241 3.6681 -0.7236
-38.6347 2.7867 -0.7387
-38.7183 1.8537 -0.7442
-38.7404 0.9173 -0.7489
-38.7631 -0.0190 -0.7541
-38.7866 -0.9565 -0.7597
-38.8109 -1.8963 -0.7659
-38.8360 -2.8396 -0.7724
-38.8619 -3.7876 -0.7795
-38.8888 -4.7413 -0.7871
-93.7360 -28.0216 -2.0510
-73.5513 -23.9383 -1.6309
-87.7496 -30.9236 -1.9730
-75.8745 -28.8182 -1.7308
-72.6630 -29.6268 -1.6827
-72.2299 -31.5067 -1.6991
-66.7448 -31.0548 -1.5958
-62.6098 -30.9928 -1.5224
-59.6339 -31.3361 -1.4757
-59.6062 -33.1838 -1.5020
-58.1440 -34.2360 -1.4930
-59.5745 -37.0456 -1.5599
-59.5185 -39.0362 -1.5903
-33.7084 -23.2923 -0.9198
-60.6682 -44.1248 -1.6918
-67.0316 -51.2747 -1.9118
-37.1014 -29.8284 -1.0832
-62.8806 -53.1109 -0.9685
-62.7916 -55.6905 -0.9956
-62.7630 -58.4350 -1.0252
-14.3178 -13.9914 -0.2412
-36.9295 -43.8212 -0.7101
-45.4783 -69.5020 -1.0604
-37.1810 -75.3125 -1.0984
-14.1806 -32.6043 -0.4687
-33.5753 -88.6843 -1.2590
-24.2118 -68.9384 -0.9732
-23.5284 -72.5548 -1.0189
-13.9901 -46.9821 -0.6566
-23.6324 -86.9958 -1.2106
-21.1521 -95.9796 -1.3255
-6.1298 -31.4076 -0.4324
-12.3766 -72.7206 -0.9983
-9.1042 -75.3489 -1.0297
8.4531 -86.6349 -1.1811
10.1090 -82.8393 -1.1311
6.8818 -46.9311 -0.6420
7.4703 -43.5797 -0.5975
6.8005 -34.6254 -0.4760
7.1106 -32.0835 -0.4424
7.4931 -30.3214 -0.4195
6.4799 -23.7424 -0.3297
6.6906 -22.3713 -0.3120
6.8175 -20.9387 -0.2934
7.0289 -19.9377 -0.2807
2.3573 -6.2041 -0.0878
2.5213 -6.1815 -0.0880
7.5263 -17.2485 -0.2472
5.9655 -12.8173 -0.1849
6.0479 -12.2138 -0.1775
6.0561 -11.5215 -0.1688
6.2257 -11.1796 -0.1651
6.2127 -10.5482 -0.1572
6.3663 -10.2351 -0.1539
6.4349 -9.8087 -0.1490
6.5092 -9.4176 -0.1446
6.5712 -9.0325 -0.1402
6.5357 -8.5419 -0.1342
6.6772 -8.3032 -0.1321
6.6462 -7.8675 -0.1268
6.7377 -7.5957 -0.1242
6.7871 -7.2887 -0.1209
6.8347 -6.9930 -0.1179
6.8806 -6.7078 -0.1149
6.9249 -6.4321 -0.1122
6.9261 -6.1282 -0.1089
7.0565 -5.9458 -0.1077
7.0060 -5.6195 -0.1040
7.0451 -5.3763 -0.1017
7.1857 -5.2137 -0.1010
7.2234 -4.9792 -0.0988
7.1568 -4.6823 -0.0954
7.1924 -4.4611 -0.0935
7.3214 -4.2997 -0.0929
7.3561 -4.0843 -0.0911
7.3901 -3.8726 -0.0894
7.3283 -3.6173 -0.0866
7.3608 -3.4147 -0.0851
7.4999 -3.2613 -0.0848
7.5321 -3.0611 -0.0833
7.5640 -2.8631 -0.0819
7.4872 -2.6290 -0.0794
7.5181 -2.4375 -0.0782
7.6470 -2.2766 -0.0779
7.6778 -2.0852 -0.0767
7.7084 -1.8947 -0.0756
7.7389 -1.7050 -0.0744
7.7753 -1.5170 -0.0734
7.8138 -1.3294 -0.0725
7.7924 -1.1328 -0.0710
7.7250 -0.9330 -0.0692
7.1755 -0.6912 -0.0632
7.1112 -0.5119 -0.0616
7.0177 -0.3350 -0.0598
2.5125 -0.0591 -0.0211
2.4645 0.0016 -0.0203
6.9919 0.1735 -0.0568
6.9894 0.3425 -0.0560
6.9869 0.5119 -0.0551
6.8662 0.6702 -0.0534
6.9865 0.8528 -0.0536
7.0774 1.0380 -0.0536
7.1292 1.2223 -0.0533
7.7101 1.5145 -0.0569
7.8079 1.7306 -0.0569
8.3138 2.0547 -0.0598
8.3106 2.2684 -0.0591
8.3073 2.4847 -0.0585
8.2692 2.6926 -0.0576
8.3568 2.9463 -0.0576
8.3534 3.1740 -0.0570
8.3499 3.4058 -0.0565
8.3544 3.6455 -0.0560
8.2440 3.8371 -0.0548
8.2831 4.1016 -0.0547
8.2793 4.3520 -0.0543
8.3314 4.6396 -0.0543
8.3274 4.9047 -0.0539
8.3233 5.1772 -0.0536
8.3191 5.4577 -0.0534
8.2224 5.6831 -0.0526
8.2546 6.0051 -0.0526
8.2500 6.3122 -0.0525
8.2455 6.6307 -0.0524
7.9066 6.6791 -0.0503
7.7011 6.8311 -0.0490
7.4932 6.9774 -0.0478
7.2875 7.1222 -0.0466
7.0075 7.1878 -0.0450
6.9226 7.4528 -0.0447
6.7695 7.6506 -0.0441
6.8464 8.1250 -0.0450
6.7798 8.4523 -0.0450
7.8338 10.2649 -0.0526
7.8260 10.7854 -0.0533
7.8176 11.3406 -0.0541
7.8087 11.9349 -0.0550
7.7992 12.5733 -0.0561
7.7888 13.2616 -0.0573
7.7777 14.0070 -0.0587
7.7655 14.8178 -0.0603
7.7522 15.7041 -0.0621
7.7376 16.6782 -0.0642
7.7215 17.7550 -0.0666
7.7035 18.9533 -0.0694
7.9239 20.9318 -0.0749
7.9005 22.4972 -0.0788
7.8737 24.2825 -0.0833
7.8429 26.3405 -0.0887
7.8069 28.7414 -0.0951
7.7653 31.5867 -0.1029
7.7140 35.0064 -0.1124
7.6501 39.2009 -0.1243
7.5709 44.4877 -0.1394
7.4179 51.0133 -0.1583
6.3869 52.8646 -0.1627
6.6828 69.3494 -0.2120
4.8727 67.6513 -0.2058
1.8174 38.0421 -0.1153
1.6859 71.5093 -0.2163
-0.0413 69.7555 -0.2109
-1.7194 69.4323 -0.2102
-3.3776 68.9834 -0.2095
-5.3578 73.1737 -0.2232
-8.0720 82.7363 -0.2539
-9.8645 80.8435 -0.2500
-11.6403 79.3896 -0.2478
-7.5276 43.9181 -0.1386
-8.5111 43.3390 -0.1384
-15.9304 71.8859 -0.2328
-18.6974 75.6672 -0.2488
-13.5396 49.6138 -0.1659
-13.0268 43.5618 -0.1483
-16.9689 52.1213 -0.1810
-9.6155 27.2774 -0.0967
-10.3589 27.2662 -0.0988
-11.1154 27.2549 -0.1012
-19.2763 44.1812 -0.1681
-25.0232 53.7695 -0.2100
-20.5270 41.4587 -0.1664
-17.1106 32.5559 -0.1345
-21.4228 38.4732 -0.1638
-15.8633 26.9364 -0.1183
-15.8435 25.4743 -0.1155
-15.8253 24.1249 -0.1131
-15.8083 22.8742 -0.1110
-15.7926 21.7104 -0.1092
-15.7779 20.6236 -0.1077
-15.7641 19.6052 -0.1063
-15.7512 18.6479 -0.1052
-15.7390 17.7452 -0.1042
-15.7274 16.8917 -0.1034
-15.7165 16.0826 -0.1027
-15.7061 15.3136 -0.1022
-15.6962 14.5809 -0.1018
-15.6867 13.8814 -0.1016
-15.6777 13.2118 -0.1014
-15.6690 12.5698 -0.1014
-15.6606 11.9528 -0.1014
-16.2964 11.8259 -0.1057
-17.1733 11.8396 -0.1117
-18.1161 11.8542 -0.1183
-19.1340 11.8700 -0.1255
-20.2375 11.8872 -0.1334
-21.4391 11.9058 -0.1421
-22.5527 11.8205 -0.1504
-22.5326 11.1244 -0.1513
-22.7023 10.5337 -0.1536
-24.1627 10.5095 -0.1648
-21.7127 8.8263 -0.1494
-22.2235 8.4141 -0.1543
-28.4061 9.9770 -0.1991
-28.3928 9.2079 -0.2010
-28.3702 8.4487 -0.2030
-35.8719 9.7456 -0.2594
-36.1066 8.8783 -0.2641
-36.3415 8.0100 -0.2690
-36.5770 7.1398 -0.2740
-36.8133 6.2666 -0.2793
-37.0507 5.3893 -0.2848
-37.2895 4.5069 -0.2904
-37.5299 3.6182 -0.2963
-37.7723 2.7223 -0.3025
-38.5833 1.8450 -0.3135
-38.5974 0.9117 -0.3182
-38.6115 -0.0212 -0.3232
-38.6256 -0.9548 -0.3283
-38.6397 -1.8902 -0.3337
-38.6539 -2.8286 -0.3392
-38.6681 -3.7709 -0.3450
-38.6824 -4.7184 -0.3510
-93.7359 -28.0272 -0.9666
-73.5468 -23.9414 -0.7736
-87.8749 -30.9732 -0.9431
-84.1222 -31.9560 -0.9216
-76.7615 -31.3028 -0.8588
-72.2299 -31.5113 -0.8256
-66.7353 -31.0547 -0.7797
-62.6013 -30.9927 -0.7480
-58.8666 -30.9367 -0.7196
-58.1714 -32.3889 -0.7279
-58.1436 -34.2398 -0.7451
-58.1151 -36.1421 -0.7632
-58.0858 -38.1005 -0.7821
-33.7059 -23.2929 -0.4656
-63.5702 -46.2401 -0.9014
-67.0251 -51.2746 -0.9763
-37.0872 -29.8198 -0.5553
-62.8805 -53.1156 -0.0563
-62.7915 -55.6953 -0.0655
-62.7629 -58.4399 -0.0750
-14.3177 -13.9925 -0.0193
-36.9135 -43.8055 -0.0750
-45.4742 -69.5005 -0.1399
-14.1831 -32.6120 -0.0747
-24.1851 -68.8667 -0.1633
-13.9931 -46.9949 -0.1134
-6.1295 -31.4076 -0.0777
8.4571 -86.6810 -0.2165
10.1084 -82.8392 -0.2062
6.8813 -46.9304 -0.1163
7.4701 -43.5811 -0.1075
6.8003 -34.6266 -0.0849
7.1101 -32.0835 -0.0782
7.4929 -30.3225 -0.0734
6.4795 -23.7424 -0.0570
6.6904 -22.3722 -0.0532
6.8178 -20.9408 -0.0493
7.0287 -19.9385 -0.0465
2.3614 -6.2153 -0.0143
2.5296 -6.2023 -0.0141
7.5262 -17.2494 -0.0386
5.9654 -12.8180 -0.0283
6.0478 -12.2144 -0.0265
6.0562 -11.5226 -0.0245
6.2256 -11.1802 -0.0233
6.2129 -10.5493 -0.0215
6.3662 -10.2357 -0.0204
6.4348 -9.8092 -0.0190
6.5091 -9.4182 -0.0177
6.5711 -9.0331 -0.0164
6.5358 -8.5428 -0.0150
6.6771 -8.3037 -0.0140
6.6461 -7.8681 -0.0127
6.7376 -7.5962 -0.0117
6.7870 -7.2892 -0.0106
6.8346 -6.9935 -0.0095
6.8805 -6.7083 -0.0085
6.9249 -6.4326 -0.0074
6.9260 -6.1286 -0.0064
7.0564 -5.9463 -0.0055
7.0062 -5.6201 -0.0044
7.0453 -5.3769 -0.0035
7.1856 -5.2142 -0.0026
7.2234 -4.9797 -0.0016
7.1569 -4.6829 -0.0007
7.1925 -4.4617 0.0003
7.3213 -4.3002 0.0012
7.3560 -4.0848 0.0021
7.3901 -3.8731 0.0031
7.3284 -3.6178 0.0039
7.3610 -3.4152 0.0048
7.4998 -3.2618 0.0058
7.5320 -3.0615 0.0068
7.5639 -2.8635 0.0077
7.4874 -2.6296 0.0085
7.5183 -2.4380 0.0094
7.6469 -2.2770 0.0105
7.6777 -2.0856 0.0114
7.7083 -1.8952 0.0124
7.7389 -1.7055 0.0134
7.7752 -1.5175 0.0144
7.8137 -1.3299 0.0154
7.7938 -1.1334 0.0163
7.7257 -0.9335 0.0171
7.1760 -0.6916 0.0167
7.1114 -0.5123 0.0174
7.0179 -0.3354 0.0181
2.5125 -0.0593 0.0068
2.4643 0.0014 0.0070
6.9919 0.1731 0.0207
6.9894 0.3421 0.0216
6.9869 0.5115 0.0225
6.8662 0.6698 0.0230
6.9862 0.8524 0.0244
7.0771 1.0376 0.0257
7.1287 1.2218 0.0269
7.7093 1.5139 0.0302
7.8063 1.7298 0.0317
8.3138 2.0542 0.0351
8.3106 2.2679 0.0363
8.3073 2.4842 0.0376
8.2692 2.6921 0.0388
8.3568 2.9458 0.0406
8.3534 3.1735 0.0420
8.3499 3.4053 0.0435
8.3546 3.6451 0.0450
8.2448 3.8369 0.0460
8.2831 4.1011 0.0478
8.2793 4.3514 0.0494
8.3314 4.6391 0.0514
8.3274 4.9042 0.0532
8.3234 5.1766 0.0550
8.3192 5.4571 0.0569
8.2224 5.6825 0.0582
8.2546 6.0046 0.0605
8.2500 6.3116 0.0626
8.2461 6.6306 0.0648
7.9073 6.6790 0.0644
7.7015 6.8308 0.0651
7.4936 6.9772 0.0657
7.2878 7.1220 0.0663
7.0078 7.1876 0.0662
6.9228 7.4524 0.0680
6.7696 7.6501 0.0691
6.8464 8.1244 0.0728
6.7803 8.4522 0.0751
7.8338 10.2642 0.0905
7.8260 10.7846 0.0944
7.8177 11.3399 0.0986
7.8087 11.9341 0.1030
7.7992 12.5724 0.1079
7.7889 13.2608 0.1132
7.7777 14.0061 0.1189
7.7655 14.8169 0.1251
7.7522 15.7031 0.1320
7.7376 16.6772 0.1395
7.7215 17.7539 0.1479
7.7035 18.9521 0.1573
7.9239 20.9305 0.1731
7.9005 22.4959 0.1854
7.8737 24.2811 0.1995
7.8429 26.3390 0.2158
7.8069 28.7398 0.2349
7.7653 31.5850 0.2575
7.7141 35.0045 0.2848
7.6502 39.1988 0.3183
7.8402 46.0677 0.3735
7.4183 51.0133 0.4129
6.6476 55.0194 0.4448
6.6829 69.3462 0.5600
5.1814 71.9336 0.5804
1.8174 38.0400 0.3068
1.6795 71.2322 0.5741
-0.0425 71.5677 0.5767
-1.7988 72.6331 0.5852
-3.5081 71.6435 0.5773
-5.3447 72.9911 0.5884
-5.2093 53.3907 0.4306
-6.7042 54.9394 0.4434
-10.8613 74.0721 0.5984
-13.1088 76.4758 0.6186
-7.0522 35.9077 0.2908
-15.8158 71.3646 0.5789
-17.9072 72.4650 0.5889
-13.5386 49.6072 0.4040
-13.0262 43.5568 0.3555
-22.6845 69.6729 0.5701
-9.6161 27.2774 0.2238
-10.3595 27.2662 0.2244
-11.1161 27.2549 0.2250
-32.2378 73.8839 0.6121
-25.0192 53.7574 0.4471
-34.8885 70.4604 0.5884
-17.1096 32.5519 0.2730
-21.4213 38.4680 0.3242
-15.8633 26.9344 0.2281
-15.8435 25.4725 0.2169
-15.8252 24.1232 0.2066
-15.8083 22.8725 0.1971
-15.7926 21.7088 0.1883
-15.7779 20.6221 0.1801
-15.7641 19.6037 0.1725
-15.7512 18.6464 0.1653
-15.7389 17.7438 0.1586
-15.7274 16.8903 0.1524
-15.7165 16.0813 0.1464
-15.7061 15.3123 0.1408
-15.6962 14.5797 0.1356
-15.6867 13.8801 0.1305
-15.6776 13.2106 0.1258
-15.6690 12.5686 0.1212
-15.6606 11.9516 0.1169
-16.2980 11.8260 0.1174
-17.1751 11.8396 0.1194
-18.1181 11.8542 0.1216
-19.1362 11.8701 0.1241
-20.2399 11.8872 0.1267
-21.4418 11.9059 0.1297
-22.5527 11.8190 0.1318
-22.5326 11.1229 0.1272
-22.7054 10.5337 0.1238
-24.1661 10.5094 0.1272
-21.7129 8.8250 0.1104
-22.2259 8.4136 0.1091
-30.4125 10.6798 0.1441
-32.8513 10.6518 0.1502
-28.4012 8.4562 0.1252
-36.1596 9.8215 0.1537
-36.3968 8.9475 0.1491
-36.4053 8.0219 0.1436
-36.6326 7.1485 0.1391
-36.8698 6.2741 0.1347
-37.1082 5.3955 0.1303
-37.3480 4.5118 0.1260
-37.5894 3.6218 0.1217
-37.8328 2.7245 0.1174
-38.7169 1.8491 0.1150
-38.7167 0.9122 0.1099
-38.7166 -0.0236 0.1050
-38.7165 -0.9593 0.1001
-38.7163 -1.8962 0.0952
-38.7162 -2.8354 0.0904
-38.7161 -3.7779 0.0856
-38.7159 -4.7248 0.0809
-93.7359 -28.0329 0.1176
-73.5434 -23.9448 0.0836
-87.8750 -30.9787 0.0894
-84.1078 -31.9558 0.0756
-76.7492 -31.3026 0.0598
-72.2298 -31.5158 0.0476
-66.7258 -31.0545 0.0360
-62.5928 -30.9926 0.0261
-58.8590 -30.9366 0.0174
-58.1723 -32.3933 0.0100
-58.1436 -34.2437 0.0026
-58.1151 -36.1461 -0.0048
-58.0364 -38.0722 -0.0123
-33.7033 -23.2935 -0.0115
-63.6507 -46.3032 -0.0303
-67.0185 -51.2745 -0.0411
-37.0731 -29.8112 -0.0279
-62.8307 -53.0783 0.8552
-62.7914 -55.7001 0.8647
-62.7628 -58.4448 0.8755
-14.3177 -13.9937 0.2025
-42.5583 -43.6549 0.6113
-36.8974 -43.7898 0.5596
-42.2784 -58.2683 0.6868
-42.1154 -61.0967 0.7025
-15.0619 -23.0215 0.2585
-42.1686 -67.9833 0.7464
-41.8499 -75.3711 0.7934
-41.9065 -79.9668 0.8255
-41.8390 -84.7585 0.8589
-41.6260 -89.7262 0.8935
-14.1855 -32.6196 0.3195
-9.3302 -26.5692 0.2491
-13.9961 -47.0077 0.4301
-6.1291 -31.4076 0.2769
-8.7945 -60.4820 0.5263
-8.7561 -72.4753 0.6276
-8.4710 -87.9074 0.7581
-6.5294 -90.6539 0.7793
-2.3376 -99.1494 0.8495
2.7328 -37.3249 0.3212
5.3478 -54.8166 0.4734
10.1077 -82.8391 0.7186
6.8817 -46.9362 0.4093
7.4698 -43.5825 0.3825
6.8001 -34.6278 0.3061
7.1096 -32.0834 0.2860
7.4927 -30.3237 0.2728
6.4791 -23.7423 0.2157
6.6903 -22.3731 0.2056
6.8181 -20.9430 0.1947
7.0286 -19.9394 0.1878
2.3612 -6.2153 0.0594
2.5336 -6.2127 0.0602
7.5260 -17.2502 0.1699
5.9653 -12.8187 0.1284
6.0477 -12.2150 0.1246
6.0564 -11.5238 0.1197
6.2255 -11.1808 0.1185
6.2131 -10.5503 0.1142
6.3661 -10.2362 0.1132
6.4347 -9.8098 0.1110
6.5090 -9.4187 0.1092
6.5710 -9.0336 0.1073
6.5360 -8.5437 0.1042
6.6770 -8.3042 0.1041
6.6460 -7.8686 0.1014
6.7375 -7.5967 0.1009
6.7869 -7.2897 0.0998
6.8345 -6.9940 0.0989
6.8804 -6.7088 0.0980
6.9248 -6.4331 0.0973
6.9259 -6.1291 0.0961
7.0564 -5.9468 0.0968
7.0063 -5.6208 0.0951
7.0454 -5.3776 0.0947
7.1855 -5.2147 0.0958
7.2233 -4.9801 0.0956
7.1571 -4.6835 0.0941
7.1927 -4.4623 0.0941
7.3212 -4.3007 0.0953
7.3559 -4.0852 0.0954
7.3900 -3.8735 0.0955
7.3286 -3.6184 0.0945
7.3611 -3.4157 0.0948
7.4997 -3.2622 0.0965
7.5319 -3.0620 0.0969
7.5638 -2.8640 0.0973
7.4875 -2.6301 0.0964
7.5184 -2.4385 0.0970
7.6468 -2.2775 0.0989
7.6776 -2.0861 0.0996
7.7083 -1.8956 0.1004
7.7388 -1.7060 0.1012
7.7751 -1.5179 0.1021
7.8136 -1.3303 0.1032
7.7951 -1.1341 0.1036
7.7265 -0.9341 0.1033
7.1765 -0.6921 0.0966
7.1117 -0.5128 0.0965
7.0181 -0.3358 0.0960
2.5125 -0.0594 0.0346
2.4641 0.0013 0.0343
6.9919 0.1726 0.0982
6.9894 0.3417 0.0991
6.9869 0.5111 0.1001
6.8661 0.6694 0.0995
6.9860 0.8519 0.1024
7.0769 1.0371 0.1050
7.1282 1.2213 0.1070
7.7085 1.5133 0.1173
7.8048 1.7290 0.1203
8.3138 2.0538 0.1300
8.3106 2.2674 0.1318
8.3073 2.4837 0.1337
8.2692 2.6916 0.1352
8.3568 2.9453 0.1388
8.3534 3.1730 0.1410
8.3499 3.4048 0.1434
8.3464 3.6409 0.1459
8.2461 3.8370 0.1469
8.2831 4.1005 0.1502
8.2793 4.3509 0.1530
8.3314 4.6385 0.1571
8.3274 4.9036 0.1603
8.3234 5.1761 0.1636
8.3192 5.4566 0.1671
8.2224 5.6819 0.1690
8.2546 6.0040 0.1736
8.2500 6.3110 0.1777
8.2468 6.6305 0.1821
7.9079 6.6789 0.1792
7.7019 6.8306 0.1792
7.4940 6.9769 0.1792
7.2882 7.1217 0.1792
7.0081 7.1873 0.1775
6.9230 7.4521 0.1807
6.7696 7.6496 0.1823
6.8464 8.1238 0.1905
6.7807 8.4522 0.1952
7.8338 10.2634 0.2336
7.8260 10.7839 0.2420
7.8177 11.3391 0.2512
7.8088 11.9333 0.2611
7.7992 12.5716 0.2719
7.7889 13.2599 0.2836
8.0630 14.5190 0.3073
8.0504 15.3594 0.3219
8.0366 16.2782 0.3380
8.0215 17.2879 0.3559
8.0047 18.4041 0.3758
8.2273 20.2395 0.4101
8.2058 21.6738 0.4361
8.1815 23.2947 0.4657
8.1538 25.1434 0.4996
8.1219 27.2743 0.5389
8.0857 29.7641 0.5851
8.0415 32.7065 0.6400
7.9737 36.1804 0.7050
7.9223 40.5910 0.7880
7.8098 45.8864 0.8879
7.4187 51.0133 0.9843
6.6476 55.0167 1.0590
6.6606 69.1115 1.3276
5.9491 82.5869 1.5841
1.8174 38.0379 0.7288
1.7128 72.6446 1.3909
-0.0424 71.3262 1.3653
-1.7718 71.5355 1.3695
-3.5258 72.0006 1.3792
-5.2784 72.0798 1.3821
-5.2095 53.3896 1.0252
-6.6901 54.8210 1.0546
-10.6122 72.3687 1.3954
-12.4838 72.8250 1.4080
-7.0519 35.9042 0.6964
-15.7635 71.1240 1.3844
-17.8818 72.3576 1.4142
-13.5377 49.6007 0.9738
-13.0255 43.5518 0.8593
-23.2957 71.5455 1.4194
-25.4999 72.3289 1.4435
-26.9594 70.9525 1.4252
-28.9831 71.0573 1.4372
-26.6243 61.0147 1.2434
-25.0153 53.7454 1.1040
-29.5750 59.7254 1.2374
-17.1087 32.5478 0.6805
-21.4199 38.4628 0.8121
-15.8632 26.9325 0.5745
-15.8435 25.4706 0.5493
-16.2278 24.7350 0.5397
-15.8083 22.8708 0.5052
-15.7926 21.7072 0.4858
-15.8882 20.7647 0.4711
-16.1651 20.1008 0.4627
-15.7511 18.6449 0.4358
-15.7389 17.7423 0.4215
-15.7274 16.8889 0.4081
-15.7164 16.0799 0.3956
-16.1056 15.7005 0.3937
-16.0954 14.9492 0.3825
-15.6867 13.8788 0.3627
-15.6776 13.2094 0.3530
-15.6689 12.5674 0.3438
-15.6606 11.9504 0.3352
-16.2997 11.8260 0.3406
-17.7621 12.2430 0.3626
-18.4556 12.0738 0.3683
-19.1384 11.8701 0.3737
-20.9319 12.2922 0.4001
-21.4445 11.9059 0.4015
-22.5527 11.8175 0.4139
-22.5326 11.1214 0.4056
-22.7085 10.5336 0.4012
-24.1695 10.5093 0.4193
-21.7131 8.8237 0.3701
-22.2284 8.4132 0.3725
-32.0853 11.2653 0.5288
-33.5046 10.8616 0.5435
-28.4019 8.4546 0.4536
-36.1586 9.8190 0.5689
-36.3958 8.9450 0.5645
-36.6333 8.0700 0.5603
-36.8713 7.1929 0.5564
-37.1102 6.3127 0.5528
-37.3502 5.4285 0.5495
-37.5921 4.5390 0.5464
-37.8356 3.6433 0.5437
-37.8332 2.7223 0.5377
-38.7169 1.8469 0.5445
-39.0779 0.9185 0.5442
-39.0777 -0.0261 0.5390
-39.0776 -0.9706 0.5342
-39.0774 -1.9162 0.5297
-39.0773 -2.8641 0.5254
-39.0772 -3.8154 0.5215
-38.7159 -4.7271 0.5131
-93.7358 -28.0386 1.2018
-73.5405 -23.9484 0.9406
-70.8314 -24.9747 0.9044
-51.8928 -19.7193 0.6618
-50.9550 -20.7854 0.6496
-50.0328 -21.8339 0.6380
-49.1249 -22.8661 0.6270
-50.1620 -24.8408 0.6413
-58.8514 -30.9365 0.7541
-58.1725 -32.3973 0.7478
-58.1435 -34.2475 0.7504
-58.1150 -36.1500 0.7537
-58.1008 -38.1185 0.7578
-33.7007 -23.2941 0.4424
-60.6715 -44.1404 0.8026
-34.8317 -26.6517 0.4647
-37.0589 -29.8026 0.4991
-62.8307 -53.0830 1.7669
-62.7914 -55.7049 1.7951
-62.7463 -58.4343 1.8256
-14.3934 -14.0688 0.4267
-42.5206 -43.6199 1.2860
-22.4622 -26.6602 0.7271
-42.4216 -52.8923 1.4087
-42.2752 -58.2679 1.4847
-30.9368 -44.8830 1.1203
-15.0619 -23.0231 0.5635
-42.0748 -67.8368 1.6295
-14.7687 -26.5999 0.6172
-41.7822 -79.7347 1.8208
-41.7067 -84.4959 1.9006
-41.6257 -89.7311 1.9898
-14.1880 -32.6273 0.7139
-9.3298 -26.5696 0.5612
-9.3651 -28.8844 0.6039
-9.3129 -31.2803 0.6479
-9.1692 -33.7595 0.6933
-9.0740 -41.1812 0.8333
-9.0134 -52.9680 1.0592
-8.9591 -61.6172 1.2264
-7.8172 -64.7075 1.2827
-5.7754 -59.9372 1.1843
-6.5291 -90.6537 1.7867
-2.1184 -89.8531 1.7660
5.3475 -54.8166 1.0839
10.1070 -82.8390 1.6436
6.9300 -47.2687 0.9418
6.3061 -36.7949 0.7367
6.7999 -34.6290 0.6973
7.1092 -32.0833 0.6502
7.4925 -30.3248 0.6190
6.4786 -23.7422 0.4885
6.6901 -22.3740 0.4644
6.8184 -20.9452 0.4389
7.0284 -19.9403 0.4222
2.3451 -6.1733 0.1322
2.5225 -6.1857 0.1340
7.5259 -17.2510 0.3785
5.9653 -12.8194 0.2851
6.0476 -12.2157 0.2757
6.0566 -11.5249 0.2641
6.2254 -11.1814 0.2604
6.2133 -10.5514 0.2499
6.3660 -10.2368 0.2468
6.4346 -9.8104 0.2411
6.5089 -9.4193 0.2361
6.5709 -9.0342 0.2312
6.5362 -8.5446 0.2235
6.6769 -8.3048 0.2222
6.6459 -7.8691 0.2156
6.7375 -7.5972 0.2134
6.7869 -7.2902 0.2102
6.8344 -6.9945 0.2073
6.8803 -6.7093 0.2046
6.9247 -6.4335 0.2021
6.9259 -6.1296 0.1986
7.0563 -5.9473 0.1991
7.0065 -5.6215 0.1947
7.0456 -5.3782 0.1930
7.1855 -5.2151 0.1942
7.2232 -4.9806 0.1929
7.1572 -4.6841 0.1889
7.1928 -4.4629 0.1879
7.3212 -4.3011 0.1894
7.3558 -4.0857 0.1886
7.3899 -3.8740 0.1880
7.3287 -3.6189 0.1851
7.3612 -3.4163 0.1847
7.4997 -3.2627 0.1871
7.5319 -3.0624 0.1870
7.5637 -2.8644 0.1870
7.4877 -2.6306 0.1844
7.5186 -2.4390 0.1846
7.6467 -2.2779 0.1874
7.6775 -2.0865 0.1878
7.7082 -1.8961 0.1884
7.7387 -1.7064 0.1890
7.7750 -1.5184 0.1900
7.8135 -1.3308 0.1911
7.7965 -1.1347 0.1909
7.7273 -0.9346 0.1896
7.1769 -0.6926 0.1766
7.1119 -0.5132 0.1755
7.0184 -0.3362 0.1738
2.5125 -0.0596 0.0625
2.4639 0.0011 0.0616
6.9919 0.1722 0.1757
6.9894 0.3413 0.1767
6.9869 0.5107 0.1778
6.8661 0.6690 0.1760
6.9858 0.8515 0.1804
7.0767 1.0367 0.1842
7.1277 1.2208 0.1872
7.7076 1.5127 0.2043
7.8033 1.7282 0.2089
8.3138 2.0532 0.2249
8.3106 2.2669 0.2273
8.3073 2.4832 0.2298
7.8590 2.5576 0.2201
7.2885 2.5683 0.2067
8.3534 3.1725 0.2401
8.3499 3.4042 0.2434
8.3464 3.6404 0.2468
8.2473 3.8370 0.2476
8.2831 4.1000 0.2526
7.7467 4.0705 0.2402
7.2999 4.0638 0.2303
7.2661 4.2782 0.2333
8.3234 5.1755 0.2723
8.2068 5.3823 0.2737
8.2223 5.6813 0.2798
8.2546 6.0034 0.2868
8.2500 6.3104 0.2929
7.2397 5.8203 0.2629
7.9085 6.6789 0.2939
7.7022 6.8303 0.2933
7.4943 6.9767 0.2927
7.2885 7.1215 0.2922
7.0084 7.1870 0.2888
6.9232 7.4517 0.2935
6.7697 7.6491 0.2956
6.8464 8.1232 0.3083
6.7812 8.4521 0.3153
8.1212 10.6392 0.3905
8.1131 11.1787 0.4041
8.1045 11.7542 0.4187
8.0952 12.3702 0.4346
8.0853 13.0319 0.4519
8.0746 13.7454 0.4707
8.0630 14.5180 0.4914
8.0504 15.3585 0.5142
8.0366 16.2772 0.5393
8.0100 17.2620 0.5664
8.0048 18.4030 0.5983
8.2273 20.2383 0.6524
8.2058 21.6725 0.6931
8.1815 23.2934 0.7394
8.1538 25.1420 0.7926
8.0974 27.1904 0.8518
8.0857 29.7625 0.9271
8.0416 32.7047 1.0134
7.9740 36.1800 1.1158
7.9223 40.5889 1.2465
7.8102 45.8860 1.4040
7.4191 51.0133 1.5559
6.6476 55.0141 1.6734
6.6607 69.1085 2.0974
5.2304 72.6062 2.1999
1.8174 38.0357 1.1510
1.6825 71.3594 2.1577
-0.0424 71.3085 2.1556
-1.7701 71.4598 2.1606
-3.6129 73.7743 2.2322
-4.0012 54.6356 1.6550
-5.2098 53.3884 1.6199
-6.5572 53.7279 1.6337
-10.5457 71.9107 2.1924
-12.3582 72.0879 2.2047
-7.0643 35.9650 1.1039
-15.7122 70.8878 2.1849
-17.9393 72.5854 2.2477
-13.5368 49.5941 1.5437
-13.0248 43.5468 1.3632
-23.3829 71.8089 2.2620
-25.3461 71.8881 2.2799
-26.9116 70.8222 2.2626
-28.9062 70.8641 2.2819
-26.6243 61.0108 1.9814
-25.0113 53.7333 1.7610
-29.5125 59.5952 1.9721
-17.1077 32.5438 1.0881
-21.4185 38.4576 1.3001
-15.8632 26.9306 0.9211
-11.1447 17.9155 0.6203
-16.2277 24.7332 0.8677
-15.8083 22.8691 0.8134
-15.7925 21.7055 0.7834
-15.8894 20.7646 0.7610
-16.1651 20.0993 0.7487
-15.7511 18.6434 0.7064
-15.7389 17.7409 0.6844
-15.7274 16.8876 0.6640
-15.7164 16.0786 0.6449
-16.1055 15.6991 0.6431
-16.0954 14.9479 0.6260
-15.6867 13.8776 0.5949
-15.6776 13.2081 0.5802
-15.6689 12.5662 0.5665
-15.6606 11.9492 0.5536
-16.3014 11.8260 0.5639
-17.7640 12.2430 0.6018
-18.4557 12.0725 0.6128
-19.1406 11.8701 0.6234
-20.9344 12.2923 0.6693
-21.4471 11.9059 0.6735
-22.5526 11.8159 0.6962
-22.5325 11.1199 0.6842
-22.7115 10.5336 0.6788
-24.1730 10.5093 0.7116
-21.7133 8.8224 0.6300
-22.2309 8.4127 0.6360
-32.0910 11.2653 0.9060
-33.5040 10.8593 0.9339
-28.4025 8.4531 0.7822
-36.1576 9.8165 0.9843
-36.3947 8.9425 0.9799
-36.6324 8.0676 0.9761
-36.8709 7.1906 0.9728
-37.1102 6.3105 0.9701
-37.3506 5.4263 0.9679
-37.5925 4.5368 0.9662
-37.8360 3.6411 0.9651
-37.8338 2.7201 0.9582
-38.7169 1.8446 0.9742
-39.0779 0.9162 0.9775
-39.0777 -0.0283 0.9722
-39.0776 -0.9729 0.9675
-39.0774 -1.9185 0.9634
-39.0773 -2.8665 0.9598
-39.0772 -3.8177 0.9568
-38.7159 -4.7294 0.9455
-94.3231 -13.8427 2.2990
-96.2085 -23.7866 2.3403
-94.4158 -25.7793 2.2991
-93.7357 -28.0443 2.2864
-73.4682 -23.9293 1.7962
-70.8341 -24.9800 1.7370
-51.9029 -19.7264 1.2775
-50.9649 -20.7927 1.2599
-50.0425 -21.8412 1.2433
-49.1342 -22.8737 1.2279
-50.1734 -24.8497 1.2620
-58.8438 -30.9364 1.4910
-58.1712 -32.4005 1.4859
-58.1435 -34.2514 1.4985
-58.1150 -36.1539 1.5124
-58.1093 -38.1281 1.5283
-33.6981 -23.2947 0.8965
-42.6816 -31.0552 1.1497
-34.8776 -26.6894 0.9521
-37.0448 -29.7940 1.0259
-42.4508 -35.8681 1.8102
-30.1881 -26.7835 1.3106
-42.4038 -39.4933 1.8764
-42.3763 -41.4242 1.9135
-42.3505 -43.4489 1.9538
-42.3212 -45.5714 1.9972
-42.2925 -47.8068 2.0444
-22.4605 -26.6602 1.1136
-42.2274 -52.6541 2.1508
-42.1904 -55.2937 2.2109
-42.1531 -58.1038 2.2765
-30.8861 -44.8126 1.7221
-17.4143 -26.6206 1.0043
-39.8561 -64.2640 2.3822
-38.3707 -65.3425 2.3822
-14.7677 -26.5999 0.9546
-35.0035 -66.8029 2.3618
-29.3944 -59.5555 2.0761
-30.8150 -66.4310 2.2851
-14.1904 -32.6350 1.1087
-10.8286 -26.6462 0.8947
-22.5306 -59.5257 1.9769
-9.3293 -26.5700 0.8735
-9.3759 -28.9196 0.9418
-9.3122 -31.2798 1.0098
-9.1689 -33.7605 1.0813
-16.5416 -67.2951 2.1397
-9.0745 -41.1857 1.3010
-9.1185 -46.7316 1.4676
-8.9481 -52.5871 1.6431
-8.8308 -60.7381 1.8894
-4.4693 -36.9967 1.1466
-3.5627 -36.9760 1.1425
-2.6615 -36.9553 1.1392
-3.7286 -78.0556 2.4022
-1.8419 -78.1308 2.4022
0.0462 -78.1531 2.4022
1.9341 -78.1213 2.4022
3.6562 -74.6877 2.2991
5.4580 -74.5556 2.2991
5.3471 -54.8166 1.6946
6.2319 -51.0807 1.5841
6.9298 -47.2701 1.4716
7.4694 -43.5854 1.3630
6.7424 -34.3381 1.0795
7.1066 -32.0737 1.0143
6.1436 -24.8669 0.7916
6.3539 -23.2868 0.7468
6.6900 -22.3749 0.7234
6.8939 -21.1785 0.6908
7.0283 -19.9412 0.6567
2.3576 -6.2066 0.2065
2.5213 -6.1832 0.2080
7.5258 -17.2518 0.5873
5.9652 -12.8200 0.4419
6.0475 -12.2163 0.4268
6.0568 -11.5260 0.4085
6.2253 -11.1820 0.4023
6.2134 -10.5524 0.3857
6.3659 -10.2374 0.3805
6.4345 -9.8109 0.3712
6.5089 -9.4198 0.3630
6.5708 -9.0347 0.3551
6.5364 -8.5454 0.3428
6.6768 -8.3053 0.3404
6.6459 -7.8696 0.3298
6.7374 -7.5977 0.3260
6.7868 -7.2907 0.3207
6.8344 -6.9950 0.3157
6.8803 -6.7098 0.3111
6.9246 -6.4340 0.3069
6.9258 -6.1301 0.3012
7.0562 -5.9477 0.3014
7.0969 -5.6946 0.2981
7.0457 -5.3789 0.2913
7.1854 -5.2156 0.2927
7.2231 -4.9811 0.2902
7.1574 -4.6847 0.2838
7.1930 -4.4635 0.2818
7.3211 -4.3016 0.2836
7.3558 -4.0861 0.2820
7.3898 -3.8744 0.2805
7.3289 -3.6195 0.2758
7.3614 -3.4168 0.2747
7.4996 -3.2631 0.2778
7.5318 -3.0629 0.2772
7.5637 -2.8649 0.2767
7.4878 -2.6311 0.2725
7.5187 -2.4395 0.2723
7.6467 -2.2784 0.2759
7.6775 -2.0870 0.2760
7.7081 -1.8965 0.2764
7.7386 -1.7069 0.2769
7.7750 -1.5188 0.2778
7.8134 -1.3312 0.2790
7.7978 -1.1354 0.2784
7.7281 -0.9352 0.2760
7.1774 -0.6930 0.2565
7.1121 -0.5136 0.2546
7.0186 -0.3366 0.2518
2.5126 -0.0597 0.0904
2.4637 0.0010 0.0889
6.9920 0.1718 0.2533
6.9894 0.3409 0.2543
6.9869 0.5103 0.2555
6.8660 0.6686 0.2525
6.9856 0.8511 0.2585
7.0765 1.0362 0.2636
7.1272 1.2203 0.2674
7.7068 1.5120 0.2914
7.8018 1.7274 0.2975
8.3138 2.0528 0.3199
8.3106 2.2664 0.3228
8.3073 2.4826 0.3260
8.2692 2.6906 0.3280
7.2885 2.5678 0.2924
8.3601 3.1745 0.3395
8.3499 3.4037 0.3434
8.3554 3.6438 0.3482
8.2486 3.8371 0.3486
8.0267 3.9725 0.3442
7.9366 4.1697 0.3455
7.3008 4.0638 0.3230
7.2670 4.2782 0.3269
8.3234 5.1749 0.3810
8.3192 5.4554 0.3878
8.2223 5.6807 0.3906
7.8018 5.6735 0.3780
7.4090 5.6666 0.3665
7.2397 5.8197 0.3659
7.9091 6.6788 0.4088
7.5963 6.7358 0.4019
7.3605 6.8515 0.3990
7.1829 7.0177 0.3994
7.0087 7.1867 0.4001
6.9234 7.4513 0.4063
6.7698 7.6487 0.4089
6.7146 7.9662 0.4179
6.7334 8.3920 0.4325
8.1212 10.6384 0.5390
8.1131 11.1779 0.5573
8.1045 11.7534 0.5771
8.0952 12.3694 0.5986
8.0853 13.0311 0.6220
8.0746 13.7445 0.6476
8.0630 14.5171 0.6756
8.0504 15.3575 0.7065
8.0367 16.2762 0.7407
7.9965 17.2319 0.7762
8.0048 18.4019 0.8209
8.2273 20.2371 0.8947
8.2058 21.6712 0.9501
8.1816 23.2920 1.0133
8.1539 25.1405 1.0858
8.0974 27.1888 1.1666
8.0857 29.7609 1.2692
8.0416 32.7029 1.3870
7.9744 36.1796 1.5269
