ply
format ascii 1.0
element vertex 2172
property float32 x
property float32 y
property float32 z
end_header
-0.5927 -6.1546 1.3088
-0.4431 -6.1543 1.3060
-0.2939 -6.1540 1.3041
-0.1452 -6.1537 1.3029
0.0034 -6.1534 1.3025
0.1520 -6.1531 1.3029
0.3007 -6.1528 1.3040
0.4498 -6.1525 1.3059
0.5994 -6.1522 1.3086
0.7497 -6.1519 1.3121
0.9008 -6.1516 1.3165
1.9142 -11.1815 2.4023
2.0896 -10.6531 2.2992
2.3459 -10.5981 2.2992
2.6006 -10.5368 2.2992
2.8538 -10.4693 2.2992
3.1051 -10.3956 2.2992
3.3546 -10.3157 2.2992
3.6019 -10.2296 2.2992
3.8470 -10.1376 2.2992
4.0897 -10.0395 2.2992
4.3298 -9.9355 2.2992
4.5673 -9.8256 2.2992
4.8019 -9.7099 2.2992
5.0336 -9.5886 2.2992
5.2621 -9.4616 2.2992
5.4874 -9.3290 2.2992
5.7093 -9.1910 2.2992
5.9276 -9.0476 2.2992
6.0211 -8.7232 2.2539
6.3811 -8.7834 2.3094
6.6974 -8.7656 2.3473
6.9046 -8.5983 2.3473
7.0645 -8.3749 2.3331
2.4462 -2.7618 0.7859
7.1683 -7.7097 2.2434
7.2174 -7.3961 2.2032
7.2649 -7.0937 2.1656
7.3139 -6.8044 2.1315
7.3617 -6.5244 2.0998
7.4958 -6.3268 2.0947
7.5415 -6.0596 2.0669
7.5859 -5.7995 2.0410
7.6292 -5.5458 2.0170
7.5816 -5.2362 1.9713
7.6225 -4.9969 1.9509
7.6625 -4.7626 1.9320
7.7017 -4.5328 1.9147
7.7474 -4.3112 1.9005
7.7941 -4.0939 1.8881
7.8079 -3.8635 1.8692
7.0564 -3.2819 1.6707
6.8620 -2.9921 1.6079
6.9467 -2.8313 1.6121
6.9455 -2.6370 1.5974
6.9443 -2.4463 1.5839
6.9431 -2.2589 1.5716
6.9239 -2.0691 1.5563
7.0039 -1.9100 1.5643
7.0847 -1.7493 1.5733
7.1411 -1.5812 1.5777
7.4937 -1.4703 1.6482
7.7002 -1.3185 1.6871
7.7432 -1.1340 1.6909
8.3131 -1.0130 1.8105
8.3115 -0.8095 1.8063
8.3104 -0.6072 1.8034
6.3286 -0.3088 1.3721
6.3289 -0.1557 1.3716
7.2626 -0.0031 1.5744
7.2623 0.1724 1.5757
7.2621 0.3481 1.5779
7.2619 0.5243 1.5810
7.2616 0.7010 1.5850
7.2614 0.8786 1.5900
7.2494 1.0555 1.5934
6.7318 1.1469 1.4861
6.2942 1.2296 1.3963
6.2863 1.3866 1.4024
6.2786 1.5449 1.4093
7.0715 1.9224 1.5981
7.0697 2.1067 1.6096
7.0680 2.2936 1.6222
7.0662 2.4834 1.6359
7.0643 2.6763 1.6508
7.0625 2.8727 1.6670
6.5978 2.8714 1.5740
6.1822 2.8703 1.4917
5.9892 2.9587 1.4627
7.6820 4.0289 1.9003
7.4680 4.1499 1.8725
7.3221 4.3037 1.8623
7.0898 4.4012 1.8306
6.9970 4.5816 1.8355
6.9034 4.7627 1.8415
6.9305 5.0329 1.8814
6.9025 5.2722 1.9087
6.9013 5.5405 1.9457
6.9183 5.8348 1.9905
7.9865 7.0732 2.3473
7.8101 7.2615 2.3473
7.6293 7.4453 2.3473
7.4443 7.6248 2.3473
7.2551 7.7998 2.3473
7.0619 7.9702 2.3473
6.8647 8.1358 2.3473
6.6637 8.2967 2.3473
6.4591 8.4527 2.3473
6.2508 8.6038 2.3473
6.0391 8.7499 2.3473
5.7048 8.7086 2.2992
5.4909 8.8416 2.2992
5.2741 8.9695 2.2992
5.0544 9.0921 2.2992
4.8318 9.2095 2.2992
4.6066 9.3215 2.2992
4.3788 9.4281 2.2992
4.1487 9.5293 2.2992
3.9162 9.6250 2.2992
3.6816 9.7152 2.2992
3.4449 9.7997 2.2992
3.2064 9.8787 2.2992
2.9661 9.9519 2.2992
2.7242 10.0194 2.2992
2.4807 10.0812 2.2992
2.2359 10.1372 2.2992
1.9899 10.1874 2.2992
1.8209 10.6905 2.4023
1.5617 10.7307 2.4023
1.3016 10.7647 2.4023
1.0408 10.7926 2.4023
0.7794 10.8144 2.4023
0.5176 10.8299 2.4023
0.2554 10.8392 2.4023
-0.0068 10.8424 2.4023
-0.2691 10.8393 2.4023
-0.5312 10.8301 2.4023
-0.7931 10.8146 2.4023
-1.0545 10.7929 2.4023
-1.3154 10.7651 2.4023
-1.5755 10.7311 2.4023
-1.8348 10.6910 2.4023
-2.0931 10.6447 2.4023
-2.3503 10.5923 2.4023
-2.6062 10.5339 2.4023
-2.8606 10.4694 2.4023
-3.1135 10.3989 2.4023
-3.3648 10.3224 2.4023
-3.6141 10.2399 2.4023
-3.8615 10.1516 2.4023
-4.1068 10.0574 2.4023
-4.3499 9.9574 2.4023
-4.5905 9.8516 2.4023
-4.8287 9.7402 2.4023
-5.0642 9.6231 2.4023
-5.2969 9.5004 2.4023
-5.5267 9.3722 2.4023
-5.7534 9.2385 2.4023
-5.9770 9.0995 2.4023
-6.1773 8.9263 2.3946
-6.1834 8.4888 2.3159
-6.3426 8.2790 2.2991
-6.5433 8.1260 2.2991
-6.7403 7.9683 2.2991
-6.9336 7.8059 2.2991
-7.1230 7.6388 2.2991
-7.3085 7.4673 2.2991
-7.4899 7.2912 2.2991
-7.6672 7.1109 2.2991
-7.8401 6.9263 2.2991
-8.0087 6.7376 2.2991
-8.1728 6.5448 2.2991
-8.3324 6.3481 2.2991
-8.4872 6.1476 2.2991
-8.6373 5.9433 2.2991
-8.7826 5.7354 2.2991
-8.9228 5.5240 2.2991
-9.0581 5.3092 2.2991
-8.8333 4.8945 2.2103
-8.9928 4.7023 2.2200
-9.4329 4.6456 2.2991
-9.5472 4.4185 2.2991
-9.6562 4.1885 2.2991
-9.7596 3.9559 2.2991
-9.8575 3.7208 2.2991
-9.9497 3.4832 2.2991
-10.0287 3.2410 2.2973
-10.1094 2.9992 2.2973
-10.1844 2.7555 2.2973
-10.2535 2.5099 2.2973
-10.3167 2.2626 2.2973
-10.3740 2.0137 2.2973
-10.4254 1.7633 2.2973
-10.4707 1.5117 2.2973
-10.5099 1.2589 2.2973
-10.5431 1.0051 2.2973
-10.5701 0.7505 2.2973
-10.5910 0.4951 2.2973
-9.5349 0.2150 2.0654
-9.7208 -0.0157 2.1040
-8.8499 -0.2282 1.9150
-8.6065 -0.4302 1.8631
-8.6571 -0.6428 1.8758
-8.8599 -0.8735 1.9227
-10.5639 -1.2999 2.2973
-10.5351 -1.5556 2.2973
-10.5002 -1.8106 2.2973
-10.4591 -2.0649 2.2973
-10.4117 -2.3182 2.2973
-10.3583 -2.5704 2.2973
-10.2986 -2.8214 2.2973
-10.2329 -3.0709 2.2973
-10.1610 -3.3190 2.2973
-10.0832 -3.5653 2.2973
-9.9993 -3.8098 2.2973
-9.9169 -4.0553 2.2991
-9.8210 -4.2959 2.2991
-9.7193 -4.5341 2.2991
-9.6117 -4.7698 2.2991
-9.4983 -5.0030 2.2991
-9.3792 -5.2335 2.2991
-8.7898 -5.1869 2.1836
-9.1242 -5.6856 2.2991
-8.9884 -5.9070 2.2991
-8.8471 -6.1252 2.2991
-8.7005 -6.3398 2.2991
-8.5486 -6.5509 2.2991
-8.3915 -6.7584 2.2991
-7.8041 -6.6028 2.2991
-7.6454 -6.7919 2.2991
-7.4820 -6.9772 2.2991
-7.3141 -7.1585 2.2991
-7.1417 -7.3357 2.2991
-6.9650 -7.5086 2.2991
-6.7840 -7.6773 2.2991
-6.5989 -7.8415 2.2991
-6.4097 -8.0011 2.2991
-6.2167 -8.1561 2.2991
-6.0734 -8.3802 2.3195
-6.0715 -8.8181 2.3987
-5.8672 -8.9780 2.4023
-5.6503 -9.1195 2.4023
-5.4299 -9.2557 2.4023
-5.2062 -9.3864 2.4023
-4.9793 -9.5117 2.4023
-4.7493 -9.6313 2.4023
-4.5164 -9.7452 2.4023
-4.2807 -9.8534 2.4023
-4.0424 -9.9557 2.4023
-3.8015 -10.0522 2.4023
-3.5584 -10.1427 2.4023
-3.3130 -10.2273 2.4023
-3.0656 -10.3057 2.4023
-2.8163 -10.3781 2.4023
-2.5653 -10.4442 2.4023
-2.3127 -10.5042 2.4023
-2.0586 -10.5579 2.4023
-1.8033 -10.6054 2.4023
-1.5469 -10.6465 2.4023
-0.7431 -6.1548 1.3843
-0.5927 -6.1545 1.3805
-0.4430 -6.1542 1.3776
-0.2939 -6.1539 1.3756
-0.1452 -6.1536 1.3743
0.0034 -6.1533 1.3739
0.1520 -6.1530 1.3743
0.3007 -6.1527 1.3755
0.4498 -6.1524 1.3775
0.5994 -6.1521 1.3804
0.7496 -6.1518 1.3840
0.9008 -6.1515 1.3886
1.8146 -10.6006 2.4023
1.9809 -10.0997 2.2992
2.2239 -10.0476 2.2992
2.4654 -9.9896 2.2992
2.7054 -9.9257 2.2992
2.9437 -9.8558 2.2992
3.1802 -9.7802 2.2992
3.4147 -9.6987 2.2992
3.6471 -9.6115 2.2992
3.8773 -9.5186 2.2992
4.1050 -9.4201 2.2992
4.3302 -9.3161 2.2992
4.5527 -9.2066 2.2992
4.7724 -9.0916 2.2992
4.9891 -8.9713 2.2992
5.2028 -8.8458 2.2992
5.4132 -8.7150 2.2992
5.6204 -8.5792 2.2992
5.8240 -8.4383 2.2992
6.1501 -8.4660 2.3473
6.3506 -8.3123 2.3473
6.5471 -8.1538 2.3473
6.7397 -7.9905 2.3473
2.4460 -2.7618 0.8287
7.1124 -7.6501 2.3473
7.2289 -7.4084 2.3269
7.2763 -7.1053 2.2872
7.3222 -6.8127 2.2501
7.3668 -6.5295 2.2156
7.4101 -6.2550 2.1835
7.4531 -5.9891 2.1538
7.4970 -5.7320 2.1268
7.5398 -5.4814 2.1017
7.5815 -5.2366 2.0784
7.6224 -4.9974 2.0568
7.6624 -4.7630 2.0369
7.7016 -4.5333 2.0185
7.7473 -4.3117 2.0036
7.7940 -4.0943 1.9904
7.6549 -3.7882 1.9319
7.0567 -3.2825 1.7613
6.8621 -2.9925 1.6950
6.9732 -2.8425 1.7058
6.9721 -2.6476 1.6903
6.9711 -2.4562 1.6760
6.9701 -2.2681 1.6629
6.9237 -2.0695 1.6403
7.0037 -1.9103 1.6487
7.0845 -1.7496 1.6581
7.1407 -1.5815 1.6627
7.4932 -1.4706 1.7369
7.6998 -1.3189 1.7778
7.7434 -1.1345 1.7820
8.3131 -1.0135 1.9078
8.3116 -0.8100 1.9035
8.3105 -0.6076 1.9003
6.2645 -0.3061 1.4311
6.2648 -0.1545 1.4307
7.0787 -0.0034 1.6169
7.0784 0.1677 1.6181
7.0782 0.3389 1.6203
7.0780 0.5106 1.6235
7.0777 0.6829 1.6276
7.0775 0.8559 1.6326
7.0773 1.0300 1.6387
6.7342 1.1469 1.5660
6.2297 1.2166 1.4559
6.2216 1.3719 1.4621
6.2137 1.5286 1.4692
7.0715 1.9220 1.6834
7.0698 2.1063 1.6954
7.0680 2.2932 1.7086
7.0662 2.4830 1.7231
7.0346 2.6646 1.7314
6.9652 2.8327 1.7315
6.5988 2.8715 1.6580
6.1149 2.8387 1.5539
6.0976 3.0119 1.5683
7.6955 4.0355 2.0047
7.4684 4.1496 1.9720
7.3224 4.3035 1.9612
7.0887 4.4001 1.9275
6.9971 4.5812 1.9329
6.9036 4.7624 1.9392
6.9305 5.0325 1.9811
6.9028 5.2720 2.0099
6.9276 5.5612 2.0565
6.9179 5.8340 2.0957
7.5853 6.7173 2.3473
7.4179 6.8962 2.3473
7.2463 7.0710 2.3473
7.0707 7.2416 2.3473
6.8911 7.4079 2.3473
6.7077 7.5699 2.3473
6.5205 7.7274 2.3473
6.3297 7.8803 2.3473
6.1354 8.0286 2.3473
5.8161 8.0048 2.2992
5.6191 8.1408 2.2992
5.4191 8.2721 2.2992
5.2161 8.3985 2.2992
5.0102 8.5201 2.2992
4.8015 8.6367 2.2992
4.5901 8.7483 2.2992
4.3762 8.8548 2.2992
4.1599 8.9562 2.2992
3.9413 9.0524 2.2992
3.7204 9.1434 2.2992
3.4976 9.2291 2.2992
3.2728 9.3095 2.2992
3.0462 9.3846 2.2992
2.8179 9.4542 2.2992
2.5881 9.5185 2.2992
2.3568 9.5772 2.2992
2.1242 9.6304 2.2992
1.8905 9.6782 2.2992
1.7300 10.1561 2.4023
1.4837 10.1944 2.4023
1.2366 10.2268 2.4023
0.9888 10.2533 2.4023
0.7404 10.2740 2.4023
0.4917 10.2887 2.4023
0.2427 10.2976 2.4023
-0.0065 10.3006 2.4023
-0.2557 10.2977 2.4023
-0.5047 10.2888 2.4023
-0.7535 10.2741 2.4023
-1.0019 10.2535 2.4023
-1.2497 10.2270 2.4023
-1.4969 10.1947 2.4023
-1.7432 10.1565 2.4023
-1.9886 10.1125 2.4023
-2.2329 10.0627 2.4023
-2.4760 10.0071 2.4023
-2.7177 9.9457 2.4023
-2.9580 9.8786 2.4023
-3.1966 9.8059 2.4023
-3.4335 9.7275 2.4023
-3.6685 9.6435 2.4023
-3.9015 9.5539 2.4023
-4.1323 9.4588 2.4023
-4.3609 9.3582 2.4023
-4.5871 9.2522 2.4023
-4.8107 9.1409 2.4023
-5.0317 9.0242 2.4023
-5.2499 8.9023 2.4023
-5.4653 8.7752 2.4023
-5.6776 8.6430 2.4023
-5.8867 8.5057 2.4023
-6.0926 8.3635 2.4023
-6.1726 8.0565 2.3556
-6.2151 7.7179 2.2991
-6.4021 7.5679 2.2991
-6.5856 7.4135 2.2991
-6.7654 7.2547 2.2991
-6.9414 7.0916 2.2991
-7.1136 6.9243 2.2991
-7.2818 6.7529 2.2991
-7.4459 6.5775 2.2991
-7.6058 6.3981 2.2991
-7.7615 6.2149 2.2991
-7.9129 6.0279 2.2991
-8.0597 5.8374 2.2991
-8.2021 5.6432 2.2991
-8.3398 5.4457 2.2991
-8.4729 5.2448 2.2991
-8.6011 5.0408 2.2991
-8.7245 4.8336 2.2991
-8.8429 4.6234 2.2991
-8.9564 4.4104 2.2991
-9.0647 4.1946 2.2991
-9.1679 3.9762 2.2991
-9.2659 3.7552 2.2991
-9.3585 3.5319 2.2991
-9.4459 3.3063 2.2991
-9.5278 3.0786 2.2991
-9.6043 2.8488 2.2991
-9.6753 2.6172 2.2991
-9.7407 2.3838 2.2991
-9.8005 2.1488 2.2991
-9.8547 1.9123 2.2991
-9.9032 1.6744 2.2991
-9.9459 1.4354 2.2991
-9.9829 1.1952 2.2991
-10.0066 0.9534 2.2973
-10.0319 0.7117 2.2973
-10.0515 0.4693 2.2973
-9.5349 0.2145 2.1763
-9.7212 -0.0163 2.2171
-10.0750 -0.2604 2.2973
-8.6157 -0.4312 1.9654
-10.0613 -0.7476 2.2973
-10.0455 -0.9910 2.2973
-10.0239 -1.2340 2.2973
-9.9964 -1.4766 2.2973
-9.9705 -1.7198 2.2991
-9.9312 -1.9612 2.2991
-9.8860 -2.2017 2.2991
-9.8350 -2.4411 2.2991
-9.7781 -2.6793 2.2991
-9.7154 -2.9162 2.2991
-9.6470 -3.1516 2.2991
-9.5728 -3.3854 2.2991
-9.4929 -3.6174 2.2991
-9.4073 -3.8475 2.2991
-9.3161 -4.0756 2.2991
-9.2194 -4.3014 2.2991
-9.1171 -4.5250 2.2991
-9.0094 -4.7460 2.2991
-8.8962 -4.9645 2.2991
-8.7777 -5.1802 2.2991
-8.6539 -5.3931 2.2991
-8.5249 -5.6030 2.2991
-8.3907 -5.8097 2.2991
-8.2514 -6.0132 2.2991
-8.1072 -6.2133 2.2991
-7.9581 -6.4098 2.2991
-7.4188 -6.2773 2.2991
-7.2678 -6.4570 2.2991
-7.1124 -6.6330 2.2991
-6.9526 -6.8053 2.2991
-6.7887 -6.9736 2.2991
-6.6206 -7.1378 2.2991
-6.4484 -7.2980 2.2991
-6.2872 -7.4716 2.3045
-6.0925 -7.6056 2.2991
-6.0751 -7.9709 2.3638
-5.9786 -8.2500 2.4023
-5.7793 -8.3943 2.4023
-5.5765 -8.5337 2.4023
-5.3703 -8.6681 2.4023
-5.1608 -8.7974 2.4023
-4.9481 -8.9215 2.4023
-4.7323 -9.0404 2.4023
-4.5137 -9.1540 2.4023
-4.2923 -9.2622 2.4023
-4.0683 -9.3650 2.4023
-3.8417 -9.4621 2.4023
-3.6128 -9.5538 2.4023
-3.3817 -9.6397 2.4023
-3.1485 -9.7200 2.4023
-2.9134 -9.7944 2.4023
-2.6764 -9.8631 2.4023
-2.4379 -9.9260 2.4023
-2.1978 -9.9829 2.4023
-1.9564 -10.0339 2.4023
-1.7137 -10.0790 2.4023
-1.4700 -10.1180 2.4023
-0.7430 -6.1547 1.4566
-0.5927 -6.1544 1.4526
-0.4430 -6.1541 1.4496
-0.2939 -6.1538 1.4474
-0.1452 -6.1535 1.4461
0.0034 -6.1532 1.4456
0.1520 -6.1529 1.4460
0.3007 -6.1526 1.4473
0.4497 -6.1523 1.4494
0.5993 -6.1520 1.4524
0.7496 -6.1517 1.4563
0.9007 -6.1514 1.4611
1.7245 -10.0746 2.4023
1.9593 -9.9897 2.3930
2.1134 -9.5491 2.2992
2.3430 -9.4941 2.2992
2.5711 -9.4334 2.2992
2.7976 -9.3671 2.2992
3.0224 -9.2952 2.2992
3.2453 -9.2179 2.2992
3.4661 -9.1351 2.2992
3.6849 -9.0470 2.2992
3.9014 -8.9535 2.2992
4.1154 -8.8547 2.2992
4.3269 -8.7507 2.2992
4.5358 -8.6415 2.2992
4.7419 -8.5273 2.2992
4.9450 -8.4081 2.2992
5.1451 -8.2839 2.2992
5.3420 -8.1549 2.2992
5.5357 -8.0212 2.2992
5.7260 -7.8828 2.2992
5.9127 -7.7397 2.2992
6.2233 -7.7510 2.3473
6.4065 -7.5960 2.3473
2.4458 -2.7618 0.8718
6.7610 -7.2727 2.3473
6.9321 -7.1048 2.3473
7.0989 -6.9328 2.3473
7.2615 -6.7567 2.3473
7.3780 -6.5399 2.3342
7.4212 -6.2649 2.3002
7.4633 -5.9979 2.2686
7.5044 -5.7383 2.2392
7.5446 -5.4854 2.2120
7.5839 -5.2388 2.1867
7.6225 -4.9979 2.1633
7.6623 -4.7635 2.1423
7.7016 -4.5338 2.1229
7.7472 -4.3121 2.1071
7.7939 -4.0948 2.0933
7.8075 -3.8643 2.0722
7.0570 -3.2831 1.8523
6.8621 -2.9930 1.7825
6.9732 -2.8430 1.7938
6.9721 -2.6480 1.7774
6.9711 -2.4566 1.7623
6.9701 -2.2685 1.7486
6.9236 -2.0698 1.7247
7.0036 -1.9107 1.7335
7.0843 -1.7500 1.7433
7.1404 -1.5819 1.7481
7.4927 -1.4710 1.8260
7.6993 -1.3192 1.8690
7.7437 -1.1350 1.8735
8.3131 -1.0139 2.0057
8.3117 -0.8105 2.0011
8.3106 -0.6081 1.9977
6.2014 -0.3033 1.4893
6.2018 -0.1533 1.4888
7.0787 -0.0038 1.6996
7.0784 0.1673 1.7009
7.0782 0.3386 1.7032
7.0780 0.5102 1.7064
7.0777 0.6825 1.7107
7.0775 0.8555 1.7160
7.0773 1.0296 1.7223
6.7366 1.1470 1.6465
6.1662 1.2039 1.5145
6.1578 1.3575 1.5208
5.8699 1.4437 1.4586
6.9189 1.8802 1.7309
6.8790 2.0491 1.7336
6.8773 2.2309 1.7471
6.8756 2.4156 1.7618
6.8738 2.6033 1.7778
6.8720 2.7944 1.7951
6.5998 2.8715 1.7424
6.0953 2.8292 1.6275
5.8148 2.8719 1.5714
5.7408 3.0101 1.5713
7.4687 4.1494 2.0720
7.3228 4.3032 2.0607
7.0875 4.3989 2.0247
6.9973 4.5809 2.0308
6.9038 4.7620 2.0373
6.9305 5.0320 2.0813
6.9028 5.2715 2.1115
6.9276 5.5607 2.1604
6.9174 5.8331 2.2014
7.2207 6.3939 2.3473
7.0614 6.5644 2.3473
6.8982 6.7309 2.3473
6.7311 6.8934 2.3473
6.5603 7.0518 2.3473
6.3858 7.2061 2.3473
6.2077 7.3561 2.3473
6.0261 7.5018 2.3473
5.7216 7.4866 2.2992
5.5373 7.6206 2.2992
5.3499 7.7502 2.2992
5.1595 7.8753 2.2992
4.9662 7.9957 2.2992
4.7702 8.1116 2.2992
4.5716 8.2227 2.2992
4.3704 8.3290 2.2992
4.1668 8.4305 2.2992
3.9608 8.5271 2.2992
3.7527 8.6188 2.2992
3.5425 8.7056 2.2992
3.3303 8.7872 2.2992
3.1163 8.8639 2.2992
2.9005 8.9354 2.2992
2.6832 9.0018 2.2992
2.4644 9.0630 2.2992
2.2442 9.1189 2.2992
2.0227 9.1697 2.2992
1.8653 9.5489 2.3825
1.6473 9.6703 2.4023
1.4128 9.7067 2.4023
1.1775 9.7376 2.4023
0.9415 9.7629 2.4023
0.7050 9.7826 2.4023
0.4682 9.7966 2.4023
0.2310 9.8051 2.4023
-0.0062 9.8079 2.4023
-0.2435 9.8051 2.4023
-0.4806 9.7967 2.4023
-0.7175 9.7827 2.4023
-0.9540 9.7630 2.4023
-1.1900 9.7378 2.4023
-1.4253 9.7069 2.4023
-1.6599 9.6705 2.4023
-1.8936 9.6286 2.4023
-2.1262 9.5811 2.4023
-2.3576 9.5281 2.4023
-2.5878 9.4696 2.4023
-2.8165 9.4057 2.4023
-3.0437 9.3363 2.4023
-3.2693 9.2616 2.4023
-3.4930 9.1815 2.4023
-3.7148 9.0961 2.4023
-3.9345 9.0055 2.4023
-4.1521 8.9096 2.4023
-4.3674 8.8086 2.4023
-4.5803 8.7025 2.4023
-4.7907 8.5913 2.4023
-4.9984 8.4751 2.4023
-5.2033 8.3540 2.4023
-5.4054 8.2281 2.4023
-5.6044 8.0973 2.4023
-5.8004 7.9618 2.4023
-5.9931 7.8216 2.4023
-6.1705 7.6619 2.3977
-6.1737 7.2973 2.3289
-6.2693 7.0569 2.2991
-6.4403 6.9056 2.2991
-6.6078 6.7502 2.2991
-6.7716 6.5909 2.2991
-6.9316 6.4276 2.2991
-7.0876 6.2605 2.2991
-7.2398 6.0896 2.2991
-7.3878 5.9151 2.2991
-7.5317 5.7371 2.2991
-7.6714 5.5556 2.2991
-7.8067 5.3707 2.2991
-7.9377 5.1826 2.2991
-8.0641 4.9913 2.2991
-8.1860 4.7969 2.2991
-8.3033 4.5997 2.2991
-8.4158 4.3996 2.2991
-8.5236 4.1967 2.2991
-8.6265 3.9913 2.2991
-8.7245 3.7833 2.2991
-8.8175 3.5730 2.2991
-8.9055 3.3604 2.2991
-8.9884 3.1456 2.2991
-9.0662 2.9289 2.2991
-9.1388 2.7102 2.2991
-9.2061 2.4897 2.2991
-9.2681 2.2676 2.2991
-9.3248 2.0440 2.2991
-9.3761 1.8189 2.2991
-9.4220 1.5926 2.2991
-9.4625 1.3651 2.2991
-9.4974 1.1366 2.2991
-9.5269 0.9072 2.2991
-9.5509 0.6770 2.2991
-9.5693 0.4463 2.2991
-9.5348 0.2140 2.2877
-9.5893 -0.0166 2.2991
-9.5909 -0.2484 2.2991
-8.8006 -0.4409 2.1105
-9.5774 -0.7121 2.2991
-9.5622 -0.9438 2.2991
-9.5413 -1.1751 2.2991
-9.5149 -1.4060 2.2991
-9.4829 -1.6363 2.2991
-9.4452 -1.8658 2.2991
-9.4020 -2.0945 2.2991
-9.3533 -2.3221 2.2991
-9.2990 -2.5486 2.2991
-9.2391 -2.7738 2.2991
-9.1738 -2.9976 2.2991
-9.1031 -3.2198 2.2991
-9.0269 -3.4403 2.2991
-8.9453 -3.6591 2.2991
-8.8584 -3.8758 2.2991
-8.7662 -4.0905 2.2991
-8.6688 -4.3030 2.2991
-8.5661 -4.5131 2.2991
-8.4584 -4.7207 2.2991
-8.3455 -4.9257 2.2991
-8.2276 -5.1280 2.2991
-8.1048 -5.3274 2.2991
-7.9771 -5.5239 2.2991
-7.8445 -5.7172 2.2991
-7.7073 -5.9073 2.2991
-7.5653 -6.0940 2.2991
-7.0680 -5.9810 2.2991
-6.9240 -6.1521 2.2991
-6.7759 -6.3197 2.2991
-6.6236 -6.4837 2.2991
-6.4673 -6.6439 2.2991
-6.3070 -6.8003 2.2991
-6.1430 -6.9528 2.2991
-6.0783 -7.2239 2.3388
-6.0643 -7.5710 2.4023
-5.8815 -7.7174 2.4023
-5.6951 -7.8593 2.4023
-5.5052 -7.9966 2.4023
-5.3119 -8.1293 2.4023
-5.1154 -8.2572 2.4023
-4.9158 -8.3803 2.4023
-4.7131 -8.4985 2.4023
-4.5076 -8.6116 2.4023
-4.2993 -8.7197 2.4023
-4.0884 -8.8227 2.4023
-3.8750 -8.9205 2.4023
-3.6592 -9.0130 2.4023
-3.4411 -9.1002 2.4023
-3.2210 -9.1819 2.4023
-2.9988 -9.2583 2.4023
-2.7748 -9.3292 2.4023
-2.5492 -9.3946 2.4023
-2.3219 -9.4544 2.4023
-2.0933 -9.5086 2.4023
-1.8633 -9.5571 2.4023
-1.6322 -9.6000 2.4023
-1.4001 -9.6372 2.4023
-0.7430 -6.1546 1.5292
-0.5926 -6.1543 1.5251
-0.4430 -6.1540 1.5219
-0.2939 -6.1537 1.5196
-0.1452 -6.1534 1.5182
0.0034 -6.1531 1.5177
0.1519 -6.1528 1.5182
0.3006 -6.1525 1.5195
0.4497 -6.1522 1.5217
0.5993 -6.1519 1.5249
0.7495 -6.1516 1.5289
0.9006 -6.1513 1.5339
1.6424 -9.5959 2.4023
1.8734 -9.5525 2.4023
2.0129 -9.0955 2.2992
2.2315 -9.0431 2.2992
2.4488 -8.9854 2.2992
2.6646 -8.9223 2.2992
2.8787 -8.8540 2.2992
3.0910 -8.7804 2.2992
3.3014 -8.7016 2.2992
3.5098 -8.6177 2.2992
3.7161 -8.5287 2.2992
3.9200 -8.4347 2.2992
4.1215 -8.3357 2.2992
4.3205 -8.2319 2.2992
4.5168 -8.1231 2.2992
4.7104 -8.0097 2.2992
4.9011 -7.8915 2.2992
5.0887 -7.7688 2.2992
5.2733 -7.6415 2.2992
5.4546 -7.5097 2.2992
5.6326 -7.3736 2.2992
5.8071 -7.2332 2.2992
6.1031 -7.2368 2.3473
2.4456 -2.7617 0.9150
6.4410 -6.9291 2.3473
6.6041 -6.7692 2.3473
6.7632 -6.6054 2.3473
6.9182 -6.4379 2.3473
7.0690 -6.2666 2.3473
7.2155 -6.0918 2.3473
7.3576 -5.9135 2.3473
7.4953 -5.7319 2.3473
7.5555 -5.4939 2.3249
7.5948 -5.2469 2.2982
7.6333 -5.0055 2.2736
7.6711 -4.7695 2.2508
7.7083 -4.5382 2.2299
7.7471 -4.3126 2.2112
7.7938 -4.0952 2.1967
7.8073 -3.8646 2.1745
7.0573 -3.2836 1.9438
6.8622 -2.9934 1.8704
6.9732 -2.8434 1.8823
6.9721 -2.6484 1.8650
6.9711 -2.4570 1.8492
6.9701 -2.2689 1.8347
6.9234 -2.0702 1.8095
7.0034 -1.9111 1.8187
7.0842 -1.7504 1.8290
7.1401 -1.5822 1.8339
7.4401 -1.4611 1.9023
7.6419 -1.3098 1.9461
7.7439 -1.1354 1.9655
8.3131 -1.0144 2.1041
8.3118 -0.8110 2.0992
8.3107 -0.6085 2.0957
5.7829 -0.2832 1.4568
6.1396 -0.1521 1.5460
6.8874 -0.0041 1.7346
6.8872 0.1624 1.7359
6.8870 0.3290 1.7382
6.8867 0.4961 1.7415
6.8865 0.6637 1.7458
6.8863 0.8321 1.7512
6.8861 1.0014 1.7576
6.7390 1.1470 1.7274
6.1007 1.1908 1.5715
6.0673 1.3372 1.5715
5.9108 1.4534 1.5403
6.8808 1.8694 1.8052
6.8790 2.0487 1.8180
6.8773 2.2306 1.8321
6.8756 2.4152 1.8475
6.8738 2.6029 1.8642
6.8334 2.7783 1.8717
6.6008 2.8715 1.8273
6.1805 2.8684 1.7304
5.7240 2.8267 1.6219
5.6894 2.9828 1.6328
7.4691 4.1491 2.1726
7.3231 4.3029 2.1607
7.0864 4.3977 2.1225
6.9975 4.5806 2.1292
6.9040 4.7617 2.1360
6.9305 5.0316 2.1820
6.8874 5.2592 2.2087
6.7716 5.4350 2.2139
6.9170 5.8323 2.3077
6.8879 6.0987 2.3473
6.7360 6.2614 2.3473
6.5805 6.4203 2.3473
6.4212 6.5754 2.3473
6.2583 6.7267 2.3473
6.0919 6.8739 2.3473
5.8007 6.8734 2.2992
5.6312 7.0097 2.2992
5.4584 7.1418 2.2992
5.2827 7.2698 2.2992
5.1039 7.3935 2.2992
4.9224 7.5129 2.2992
4.7381 7.6279 2.2992
4.5511 7.7385 2.2992
4.3616 7.8446 2.2992
4.1697 7.9461 2.2992
3.9755 8.0430 2.2992
3.7790 8.1353 2.2992
3.5805 8.2228 2.2992
3.3799 8.3057 2.2992
3.1775 8.3836 2.2992
2.9733 8.4568 2.2992
2.7675 8.5251 2.2992
2.5601 8.5885 2.2992
2.3514 8.6469 2.2992
2.1413 8.7004 2.2992
1.9300 8.7488 2.2992
1.7946 9.1865 2.4023
1.5717 9.2265 2.4023
1.3480 9.2613 2.4023
1.1235 9.2908 2.4023
0.8984 9.3149 2.4023
0.6727 9.3337 2.4023
0.4467 9.3471 2.4023
0.2204 9.3552 2.4023
-0.0059 9.3579 2.4023
-0.2323 9.3552 2.4023
-0.4586 9.3472 2.4023
-0.6846 9.3338 2.4023
-0.9103 9.3150 2.4023
-1.1355 9.2909 2.4023
-1.3600 9.2614 2.4023
-1.5838 9.2267 2.4023
-1.8068 9.1866 2.4023
-2.0287 9.1412 2.4023
-2.2495 9.0906 2.4023
-2.4691 9.0347 2.4023
-2.6874 8.9737 2.4023
-2.9041 8.9074 2.4023
-3.1193 8.8361 2.4023
-3.3327 8.7596 2.4023
-3.5443 8.6781 2.4023
-3.7539 8.5915 2.4023
-3.9615 8.5000 2.4023
-4.1668 8.4035 2.4023
-4.3699 8.3022 2.4023
-4.5706 8.1960 2.4023
-4.7687 8.0851 2.4023
-4.9641 7.9695 2.4023
-5.1568 7.8492 2.4023
-5.3467 7.7243 2.4023
-5.5335 7.5949 2.4023
-5.7173 7.4611 2.4023
-5.8979 7.3229 2.4023
-6.0752 7.1804 2.4023
-6.1665 6.9407 2.3706
-6.1746 6.6202 2.3107
-6.3032 6.4386 2.2991
-6.4594 6.2865 2.2991
-6.6119 6.1306 2.2991
-6.7607 5.9711 2.2991
-6.9056 5.8081 2.2991
-7.0467 5.6415 2.2991
-7.1839 5.4716 2.2991
-7.3170 5.2984 2.2991
-7.4459 5.1219 2.2991
-7.5707 4.9424 2.2991
-7.6911 4.7599 2.2991
-7.8072 4.5745 2.2991
-7.9189 4.3862 2.2991
-8.0261 4.1953 2.2991
-8.1287 4.0018 2.2991
-8.2267 3.8058 2.2991
-8.3200 3.6074 2.2991
-8.4085 3.4067 2.2991
-8.4922 3.2039 2.2991
-8.5711 2.9991 2.2991
-8.6451 2.7923 2.2991
-8.7141 2.5837 2.2991
-8.7781 2.3735 2.2991
-8.8370 2.1616 2.2991
-8.8909 1.9483 2.2991
-8.9396 1.7337 2.2991
-8.9832 1.5179 2.2991
-9.0216 1.3010 2.2991
-9.0547 1.0831 2.2991
-9.0826 0.8644 2.2991
-9.1053 0.6450 2.2991
-9.1226 0.4250 2.2991
-9.1346 0.2045 2.2991
-9.1413 -0.0163 2.2991
-9.1427 -0.2373 2.2991
-8.8010 -0.4414 2.2141
-9.1293 -0.6793 2.2991
-9.1146 -0.9001 2.2991
-9.0946 -1.1206 2.2991
-9.0692 -1.3406 2.2991
-9.0384 -1.5601 2.2991
-9.0024 -1.7788 2.2991
-8.9610 -1.9967 2.2991
-8.9143 -2.2136 2.2991
-8.8624 -2.4294 2.2991
-8.8052 -2.6440 2.2991
-8.7427 -2.8572 2.2991
-8.6751 -3.0689 2.2991
-8.6023 -3.2791 2.2991
-8.5244 -3.4874 2.2991
-8.4415 -3.6939 2.2991
-8.3534 -3.8984 2.2991
-8.2604 -4.1008 2.2991
-8.1624 -4.3009 2.2991
-8.0596 -4.4986 2.2991
-7.9519 -4.6939 2.2991
-7.8394 -4.8865 2.2991
-7.7222 -5.0765 2.2991
-7.6004 -5.2635 2.2991
-7.4740 -5.4476 2.2991
-7.3431 -5.6286 2.2991
-7.2077 -5.8065 2.2991
-6.7472 -5.7100 2.2991
-6.6097 -5.8732 2.2991
-6.4681 -6.0331 2.2991
-6.3226 -6.1896 2.2991
-6.1733 -6.3424 2.2991
-6.0812 -6.5573 2.3223
-6.0798 -6.8818 2.3838
-5.9595 -7.0831 2.4023
-5.7884 -7.2270 2.4023
-5.6138 -7.3667 2.4023
-5.4358 -7.5020 2.4023
-5.2545 -7.6330 2.4023
-5.0700 -7.7596 2.4023
-4.8824 -7.8816 2.4023
-4.6918 -7.9990 2.4023
-4.4983 -8.1117 2.4023
-4.3021 -8.2196 2.4023
-4.1033 -8.3227 2.4023
-3.9020 -8.4209 2.4023
-3.6982 -8.5141 2.4023
-3.4923 -8.6024 2.4023
-3.2841 -8.6855 2.4023
-3.0740 -8.7635 2.4023
-2.8620 -8.8363 2.4023
-2.6482 -8.9040 2.4023
-2.4328 -8.9663 2.4023
-2.2160 -9.0233 2.4023
-1.9977 -9.0750 2.4023
-1.7783 -9.1213 2.4023
-1.5577 -9.1622 2.4023
-1.3362 -9.1976 2.4023
-0.7429 -6.1545 1.6023
-0.5926 -6.1542 1.5980
-0.4430 -6.1539 1.5946
-0.2939 -6.1536 1.5922
-0.1452 -6.1533 1.5907
0.0034 -6.1530 1.5902
0.1519 -6.1527 1.5907
0.3006 -6.1524 1.5921
0.4496 -6.1521 1.5944
0.5992 -6.1518 1.5977
0.7494 -6.1515 1.6020
0.9005 -6.1512 1.6072
1.5674 -9.1584 2.4023
1.7878 -9.1170 2.4023
1.9516 -8.8191 2.3359
2.1297 -8.6310 2.2992
2.3371 -8.5759 2.2992
2.5430 -8.5158 2.2992
2.7474 -8.4506 2.2992
2.9500 -8.3804 2.2992
3.1509 -8.3053 2.2992
3.3498 -8.2253 2.2992
3.5466 -8.1404 2.2992
3.7413 -8.0508 2.2992
3.9337 -7.9564 2.2992
4.1237 -7.8573 2.2992
4.3111 -7.7537 2.2992
4.4959 -7.6455 2.2992
4.6779 -7.5328 2.2992
4.8571 -7.4157 2.2992
5.0333 -7.2943 2.2992
5.2064 -7.1686 2.2992
5.3764 -7.0387 2.2992
5.5431 -6.9048 2.2992
5.7064 -6.7669 2.2992
2.4454 -2.7617 0.9585
6.1484 -6.6149 2.3473
6.3042 -6.4623 2.3473
6.4562 -6.3061 2.3473
6.6042 -6.1462 2.3473
6.7483 -5.9828 2.3473
6.8883 -5.8160 2.3473
7.0241 -5.6459 2.3473
7.1556 -5.4726 2.3473
7.2829 -5.2962 2.3473
7.4058 -5.1168 2.3473
7.5242 -4.9345 2.3473
7.6381 -4.7494 2.3473
7.7191 -4.5451 2.3388
7.7556 -4.3178 2.3185
7.7937 -4.0957 2.3006
7.5719 -3.7486 2.2087
7.0576 -3.2842 2.0358
6.8623 -2.9939 1.9589
6.9732 -2.8438 1.9712
6.9455 -2.6387 1.9456
6.9443 -2.4480 1.9290
6.9431 -2.2606 1.9138
6.9232 -2.0705 1.8949
7.0032 -1.9114 1.9044
7.0840 -1.7507 1.9152
7.1397 -1.5825 1.9202
7.4918 -1.4717 2.0057
7.6983 -1.3199 2.0528
7.7442 -1.1359 2.0580
8.3131 -1.0149 2.2031
8.3119 -0.8114 2.1980
8.3108 -0.6090 2.1941
5.9581 -0.2921 1.5714
5.9608 -0.1480 1.5715
6.8874 -0.0045 1.8160
6.8872 0.1620 1.8173
6.8870 0.3286 1.8197
6.8867 0.4957 1.8231
6.8865 0.6633 1.8276
6.8863 0.8317 1.8331
6.8861 1.0010 1.8398
6.7414 1.1470 1.8089
5.8280 1.1372 1.5714
5.7960 1.2771 1.5714
5.7607 1.4162 1.5713
5.7225 1.5544 1.5714
6.7655 2.0145 1.8715
6.7121 2.1766 1.8715
6.6901 2.3496 1.8815
6.6884 2.5323 1.8985
6.6866 2.7182 1.9169
6.6017 2.8716 1.9127
6.1814 2.8684 1.8112
5.8036 2.8656 1.7210
5.7307 3.0041 1.7211
7.3428 4.0785 2.2352
7.1934 4.2262 2.2210
7.0852 4.3965 2.2207
6.9977 4.5802 2.2282
6.9041 4.7614 2.2352
6.8031 4.9386 2.2413
6.7658 5.1659 2.2704
6.7715 5.4344 2.3165
6.7240 5.6691 2.3473
6.5827 5.8281 2.3473
6.4377 5.9836 2.3473
6.2891 6.1356 2.3473
6.1370 6.2839 2.3473
5.8588 6.2968 2.2992
5.7031 6.4348 2.2992
5.5442 6.5690 2.2992
5.3822 6.6993 2.2992
5.2172 6.8257 2.2992
5.0492 6.9480 2.2992
4.8784 7.0664 2.2992
4.7050 7.1806 2.2992
4.5288 7.2906 2.2992
4.3502 7.3964 2.2992
4.1691 7.4978 2.2992
3.9857 7.5949 2.2992
3.8000 7.6876 2.2992
3.6123 7.7759 2.2992
3.4225 7.8597 2.2992
3.2308 7.9389 2.2992
3.0374 8.0135 2.2992
2.8422 8.0835 2.2992
2.6455 8.1488 2.2992
2.4473 8.2094 2.2992
2.2477 8.2653 2.2992
2.0609 8.3735 2.3150
1.8742 8.4955 2.3357
1.7155 8.7812 2.4023
1.5025 8.8195 2.4023
1.2886 8.8528 2.4023
1.0740 8.8810 2.4023
0.8588 8.9040 2.4023
0.6431 8.9220 2.4023
0.4270 8.9349 2.4023
0.2107 8.9426 2.4023
-0.0057 8.9451 2.4023
-0.2221 8.9426 2.4023
-0.4384 8.9349 2.4023
-0.6545 8.9220 2.4023
-0.8702 8.9041 2.4023
-1.0855 8.8810 2.4023
-1.3001 8.8528 2.4023
-1.5140 8.8195 2.4023
-1.7271 8.7812 2.4023
-1.9393 8.7378 2.4023
-2.1504 8.6893 2.4023
-2.3603 8.6359 2.4023
-2.5689 8.5775 2.4023
-2.7760 8.5141 2.4023
-2.9817 8.4458 2.4023
-3.1857 8.3727 2.4023
-3.3879 8.2947 2.4023
-3.5883 8.2118 2.4023
-3.7866 8.1243 2.4023
-3.9829 8.0320 2.4023
-4.1770 7.9351 2.4023
-4.3687 7.8335 2.4023
-4.5580 7.7274 2.4023
-4.7448 7.6168 2.4023
-4.9289 7.5018 2.4023
-5.1103 7.3823 2.4023
-5.2888 7.2586 2.4023
-5.4644 7.1306 2.4023
-5.6370 6.9984 2.4023
-5.8063 6.8621 2.4023
-5.9725 6.7217 2.4023
-6.1353 6.5774 2.4023
-6.1630 6.2949 2.3521
-6.1742 6.0084 2.2995
-6.3188 5.8584 2.2991
-6.4609 5.7059 2.2991
-6.5994 5.5500 2.2991
-6.7341 5.3907 2.2991
-6.8650 5.2283 2.2991
-6.9921 5.0626 2.2991
-7.1152 4.8940 2.2991
-7.2343 4.7223 2.2991
-7.3493 4.5478 2.2991
-7.4601 4.3706 2.2991
-7.5667 4.1906 2.2991
-7.6689 4.0081 2.2991
-7.7668 3.8232 2.2991
-7.8603 3.6358 2.2991
-7.9493 3.4462 2.2991
-8.0337 3.2544 2.2991
-8.1136 3.0606 2.2991
-8.1888 2.8648 2.2991
-8.2593 2.6672 2.2991
-8.3251 2.4679 2.2991
-8.3861 2.2670 2.2991
-8.4422 2.0646 2.2991
-8.4935 1.8608 2.2991
-8.5399 1.6557 2.2991
-8.5813 1.4495 2.2991
-8.6178 1.2423 2.2991
-8.6493 1.0341 2.2991
-8.6758 0.8252 2.2991
-8.6972 0.6155 2.2991
-8.7136 0.4054 2.2991
-8.7249 0.1948 2.2991
-8.7311 -0.0161 2.2991
-8.7322 -0.2271 2.2991
-8.7282 -0.4382 2.2991
-8.7191 -0.6493 2.2991
-8.7049 -0.8602 2.2991
-8.6856 -1.0707 2.2991
-8.6612 -1.2808 2.2991
-8.6316 -1.4903 2.2991
-8.5970 -1.6992 2.2991
-8.5573 -1.9072 2.2991
-8.5126 -2.1143 2.2991
-8.4628 -2.3204 2.2991
-8.4080 -2.5252 2.2991
-8.3483 -2.7288 2.2991
-8.2835 -2.9309 2.2991
-8.2139 -3.1315 2.2991
-8.1393 -3.3304 2.2991
-8.0600 -3.5274 2.2991
-7.9758 -3.7226 2.2991
-7.8868 -3.9158 2.2991
-7.7931 -4.1068 2.2991
-7.6948 -4.2955 2.2991
-7.5918 -4.4819 2.2991
-7.4843 -4.6657 2.2991
-7.3723 -4.8469 2.2991
-7.2559 -5.0254 2.2991
-7.1351 -5.2011 2.2991
-7.0100 -5.3738 2.2991
-6.8807 -5.5435 2.2991
-6.4526 -5.4611 2.2991
-6.3210 -5.6172 2.2991
-6.1855 -5.7700 2.2991
-6.0867 -5.9590 2.3144
-6.0825 -6.2496 2.3688
-6.0156 -6.4871 2.4023
-5.8590 -6.6323 2.4023
-5.6988 -6.7737 2.4023
-5.5351 -6.9112 2.4023
-5.3681 -7.0447 2.4023
-5.1979 -7.1741 2.4023
-5.0244 -7.2992 2.4023
-4.8479 -7.4202 2.4023
-4.6685 -7.5368 2.4023
-4.4862 -7.6489 2.4023
-4.3012 -7.7566 2.4023
-4.1136 -7.8597 2.4023
-3.9234 -7.9583 2.4023
-3.7309 -8.0521 2.4023
-3.5361 -8.1412 2.4023
-3.3391 -8.2255 2.4023
-3.1401 -8.3049 2.4023
-2.9391 -8.3795 2.4023
-2.7364 -8.4491 2.4023
-2.5320 -8.5137 2.4023
-2.3261 -8.5732 2.4023
-2.1187 -8.6277 2.4023
-1.9100 -8.6771 2.4023
-1.7002 -8.7213 2.4023
-1.4893 -8.7604 2.4023
-1.2775 -8.7943 2.4023
-0.7429 -6.1544 1.6757
-0.5926 -6.1541 1.6712
-0.4430 -6.1538 1.6677
-0.2939 -6.1535 1.6652
-0.1452 -6.1532 1.6637
0.0034 -6.1529 1.6632
0.1519 -6.1526 1.6636
0.3006 -6.1523 1.6651
0.4496 -6.1520 1.6675
0.5991 -6.1517 1.6710
0.7494 -6.1514 1.6754
0.9005 -6.1511 1.6809
1.4986 -8.7568 2.4023
1.7093 -8.7173 2.4023
1.9190 -8.6725 2.4023
2.0362 -8.2526 2.2992
2.2345 -8.2000 2.2992
2.4314 -8.1426 2.2992
2.6268 -8.0803 2.2992
2.8206 -8.0133 2.2992
3.0127 -7.9415 2.2992
3.2029 -7.8651 2.2992
3.3911 -7.7840 2.2992
3.5773 -7.6984 2.2992
3.7613 -7.6082 2.2992
3.9430 -7.5135 2.2992
4.1222 -7.4145 2.2992
4.2990 -7.3111 2.2992
4.4731 -7.2034 2.2992
4.6445 -7.0915 2.2992
4.8130 -6.9755 2.2992
4.9786 -6.8554 2.2992
5.1412 -6.7313 2.2992
5.3006 -6.6033 2.2992
5.4569 -6.4715 2.2992
2.4452 -2.7617 1.0022
5.7593 -6.1967 2.2992
5.9053 -6.0539 2.2992
6.1743 -6.0312 2.3473
6.3159 -5.8784 2.3473
6.4538 -5.7222 2.3473
6.5878 -5.5628 2.3473
6.7177 -5.4002 2.3473
6.8437 -5.2345 2.3473
6.9655 -5.0658 2.3473
7.0831 -4.8943 2.3473
7.1965 -4.7201 2.3473
7.3055 -4.5432 2.3473
7.4102 -4.3637 2.3473
7.5104 -4.1818 2.3473
7.6062 -3.9976 2.3473
7.2427 -3.5861 2.2087
7.0579 -3.2848 2.1284
6.8624 -2.9943 2.0479
6.9732 -2.8443 2.0607
6.9721 -2.6493 2.0417
6.9711 -2.4579 2.0243
6.9701 -2.2698 2.0084
6.9230 -2.0709 1.9807
7.0030 -1.9118 1.9906
7.0838 -1.7511 2.0018
7.1394 -1.5829 2.0071
7.4914 -1.4720 2.0963
7.6978 -1.3203 2.1455
7.7444 -1.1364 2.1511
8.3131 -1.0153 2.3026
8.3120 -0.8119 2.2972
8.3108 -0.6095 2.2932
5.7071 -0.2801 1.5731
5.7070 -0.1420 1.5724
6.7924 -0.0048 1.8717
6.7873 0.1593 1.8717
6.7782 0.3231 1.8716
6.7652 0.4865 1.8715
6.7483 0.6496 1.8715
6.7274 0.8121 1.8714
6.7027 0.9740 1.8714
6.6998 1.1396 1.8785
5.7003 1.1119 1.6060
5.6988 1.2554 1.6144
5.6977 1.4004 1.6239
5.6976 1.5473 1.6348
6.6935 1.9927 1.9346
6.6918 2.1696 1.9495
6.6901 2.3493 1.9658
6.6884 2.5319 1.9835
6.6866 2.7178 2.0027
6.6027 2.8716 1.9986
6.1824 2.8685 1.8926
5.8041 2.8655 1.7982
5.7342 3.0056 1.7992
7.3813 4.0994 2.3473
7.1937 4.2260 2.3204
7.0840 4.3953 2.3195
6.9978 4.5799 2.3277
6.9043 4.7610 2.3350
6.8205 4.9508 2.3473
6.6964 5.1125 2.3473
6.5686 5.2712 2.3473
6.4371 5.4267 2.3473
6.3019 5.5790 2.3473
6.1632 5.7280 2.3473
5.8976 5.7532 2.2992
5.7550 5.8924 2.2992
5.6092 6.0281 2.2992
5.4602 6.1602 2.2992
5.3081 6.2888 2.2992
5.1530 6.4136 2.2992
4.9951 6.5347 2.2992
4.8343 6.6519 2.2992
4.6709 6.7653 2.2992
4.5048 6.8747 2.2992
4.3362 6.9801 2.2992
4.1652 7.0814 2.2992
3.9918 7.1786 2.2992
3.8163 7.2717 2.2992
3.6385 7.3605 2.2992
3.4588 7.4451 2.2992
3.2771 7.5253 2.2992
3.0936 7.6012 2.2992
2.9084 7.6727 2.2992
2.7215 7.7397 2.2992
2.5331 7.8023 2.2992
2.3434 7.8604 2.2992
2.1523 7.9140 2.2992
1.9600 7.9630 2.2992
1.8458 8.3664 2.4023
1.6427 8.4080 2.4023
1.4387 8.4447 2.4023
1.2339 8.4766 2.4023
1.0284 8.5036 2.4023
0.8223 8.5257 2.4023
0.6158 8.5429 2.4023
0.4089 8.5552 2.4023
0.2018 8.5626 2.4023
-0.0055 8.5651 2.4023
-0.2127 8.5626 2.4023
-0.4198 8.5552 2.4023
-0.6267 8.5429 2.4023
-0.8333 8.5257 2.4023
-1.0394 8.5036 2.4023
-1.2449 8.4766 2.4023
-1.4498 8.4447 2.4023
-1.6538 8.4079 2.4023
-1.8570 8.3663 2.4023
-2.0591 8.3199 2.4023
-2.2601 8.2687 2.4023
-2.4598 8.2127 2.4023
-2.6581 8.1520 2.4023
-2.8550 8.0865 2.4023
-3.0503 8.0164 2.4023
-3.2440 7.9417 2.4023
-3.4358 7.8623 2.4023
-3.6257 7.7784 2.4023
-3.8136 7.6900 2.4023
-3.9993 7.5971 2.4023
-4.1829 7.4998 2.4023
-4.3641 7.3982 2.4023
-4.5429 7.2922 2.4023
-4.7191 7.1820 2.4023
-4.8928 7.0675 2.4023
-5.0636 6.9490 2.4023
-5.2317 6.8264 2.4023
-5.3968 6.6997 2.4023
-5.5589 6.5691 2.4023
-5.7179 6.4347 2.4023
-5.8736 6.2965 2.4023
-6.0261 6.1545 2.4023
-6.1614 5.9955 2.3970
-6.1617 5.7123 2.3419
-6.1851 5.4618 2.2991
-6.3175 5.3125 2.2991
-6.4464 5.1600 2.2991
-6.5717 5.0044 2.2991
-6.6932 4.8457 2.2991
-6.8109 4.6842 2.2991
-6.9248 4.5199 2.2991
-7.0348 4.3527 2.2991
-7.1407 4.1830 2.2991
-7.2426 4.0107 2.2991
-7.3404 3.8360 2.2991
-7.4340 3.6588 2.2991
-7.5233 3.4795 2.2991
-7.6084 3.2979 2.2991
-7.6891 3.1143 2.2991
-7.7653 2.9288 2.2991
-7.8372 2.7413 2.2991
-7.9045 2.5522 2.2991
-7.9673 2.3614 2.2991
-8.0255 2.1691 2.2991
-8.0791 1.9753 2.2991
-8.1281 1.7802 2.2991
-8.1723 1.5840 2.2991
-8.2118 1.3866 2.2991
-8.2466 1.1883 2.2991
-8.2766 0.9891 2.2991
-8.3017 0.7891 2.2991
-8.3221 0.5885 2.2991
-8.3376 0.3875 2.2991
-8.3483 0.1859 2.2991
-8.3541 -0.0158 2.2991
-8.3550 -0.2178 2.2991
-8.3510 -0.4198 2.2991
-8.3421 -0.6217 2.2991
-8.3284 -0.8234 2.2991
-8.3097 -1.0248 2.2991
-8.2862 -1.2258 2.2991
-8.2578 -1.4263 2.2991
-8.2245 -1.6260 2.2991
-8.1864 -1.8250 2.2991
-8.1435 -2.0231 2.2991
-8.0957 -2.2202 2.2991
-8.0431 -2.4161 2.2991
-7.9858 -2.6108 2.2991
-7.9238 -2.8041 2.2991
-7.8570 -2.9959 2.2991
-7.7856 -3.1861 2.2991
-7.7095 -3.3745 2.2991
-7.6288 -3.5612 2.2991
-7.5436 -3.7459 2.2991
-7.4539 -3.9285 2.2991
-7.3597 -4.1089 2.2991
-7.2611 -4.2871 2.2991
-7.1582 -4.4628 2.2991
-7.0510 -4.6361 2.2991
-6.9395 -4.8067 2.2991
-6.8239 -4.9747 2.2991
-6.7041 -5.1398 2.2991
-6.5803 -5.3020 2.2991
-6.1811 -5.2318 2.2991
-6.0902 -5.4126 2.3125
-6.0850 -5.6767 2.3611
-6.0518 -5.9253 2.4023
-5.9087 -6.0715 2.4023
-5.7621 -6.2141 2.4023
-5.6120 -6.3532 2.4023
-5.4585 -6.4886 2.4023
-5.3017 -6.6202 2.4023
-5.1417 -6.7480 2.4023
-4.9785 -6.8718 2.4023
-4.8124 -6.9917 2.4023
-4.6433 -7.1074 2.4023
-4.4714 -7.2190 2.4023
-4.2968 -7.3264 2.4023
-4.1195 -7.4295 2.4023
-3.9398 -7.5282 2.4023
-3.7577 -7.6225 2.4023
-3.5732 -7.7123 2.4023
-3.3866 -7.7976 2.4023
-3.1979 -7.8783 2.4023
-3.0073 -7.9543 2.4023
-2.8149 -8.0256 2.4023
-2.6207 -8.0923 2.4023
-2.4249 -8.1541 2.4023
-2.2277 -8.2111 2.4023
-2.0291 -8.2632 2.4023
-1.8292 -8.3105 2.4023
-1.6283 -8.3528 2.4023
-1.4263 -8.3902 2.4023
-1.2235 -8.4226 2.4023
-0.7428 -6.1543 1.7497
-0.5925 -6.1540 1.7449
-0.4429 -6.1537 1.7413
-0.2939 -6.1534 1.7387
-0.1452 -6.1531 1.7371
0.0034 -6.1528 1.7365
0.1519 -6.1525 1.7370
0.3005 -6.1522 1.7385
0.4496 -6.1519 1.7411
0.5991 -6.1516 1.7446
0.7493 -6.1513 1.7493
0.9004 -6.1510 1.7550
1.4352 -8.3869 2.4023
1.6370 -8.3490 2.4023
1.8378 -8.3062 2.4023
1.9549 -7.9235 2.3049
2.1512 -7.8949 2.3113
2.3286 -7.7988 2.2992
2.5158 -7.7392 2.2992
2.7014 -7.6751 2.2992
2.8853 -7.6064 2.2992
3.0675 -7.5332 2.2992
3.2479 -7.4556 2.2992
3.4262 -7.3737 2.2992
3.6024 -7.2874 2.2992
3.7765 -7.1968 2.2992
3.9482 -7.1020 2.2992
4.1175 -7.0030 2.2992
4.2843 -6.8999 2.2992
4.4485 -6.7928 2.2992
4.6100 -6.6818 2.2992
4.7687 -6.5668 2.2992
4.9245 -6.4480 2.2992
5.0772 -6.3255 2.2992
5.2269 -6.1993 2.2992
2.4450 -2.7617 1.0462
5.5168 -5.9362 2.2992
5.6567 -5.7995 2.2992
5.7932 -5.6595 2.2992
5.9262 -5.5162 2.2992
6.1823 -5.4820 2.3473
6.3108 -5.3294 2.3473
6.4354 -5.1736 2.3473
6.5561 -5.0150 2.3473
6.6729 -4.8535 2.3473
6.7857 -4.6893 2.3473
6.8944 -4.5224 2.3473
6.9990 -4.3530 2.3473
7.0993 -4.1811 2.3473
7.1955 -4.0069 2.3473
7.2873 -3.8305 2.3473
7.1930 -3.5619 2.2895
7.0582 -3.2854 2.2215
6.8624 -2.9948 2.1374
6.9732 -2.8447 2.1507
6.9721 -2.6497 2.1309
6.9711 -2.4583 2.1127
6.9701 -2.2702 2.0960
6.9229 -2.0713 2.0670
7.0028 -1.9121 2.0774
7.0836 -1.7515 2.0890
7.1391 -1.5832 2.0944
7.4909 -1.4723 2.1875
7.5941 -1.3029 2.2087
7.7362 -1.1356 2.2424
8.1213 -0.9924 2.3473
8.1394 -0.7955 2.3473
8.1527 -0.5984 2.3473
5.7071 -0.2804 1.6415
5.7070 -0.1423 1.6407
6.7013 -0.0051 1.9268
6.7011 0.1569 1.9281
6.7009 0.3190 1.9305
6.7007 0.4815 1.9340
6.7005 0.6446 1.9387
6.7002 0.8084 1.9446
6.7000 0.9732 1.9516
6.6998 1.1392 1.9598
5.8482 1.1405 1.7190
5.7391 1.2639 1.6961
5.7385 1.4100 1.7062
5.7390 1.5582 1.7178
6.6518 1.9799 2.0055
6.5993 2.1392 2.0056
6.5431 2.2972 2.0056
6.5081 2.4632 2.0133
6.5064 2.6442 2.0328
6.5046 2.8285 2.0538
6.1833 2.8685 1.9744
5.8047 2.8654 1.8758
5.7378 3.0071 1.8779
7.0767 3.9298 2.3473
6.9771 4.0982 2.3473
6.8735 4.2642 2.3473
6.7659 4.4276 2.3473
6.6546 4.5884 2.3473
6.5395 4.7464 2.3473
6.4206 4.9015 2.3473
6.2981 5.0537 2.3473
6.1721 5.2028 2.3473
6.0426 5.3489 2.3473
5.7885 5.3793 2.2992
5.6550 5.5161 2.2992
5.5184 5.6497 2.2992
5.3786 5.7798 2.2992
5.2358 5.9066 2.2992
5.0900 6.0299 2.2992
4.9413 6.1497 2.2992
4.7899 6.2659 2.2992
4.6358 6.3783 2.2992
4.4791 6.4871 2.2992
4.3199 6.5921 2.2992
4.1583 6.6932 2.2992
3.9943 6.7905 2.2992
3.8281 6.8837 2.2992
3.6597 6.9730 2.2992
3.4893 7.0582 2.2992
3.3170 7.1394 2.2992
3.1428 7.2164 2.2992
2.9668 7.2892 2.2992
2.7892 7.3578 2.2992
2.6100 7.4222 2.2992
2.4293 7.4822 2.2992
2.2473 7.5380 2.2992
2.0679 7.6032 2.3034
1.8855 7.6601 2.3064
1.7702 8.0233 2.4023
1.5754 8.0632 2.4023
1.3798 8.0984 2.4023
1.1833 8.1290 2.4023
0.9863 8.1550 2.4023
0.7886 8.1762 2.4023
0.5905 8.1927 2.4023
0.3921 8.2045 2.4023
0.1935 8.2116 2.4023
-0.0053 8.2139 2.4023
-0.2040 8.2116 2.4023
-0.4027 8.2045 2.4023
-0.6011 8.1927 2.4023
-0.7992 8.1761 2.4023
-0.9969 8.1549 2.4023
-1.1940 8.1290 2.4023
-1.3904 8.0984 2.4023
-1.5861 8.0631 2.4023
-1.7809 8.0231 2.4023
-1.9747 7.9786 2.4023
-2.1675 7.9294 2.4023
-2.3590 7.8757 2.4023
-2.5492 7.8174 2.4023
-2.7380 7.7546 2.4023
-2.9253 7.6873 2.4023
-3.1110 7.6156 2.4023
-3.2949 7.5394 2.4023
-3.4770 7.4589 2.4023
-3.6571 7.3741 2.4023
-3.8353 7.2849 2.4023
-4.0113 7.1916 2.4023
-4.1850 7.0940 2.4023
-4.3564 6.9923 2.4023
-4.5254 6.8866 2.4023
-4.6918 6.7768 2.4023
-4.8556 6.6630 2.4023
-5.0167 6.5454 2.4023
-5.1750 6.4239 2.4023
-5.3303 6.2986 2.4023
-5.4827 6.1696 2.4023
-5.6320 6.0370 2.4023
-5.7782 5.9008 2.4023
-5.9210 5.7611 2.4023
-6.0606 5.6180 2.4023
-6.1584 5.4378 2.3875
-6.1598 5.1794 2.3380
-6.1808 4.9469 2.2991
-6.3008 4.7976 2.2991
-6.4172 4.6455 2.2991
-6.5300 4.4905 2.2991
-6.6391 4.3329 2.2991
-6.7444 4.1726 2.2991
-6.8459 4.0098 2.2991
-6.9434 3.8446 2.2991
-7.0371 3.6770 2.2991
-7.1267 3.5071 2.2991
-7.2122 3.3351 2.2991
-7.2936 3.1610 2.2991
-7.3709 2.9850 2.2991
-7.4439 2.8071 2.2991
-7.5126 2.6274 2.2991
-7.5771 2.4460 2.2991
-7.6371 2.2631 2.2991
-7.6928 2.0787 2.2991
-7.7440 1.8929 2.2991
-7.7908 1.7059 2.2991
-7.8331 1.5178 2.2991
-7.8708 1.3286 2.2991
-7.9040 1.1385 2.2991
-7.9326 0.9475 2.2991
-7.9566 0.7559 2.2991
-7.9760 0.5636 2.2991
-7.9907 0.3709 2.2991
-8.0008 0.1778 2.2991
-8.0062 -0.0156 2.2991
-8.0069 -0.2092 2.2991
-8.0030 -0.4027 2.2991
-7.9943 -0.5962 2.2991
-7.9810 -0.7895 2.2991
-7.9630 -0.9825 2.2991
-7.9403 -1.1751 2.2991
-7.9130 -1.3672 2.2991
-7.8810 -1.5586 2.2991
-7.8443 -1.7492 2.2991
-7.8030 -1.9390 2.2991
-7.7571 -2.1278 2.2991
-7.7067 -2.3155 2.2991
-7.6516 -2.5020 2.2991
-7.5920 -2.6871 2.2991
-7.5279 -2.8708 2.2991
-7.4594 -3.0530 2.2991
-7.3864 -3.2335 2.2991
-7.3090 -3.4123 2.2991
-7.2272 -3.5892 2.2991
-7.1411 -3.7641 2.2991
-7.0508 -3.9369 2.2991
-6.9562 -4.1075 2.2991
-6.8575 -4.2759 2.2991
-6.7547 -4.4417 2.2991
-6.6478 -4.6052 2.2991
-6.5370 -4.7660 2.2991
-6.4222 -4.9241 2.2991
-6.3035 -5.0794 2.2991
-6.0872 -5.1528 2.3601
-6.0697 -5.3948 2.4023
-5.9395 -5.5414 2.4023
-5.8057 -5.6848 2.4023
-5.6684 -5.8250 2.4023
-5.5277 -5.9618 2.4023
-5.3836 -6.0951 2.4023
-5.2363 -6.2249 2.4023
-5.0859 -6.3511 2.4023
-4.9323 -6.4736 2.4023
-4.7758 -6.5924 2.4023
-4.6163 -6.7073 2.4023
-4.4541 -6.8182 2.4023
-4.2892 -6.9252 2.4023
-4.1216 -7.0282 2.4023
-3.9516 -7.1270 2.4023
-3.7791 -7.2216 2.4023
-3.6044 -7.3120 2.4023
-3.4275 -7.3981 2.4023
-3.2485 -7.4799 2.4023
-3.0675 -7.5572 2.4023
-2.8846 -7.6301 2.4023
-2.7000 -7.6985 2.4023
-2.5137 -7.7624 2.4023
-2.3260 -7.8216 2.4023
-2.1368 -7.8763 2.4023
-1.9463 -7.9263 2.4023
-1.7546 -7.9716 2.4023
-1.5618 -8.0122 2.4023
-1.3681 -8.0480 2.4023
-0.9431 -6.4929 1.9307
-0.7428 -6.1542 1.8240
-0.5925 -6.1539 1.8191
-0.4429 -6.1536 1.8153
-0.2939 -6.1533 1.8126
-0.1452 -6.1530 1.8109
0.0033 -6.1527 1.8103
0.1518 -6.1524 1.8108
0.3005 -6.1521 1.8124
0.4495 -6.1518 1.8151
0.5990 -6.1515 1.8188
0.7492 -6.1512 1.8236
0.9003 -6.1508 1.8296
1.3766 -8.0449 2.4023
1.5702 -8.0086 2.4023
1.7628 -7.9676 2.4023
1.9455 -7.8859 2.3914
2.0526 -7.5337 2.2992
2.2335 -7.4810 2.2992
2.4131 -7.4239 2.2992
2.5911 -7.3624 2.2992
2.7676 -7.2965 2.2992
2.9424 -7.2264 2.2992
3.1154 -7.1520 2.2992
3.2865 -7.0734 2.2992
3.4555 -6.9907 2.2992
3.6225 -6.9039 2.2992
3.7873 -6.8130 2.2992
3.9497 -6.7181 2.2992
4.1098 -6.6193 2.2992
4.2673 -6.5166 2.2992
4.4223 -6.4101 2.2992
4.5745 -6.2999 2.2992
4.7240 -6.1861 2.2992
4.8706 -6.0686 2.2992
5.0143 -5.9476 2.2992
2.4448 -2.7617 1.0904
5.2925 -5.6953 2.2992
5.4268 -5.5643 2.2992
5.5578 -5.4300 2.2992
5.6855 -5.2925 2.2992
5.8097 -5.1521 2.2992
5.9305 -5.0087 2.2992
6.1742 -4.9641 2.3473
6.2901 -4.8120 2.3473
6.4022 -4.6571 2.3473
6.5105 -4.4996 2.3473
6.6149 -4.3396 2.3473
6.7154 -4.1771 2.3473
6.8118 -4.0122 2.3473
6.9041 -3.8451 2.3473
6.9923 -3.6759 2.3473
7.0764 -3.5046 2.3473
7.0585 -3.2860 2.3153
6.8625 -2.9953 2.2275
6.8717 -2.8037 2.2087
6.9347 -2.6359 2.2087
6.9711 -2.4587 2.2016
6.9701 -2.2706 2.1842
6.9227 -2.0716 2.1539
7.0026 -1.9125 2.1646
7.0834 -1.7518 2.1768
7.1387 -1.5836 2.1823
7.2878 -1.4329 2.2175
7.4570 -1.2798 2.2599
7.7723 -1.1414 2.3473
7.7943 -0.9529 2.3473
7.8118 -0.7640 2.3473
7.8248 -0.5748 2.3473
5.7486 -0.2828 1.7227
6.0217 -0.1505 1.8036
6.6953 -0.0055 2.0056
6.6906 0.1562 2.0056
6.6821 0.3177 2.0056
6.6696 0.4789 2.0056
6.6533 0.6397 2.0056
6.6332 0.8000 2.0055
6.6091 0.9597 2.0055
6.5813 1.1187 2.0055
5.8495 1.1404 1.7911
5.7423 1.2643 1.7679
5.7418 1.4105 1.7784
5.7423 1.5587 1.7904
6.5131 1.9382 2.0456
6.5115 2.1104 2.0613
6.5098 2.2852 2.0784
6.5081 2.4629 2.0971
6.5064 2.6438 2.1173
6.5046 2.8282 2.1392
6.1843 2.8686 2.0568
5.8052 2.8653 1.9539
5.7414 3.0086 1.9571
6.7945 3.7726 2.3473
6.6989 3.9344 2.3473
6.5995 4.0939 2.3473
6.4964 4.2508 2.3473
6.3896 4.4052 2.3473
6.2791 4.5569 2.3473
6.1650 4.7059 2.3473
6.0475 4.8521 2.3473
5.8051 4.8931 2.2992
5.6834 5.0306 2.2992
5.5584 5.1650 2.2992
5.4303 5.2965 2.2992
5.2991 5.4247 2.2992
5.1649 5.5498 2.2992
5.0278 5.6716 2.2992
4.8879 5.7901 2.2992
4.7452 5.9051 2.2992
4.5998 6.0167 2.2992
4.4519 6.1248 2.2992
4.3014 6.2293 2.2992
4.1485 6.3302 2.2992
3.9933 6.4274 2.2992
3.8359 6.5208 2.2992
3.6763 6.6104 2.2992
3.5147 6.6962 2.2992
3.3510 6.7781 2.2992
3.1855 6.8561 2.2992
3.0182 6.9301 2.2992
2.8493 7.0000 2.2992
2.6787 7.0660 2.2992
2.5066 7.1278 2.2992
2.3331 7.1855 2.2992
2.1583 7.2391 2.2992
1.9824 7.2885 2.2992
1.8758 7.6203 2.3891
1.7001 7.7052 2.4023
1.5130 7.7436 2.4023
1.3251 7.7775 2.4023
1.1365 7.8069 2.4023
0.9472 7.8318 2.4023
0.7574 7.8521 2.4023
0.5671 7.8680 2.4023
0.3766 7.8793 2.4023
0.1858 7.8862 2.4023
-0.0051 7.8884 2.4023
-0.1960 7.8861 2.4023
-0.3867 7.8793 2.4023
-0.5773 7.8680 2.4023
-0.7676 7.8521 2.4023
-0.9574 7.8316 2.4023
-1.1467 7.8067 2.4023
-1.3354 7.7773 2.4023
-1.5233 7.7434 2.4023
-1.7104 7.7050 2.4023
-1.8966 7.6622 2.4023
-2.0816 7.6150 2.4023
-2.2656 7.5633 2.4023
-2.4483 7.5073 2.4023
-2.6296 7.4469 2.4023
-2.8094 7.3823 2.4023
-2.9877 7.3133 2.4023
-3.1643 7.2402 2.4023
-3.3392 7.1628 2.4023
-3.5122 7.0813 2.4023
-3.6832 6.9956 2.4023
-3.8522 6.9059 2.4023
-4.0190 6.8121 2.4023
-4.1836 6.7144 2.4023
-4.3458 6.6128 2.4023
-4.5056 6.5073 2.4023
-4.6628 6.3980 2.4023
-4.8175 6.2850 2.4023
-4.9694 6.1682 2.4023
-5.1186 6.0479 2.4023
-5.2648 5.9239 2.4023
-5.4081 5.7965 2.4023
-5.5484 5.6657 2.4023
-5.6855 5.5315 2.4023
-5.8194 5.3940 2.4023
-5.9501 5.2534 2.4023
-6.0773 5.1096 2.4023
-6.1556 4.9263 2.3847
-6.1567 4.6874 2.3397
-6.1655 4.4628 2.3006
-6.2697 4.3111 2.2991
-6.3744 4.1597 2.2991
-6.4754 4.0058 2.2991
-6.5727 3.8494 2.2991
-6.6663 3.6907 2.2991
-6.7561 3.5298 2.2991
-6.8420 3.3666 2.2991
-6.9241 3.2014 2.2991
-7.0021 3.0343 2.2991
-7.0762 2.8652 2.2991
-7.1462 2.6943 2.2991
-7.2121 2.5218 2.2991
-7.2738 2.3477 2.2991
-7.3313 2.1720 2.2991
-7.3847 1.9950 2.2991
-7.4338 1.8166 2.2991
-7.4785 1.6371 2.2991
-7.5190 1.4565 2.2991
-7.5551 1.2748 2.2991
-7.5868 1.0923 2.2991
-7.6142 0.9090 2.2991
-7.6371 0.7251 2.2991
-7.6555 0.5405 2.2991
-7.6696 0.3555 2.2991
-7.6791 0.1702 2.2991
-7.6842 -0.0154 2.2991
-7.6848 -0.2012 2.2991
-7.6808 -0.3869 2.2991
-7.6724 -0.5726 2.2991
-7.6595 -0.7582 2.2991
-7.6421 -0.9434 2.2991
-7.6202 -1.1282 2.2991
-7.5939 -1.3125 2.2991
-7.5630 -1.4961 2.2991
-7.5277 -1.6791 2.2991
-7.4880 -1.8612 2.2991
-7.4438 -2.0423 2.2991
-7.3953 -2.2224 2.2991
-7.3424 -2.4013 2.2991
-7.2851 -2.5789 2.2991
-7.2235 -2.7552 2.2991
-7.1576 -2.9299 2.2991
-7.0874 -3.1031 2.2991
-7.0130 -3.2746 2.2991
-6.9345 -3.4442 2.2991
-6.8518 -3.6120 2.2991
-6.7650 -3.7778 2.2991
-6.6742 -3.9414 2.2991
-6.5794 -4.1029 2.2991
-6.4807 -4.2620 2.2991
-6.3781 -4.4187 2.2991
-6.2716 -4.5729 2.2991
-6.1614 -4.7246 2.2991
-6.0905 -4.9082 2.3154
-5.9528 -5.0394 2.4023
-5.8311 -5.1832 2.4023
-5.7060 -5.3240 2.4023
-5.5774 -5.4617 2.4023
-5.4454 -5.5963 2.4023
-5.3102 -5.7277 2.4023
-5.1718 -5.8557 2.4023
-5.0302 -5.9803 2.4023
-4.8856 -6.1015 2.4023
-4.7381 -6.2191 2.4023
-4.5877 -6.3332 2.4023
-4.4345 -6.4435 2.4023
-4.2786 -6.5500 2.4023
-4.1201 -6.6527 2.4023
-3.9592 -6.7516 2.4023
-3.7958 -6.8464 2.4023
-3.6301 -6.9373 2.4023
-3.4623 -7.0241 2.4023
-3.2923 -7.1068 2.4023
-3.1203 -7.1852 2.4023
-2.9464 -7.2595 2.4023
-2.7708 -7.3295 2.4023
-2.5935 -7.3951 2.4023
-2.4145 -7.4564 2.4023
-2.2342 -7.5133 2.4023
-2.0524 -7.5658 2.4023
-1.8694 -7.6138 2.4023
-1.6853 -7.6573 2.4023
-1.5002 -7.6963 2.4023
-1.3141 -7.7307 2.4023
-0.9349 -6.4366 1.9925
-0.7428 -6.1541 1.8989
-0.5925 -6.1538 1.8938
-0.4429 -6.1535 1.8898
-0.2939 -6.1532 1.8870
-0.1452 -6.1529 1.8852
0.0033 -6.1526 1.8846
0.1518 -6.1523 1.8852
0.3005 -6.1520 1.8868
0.4495 -6.1517 1.8895
0.5990 -6.1514 1.8934
0.7492 -6.1511 1.8985
0.9002 -6.1508 1.9046
1.3222 -7.7277 2.4023
1.5082 -7.6929 2.4023
1.6932 -7.6535 2.4023
1.8772 -7.6096 2.4023
1.9716 -7.2368 2.2992
2.1508 -7.2044 2.3051
2.3179 -7.1314 2.2992
2.4889 -7.0723 2.2992
2.6584 -7.0091 2.2992
2.8263 -6.9418 2.2992
2.9925 -6.8704 2.2992
3.1569 -6.7950 2.2992
3.3193 -6.7156 2.2992
3.4797 -6.6322 2.2992
3.6380 -6.5449 2.2992
3.7941 -6.4538 2.2992
3.9479 -6.3590 2.2992
4.0993 -6.2604 2.2992
4.2481 -6.1582 2.2992
4.3944 -6.0524 2.2992
4.5381 -5.9430 2.2992
4.6790 -5.8302 2.2992
4.8171 -5.7141 2.2992
2.4445 -2.7616 1.1350
5.0844 -5.4718 2.2992
5.2135 -5.3460 2.2992
5.3394 -5.2170 2.2992
5.4621 -5.0851 2.2992
5.5816 -4.9502 2.2992
5.6976 -4.8125 2.2992
5.8103 -4.6720 2.2992
5.9194 -4.5289 2.2992
6.1511 -4.4749 2.3473
6.2552 -4.3236 2.3473
6.3556 -4.1699 2.3473
6.4522 -4.0138 2.3473
6.5449 -3.8555 2.3473
6.6337 -3.6950 2.3473
6.7185 -3.5324 2.3473
6.7994 -3.3679 2.3473
6.8762 -3.2015 2.3473
6.8626 -2.9957 2.3182
6.8283 -2.7864 2.2840
6.7949 -2.5832 2.2522
6.8129 -2.4033 2.2391
6.8396 -2.2285 2.2304
6.9225 -2.0720 2.2414
7.0025 -1.9129 2.2525
7.0832 -1.7522 2.2651
7.1384 -1.5839 2.2707
7.2875 -1.4332 2.3074
7.4437 -1.2780 2.3473
7.4694 -1.0973 2.3473
7.4908 -0.9162 2.3473
7.5077 -0.7346 2.3473
7.5202 -0.5528 2.3473
5.7519 -0.2833 1.7934
6.0066 -0.1505 1.8719
6.5204 -0.0057 2.0322
6.5202 0.1519 2.0335
6.5200 0.3096 2.0360
6.5198 0.4678 2.0397
6.5196 0.6265 2.0446
6.5194 0.7859 2.0507
6.5191 0.9462 2.0581
6.5189 1.1077 2.0667
5.8508 1.1403 1.8638
5.7456 1.2647 1.8402
5.7451 1.4110 1.8511
5.7456 1.5593 1.8636
6.5131 1.9378 2.1279
6.5115 2.1100 2.1443
6.4613 2.2678 2.1460
6.4021 2.4224 2.1459
6.3392 2.5755 2.1459
6.3193 2.7472 2.1618
6.1852 2.8686 2.1398
5.8057 2.8652 2.0326
5.7450 3.0101 2.0370
6.5323 3.6266 2.3473
6.4405 3.7822 2.3473
